# .PCD v0.7 - Point Cloud Data file format
VERSION 0.7
FIELDS x y z rgb
SIZE 4 4 4 4
TYPE F F F U
COUNT 1 1 1 1
WIDTH 1178
HEIGHT 1
VIEWPOINT 0 0 0 1 0 0 0
POINTS 1178
DATA ascii
-1.674636 -1.4250137 3.2705867 2039583
-1.6251007 -1.4250592 3.2581201 2039583
-1.596524 -1.4225148 3.2509332 2039583
-1.7703701 -1.3748682 3.2947931 2039583
-1.7248523 -1.3750317 3.2833347 2039583
-1.674916 -1.3750154 3.2707665 2039583
-1.6252919 -1.3750838 3.2582772 2039583
-1.5959675 -1.3750904 3.2508972 2039583
-1.7705179 -1.3250389 3.2949393 2039583
-1.7248391 -1.3250085 3.2834406 2039583
-1.6748117 -1.3249305 3.2708495 2039583
-1.625188 -1.3250227 3.2583599 2039583
-1.5960847 -1.32485 3.2510357 2039583
-1.7704272 -1.2750027 3.2950213 2039583
-1.7248248 -1.2749817 3.2835467 2039583
-1.6749868 -1.2749252 3.2710032 2039583
-1.6254897 -1.2749525 3.2585444 2039583
-1.5960346 -1.2750856 3.2511311 2039583
-0.78867441 -1.2632271 3.2541645 2960685
-1.7705319 -1.2251495 3.2951574 2039583
-1.7251248 -1.2250338 3.2837298 2039583
-1.6749821 -1.2249177 3.2711105 2039583
-1.6253065 -1.2249701 3.2586076 2039583
-1.5962055 -1.2248267 3.2512834 2039583
-0.78867847 -1.225485 3.2541807 2960685
-1.7690427 -1.1750709 3.2948892 2039583
-1.724936 -1.1749187 3.2837908 2039583
-1.6750085 -1.1750747 3.2712262 2039583
-1.6255616 -1.1749762 3.258781 2039583
-1.5961556 -1.1750556 3.2513795 2039583
-0.78868383 -1.1756107 3.2542033 2960685
-1.7691185 -1.1249487 3.2950168 2039583
-1.7250853 -1.1249617 3.2839382 2039583
-1.6752044 -1.125057 3.2713835 2039583
-1.625488 -1.1250709 3.2588708 2039583
-1.5957787 -1.1232373 3.2513969 2039583
-0.78868914 -1.1257358 3.254225 2960685
-1.7693433 -1.0749381 3.2951849 2039583
-1.7252373 -1.0750039 3.2840848 2039583
-1.6751627 -1.0749551 3.2714818 2039583
-1.6256174 -1.0750691 3.259012 2039583
-1.5947969 -1.0748713 3.2512555 2039583
-0.78869462 -1.0745122 3.2542479 2960685
-1.7692453 -1.0250343 3.2952681 2039583
-1.725266 -1.0249617 3.2842011 2039583
-1.6752954 -1.0249282 3.2716236 2039583
-1.6256638 -1.0250722 3.2591333 2039583
-1.5948578 -1.0250727 3.2513785 2039583
-0.78869998 -1.0246358 3.2542696 2960685
-1.769256 -0.97501445 3.2953804 2039583
-1.7252731 -0.97507596 3.2843118 2039583
-1.6753436 -0.97490472 3.2717454 2039583
-1.6257164 -0.97497946 3.2592547 2039583
-1.594982 -0.97492468 3.2515194 2039583
-0.78870535 -0.97475874 3.254292 2960685
-1.7696106 -0.92499048 3.2955801 2039583
-1.7253981 -0.92502701 3.2844524 2039583
-1.6753032 -0.92495304 3.2718437 2039583
-1.6258041 -0.92497087 3.2593858 2039583
-1.5949177 -0.92513692 3.2516119 2039583
-0.78871059 -0.92488122 3.2543139 2960685
-1.7682631 -0.87533355 3.2953475 2039583
-1.7254845 -0.87505269 3.2845819 2039583
-1.6755822 -0.87492311 3.2720232 2039583
-1.625867 -0.8750425 3.2595105 2039583
-1.5951236 -0.87496889 3.2517729 2039583
-0.78871602 -0.87500292 3.2543361 2960685
-1.7678056 -0.82498032 3.2953415 2039583
-1.7253556 -0.82498986 3.2846582 2039583
-1.6753449 -0.82504934 3.2720728 2039583
-1.6258923 -0.8250255 3.2596252 2039583
-1.5949173 -0.82486022 3.2518303 2039583
-0.78872132 -0.82512385 3.2543578 2960685
-1.7682495 -0.77510995 3.2955644 2039583
-1.7257771 -0.77492726 3.2848732 2039583
-1.6757686 -0.77509385 3.2722871 2039583
-1.6260276 -0.7750898 3.2597685 2039583
-1.5936921 -0.77484691 3.251631 2039583
-0.78872669 -0.77524418 3.25438 2960685
-1.7681284 -0.7249977 3.2956438 2039583
-1.725528 -0.72502726 3.2849202 2039583
-1.6755525 -0.72504568 3.272342 2039583
-1.6259124 -0.72498065 3.2598488 2039583
-1.5936192 -0.72504717 3.2517211 2039583
-0.78873211 -0.72536391 3.2544022 2960685
-1.7680086 -0.67488319 3.2957199 2039583
-1.7257224 -0.67503947 3.2850783 2039583
-1.6757754 -0.6750806 3.2725072 2039583
-1.6262821 -0.67495215 3.2600508 2039583
-1.5937481 -0.67495102 3.2518618 2039583
-0.78873742 -0.67548281 3.2544243 2960685
-1.7684054 -0.62512249 3.295929 2039583
-1.7258991 -0.62496167 3.2852321 2039583
-1.675792 -0.62502646 3.2726197 2039583
-1.6259431 -0.6249221 3.2600741 2039583
-1.5938089 -0.62512809 3.2519863 2039583
-0.78874272 -0.62560105 3.254446 2960685
-1.7676498 -0.57560235 3.2958465 2039583
-1.7255336 -0.57488519 3.2852488 2039583
-1.6756802 -0.57513928 3.2727008 2039583
-1.6251953 -0.5747354 3.2599957 2039583
-1.5927154 -0.57626045 3.2518172 2039583
-0.78874809 -0.5757187 3.2544687 2960685
-1.7666378 -0.52472687 3.2957022 2039583
-1.7261777 -0.52504945 3.2855194 2039583
-1.6761285 -0.52507281 3.2729225 2039583
-1.6244376 -0.52490026 3.2599123 2039583
-1.5923924 -0.52540839 3.2518466 2039583
-0.78875351 -0.52448738 3.2544911 2960685
-1.766886 -0.47517315 3.2958736 2039583
-1.7259376 -0.4749653 3.2855675 2039583
-1.6756917 -0.47501531 3.2729216 2039583
-1.6251479 -0.4749386 3.2602005 2039583
-1.5911883 -0.47464594 3.2516544 2039583
-0.78875887 -0.47460365 3.254513 2960685
-1.7671565 -0.42520282 3.2960482 2039583
-1.7258421 -0.42496261 3.2856538 2039583
-1.6763844 -0.4251022 3.2732048 2039583
-1.624562 -0.42499247 3.2601614 2039583
-1.5910451 -0.42461029 3.2517271 2039583
-0.78876424 -0.42471921 3.254535 2960685
-1.7668161 -0.37471718 3.2960742 2039583
-1.7264365 -0.37519383 3.2859116 2039583
-1.6757752 -0.37496024 3.2731605 2039583
-1.6252909 -0.37493861 3.2604551 2039583
-1.5909725 -0.37479967 3.2518177 2039583
-0.7887696 -0.37483415 3.2545574 2960685
-1.7670877 -0.32501203 3.2962515 2039583
-1.7258675 -0.32485646 3.2858763 2039583
-1.676432 -0.32512102 3.2734344 2039583
-1.6246656 -0.32499066 3.2604065 2039583
-1.5911006 -0.32468656 3.2519593 2039583
-0.78877497 -0.32494825 3.2545791 2960685
-1.7671294 -0.27567178 3.2963681 2039583
-1.7262487 -0.27499953 3.2860823 2039583
-1.6759906 -0.27497119 3.2734327 2039583
-1.6254145 -0.27500284 3.2607036 2039583
-1.5911609 -0.27484879 3.2520826 2039583
-0.78878027 -0.27506182 3.2546015 2960685
-1.7654749 -0.22487134 3.2960637 2039583
-1.726604 -0.22505103 3.2862797 2039583
-1.6763041 -0.2251327 3.2736204 2039583
-1.6247892 -0.22505254 3.2606552 2039583
-1.591222 -0.22500736 3.2522063 2039583
-0.78878564 -0.22517468 3.2546237 2960685
-1.7657118 -0.17479534 3.2962327 2039583
-1.7260871 -0.17470731 3.2862597 2039583
-1.6763682 -0.17495909 3.2737458 2039583
-1.6255387 -0.17505169 3.260952 2039583
-1.5902801 -0.17412214 3.2520807 2039583
-0.78879094 -0.17528684 3.2546453 2960685
-1.7647758 -0.12502217 3.2961063 2039583
-1.7255106 -0.12563169 3.286222 2039583
-1.6756312 -0.12440503 3.2736702 2039583
-1.6241764 -0.12547301 3.2607172 2039583
-1.589807 -0.12529805 3.2520685 2039583
-0.78879642 -0.12539835 3.2546673 2960685
-1.7642692 -0.075103953 3.2960851 2039583
-1.7249424 -0.074878432 3.2861888 2039583
-1.674942 -0.074591696 3.2736053 2039583
-1.6241012 -0.075041331 3.2608087 2039583
-1.5898676 -0.075451128 3.2521918 2039583
-0.78880167 -0.075509191 3.2546895 2960685
-1.7643368 -0.024580326 3.2962117 2039583
-1.7250086 -0.024506509 3.2863145 2039583
-1.6750059 -0.024412662 3.2737303 2039583
-1.623505 -0.025093142 3.260767 2039583
-1.5899284 -0.025600346 3.2523155 2039583
-0.78880703 -0.025619345 3.2547119 2960685
-1.7644031 0.02458155 3.2963383 2039583
-1.7240921 0.024878277 3.2861927 2039583
-1.6741376 0.024057435 3.2736168 2039583
-1.6235666 0.025094422 3.2608919 2039583
-1.5899907 0.025601678 3.2524428 2039583
-0.78881246 0.025619581 3.2547343 2960685
-1.7631638 0.074728221 3.2961364 2302755
-1.7235732 0.074878342 3.2861707 2236962
-1.6735734 0.074591622 3.2735865 2171169
-1.6242869 0.075050212 3.2611828 2105376
-1.5900512 0.075460114 3.2525661 2039583
-0.78881788 0.0755108 3.254756 2960685
-2.6036959 0.10995796 3.2767193 10197915
-2.5749924 0.10994955 3.2764697 10197915
-2.5244296 0.10993481 3.2760298 10197915
-2.4752467 0.10992047 3.2756023 10197915
-2.4247108 0.10990573 3.2751629 10197915
-2.3741884 0.10989097 3.2747235 10197915
-2.3250444 0.10987665 3.2742963 10197915
-2.2759135 0.1098623 3.2738686 10197915
-2.2254322 0.10984764 3.2734318 10197915
-2.1749642 0.10983297 3.2729948 10197915
-2.1258726 0.10981865 3.2725677 10197915
-2.0754304 0.10980393 3.27213 10197915
-2.0250018 0.10978922 3.2716908 10197915
-1.9745867 0.10977452 3.2712529 10197915
-1.9241848 0.10975982 3.2708147 10197915
-1.8751583 0.10974551 3.2703884 10197915
-1.8247833 0.10973081 3.2699506 10197915
-1.7675284 0.10697498 3.2854905 10197915
-1.7241093 0.10616002 3.2815664 10197915
-1.6740286 0.10592078 3.2722299 10197915
-1.6239945 0.10538314 3.2611742 10197915
-1.5900871 0.10510733 3.2526398 10197915
-0.77419341 0.10847926 3.2594428 9671571
-0.72534859 0.10941003 3.2603915 10197915
-0.67528081 0.10939541 3.2599554 10197915
-0.62522674 0.1093808 3.2595208 10197915
-0.57518589 0.10936621 3.2590854 10197915
-0.52515835 0.10935162 3.2586503 10197915
-0.47514412 0.10933703 3.2582157 10197915
-0.42514339 0.10932245 3.2577813 10197915
-0.39001516 0.10931218 3.2574756 10197915
-1.9690545 -1.4733014 3.3443606 2960685
-1.9256952 -1.4707285 3.3334537 2960685
-1.8758043 -1.4678489 3.3209038 6316128
-1.8264976 -1.4651853 3.3085015 5066061
-1.7954829 -1.4631884 3.3007615 2039583
-1.9688457 -1.4252291 3.3444126 2960685
-1.9251049 -1.4250078 3.3334053 2960685
-1.8751873 -1.424947 3.3208418 2960685
-1.8256426 -1.4251039 3.3083723 2302755
-1.7955202 -1.4249288 3.3008299 2039583
-1.9689051 -1.3751497 3.3445358 2960685
-1.9251558 -1.3750001 3.3335273 2960685
-1.8751657 -1.3749241 3.3209455 2960685
-1.8256239 -1.3751297 3.3084767 2302755
-1.7956269 -1.3752701 3.3009338 2039583
-1.9690285 -1.3251934 3.3446774 2960685
-1.9251245 -1.3249025 3.3336277 2960685
-1.8753545 -1.3249834 3.3211017 2960685
-1.8259277 -1.3250635 3.3086624 2302755
-1.7955779 -1.3247403 3.3010249 2039583
-1.9691207 -1.275106 3.3448093 2960685
-1.9253415 -1.274886 3.3337922 2960685
-1.8754729 -1.2751311 3.3212399 2960685
-1.8259164 -1.2749956 3.3087695 2302755
-1.7957032 -1.2746345 3.3011658 2039583
-1.9690975 -1.2248904 3.3449128 2960685
-1.9254038 -1.2250381 3.3339164 2960685
-1.8754865 -1.2250943 3.3213525 2960685
-1.8258176 -1.2249248 3.3088536 2302755
-1.7955502 -1.2246472 3.3012443 2039583
-1.9692556 -1.174922 3.3450601 2960685
-1.9254664 -1.1751868 3.3340397 2960685
-1.8755453 -1.174963 3.3214769 2960685
-1.8260498 -1.1749341 3.3090212 2302755
-1.7943524 -1.1751 3.3010955 2039583
-1.9693956 -1.1249493 3.345206 2960685
-1.9256127 -1.1252441 3.3341854 2960685
-1.8745407 -1.1244237 3.3213341 2960685
-1.8251146 -1.1255327 3.308892 2302755
-1.7942958 -1.1245607 3.3011959 2039583
-1.9694057 -1.0749726 3.3453159 2960685
-1.9256136 -1.0751272 3.3342955 2960685
-1.8741329 -1.0748183 3.3213398 2960685
-1.8245914 -1.0751795 3.3088694 2236962
-1.794427 -1.0750146 3.3013339 2039583
-1.9691446 -1.0245938 3.3453603 2960685
-1.9253643 -1.0252904 3.334341 2960685
-1.8741596 -1.0249765 3.3214536 2960685
-1.8246381 -1.0249602 3.3089914 2236962
-1.7945601 -1.0254649 3.3014746 2039583
-1.9679308 -0.97495222 3.3451631 2960685
-1.9240642 -0.9749195 3.3341234 2960685
-1.8741872 -0.97513199 3.3215704 2960685
-1.8247534 -0.97491264 3.3091297 2236962
-1.7945015 -0.97491395 3.3015718 2039583
-1.9680432 -0.92498082 3.3453009 2960685
-1.9242806 -0.9248597 3.3342872 2960685
-1.8743697 -0.92511141 3.3217244 2960685
-1.8247187 -0.92504442 3.3092289 2236962
-1.7946339 -0.92467338 3.3017135 2039583
-1.9680811 -0.8750065 3.3454187 2960685
-1.9243428 -0.87497962 3.3344109 2960685
-1.8743533 -0.87491912 3.3218303 2960685
-1.8247657 -0.87508267 3.3093498 2236962
-1.7934297 -0.87449586 3.3015471 2039583
-1.9666575 -0.82519746 3.3451688 2960685
-1.9244158 -0.8250041 3.3345385 2960685
-1.8745353 -0.82489038 3.321985 2960685
-1.8250217 -0.82502824 3.3095233 2302755
-1.7932733 -0.8250578 3.3016195 2039583
-1.9666033 -0.7750966 3.345264 2960685
-1.9244537 -0.77502418 3.3346565 2960685
-1.8745567 -0.77494389 3.3220994 2960685
-1.8250676 -0.7749663 3.3096435 2236962
-1.7932074 -0.77449495 3.3017159 2039583
-1.9666945 -0.7251054 3.3453951 2960685
-1.9244909 -0.72504187 3.3347743 2960685
-1.8745669 -0.72499412 3.3222103 2960685
-1.8249508 -0.72490185 3.3097234 2236962
-1.7933437 -0.72499728 3.301856 2039583
-1.9667534 -0.67498529 3.3455193 2960685
-1.9245168 -0.67496377 3.3348899 2960685
-1.8744637 -0.6749565 3.3222938 2960685
-1.8249273 -0.67492652 3.3098271 2236962
-1.7934809 -0.67549539 3.3019979 2039583
-1.9668123 -0.62486142 3.3456435 2960685
-1.9244617 -0.62479126 3.3349853 2960685
-1.8746718 -0.625 3.3224545 2960685
-1.8253586 -0.62512589 3.3100431 2302755
-1.7934144 -0.6249221 3.3020935 2039583
-1.9668711 -0.57473385 3.3457675 2960685
-1.9247475 -0.57479489 3.3351657 2960685
-1.8749819 -0.57520896 3.3226411 2960685
-1.8254499 -0.57513964 3.3101745 2236962
-1.7926952 -0.57343858 3.3020349 2039583
-1.9661556 -0.52519345 3.345695 2960685
-1.9248205 -0.52507323 3.3352923 2960685
-1.875074 -0.52515686 3.3227732 2960685
-1.8252306 -0.52488154 3.3102303 2236962
-1.7920474 -0.52530187 3.3019865 2039583
-1.9653635 -0.47444797 3.3456066 2960685
-1.924894 -0.47534752 3.3354187 2960685
-1.8749865 -0.47501799 3.3228598 2960685
-1.8250229 -0.47463307 3.3102868 2236962
-1.7920862 -0.47557434 3.3021047 2039583
-1.9654207 -0.42429069 3.3457301 2960685
-1.9250513 -0.42552376 3.3355677 2960685
-1.8748506 -0.42479235 3.3229356 2960685
-1.823895 -0.42511517 3.3101108 2236962
-1.7905122 -0.42461815 3.3018436 2039583
-1.9655772 -0.37426227 3.3458776 2960685
-1.9251714 -0.37551188 3.3357065 2960685
-1.8749593 -0.37464473 3.3230715 2960685
-1.8242636 -0.37532446 3.3103113 2236962
-1.790682 -0.3748253 3.3019917 2039583
-1.965652 -0.32437313 3.3460059 2960685
-1.9252214 -0.32531413 3.3358293 2960685
-1.8751844 -0.32491925 3.3232365 2960685
-1.8239492 -0.32486221 3.3103414 2236962
-1.7907491 -0.3255904 3.3021169 2039583
-1.9657267 -0.2744799 3.3461328 2960685
-1.925164 -0.27493262 3.3359241 2960685
-1.8752562 -0.27536571 3.3233631 2960685
-1.8238915 -0.27456307 3.310437 2236962
-1.7905304 -0.27430871 3.3021767 2039583
-1.9656372 -0.22482964 3.3462191 2960685
-1.9249687 -0.22437017 3.3359847 2960685
-1.8754101 -0.22571917 3.3235102 2960685
-1.8241738 -0.22493379 3.3106167 2236962
-1.7893137 -0.22434779 3.3019912 2039583
-1.9642483 -0.17466095 3.345979 2960685
-1.9253364 -0.17414978 3.3361876 2960685
-1.8756412 -0.17529029 3.3236775 2960685
-1.8242429 -0.17556471 3.3107412 2236962
-1.7893813 -0.17510729 3.3021152 2039583
-1.9643234 -0.12476249 3.3461065 2960685
-1.9254094 -0.12439734 3.336313 2960685
-1.8751433 -0.124459 3.3236625 2960685
-1.8245195 -0.12506789 3.3109214 2236962
-1.789448 -0.12586305 3.3022394 2039583
-1.964398 -0.074860305 3.3462336 2960685
-1.9254831 -0.074641176 3.3364401 2960685
-1.8755438 -0.074360043 3.3238719 2960685
-1.8241704 -0.074339062 3.3109429 2236962
-1.7895172 -0.075247042 3.3023679 2039583
-1.964473 -0.024954272 3.3463609 2960685
-1.9255561 -0.024881229 3.3365672 2960685
-1.8756144 -0.024787517 3.3239982 2960685
-1.8244534 -0.024691502 3.3111231 2236962
-1.7895869 -0.024627158 3.3024938 2039583
-1.9645473 0.024955537 3.3464887 2960685
-1.9256296 0.024882503 3.3366935 2960685
-1.8756853 0.02478876 3.3241246 2960685
-1.8245215 0.024692738 3.3112471 2236962
-1.7896538 0.024628399 3.3026185 2039583
-1.9646223 0.074869171 3.346616 7697781
-1.9257026 0.074650034 3.3368204 7829367
-1.8757564 0.074368797 3.32425 7960953
-1.8244373 0.074259296 3.3113341 3618615
-1.7883654 0.075753279 3.3024147 2368548
-2.0650713 0.10963751 3.3498833 10197915
-2.0260024 0.10962614 3.3495359 10197915
-1.9692123 0.10614419 3.3471298 10197915
-1.9257473 0.10506521 3.3368979 10197915
-1.8757998 0.10466943 3.324326 10197915
-1.8253512 0.10440215 3.3116298 9934743
-1.7881873 0.1053483 3.3024361 10197915
-0.80361849 0.10926998 3.3386538 10197915
-0.77451265 0.10926153 3.3383951 10197915
-0.72462624 0.109247 3.3379512 10197915
-0.67475295 0.10923246 3.3375072 10197915
-0.62489301 0.10921793 3.3370633 10197915
-0.57504642 0.10920343 3.3366201 10197915
-0.52521294 0.10918889 3.3361766 10197915
-0.47539282 0.10917439 3.3357327 10197915
-0.42558587 0.10915987 3.3352897 10197915
-0.39515433 0.10915102 3.3350186 10197915
-1.9860697 -0.82301825 3.3500588 2960685
-1.986137 -0.77863216 3.3501725 2960685
-1.9832785 -0.51212722 3.350033 2960685
-1.9833353 -0.47466797 3.3501291 2960685
-1.9834112 -0.42471901 3.3502569 2960685
-1.9834867 -0.37476641 3.3503847 2960685
-1.9835625 -0.32480991 3.3505125 2960685
-1.9836382 -0.27484962 3.3506401 2960685
-1.9833912 -0.2226598 3.350692 2960685
-1.9821589 -0.17489617 3.3504858 2960685
-1.9822341 -0.12493055 3.3506131 2960685
-1.9823098 -0.074961118 3.3507411 2960685
-1.9823854 -0.024987893 3.3508692 2960685
-1.9824613 0.024989162 3.350997 2960685
-1.9825369 0.074970029 3.3511248 7631988
-2.659081 0.10981043 3.3551669 10197915
-2.6240876 0.10980025 3.3548555 10197915
-2.5751071 0.10978597 3.3544199 10197915
-2.5261393 0.10977171 3.3539839 10197915
-2.4757857 0.10975704 3.3535354 10197915
-2.425446 0.10974237 3.3530874 10197915
-2.3751194 0.10972771 3.3526392 10197915
-2.3248062 0.10971306 3.3521917 10197915
-2.2745082 0.10969848 3.3517463 10197915
-2.2242227 0.10968386 3.3513 10197915
-2.1739497 0.10966923 3.3508525 10197915
-2.1250861 0.10965499 3.3504179 10197915
-2.0901914 0.10964483 3.350107 10197915
-1.9825808 0.10412714 3.3511992 10197915
-2.7171834 0.10965571 3.4374638 10197915
-2.6755896 0.10964362 3.4370842 10197915
-2.6254015 0.10962901 3.4366267 10197915
-2.5752275 0.10961442 3.4361694 10197915
-2.5250666 0.10959982 3.4357116 10197915
-2.4749193 0.10958523 3.4352546 10197915
-2.4247849 0.10957066 3.4347975 10197915
-2.3746641 0.10955608 3.4343405 10197915
-2.324559 0.1095416 3.4338868 10197915
-2.2744648 0.10952705 3.4334304 10197915
-2.2243843 0.10951249 3.4329739 10197915
-2.1743164 0.10949793 3.4325173 10197915
-2.1256921 0.10948378 3.4320743 10197915
-2.0756507 0.10946924 3.431618 10197915
-2.0413439 0.10945925 3.4313049 10197915
-0.81330633 0.10910205 3.4201074 9605778
-0.77497083 0.10909089 3.4197576 10197915
-0.72528803 0.10907643 3.4193048 10197915
-0.67419934 0.10906157 3.4188392 10197915
-0.62454313 0.10904712 3.4183862 10197915
-0.57490021 0.1090327 3.4179335 10197915
-0.52527028 0.10901826 3.4174807 10197915
-0.47565359 0.10900381 3.4170282 10197915
-0.42463297 0.10898898 3.4165633 10197915
-2.8017406 0.10950002 3.5241189 10197915
-2.7752664 0.10949233 3.5238712 10197915
-2.7252681 0.10947782 3.5234041 10197915
-2.6752834 0.1094633 3.5229368 10197915
-2.6253121 0.10944879 3.5224698 10197915
-2.5753541 0.10943428 3.5220029 10197915
-2.5254087 0.10941976 3.5215359 10197915
-2.4754772 0.10940528 3.5210698 10197915
-2.4255595 0.1093908 3.5206046 10197915
-2.3756561 0.10937641 3.5201399 10197915
-2.3257642 0.10936192 3.5196741 10197915
-2.2758851 0.10934743 3.5192082 10197915
-2.2260196 0.10933296 3.5187421 10197915
-2.176167 0.10931849 3.5182765 10197915
-2.126328 0.10930402 3.5178108 10197915
-2.0926201 0.10929423 3.5174954 10197915
-0.82347858 0.10892566 3.5056338 5131854
-0.77399677 0.10891129 3.5051711 10197915
-0.72452813 0.10889691 3.5047092 10197915
-0.67507249 0.10888256 3.504247 10197915
-0.6256299 0.1088682 3.5037849 10197915
-0.57474673 0.10885343 3.503309 10197915
-0.52387732 0.10883866 3.5028338 10197915
-0.47447458 0.10882431 3.502372 10197915
-0.42944208 0.10881124 3.5019512 10197915
-0.85955155 0.10874741 3.5957844 2960685
-0.82521349 0.10873745 3.5954554 6645093
-0.77595645 0.10872316 3.5949833 10197915
-0.72522008 0.10870848 3.594497 10197915
-0.67449749 0.10869377 3.5940111 10197915
-0.62527984 0.1086795 3.593539 10197915
-0.57607514 0.10866524 3.5930672 10197915
-0.52539295 0.10865054 3.5925815 10197915
-0.47472438 0.10863586 3.5920959 10197915
-0.43449697 0.1086242 3.5917103 10197915
-2.8635058 0.1093284 3.6149955 10197915
-2.8257823 0.10931747 3.6146336 10197915
-2.7744899 0.1093026 3.6141422 10197915
-2.7247193 0.10928817 3.6136653 10197915
-2.6749623 0.10927375 3.6131883 10197915
-2.6252174 0.10925934 3.6127117 10197915
-2.5754864 0.10924491 3.6122348 10197915
-2.5242627 0.10923005 3.6117439 10197915
-2.4745567 0.1092156 3.6112654 10197915
-2.424865 0.10920118 3.6107886 10197915
-2.3751874 0.10918679 3.6103129 10197915
-2.3255217 0.10917239 3.6098368 10197915
-2.2743659 0.10915756 3.6093466 10197915
-2.2247272 0.10914318 3.608871 10197915
-2.1751018 0.10912877 3.6083953 10197915
-2.1435285 0.10911964 3.6080928 10197915
-0.87147748 0.1085524 3.6904447 2960685
-0.82550913 0.1085391 3.6899924 9803157
-0.774957 0.10852448 3.6894951 10197915
-0.7244184 0.10850985 3.688998 10197915
-0.6754244 0.10849567 3.6885159 10197915
-0.62491256 0.10848106 3.6880193 10197915
-0.57441437 0.10846644 3.6875224 10197915
-0.52545947 0.10845229 3.6870406 10197915
-0.47498816 0.10843766 3.6865444 10197915
-0.43981871 0.10842749 3.6861985 10197915
-2.9502325 0.10915399 3.7108967 10197915
-2.9238935 0.10914636 3.7106371 10197915
-2.8743224 0.10913202 3.7101498 10197915
-2.8247652 0.10911768 3.7096624 10197915
-2.7752206 0.10910334 3.7091751 10197915
-2.7256894 0.109089 3.7086878 10197915
-2.6761711 0.10907469 3.7082007 10197915
-2.6251187 0.10905991 3.7076983 10197915
-2.5740795 0.10904512 3.7071955 10197915
-2.5245998 0.10903075 3.7067072 10197915
-2.4751344 0.10901644 3.7062209 10197915
-2.4256821 0.10900214 3.7057345 10197915
-2.3762422 0.10898784 3.7052484 10197915
-2.3252714 0.10897309 3.7047465 10197915
-2.2743139 0.10895833 3.7042456 10197915
-2.2249143 0.10894407 3.7037601 10197915
-2.1971321 0.10893603 3.7034864 10197915
-0.9092325 0.10835411 3.7904778 2960685
-0.8761785 0.10834457 3.7901437 5723991
-0.82582086 0.10833004 3.7896357 10197915
-0.77547669 0.10831549 3.7891271 10197915
-0.72514606 0.10830095 3.7886176 10197915
-0.67482901 0.10828643 3.7881095 10197915
-0.62452537 0.10827189 3.7876015 10197915
-0.57423532 0.10825738 3.7870929 10197915
-0.52395868 0.10824285 3.7865856 10197915
-0.47369564 0.10822834 3.7860775 10197915
-0.44542801 0.10822019 3.7857924 10197915
-3.0162141 0.1089627 3.8117671 10197915
-2.9748297 0.10895074 3.8113492 10197915
-2.9239073 0.10893605 3.8108344 10197915
-2.8745887 0.1089218 3.8103364 10197915
-2.8252838 0.10890755 3.8098383 10197915
-2.7744012 0.10889287 3.809324 10197915
-2.7251222 0.10887863 3.8088267 10197915
-2.6758564 0.1088644 3.8083286 10197915
-2.6250124 0.10884966 3.8078127 10197915
-2.5741842 0.10883497 3.8072989 10197915
-2.5249579 0.10882076 3.8068018 10197915
-2.4757438 0.10880655 3.8063047 10197915
-2.4249558 0.10879189 3.8057916 10197915
-2.3741815 0.10877721 3.8052783 10197915
-2.325007 0.10876302 3.8047819 10197915
-2.2774312 0.10874929 3.8043017 10197915
-0.92158478 0.10813688 3.8957994 2960685
-0.87467015 0.10812335 3.8953123 9342606
-0.82453251 0.1081089 3.8947918 10197915
-0.77440864 0.10809447 3.8942711 10197915
-0.72429782 0.10808001 3.8937514 10197915
-0.67581648 0.10806604 3.8932474 10197915
-0.62573224 0.10805159 3.8927279 10197915
-0.57566124 0.10803717 3.8922076 10197915
-0.52560377 0.10802273 3.8916883 10197915
-0.4771736 0.10800878 3.891185 10197915
-3.1087921 0.10876713 3.9185054 10197915
-3.0760579 0.1087577 3.9181659 10197915
-3.0253303 0.10874307 3.917639 10197915
-2.9746165 0.10872845 3.9171126 10197915
-2.9255514 0.10871432 3.9166028 10197915
-2.8748643 0.10869971 3.9160764 10197915
-2.8241913 0.10868511 3.9155505 10197915
-2.7751651 0.10867096 3.9150412 10197915
-2.7245207 0.10865646 3.9145181 10197915
-2.6738887 0.10864191 3.9139943 10197915
-2.6249018 0.10862779 3.9134858 10197915
-2.5759282 0.10861369 3.9129777 10197915
-2.5253353 0.10859911 3.9124527 10197915
-2.4747553 0.10858454 3.911927 10197915
-2.4258204 0.10857043 3.9114187 10197915
-2.3752677 0.10855587 3.9108946 10197915
-2.3328786 0.10854365 3.9104545 10197915
-3.2033415 0.10855954 4.0313663 10197915
-3.1747086 0.1085513 4.0310597 10197915
-3.1241896 0.10853677 4.0305209 10197915
-3.0736845 0.10852225 4.0299807 10197915
-3.0248752 0.10850821 4.0294595 10197915
-2.9760792 0.10849417 4.0289388 10197915
-2.9256134 0.10847965 4.028399 10197915
-2.8751612 0.10846515 4.0278606 10197915
-2.8247247 0.1084507 4.0273242 10197915
-2.7743013 0.10843627 4.0267887 10197915
-2.7238891 0.10842177 4.0262499 10197915
-2.6751707 0.10840777 4.0257297 10197915
-2.6264648 0.10839377 4.0252104 10197915
-2.5760927 0.10837927 4.024672 10197915
-2.5257339 0.1083648 4.0241342 10197915
-2.4753883 0.10835031 4.0235968 10197915
-2.4250572 0.10833585 4.0230594 10197915
-2.3915095 0.10832621 4.0227013 10197915
-0.95960784 0.10791437 4.0074077 2960685
-0.9246577 0.10790432 4.0070343 5921370
-0.87473923 0.10788997 4.0065017 10197915
-0.82483411 0.10787561 4.0059681 10197915
-0.77494228 0.10786127 4.0054355 10197915
-0.72506362 0.10784693 4.0049033 10197915
-0.67519838 0.10783257 4.0043697 10197915
-0.6253463 0.10781824 4.0038381 10197915
-0.57550758 0.10780391 4.0033064 10197915
-0.52568209 0.10778958 4.0027742 10197915
-0.48417059 0.10777764 4.0023298 10197915
-3.2589614 -1.8522042 4.1460404 2960685
-3.2627199 -1.8233342 4.1311288 2960685
-3.263011 -1.7750263 4.1300139 2960685
-3.26299 -1.7250134 4.1301451 2960685
-3.2630193 -1.6750009 4.1300683 2960685
-3.2629921 -1.6249902 4.1302161 2960685
-3.2630229 -1.5749791 4.1301408 2960685
-3.2630446 -1.5249661 4.1300998 2960685
-3.2630267 -1.474954 4.1302147 2960685
-3.263025 -1.4248102 4.1302609 2960685
-3.2634325 -1.3749837 4.1286893 2960685
-3.2634594 -1.3248589 4.1286259 2960685
-3.2634804 -1.2749778 4.1285787 2960685
-3.2635055 -1.2249476 4.1285276 2960685
-3.2634919 -1.1750659 4.1286306 2960685
-3.2634926 -1.1250379 4.1286688 2960685
-3.2635334 -1.0750103 4.1285353 2960685
-3.2635114 -1.0251235 4.1286793 2960685
-3.2635245 -0.97495437 4.1286712 2960685
-3.2635484 -0.92492849 4.1286187 2960685
-3.2635422 -0.87503767 4.128684 2960685
-3.2635481 -0.82515633 4.1287122 2960685
-3.2635746 -0.77498209 4.1286469 2960685
-3.2635782 -0.72495341 4.1286664 2960685
-3.2635529 -0.67506498 4.1288095 2960685
-3.2636287 -0.62503958 4.1285682 2960685
-3.2635975 -0.57486326 4.1287293 2960685
-3.2636092 -0.52497506 4.1287179 2960685
-3.263586 -0.47509077 4.1288586 2960685
-3.263675 -0.4249121 4.128552 2960685
-3.2635732 -0.37502804 4.128994 2960685
-3.2636423 -0.32513756 4.1287632 2960685
-3.2637041 -0.27496958 4.1285686 2960685
-3.2635658 -0.22477883 4.1291561 2960685
-3.2637389 -0.17519936 4.1285062 2960685
-3.2636654 -0.12486892 4.1288481 2960685
-3.2636745 -0.075263649 4.1288619 2960685
-3.26368 -0.025658114 4.1288714 2960685
-3.2636886 0.025658207 4.1288829 2960685
-3.2636995 0.07526423 4.128891 2960685
-3.2637024 0.10434373 4.1288972 6579300
-3.2098396 0.10831275 4.1498899 10197915
-3.1751633 0.10830279 4.149509 10197915
-3.1248934 0.10828837 4.1489563 10197915
-3.0746367 0.10827395 4.1484036 10197915
-3.0243936 0.10825954 4.1478515 10197915
-2.9758961 0.10824561 4.1473179 10197915
-2.9256804 0.10823124 4.1467681 10197915
-2.875479 0.10821693 4.1462197 10197915
-2.825289 0.10820254 4.1456676 10197915
-2.7751122 0.10818813 4.1451163 10197915
-2.7249489 0.10817374 4.1445646 10197915
-2.6747987 0.10815937 4.1440139 10197915
-2.6246622 0.10814498 4.1434622 10197915
-2.5745387 0.10813061 4.1429114 10197915
-2.5244288 0.1081162 4.1423607 10197915
-2.476059 0.10810236 4.1418295 10197915
-0.97417009 0.10767138 4.1253171 2960685
-0.92448485 0.10765712 4.1247711 9803157
-0.87481242 0.10764287 4.1242251 10197915
-0.82515341 0.10762863 4.1236792 10197915
-0.77550733 0.10761438 4.1231327 10197915
-0.7258746 0.10760012 4.1225877 10197915
-0.6745441 0.10758542 4.1220231 10197915
-0.62493771 0.10757117 4.1214776 10197915
-0.57534486 0.10755696 4.1209326 10197915
-0.52405554 0.10754223 4.1203685 10197915
-0.48987001 0.10753243 4.1199927 10197915
-3.2531791 -1.8576386 4.1690092 2960685
-3.2477546 -1.8623511 4.1905613 2960685
-3.2538183 -1.825123 4.1664982 2960685
-3.2479017 -1.8247823 4.1900053 2960685
-3.2537878 -1.7750649 4.1666641 2960685
-3.2478752 -1.7747953 4.1901569 2960685
-3.2538342 -1.7250165 4.1665206 2960685
-3.2479064 -1.7248052 4.190074 2960685
-3.2538354 -1.6749561 4.1665568 2960685
-3.24788 -1.6748136 4.1902256 2960685
-3.2538199 -1.6249069 4.1666708 2960685
-3.2479112 -1.624824 4.1901417 2960685
-3.2538788 -1.5750387 4.1664767 2960685
-3.2479434 -1.5748367 4.1900587 2960685
-3.2538095 -1.5249861 4.1667929 2960685
-3.2479162 -1.5248406 4.1902103 2960685
-3.2538946 -1.4749315 4.1664972 2960685
-3.2479482 -1.4748545 4.1901278 2960685
-3.253865 -1.4250638 4.1666613 2960685
-3.2479439 -1.4252079 4.1901855 2960685
-3.2542243 -1.3747599 4.1652708 2960685
-3.247963 -1.3752106 4.1901484 2960685
-3.2543156 -1.3250165 4.164959 2960685
-3.2479498 -1.3248824 4.1902518 2960685
-3.2542946 -1.2749796 4.1650844 2960685
-3.2479575 -1.2748792 4.1902637 2960685
-3.2543323 -1.2249441 4.1649795 2960685
-3.2479897 -1.2248976 4.1901803 2960685
-3.2543511 -1.1749073 4.1649446 2960685
-3.247997 -1.1748965 4.1901903 2960685
-3.2543335 -1.1250427 4.1650577 2960685
-3.2479947 -1.1249073 4.190249 2960685
-3.2543428 -1.0750046 4.1650672 2960685
-3.2479904 -1.0749164 4.1903052 2960685
-3.2543497 -1.0249664 4.1650801 2960685
-3.2480462 -1.0249151 4.1901293 2960685
-3.254379 -0.9751004 4.165009 2960685
-3.2479827 -0.97493106 4.1904221 2960685
-3.2543468 -0.92506313 4.1651812 2960685
-3.248039 -0.92493206 4.1902432 2960685
-3.2543945 -0.87502503 4.1650305 2960685
-3.2480352 -0.87493873 4.1903024 2960685
-3.2543912 -0.82498503 4.1650863 2960685
-3.2480319 -0.82494378 4.1903591 2960685
-3.2544086 -0.77512133 4.1650615 2960685
-3.2480881 -0.77495271 4.1901813 2960685
-3.2543836 -0.72507805 4.1652122 2960685
-3.248024 -0.72495013 4.1904755 2960685
-3.2544258 -0.6750434 4.1650815 2960685
-3.2480803 -0.67496115 4.1902976 2960685
-3.2544391 -0.62499702 4.1650743 2960685
-3.2481003 -0.62531692 4.1902585 2960685
-3.2544014 -0.5749644 4.1652679 2960685
-3.2480497 -0.57530612 4.1905046 2960685
-3.2544563 -0.52491868 4.1650915 2960685
-3.2481279 -0.52498364 4.1902351 2960685
-3.2544174 -0.47488064 4.1652889 2960685
-3.2480772 -0.47531471 4.1904821 2960685
-3.2544925 -0.42501196 4.1650338 2960685
-3.2481322 -0.4249894 4.1903067 2960685
-3.2544141 -0.37496817 4.1653891 2960685
-3.2481174 -0.37498382 4.1904078 2960685
-3.2545362 -0.32510909 4.1649504 2960685
-3.2481029 -0.32497451 4.1905098 2960685
-3.2544043 -0.27505001 4.1655121 2960685
-3.2481582 -0.27465504 4.1903348 2960685
-3.2545524 -0.22503196 4.1649685 2960685
-3.2481415 -0.22568639 4.1904392 2960685
-3.2544224 -0.17495903 4.165534 2960685
-3.2481503 -0.17534138 4.1904502 2960685
-3.2545686 -0.12495368 4.1649914 2960685
-3.2481596 -0.12499619 4.1904612 2960685
-3.2544379 -0.074867085 4.165556 2960685
-3.2481666 -0.074650675 4.1904712 2960685
-3.2545857 -0.024874482 4.1650128 2960685
-3.2481756 -0.024304925 4.1904826 2960685
-3.2545938 0.024874566 4.1650224 2960685
-3.248183 0.024305005 4.1904931 2960685
-3.2544625 0.074867666 4.1655841 2960685
-3.2481918 0.074651241 4.1905031 2960685
-3.2545836 0.10416277 4.1633654 6316128
-3.2415278 0.10613286 4.1713958 8289918
-3.2386677 -1.8706145 4.2266526 2960685
-3.2393007 -1.8250457 4.2241869 2960685
-3.2393184 -1.7750002 4.2241492 2960685
-3.2393289 -1.7249513 4.2241597 2960685
-3.239301 -1.6749071 4.2243128 2960685
-3.239351 -1.6250911 4.2241607 2960685
-3.2393301 -1.5750452 4.2242856 2960685
-3.2393405 -1.5249968 4.2242832 2960685
-3.2393684 -1.475184 4.2242146 2960685
-3.2393727 -1.4251353 4.2242393 2960685
-3.2393694 -1.3750851 4.2242951 2960685
-3.239378 -1.3251538 4.2243066 2960685
-3.2393923 -1.2751069 4.2243023 2960685
-3.2393878 -1.2250557 4.2243638 2960685
-3.23944 -1.1750069 4.2241993 2960685
-3.2393894 -1.125074 4.2244301 2960685
-3.2394466 -1.0750239 4.2242475 2960685
-3.2394307 -1.0248597 4.2243557 2960685
-3.2394242 -0.97504115 4.2244315 2960685
-3.2394562 -0.92510539 4.224349 2960685
-3.2394574 -0.87494045 4.2243896 2960685
-3.2394614 -0.8248871 4.2244143 2960685
-3.2394958 -0.77483791 4.2243123 2960685
-3.23946 -0.72478682 4.2244997 2960685
-3.2395043 -0.6749655 4.224369 2960685
-3.239506 -0.62503093 4.2244124 2960685
-3.2394609 -0.57497871 4.2246294 2960685
-3.2395239 -0.52492601 4.224431 2960685
-3.2395518 -0.47487676 4.2243605 2960685
-3.2395303 -0.4250522 4.224484 2960685
-3.2395699 -0.37511307 4.2243714 2960685
-3.23949 -0.32494947 4.2247338 2960685
-3.2395341 -0.27489105 4.224596 2960685
-3.2396593 -0.22472829 4.2241454 2960685
-3.2395599 -0.17501964 4.2245851 2960685
-3.2394679 -0.12541334 4.2249985 2960685
-3.2396755 -0.074692674 4.2242203 2960685
-3.2395833 -0.024502924 4.2246218 2960685
-3.2395926 0.024502993 4.2246289 2960685
-3.2396979 0.0746933 4.2242475 2960685
-3.2389863 0.1043212 4.2271042 6776679
-0.95430732 0.10740358 4.2499766 10197915
-0.9260664 0.10739546 4.2496552 10197915
-0.87489021 0.10738082 4.2490759 10197915
-0.82372791 0.10736617 4.2484961 10197915
-0.77434307 0.10735203 4.2479367 10197915
-0.72497129 0.10733791 4.2473779 10197915
-0.67561257 0.10732377 4.246819 10197915
-0.6262666 0.10730965 4.2462592 10197915
-0.57517231 0.10729503 4.2456808 10197915
-0.52409166 0.1072804 4.2451019 10197915
-0.49767578 0.10727287 4.2448044 10197915
-3.2248499 -1.9078065 4.2815304 2960685
-3.2266026 -1.8750176 4.2745924 2960685
-3.2265723 -1.8250557 4.2747598 2960685
-3.226625 -1.7749693 4.2745929 2960685
-3.2266319 -1.7250088 4.2746105 2960685
-3.2266593 -1.6750479 4.274539 2960685
-3.2266369 -1.6249609 4.2746754 2960685
-3.2266383 -1.5749978 4.274714 2960685
-3.2266855 -1.525036 4.2745776 2960685
-3.2266564 -1.4752005 4.2747297 2960685
-3.2266767 -1.4249856 4.274694 2960685
-3.2266731 -1.3747691 4.2747474 2960685
-3.2267098 -1.3249322 4.2746506 2960685
-3.2266824 -1.2749687 4.2747979 2960685
-3.226733 -1.2250055 4.2746396 2960685
-3.2267148 -1.1749165 4.2747593 2960685
-3.2267277 -1.1248269 4.2747478 2960685
-3.2267232 -1.0749874 4.2748113 2960685
-3.226753 -1.0251487 4.2747345 2960685
-3.2267478 -0.9750582 4.2748013 2960685
-3.2267811 -0.92496753 4.2747054 2960685
-3.2267549 -0.87487614 4.2748575 2960685
-3.2267637 -0.82503682 4.2748661 2960685
-3.2267814 -0.77519578 4.2748408 2960685
-3.2268012 -0.72523087 4.2748089 2960685
-3.2268388 -0.67513734 4.2746983 2960685
-3.2267685 -0.62492025 4.2750201 2960685
-3.2268112 -0.57495195 4.2748942 2960685
-3.226824 -0.52511066 4.2748866 2960685
-3.2268109 -0.47514266 4.2749782 2960685
-3.2268739 -0.42505038 4.2747779 2960685
-3.2268455 -0.37495857 4.2749319 2960685
-3.2268293 -0.32498816 4.2750392 2960685
-3.2268341 -0.27501765 4.2750564 2960685
-3.2268617 -0.22492231 4.2749963 2960685
-3.226903 -0.17470479 4.2748747 2960685
-3.2269504 -0.12436646 4.2747302 2960685
-3.2268858 -0.074385934 4.275033 2960685
-3.2268944 -0.024795376 4.2750425 2960685
-3.2269025 0.024795454 4.2750502 2960685
-3.2269096 0.074386515 4.2750602 2960685
-3.2248595 0.1045295 4.2731543 6908265
-3.1738594 0.10803873 4.2751093 10197915
-3.1238542 0.10802441 4.2745428 10197915
-3.0738616 0.10801011 4.2739768 10197915
-3.0238845 0.10799586 4.2734132 10197915
-2.9739211 0.10798164 4.2728505 10197915
-2.9239686 0.10796734 4.2722845 10197915
-2.8740292 0.10795305 4.2717185 10197915
-2.8241031 0.10793876 4.2711535 10197915
-2.7741904 0.10792448 4.2705889 10197915
-2.7242908 0.10791021 4.2700238 10197915
-2.6744044 0.10789592 4.2694583 10197915
-2.624531 0.10788164 4.2688932 10197915
-2.574671 0.10786738 4.2683291 10197915
-2.5390644 0.10785719 4.2679253 10197915
-1.0143337 0.10742074 4.2506557 2960685
-0.97902185 0.10741062 4.2502551 6118749
-3.2133701 -1.9179374 4.3271422 2960685
-3.2140741 -1.8749952 4.324369 2960685
-3.214056 -1.825093 4.3244901 2960685
-3.2140832 -1.7750629 4.3244185 2960685
-3.2140727 -1.7250298 4.3245163 2960685
-3.2140913 -1.6749982 4.3244805 2960685
-3.2140892 -1.6249655 4.3245349 2960685
-3.2141232 -1.5749335 4.3244424 2960685
-3.2141051 -1.5249003 4.3245568 2960685
-3.2141006 -1.4748662 4.3246145 2960685
-3.2141688 -1.4252231 4.3243856 2960685
-3.2141538 -1.3753123 4.3244915 2960685
-3.2141361 -1.3250239 4.3246002 2960685
-3.2141676 -1.2749898 4.3245273 2960685
-3.2141547 -1.2249557 4.3246231 2960685
-3.2141697 -1.174921 4.3246107 2960685
-3.2141945 -1.1250154 4.3245473 2960685
-3.2141781 -1.07498 4.324656 2960685
-3.2142162 -1.0249448 4.3245459 2960685
-3.2142057 -0.97503817 4.3246322 2960685
-3.2142026 -0.92500174 4.3246903 2960685
-3.2142503 -0.87496549 4.3245473 2960685
-3.21422 -0.82493037 4.3247118 2960685
-3.2142482 -0.77489275 4.3246388 2960685
-3.2142336 -0.72485691 4.3247309 2960685
-3.2142677 -0.67481953 4.3246417 2960685
-3.2142787 -0.62503928 4.3246465 2960685
-3.2142589 -0.57513016 4.324769 2960685
-3.2142677 -0.52496409 4.3247766 2960685
-3.2142804 -0.47492501 4.3247776 2960685
-3.2142856 -0.42488667 4.3247972 2960685
-3.2142985 -0.37484732 4.3247833 2960685
-3.2143116 -0.32493687 4.3247786 2960685
-3.2143455 -0.27515575 4.3246861 2960685
-3.2143719 -0.22550504 4.3246193 2960685
-3.2143261 -0.17559005 4.324852 2960685
-3.2143342 -0.12542179 4.3248644 2960685
-3.2143426 -0.075253263 4.3248773 2960685
-3.2143495 -0.025084464 4.3248916 2960685
-3.2143567 0.025084564 4.3248987 2960685
-3.2143643 0.075253859 4.3249083 2960685
-3.21437 0.10392213 4.3249154 6447714
-3.2021999 -1.9530936 4.37149 2960685
-3.1971695 -1.9572992 4.3914738 2960685
-3.2039309 -1.924982 4.3646398 2960685
-3.1974971 -1.9249152 4.3901992 2960685
-3.2040136 -1.8752507 4.364347 2960685
-3.1974669 -1.8749064 4.3903661 2960685
-3.2040057 -1.8250797 4.3644266 2960685
-3.1975362 -1.8248959 4.390131 2960685
-3.2040265 -1.7751335 4.364387 2960685
-3.197494 -1.7748816 4.3903437 2960685
-3.20403 -1.7251899 4.3644137 2960685
-3.1975288 -1.7248632 4.3902426 2960685
-3.2039964 -1.6750207 4.3645921 2960685
-3.1975269 -1.6751556 4.3903008 2960685
-3.2040508 -1.6250727 4.3644199 2960685
-3.197541 -1.6251444 4.3902869 2960685
-3.2040219 -1.5751253 4.3645792 2960685
-3.1975424 -1.5751272 4.3903217 2960685
-3.2040844 -1.525183 4.364377 2960685
-3.1975458 -1.5251095 4.3903561 2960685
-3.2040582 -1.4750082 4.3645191 2960685
-3.197587 -1.4747976 4.3902307 2960685
-3.2040675 -1.4248353 4.3645301 2960685
-3.1975448 -1.4247797 4.3904462 2960685
-3.2040961 -1.3748847 4.3644605 2960685
-3.1975753 -1.375067 4.390367 2960685
-3.2040489 -1.3249396 4.3646841 2960685
-3.1976073 -1.3253573 4.3902855 2960685
-3.204124 -1.2752209 4.3644304 2960685
-3.1975915 -1.2750361 4.3903894 2960685
-3.2040782 -1.2252718 4.3646588 2960685
-3.1975775 -1.2247121 4.3904901 2960685
-3.2041199 -1.1750972 4.3645358 2960685
-3.1976068 -1.1750029 4.3904114 2960685
-3.2041237 -1.1251481 4.3645654 2960685
-3.1976392 -1.1252961 4.3903313 2960685
-3.2041225 -1.0749737 4.3646092 2960685
-3.197629 -1.0752711 4.3904095 2960685
-3.2041571 -1.0248008 4.3645186 2960685
-3.19765 -1.0249484 4.390377 2960685
-3.204144 -0.97484887 4.3646159 2960685
-3.1976399 -0.97493607 4.3904557 2960685
-3.2041309 -0.92489833 4.3647079 2960685
-3.1976259 -0.92522514 4.3905549 2960685
-3.2041552 -0.87517631 4.3646522 2960685
-3.1976612 -0.87520158 4.3904567 2960685
-3.2040834 -0.82467109 4.3649874 2960685
-3.1975946 -0.82566005 4.3907666 2960685
-3.2037246 -0.77505267 4.3664541 2960685
-3.1972337 -0.77482963 4.3922453 2960685
-3.2037101 -0.72500521 4.3665566 2960685
-3.1971734 -0.72496438 4.3925304 2960685
-3.203733 -0.67495489 4.3665075 2960685
-3.1972229 -0.67511016 4.392375 2960685
-3.2037492 -0.62490731 4.3664875 2960685
-3.1972718 -0.62526143 4.3922243 2960685
-3.2037654 -0.57506144 4.3664708 2960685
-3.1972389 -0.5750308 4.3923988 2960685
-3.2037268 -0.52521724 4.3666573 2960685
-3.1972196 -0.52443528 4.3925157 2960685
-3.2037435 -0.47496611 4.3666377 2960685
-3.1972558 -0.47494763 4.3924208 2960685
-3.2037597 -0.42491654 4.3666229 2960685
-3.1972895 -0.42546338 4.3923249 2960685
-3.2037964 -0.37507179 4.3665137 2960685
-3.1972718 -0.37486568 4.3924417 2960685
-3.2038343 -0.32523066 4.3664055 2960685
-3.1972518 -0.32426405 4.3925619 2960685
-3.2037909 -0.2749742 4.3666272 2960685
-3.1973159 -0.27515996 4.3923526 2960685
-3.2037995 -0.22432162 4.3666358 2960685
-3.1972947 -0.22564898 4.3924761 2960685
-3.2037396 -0.17425162 4.3669167 2960685
-3.1973035 -0.17469649 4.392488 2960685
-3.2038829 -0.12544844 4.3663836 2960685
-3.1972842 -0.12408895 4.3926063 2960685
-3.2038238 -0.075980455 4.3666677 2960685
-3.1973484 -0.074993767 4.3923984 2960685
-3.2038319 -0.025326876 4.3666801 2960685
-3.1973276 -0.025476759 4.3925219 2960685
-3.2038388 0.025326965 4.3666921 2960685
-3.197336 0.025476841 4.3925309 2960685
-3.2038469 0.075981058 4.3667016 2960685
-3.1973722 0.07499437 4.3924308 2960685
-3.2038527 0.10492638 4.3667092 7434609
-3.1972153 0.10399956 4.3930798 6776679
-1.0551931 0.10715386 4.3838272 2960685
-1.0242343 0.10714502 4.3834653 4079166
-0.97507405 0.10713099 4.3828912 10197915
-0.92592674 0.10711695 4.3823171 10197915
-0.87497276 0.1071024 4.381722 10197915
-0.8240326 0.10708786 4.3811274 10197915
-0.7749247 0.10707384 4.3805532 10197915
-0.7258299 0.10705983 4.3799796 10197915
-0.67493016 0.10704529 4.3793855 10197915
-0.62404436 0.10703076 4.3787909 10197915
-0.57498878 0.10701676 4.3782177 10197915
-0.53139472 0.10700431 4.3777089 10197915
-3.1877775 -1.9656321 4.4287877 2960685
-3.1885409 -1.9248027 4.4257855 2960685
-3.1885598 -1.8748809 4.4257526 2960685
-3.1885576 -1.8249524 4.4258065 2960685
-3.1885765 -1.7750314 4.425777 2960685
-3.1885567 -1.7251047 4.4258966 2960685
-3.1886129 -1.6750382 4.4257154 2960685
-3.1885531 -1.6249717 4.4260006 2960685
-3.1886463 -1.5750463 4.4256716 2960685
-3.1885836 -1.524983 4.4259615 2960685
-3.1886137 -1.4747703 4.425889 2960685
-3.1886125 -1.4247041 4.4259396 2960685
-3.1886454 -1.3749169 4.4258442 2960685
-3.1886477 -1.3249916 4.4258766 2960685
-3.1886158 -1.2749224 4.4260583 2960685
-3.1886718 -1.2251371 4.42588 2960685
-3.188668 -1.1752095 4.4259357 2960685
-3.1886749 -1.1248561 4.4259462 2960685
-3.1886535 -1.0749308 4.4260817 2960685
-3.1887033 -1.0251406 4.4259229 2960685
-3.1887155 -0.97493196 4.4259138 2960685
-3.1886818 -0.92485934 4.4260969 2960685
-3.1887176 -0.87507439 4.4260006 2960685
-3.188709 -0.82514286 4.4260759 2960685
-3.1887269 -0.77506948 4.426043 2960685
-3.1887259 -0.7251448 4.4260969 2960685
-3.1887443 -0.67506993 4.4260664 2960685
-3.1887941 -0.62486023 4.42591 2960685
-3.1887217 -0.57478279 4.426239 2960685
-3.1887903 -0.52500033 4.426013 2960685
-3.188766 -0.47492427 4.4261527 2960685
-3.1888211 -0.42498896 4.4259715 2960685
-3.1887264 -0.37520385 4.4263911 2960685
-3.1888442 -0.32512856 4.4259758 2960685
-3.1888254 -0.27491647 4.4260917 2960685
-3.1887243 -0.22483204 4.4265313 2960685
-3.1889274 -0.17520505 4.4257708 2960685
-3.1888227 -0.12469397 4.4262338 2960685
-3.1888304 -0.075183302 4.4262452 2960685
-3.1888371 -0.025672415 4.4262552 2960685
-3.1888454 0.025672495 4.4262652 2960685
-3.1888561 0.075183935 4.4262753 2960685
-3.1836512 0.10446031 4.4199214 7039851
-3.124594 0.10774461 4.4079947 10197915
-3.0748837 0.10773046 4.4074173 10197915
-3.0251846 0.10771628 4.4068365 10197915
-2.9754989 0.10770209 4.4062557 10197915
-2.9239869 0.10768738 4.405654 10197915
-2.8743277 0.10767321 4.4050746 10197915
-2.8246822 0.10765905 4.4044948 10197915
-2.7750487 0.10764487 4.4039149 10197915
-2.7254291 0.10763071 4.403336 10197915
-2.673986 0.10761603 4.4027348 10197915
-2.6280649 0.10760292 4.4021993 10197915
-3.1724105 -2.0042918 4.4898124 2960685
-3.1758862 -1.9742411 4.4760246 2960685
-3.1760614 -1.9251194 4.4753757 2960685
-3.1760819 -1.8749202 4.4753447 2960685
-3.1760552 -1.8250091 4.4754868 2960685
-3.1760893 -1.7750915 4.4753876 2960685
-3.1760924 -1.7248966 4.4754186 2960685
-3.176136 -1.6748374 4.4752989 2960685
-3.1760812 -1.6249235 4.4755545 2960685
-3.1761446 -1.5750103 4.4753447 2960685
-3.1760759 -1.5250911 4.4756646 2960685
-3.1761625 -1.4750401 4.4753666 2960685
-3.1761756 -1.425117 4.4753523 2960685
-3.1760933 -1.3750646 4.4757171 2960685
-3.1762071 -1.324861 4.4753137 2960685
-3.1761217 -1.2749439 4.4756985 2960685
-3.1761968 -1.2248886 4.4754448 2960685
-3.1762099 -1.1749674 4.4754314 2960685
-3.1761642 -1.1250548 4.4756665 2960685
-3.1762049 -1.0749913 4.4755464 2960685
-3.176178 -1.0249324 4.4756913 2960685
-3.1762366 -0.97501469 4.4755006 2960685
-3.1762064 -0.92509592 4.4756684 2960685
-3.1762583 -0.87489563 4.475503 2960685
-3.1762493 -0.82497406 4.4755797 2960685
-3.1762362 -0.77505648 4.4756818 2960685
-3.1762447 -0.72499466 4.4756918 2960685
-3.1762795 -0.67507517 4.4755921 2960685
-3.1762688 -0.62501252 4.4756699 2960685
-3.1762896 -0.57509589 4.475637 2960685
-3.1762531 -0.52502817 4.4758263 2960685
-3.1763058 -0.47497112 4.4756594 2960685
-3.1763191 -0.42490271 4.4756517 2960685
-3.1762741 -0.37484223 4.4758797 2960685
-3.1763873 -0.32506379 4.4754739 2960685
-3.1762383 -0.27499512 4.4761 2960685
-3.176434 -0.22508812 4.4753628 2960685
-3.1762223 -0.17499758 4.4762516 2960685
-3.1764524 -0.12496798 4.4753847 2960685
-3.1762385 -0.074857295 4.4762731 2960685
-3.1764681 -0.0248468 4.4754081 2960685
-3.1764772 0.02484688 4.4754186 2960685
-3.1762631 0.074857883 4.4763098 2960685
-3.1763773 0.103841 4.4758792 6710886
-3.1623023 -2.0133994 4.5299683 2960685
-3.1632955 -1.9750555 4.5260549 2960685
-3.1632922 -1.9250094 4.5261126 2960685
-3.1633236 -1.8749632 4.5260301 2960685
-3.1633027 -1.8249155 4.526154 2960685
-3.1633215 -1.7748723 4.5261207 2960685
-3.1633358 -1.7249672 4.5261106 2960685
-3.1633325 -1.6750649 4.5261693 2960685
-3.1633575 -1.6250172 4.5261116 2960685
-3.163377 -1.5749706 4.5260749 2960685
-3.1633391 -1.5250696 4.526269 2960685
-3.1633697 -1.4751614 4.5261917 2960685
-3.1634717 -1.4254791 4.5258327 2960685
-3.1638477 -1.3751382 4.5243807 2960685
-3.1639149 -1.3250041 4.5241566 2960685
-3.1639016 -1.2748706 4.5242524 2960685
-3.1639128 -1.2250439 4.5242519 2960685
-3.1639202 -1.1750665 4.5242662 2960685
-3.1639042 -1.1250858 4.5243769 2960685
-3.1639581 -1.0749496 4.5242033 2960685
-3.1639009 -1.0248115 4.5244703 2960685
-3.1639555 -0.97498673 4.5242977 2960685
-3.1639702 -0.92501009 4.5242853 2960685
-3.1639659 -0.87502432 4.5243478 2960685
-3.1639891 -0.8248868 4.5242972 2960685
-3.163929 -0.77490735 4.524579 2960685
-3.1640182 -0.72492439 4.5242691 2960685
-3.1640196 -0.67494279 4.5243068 2960685
-3.1639559 -0.62511265 4.5246029 2960685
-3.164048 -0.57497931 4.524282 2960685
-3.1640007 -0.52499527 4.5245109 2960685
-3.1640296 -0.47516125 4.5244374 2960685
-3.1640224 -0.42503035 4.5245109 2960685
-3.1640341 -0.37488586 4.5245113 2960685
-3.1641402 -0.32490638 4.5241294 2960685
-3.1639655 -0.27506885 4.5248685 2960685
-3.1640575 -0.22493219 4.5245423 2960685
-3.1641495 -0.17480603 4.5242205 2960685
-3.1640739 -0.12558977 4.5245686 2960685
-3.1640818 -0.074979156 4.524581 2960685
-3.1640894 -0.024368281 4.524591 2960685
-3.164098 0.024368357 4.5246015 2960685
-3.1641057 0.07497976 4.5246115 2960685
-3.1641104 0.10497179 4.5246205 7763574
-3.1101744 0.10744238 4.5498638 10197915
-3.0740666 0.10743211 4.5494289 10197915
-3.0246663 0.10741805 4.5488329 10197915
-2.9752796 0.107404 4.5482378 10197915
-2.9259057 0.10738994 4.5476432 10197915
-2.876544 0.1073759 4.5470481 10197915
-2.8252978 0.10736129 4.5464296 10197915
-2.7740655 0.10734671 4.5458117 10197915
-2.7247443 0.10733269 4.545218 10197915
-2.6962948 0.10732459 4.5448751 10197915
-1.0723722 0.10686222 4.5252953 2960685
-1.0253745 0.10684884 4.5247293 8618883
-0.97463006 0.1068344 4.524117 10197915
-0.92389929 0.10681994 4.5235052 10197915
-0.87506062 0.10680604 4.5229163 10197915
-0.82623446 0.10679214 4.5223279 10197915
-0.77554399 0.10677771 4.5217166 10197915
-0.72486699 0.10676327 4.5211058 10197915
-0.67607999 0.1067494 4.5205173 10197915
-0.62543011 0.10673498 4.5199075 10197915
-0.5747937 0.10672056 4.5192966 10197915
-0.53916854 0.10671041 4.518867 10197915
-3.1463485 -2.0525312 4.5933242 2960685
-3.1530848 -2.0217011 4.5665884 2960685
-3.1471546 -2.024843 4.5901465 2960685
-3.1532922 -1.9750837 4.5657997 2960685
-3.1471784 -1.9750214 4.5900965 2960685
-3.1532578 -1.9251001 4.5659842 2960685
-3.1472166 -1.9251988 4.5899863 2960685
-3.1533296 -1.8751112 4.5657387 2960685
-3.1471949 -1.8750069 4.5901198 2960685
-3.1532836 -1.8251249 4.5659623 2960685
-3.1471708 -1.824811 4.5902543 2960685
