# .PCD v0.7 - Point Cloud Data file format
VERSION 0.7
FIELDS x y z rgb
SIZE 4 4 4 4
TYPE F F F U
COUNT 1 1 1 1
WIDTH 1175
HEIGHT 1
VIEWPOINT 0 0 0 1 0 0 0
POINTS 1175
DATA ascii
0.47497177 0.1141185 1.075931 10197915
0.5249871 0.11408905 1.0757396 10197915
0.57497579 0.11405975 1.0754758 10197915
0.62501317 0.11403044 1.0751519 10197915
0.67502469 0.11400104 1.074922 10197915
0.72501141 0.11397184 1.0745738 10197915
0.77497083 0.11394241 1.0743954 10197915
0.82372046 0.11391215 1.075155 10197915
0.85803336 0.11386961 1.0887628 10197915
-0.80976611 -0.50560468 1.1427014 2039583
-0.79780507 -0.50101227 1.122872 2039583
-0.061136935 -0.50297809 1.130843 2308948
-0.03898875 -0.50595063 1.144188 2374740
-0.8081069 -0.47498292 1.1400292 2039583
-0.79251415 -0.47382948 1.1141664 2039583
-0.10601792 -0.47196332 1.1038371 1914705
-0.075031787 -0.47463435 1.122509 2111826
-0.039807022 -0.47498026 1.1437408 2243155
-0.80758238 -0.4251157 1.1392891 2039583
-0.79187649 -0.42490575 1.1132362 2039583
-0.1060956 -0.42500907 1.1038598 1915218
-0.075314 -0.42500842 1.122413 2046290
-0.039801508 -0.42499554 1.1438175 2112083
-0.80708909 -0.37499672 1.1386018 2039583
-0.79132998 -0.37500817 1.1124598 2039583
-0.10652846 -0.37496418 1.1036724 1914962
-0.075347528 -0.3750034 1.1224657 1914962
-0.039811201 -0.3750045 1.1438855 1980498
-0.80652851 -0.32494169 1.1378021 2039583
-0.79081464 -0.32501999 1.1117361 2039583
-0.10654366 -0.32499355 1.103737 1520207
-0.075335406 -0.32500002 1.122548 1585999
-0.039807737 -0.32498622 1.1439618 1651791
-0.80603701 -0.27495229 1.1371168 2039583
-0.79029936 -0.27509868 1.1110113 2039583
-0.10655238 -0.27498582 1.1038058 1454670
-0.075340554 -0.27500731 1.1226181 1454670
-0.039816294 -0.27500361 1.1440299 1520206
-0.80577207 -0.22612126 1.1368052 2039583
-0.7903133 -0.22399369 1.1111673 2039583
-0.10655606 -0.22497244 1.1038774 1586768
-0.075341478 -0.22499962 1.1226923 1586768
-0.040113583 -0.22529367 1.1439242 1717841
-0.80765164 -0.17475623 1.1400568 2039583
-0.79181367 -0.17488934 1.1137842 2039583
-0.10656913 -0.17498222 1.1039435 1389133
-0.07535629 -0.17498578 1.1227549 1454670
-0.040286914 -0.17502789 1.143894 1454926
-0.80709904 -0.12484436 1.1392707 2039583
-0.79136813 -0.1249725 1.1131761 2039583
-0.10655374 -0.12498682 1.1040274 1586511
-0.075352751 -0.12499049 1.1228327 1586511
-0.040270939 -0.12500523 1.143978 1652047
-0.8065989 -0.075002417 1.1385708 2039583
-0.79298985 -0.075751767 1.1159939 2039583
-0.10657832 -0.075076036 1.1040854 1388876
-0.075382374 -0.07496421 1.1228889 1322827
-0.040308066 -0.075089306 1.1440288 1257034
-0.8060708 -0.024986267 1.1378255 2039583
-0.79288965 -0.024968483 1.1159601 2039583
-0.10683151 -0.024696678 1.1040065 1455181
-0.075360514 -0.024965143 1.1229764 1257034
-0.040281102 -0.025099197 1.1441196 1059656
-0.80554372 0.024964478 1.1370811 2039583
-0.79233807 0.025100173 1.1151763 2039583
-0.10702732 0.025098564 1.1039631 1323083
-0.075365238 0.024967274 1.1230456 1125448
-0.040283706 0.02510131 1.1441929 1059399
-0.80706948 0.076964155 1.1397481 2105376
-0.79181981 0.074947201 1.114447 2368548
-0.1070301 0.075069241 1.1040347 993092
-0.075396612 0.074970618 1.1231022 1058885
-0.040315684 0.07510411 1.1442472 1124934
-0.80665743 0.10985722 1.1418911 10132122
-0.77573586 0.11368922 1.1259046 10197915
-0.72679412 0.11475562 1.1242154 5267053
-0.6945529 0.11476264 1.1080762 796740
-0.10695293 0.10755602 1.103924 2044492
-0.074579202 0.10837151 1.1211469 3030613
-0.033295996 0.11045632 1.1351653 5595247
0.025006851 0.11430483 1.1261942 10197915
0.074907355 0.11427581 1.1257709 10197915
0.12487768 0.11424626 1.1256515 10197915
0.17500703 0.11421707 1.1252621 10197915
0.22501884 0.11418775 1.1249734 10197915
0.27500424 0.11415839 1.1247175 10197915
0.32514939 0.11412901 1.124429 10197915
0.37517834 0.11409963 1.1241727 10197915
0.42499304 0.11407056 1.1238185 10197915
0.47496915 0.11404123 1.1235639 10197915
0.52510464 0.11401195 1.1232077 10197915
0.57512212 0.11398242 1.123052 10197915
0.62502128 0.11395332 1.1226636 10197915
0.67549366 0.11392298 1.1228758 10197915
0.7250976 0.11388739 1.1265795 10197915
0.77507299 0.11385808 1.1263343 10197915
0.82510215 0.1138287 1.1260722 10197915
0.87194669 0.11379638 1.1287904 10197915
0.90572774 0.11374896 1.1456289 10197915
-0.83260787 -0.51412928 1.1805699 2039583
-0.013802802 -0.50935638 1.1593645 2571861
0.026392676 -0.51478523 1.1835819 2834262
0.051662628 -0.51813006 1.1988099 2965590
-0.83025151 -0.47497222 1.1767631 2039583
-0.014887815 -0.47499824 1.1587603 2308691
0.024486691 -0.47501215 1.1824923 2571605
0.05164744 -0.47494715 1.1988641 2768726
-0.8297559 -0.4249652 1.176071 2039583
-0.014887597 -0.42500573 1.1588343 2177619
0.024506478 -0.42500052 1.1825783 2374740
0.05166591 -0.42505756 1.1989487 2506069
-0.82917154 -0.37502268 1.1752321 2039583
-0.014879076 -0.37499163 1.158913 2046290
0.02450134 -0.3750028 1.1826502 2177619
0.051661551 -0.37503803 1.1990199 2308948
-0.82872021 -0.32495204 1.1746141 2039583
-0.014882994 -0.32498604 1.1589853 1651277
0.02450501 -0.32500875 1.1827251 1651021
0.051310085 -0.32644191 1.1988801 1782863
-0.82811129 -0.27484742 1.1737344 2039583
-0.014895152 -0.2750054 1.1590514 1520206
0.024492312 -0.27499801 1.1827916 1651534
0.051157862 -0.27515769 1.198864 1717327
-0.82759482 -0.2250021 1.1730077 2039583
-0.015203733 -0.22484387 1.1589396 1718097
0.024489624 -0.22500086 1.182863 1718097
0.051161114 -0.22500774 1.1989405 1783633
-0.82707763 -0.17502913 1.1722802 2039583
-0.015363926 -0.17499031 1.158916 1454926
0.024524391 -0.17500761 1.1829597 1454926
0.051164355 -0.17485152 1.1990162 1389390
-0.82653648 -0.1249258 1.1715133 2039583
-0.015352269 -0.12499004 1.1589968 1652047
0.024496324 -0.12500773 1.1830156 1652047
0.051167559 -0.12518558 1.1990916 1652047
-0.82836866 -0.07436578 1.1746852 2039583
-0.015416753 -0.074984133 1.1590319 1322570
0.024498723 -0.075010806 1.1830924 1322570
0.051170807 -0.075016633 1.1991674 1257290
-0.82829195 -0.024985224 1.1746863 2039583
-0.015326678 -0.024971502 1.1591599 1059656
0.024518097 -0.025009409 1.1831757 1125449
0.051174052 -0.02484135 1.1992434 1125705
-0.82775027 0.024963424 1.1739177 2039583
-0.015327638 0.024973638 1.1592339 1059399
0.02451212 0.025001731 1.1832458 1125191
0.051177271 0.024843426 1.1993189 1125192
-0.82914215 0.073907875 1.1763544 2039583
-0.01541545 0.074983858 1.1592547 1125191
0.024511026 0.074996151 1.1833215 1190984
0.050910559 0.072522953 1.1992283 1191497
-0.82069105 0.11228029 1.1805012 9671571
-0.77496177 0.11469688 1.1781081 7896709
-0.7392267 0.11468727 1.1709076 928324
-0.015041628 0.10761379 1.1591334 2373713
0.025297767 0.10853951 1.1801364 3557212
0.072645023 0.11352444 1.1754526 9343123
0.12505151 0.11416973 1.1727343 10197915
0.17495005 0.11414062 1.1723565 10197915
0.22491972 0.11411139 1.1720582 10197915
0.27496052 0.11408193 1.1718322 10197915
0.32516944 0.11405262 1.1714939 10197915
0.37516078 0.11402339 1.1711519 10197915
0.42502689 0.11399419 1.1708552 10197915
0.47506294 0.11396475 1.1706284 10197915
0.52507228 0.11393555 1.1702912 10197915
0.57554483 0.1139048 1.1707078 10197915
0.62498105 0.11386905 1.1746132 10197915
0.67471713 0.11383952 1.1745461 10197915
0.72501212 0.11380229 1.1790352 10197915
0.77482879 0.11377332 1.1786156 10197915
0.82481432 0.1137439 1.1783906 10197915
0.87496722 0.11371469 1.1780109 10197915
0.91957706 0.11368203 1.1817777 10197915
0.95127684 0.11363714 1.1977948 10197915
-0.87152767 -0.55362129 1.2450271 2039583
0.1251951 -0.55307627 1.2430792 3425109
-0.86405915 -0.52435607 1.2327138 2039583
-0.84838855 -0.51993334 1.2067313 2039583
0.077531472 -0.52166778 1.2143966 3031126
0.1180461 -0.52498239 1.2388114 3228246
-0.86325783 -0.47511593 1.2315137 2039583
-0.84788889 -0.47466061 1.2060205 2039583
0.076429613 -0.47498992 1.2138022 2834261
0.11803835 -0.47498739 1.2388802 3031382
-0.8626793 -0.42496809 1.2306849 2039583
-0.84733987 -0.42492083 1.2052397 2039583
0.076454729 -0.42499331 1.2138892 2571604
0.11807357 -0.42498723 1.2389755 2702932
-0.86213177 -0.37488547 1.2299068 2039583
-0.84679163 -0.37524569 1.2044598 2039583
0.076438263 -0.37499014 1.2139543 2374739
0.11798707 -0.37508628 1.2389977 2506068
-0.8615225 -0.32486632 1.2290269 2039583
-0.84623861 -0.32513389 1.2036731 2039583
0.076060295 -0.32488701 1.2138004 1914191
0.11752078 -0.32500628 1.2387899 1979727
-0.86099386 -0.27504236 1.2282802 2039583
-0.84568614 -0.27508748 1.2028875 2039583
0.075923398 -0.27500907 1.213791 1782862
0.11752288 -0.27500823 1.2388655 1651020
-0.86045045 -0.22515337 1.2275088 2039583
-0.8451345 -0.22510631 1.2021028 2039583
0.075934 -0.22501652 1.2138717 1849424
0.11754464 -0.22498861 1.2389519 1914961
-0.85982239 -0.17494918 1.2265977 2039583
-0.84458369 -0.17519037 1.2013195 2039583
0.075960606 -0.1750287 1.2139611 1652303
0.11755121 -0.17496243 1.2390302 1783632
-0.86038882 -0.12656152 1.2276636 2039583
-0.84564751 -0.12106318 1.2032251 2039583
0.075931311 -0.12500107 1.2140181 1652047
0.11754495 -0.12500769 1.2390999 1652047
-0.86182463 -0.074925184 1.2301805 2039583
-0.84862542 -0.078349642 1.2082763 2039583
0.075973243 -0.074967496 1.2141172 1322826
0.11759824 -0.075046331 1.2392051 1257290
-0.8613466 -0.024962081 1.2295177 2039583
-0.84895271 -0.025045596 1.2089586 2039583
0.075941972 -0.02498387 1.2141726 1191241
0.11755037 -0.025017852 1.2392515 1191497
-0.86305457 0.026478086 1.2324854 2039583
-0.84839612 0.025023704 1.208166 2039583
0.075946905 0.024985971 1.2142483 1125192
0.11755771 0.02501996 1.239329 1125191
-0.86338699 0.074964494 1.2331629 2039583
-0.84784013 0.075027391 1.2073745 2039583
0.07565295 0.075105809 1.2141449 1257033
0.11724268 0.074876606 1.2392131 1257289
-0.86072564 0.10997465 1.232989 7566195
-0.8263815 0.11413988 1.2234466 9868950
-0.78009897 0.11462886 1.2218764 2966359
0.076194093 0.10779218 1.2134823 2834262
0.12032596 0.10934448 1.2330409 4675175
0.17508924 0.11405732 1.2236546 10197915
0.22511603 0.11402817 1.2232529 10197915
0.27511597 0.11399876 1.2230265 10197915
0.32519284 0.11396974 1.2225397 10197915
0.37514046 0.11394019 1.2224422 10197915
0.42496398 0.11391109 1.2220862 10197915
0.47496191 0.11388209 1.2215996 10197915
0.52503622 0.11385253 1.2214576 10197915
0.57444668 0.11382277 1.2216712 10197915
0.62493044 0.11378557 1.226056 10197915
0.67479134 0.11375622 1.2258517 10197915
0.72475547 0.11372703 1.2255095 10197915
0.77507079 0.1136977 1.2251396 10197915
0.8252362 0.1136682 1.2249031 10197915
0.87499458 0.11363927 1.2244794 10197915
0.92498136 0.11360983 1.2242743 10197915
0.96374732 0.11357921 1.2289054 10197915
-0.90043521 -0.56404507 1.2929518 2039583
-0.88801503 -0.5597316 1.2723606 2039583
0.14375621 -0.55560118 1.2542627 3556695
0.1773072 -0.56012326 1.2744784 3688280
0.20990621 -0.56451488 1.2941207 3885658
-0.90013206 -0.5381521 1.2925165 2039583
-0.88846403 -0.52327061 1.2731997 2039583
0.14339559 -0.52505326 1.2540905 3359575
0.17455626 -0.52499115 1.2728727 3557209
0.20960875 -0.5250203 1.2939999 3688793
-0.88915372 -0.47495797 1.2744702 2039583
0.14340477 -0.47503319 1.2541697 3162711
0.17457205 -0.47498596 1.2729554 3359832
0.20963253 -0.47503662 1.2940879 3425881
-0.88862866 -0.4249149 1.2737303 2039583
0.14341757 -0.42500648 1.2542533 2768468
0.17457019 -0.42499864 1.2730286 2834260
0.20963383 -0.42501462 1.2941623 2834260
-0.88796055 -0.37493563 1.2727518 2039583
0.14334109 -0.37476099 1.25428 2571604
0.17457238 -0.37500501 1.2731023 2637396
0.20934844 -0.37535885 1.2940644 2702932
-0.88748854 -0.324893 1.2721002 2039583
0.1428678 -0.32499638 1.2540658 2045263
0.17459491 -0.32500529 1.2731907 2045519
0.20905827 -0.32499593 1.2939634 2045519
-0.90397698 -0.27404922 1.2995838 2039583
-0.88692582 -0.2747789 1.271297 2039583
0.14288412 -0.27497754 1.2541499 1651020
0.17460532 -0.27501136 1.2732717 1782862
0.20909311 -0.27499083 1.2940589 1782862
-0.90339726 -0.22491041 1.2987504 2039583
-0.88626039 -0.22499791 1.2703234 2039583
0.14290194 -0.22499222 1.2542344 1783633
0.17461768 -0.22501133 1.2733511 1783632
0.20908637 -0.22497953 1.2941283 1849425
-0.90281206 -0.17529555 1.2979089 2039583
-0.88571978 -0.17514755 1.2695572 2039583
0.14290561 -0.17500021 1.2543111 1718096
0.17460769 -0.17501712 1.2734202 1718096
0.20910363 -0.17496099 1.2942127 1718096
-0.90222096 -0.12520677 1.2970594 2039583
-0.88510603 -0.12509924 1.2686694 2039583
0.14289866 -0.12492276 1.2543813 1586511
0.17464668 -0.12502886 1.2735173 1586511
0.20913665 -0.12493723 1.2943058 1586511
-0.901631 -0.075183317 1.2962111 2039583
-0.88457823 -0.074985839 1.2679243 2039583
0.14291838 -0.074878737 1.2544686 1257034
0.17467511 -0.075021878 1.2736086 1257034
0.20915002 -0.07507398 1.2943879 1322826
-0.90104157 -0.025225502 1.2953638 2039583
-0.88398147 -0.024937341 1.2670652 2039583
0.14293802 -0.024947554 1.254552 1191241
0.17462923 -0.025009558 1.2736552 1125705
0.20913219 -0.025105502 1.2944506 1125705
-0.90044665 0.025203301 1.2945085 2039583
-0.88549948 0.023296954 1.2697089 2039583
0.14294703 0.024949666 1.2546333 1125192
0.17464112 0.02501167 1.2737358 1125448
0.20913814 0.025074366 1.2945288 1125191
-0.90007353 0.056823995 1.2939719 2039583
-0.88877892 0.076192677 1.275287 2039583
0.14255349 0.075266883 1.2544705 1191497
0.17470537 0.075024441 1.2738476 1191753
0.20875555 0.074744843 1.2943714 1257289
-0.90155381 0.11457695 1.2984202 10197915
-0.87463832 0.11285592 1.2780553 8750469
-0.8256644 0.11457185 1.2737085 5727088
-0.79176515 0.11457516 1.2592388 928580
0.14243966 0.10709146 1.2544264 2242384
0.17548618 0.10801843 1.272462 3294298
0.21680836 0.1103612 1.2839212 6056052
0.27503699 0.11391767 1.2730289 10197915
0.32479128 0.11388867 1.2726409 10197915
0.37478665 0.11385942 1.272318 10197915
0.42501619 0.11382998 1.2720491 10197915
0.47495955 0.11380075 1.2717226 10197915
0.52500713 0.11377142 1.271426 10197915
0.57502937 0.11374231 1.2710087 10197915
0.62502515 0.11371296 1.270772 10197915
0.67625093 0.1136767 1.2743191 10197915
0.72510779 0.11364511 1.2758495 10197915
0.77512228 0.11361588 1.2755171 10197915
0.82500827 0.11358653 1.2752894 10197915
0.87507737 0.11355742 1.2748646 10197915
0.92501563 0.11352822 1.2745333 10197915
0.97454607 0.11349837 1.2747499 10197915
1.01204 0.11345551 1.2874056 10197915
-0.86512518 -0.60132104 1.3470979 1322567
0.29662561 -0.60116512 1.3463365 4543326
0.302001 -0.60184497 1.3495753 4346205
-0.90755033 -0.5705092 1.3208401 2039583
-0.87976593 -0.57399404 1.3383037 1778218
0.23541556 -0.56793159 1.3094916 4017242
0.27613032 -0.57321036 1.3340259 4148828
0.30191165 -0.57504463 1.3495609 4083291
-0.90762764 -0.52503675 1.3206018 2039583
-0.88028115 -0.52499169 1.3380537 1712168
0.23485383 -0.52497077 1.3092142 3819865
0.27479929 -0.52516699 1.3332925 3754586
0.30086902 -0.52111691 1.3490121 3754330
-0.90762603 -0.47502673 1.3205436 2039583
-0.88031942 -0.47499594 1.3380965 1712168
0.23488449 -0.47497123 1.3093077 3425881
0.27452409 -0.47501302 1.3332011 3360088
0.30067256 -0.47474718 1.3489622 3360088
-0.90757746 -0.42499384 1.3205186 2039583
-0.88035476 -0.42501786 1.3381451 1712168
0.23489097 -0.42498603 1.309392 2899796
0.27452058 -0.42500541 1.3332733 2899797
0.300677 -0.42503896 1.3490381 2834260
-0.90756583 -0.37501615 1.3204603 2039583
-0.88072205 -0.37506935 1.3379843 1777961
0.2345621 -0.3747516 1.3092591 2702933
0.27453411 -0.37501943 1.3333544 2637396
0.30070317 -0.37504017 1.3491279 2571860
-0.90751719 -0.32504195 1.3204333 2039583
-0.88080198 -0.32499811 1.3379966 1778217
0.23428655 -0.32498872 1.3091676 2045519
0.27453625 -0.3250263 1.3334296 2111568
0.30072224 -0.32475725 1.3492137 2111312
-0.90767837 -0.27509362 1.3213764 2039583
-0.88085854 -0.27500597 1.3380206 1712168
0.23434629 -0.27500334 1.3092846 1848655
0.27459863 -0.27501333 1.3335426 1848655
0.30074123 -0.27502683 1.3492986 1848399
-0.90766323 -0.22503023 1.3214388 2039583
-0.88084275 -0.22499909 1.3380983 1778216
0.23433685 -0.22499003 1.3093446 1849425
0.27460131 -0.22500867 1.3336159 1849169
0.30076012 -0.22529021 1.3493836 1783633
-0.90769708 -0.17499298 1.3214152 2039583
-0.88091111 -0.17497742 1.3381221 1712167
0.23434491 -0.17499174 1.3094264 1717840
0.27460659 -0.17501126 1.3336945 1717840
0.30077931 -0.17498831 1.3494689 1652304
-0.90765315 -0.12492833 1.3214415 2039583
-0.88091487 -0.12500899 1.3381838 1777703
0.23434955 -0.12504953 1.3095037 1586511
0.27456889 -0.12500802 1.3337454 1520718
0.3007983 -0.12468005 1.3495549 1389389
-0.90767902 -0.075083286 1.3214176 2039583
-0.88101459 -0.074981384 1.3381867 1778216
0.23435938 -0.07499744 1.3095816 1257290
0.27469534 -0.074998043 1.3338947 1257034
0.3003476 -0.077748835 1.3493525 1257034
-0.90767157 -0.025155924 1.321431 2039583
-0.8809281 -0.024949728 1.3382965 1778216
0.23443478 -0.02495908 1.309701 1125449
0.27465701 -0.024997018 1.333945 1125705
0.30019024 -0.025155339 1.3493354 1125705
-0.90766817 0.025155785 1.3214264 2039583
-0.8809588 0.024950869 1.3383422 1778215
0.23444965 0.024961147 1.309782 1059655
0.27467358 0.024999121 1.3340307 1125191
0.30020937 0.025157476 1.3494211 1059655
-0.90763754 0.075052753 1.3213724 2039583
-0.88110769 0.074966483 1.3383182 1777959
0.23393065 0.075170845 1.3095459 1125704
0.27473381 0.074998595 1.3341388 1125447
0.30022827 0.07491754 1.3495061 1257289
-0.90751117 0.10757382 1.3209786 2565927
-0.87939155 0.10855887 1.3358413 2961976
-0.83666003 0.11449803 1.3232394 1124676
0.23415904 0.10754907 1.3091313 2768213
0.27536398 0.10845342 1.330121 3951455
0.32310817 0.11334254 1.3226703 9671830
0.37471271 0.11378147 1.3203434 10197915
0.4249295 0.11375184 1.3202064 10197915
0.47498226 0.11372298 1.3196303 10197915
0.5250119 0.11369354 1.319392 10197915
0.57501543 0.11366452 1.3189514 10197915
0.62499225 0.11363496 1.3188499 10197915
0.67332095 0.11360146 1.3217518 10197915
0.72589618 0.11355688 1.3299303 10197915
0.77498806 0.11352704 1.3302864 10197915
0.82492501 0.11349822 1.3297374 10197915
0.87497401 0.11346869 1.3295668 10197915
0.9249993 0.11343938 1.329259 10197915
0.97499698 0.11341025 1.3288823 10197915
1.0240052 0.11338043 1.329296 10197915
1.0586419 0.11333864 1.3423234 10197915
-0.85449922 -0.60281229 1.3535014 1257291
-0.84839588 -0.60366362 1.35718 1257290
0.3307322 -0.60580361 1.3668865 4280668
0.36859745 -0.61099976 1.3897012 3951963
-0.85496926 -0.5750404 1.3532543 1124936
-0.84846163 -0.57500917 1.3571764 1125192
0.32608521 -0.57500976 1.3641315 3951706
0.36708981 -0.57498503 1.3888465 3622745
-0.85499531 -0.52503246 1.3532996 861252
-0.84847766 -0.52498311 1.3572299 926788
0.32546321 -0.52497739 1.3638293 3623001
0.36713329 -0.52500439 1.3889468 3491417
-0.85503411 -0.47502062 1.3533399 926788
-0.84851891 -0.47495878 1.3572687 926788
0.32546598 -0.47500363 1.3639063 3294296
0.36713925 -0.47499543 1.3890233 3162968
-0.85506153 -0.42496243 1.3533891 927301
-0.84839594 -0.42347735 1.3574079 927557
0.32547936 -0.42500794 1.3639874 2834261
0.36715946 -0.42497921 1.3891104 2702933
-0.85543978 -0.37479347 1.3532256 1059656
-0.84816837 -0.37500903 1.3576062 1059656
0.32552814 -0.37498975 1.3640928 2506068
0.36718705 -0.37500158 1.3892003 2440276
-0.85551965 -0.32504532 1.3532397 1060169
-0.84819037 -0.32510221 1.357656 1059913
0.32552212 -0.32498139 1.3641608 1979983
0.36721286 -0.32501724 1.3892896 1914191
-0.85556829 -0.27499762 1.3532699 861508
-0.84821904 -0.27505243 1.3577023 861765
0.3255513 -0.27498221 1.3642532 1782862
0.36723521 -0.27502686 1.389378 1717069
-0.85555309 -0.22498791 1.3533431 994376
-0.84824759 -0.22499934 1.357748 1059912
0.32558402 -0.22499233 1.3643466 1783632
0.36725599 -0.22503008 1.3894633 1652304
-0.85561711 -0.17505433 1.3533695 861507
-0.8482762 -0.17494288 1.3577939 861507
0.32559255 -0.17499632 1.3644261 1652304
0.36728638 -0.17500497 1.3895555 1586511
-0.85564768 -0.12495794 1.3534139 926787
-0.84830499 -0.12488301 1.3578401 861251
0.32557237 -0.12500994 1.3644872 1389133
0.3666504 -0.12502417 1.3892459 1389389
-0.85564536 -0.075055763 1.3534755 1191496
-0.84833401 -0.074819811 1.3578858 1125960
0.32511717 -0.074910909 1.3642871 1257034
0.36671558 -0.07493946 1.3893592 1191498
-0.85570532 -0.025154449 1.3535056 1191495
-0.84836239 -0.024753159 1.3579316 1191495
0.3249889 -0.024992147 1.3642826 1125705
0.36661333 -0.024982942 1.3893713 1125705
-0.85573459 0.025155589 1.3535531 1059911
-0.84835678 0.025141587 1.3579983 1060167
0.32500967 0.02499425 1.3643696 1125448
0.36663663 0.024985045 1.3894598 1125448
-0.85573232 0.07506372 1.3536152 927812
-0.8480106 0.074841246 1.3582695 927555
0.32507834 0.075014174 1.3644842 1191753
0.36677647 0.074931115 1.3896173 1257546
-0.85576624 0.10711183 1.3536353 729664
-0.84802926 0.10748094 1.3582999 795457
0.32569337 0.1077105 1.3635964 3228762
0.37015966 0.10916418 1.3826923 5069674
0.42511627 0.11366801 1.3717818 10197915
0.47515145 0.11363859 1.3715457 10197915
0.52515876 0.11360948 1.3711518 10197915
0.57514071 0.11358019 1.370841 10197915
0.62509799 0.11355123 1.3703723 10197915
0.67516959 0.11352189 1.3700975 10197915
0.72423494 0.11348421 1.3753091 10197915
0.77516234 0.11345257 1.3761156 10197915
0.8251217 0.1134234 1.3757592 10197915
0.87505245 0.11339426 1.3754081 10197915
0.92514831 0.11336483 1.3751549 10197915
0.97502983 0.11333603 1.3745959 10197915
1.0248827 0.1133066 1.3744483 10197915
1.0714024 0.11327647 1.3759477 10197915
1.10193 0.11323953 1.3874887 10197915
0.3930411 -0.61393762 1.4044316 3820123
0.42605436 -0.61865032 1.4243243 3491416
0.45904708 -0.62305498 1.4442015 3294295
0.39269665 -0.57500768 1.4042808 3425624
0.42461646 -0.57502145 1.423519 3294038
0.45890766 -0.57492894 1.4441888 3227989
0.39272445 -0.52500808 1.4043719 3360088
0.42464945 -0.52501255 1.4236114 3162967
0.45892575 -0.52498001 1.4442735 3097174
0.39274332 -0.4750022 1.4044572 3031639
0.42466086 -0.47501516 1.4236959 2900053
0.4589521 -0.47502542 1.4443631 2834004
0.39278257 -0.42504248 1.4045542 2571604
0.42468995 -0.42501137 1.4237897 2505811
0.4590002 -0.42497206 1.4444666 2440019
0.39279303 -0.37502408 1.4046347 2374739
0.42473596 -0.37500092 1.4238905 2308947
0.45901024 -0.37495807 1.4445463 2243154
0.39283255 -0.32499868 1.4047322 1914191
0.42476872 -0.32500154 1.4239794 1848655
0.45857635 -0.32540843 1.4443582 1783119
0.39283648 -0.27496758 1.4048079 1651277
0.42476249 -0.27501366 1.4240526 1585741
0.45833641 -0.27494183 1.4442875 1585741
0.3928822 -0.22492996 1.4049093 1387850
0.4248082 -0.22501877 1.4241558 1519948
0.45835027 -0.22499414 1.4443702 1454156
0.39288598 -0.17499177 1.4049863 1257034
0.42482883 -0.1750005 1.4242375 1322827
0.45842358 -0.17503969 1.4444884 1256521
0.39226347 -0.1249338 1.404685 1389133
0.42486885 -0.12495845 1.4243366 1389133
0.45843926 -0.12502848 1.4445715 1323340
0.39225841 -0.075074241 1.4047548 1191498
0.42493418 -0.074962325 1.4244516 1191497
0.45841169 -0.075163342 1.4446287 1125449
0.39205167 -0.025513202 1.4047042 1125705
0.4246107 -0.02482857 1.4243301 1125961
0.4584929 -0.02513854 1.444751 1125705
0.39160675 0.025020752 1.4045093 1125448
0.42417687 0.024984468 1.424139 1125704
0.45852172 0.025140671 1.4448427 1125704
0.39163134 0.07506647 1.4045988 1257545
0.42428616 0.074970722 1.4242802 1257289
0.45849738 0.075128302 1.4449021 1191753
0.39169407 0.10712201 1.4046351 2702932
0.42510578 0.10785338 1.4226202 3689054
0.46808106 0.11040663 1.4346589 6647673
0.52502304 0.11351867 1.4271455 10197915
0.57498258 0.11348948 1.4268223 10197915
0.62491852 0.11346039 1.4264125 10197915
0.67497522 0.11343162 1.4257885 10197915
0.72500199 0.11340186 1.425764 10197915
0.77500761 0.11337282 1.4253117 10197915
0.82498807 0.11334364 1.4249451 10197915
0.87494129 0.11331436 1.4246643 10197915
0.92486745 0.11328539 1.4242126 10197915
0.97491693 0.11325639 1.4237198 10197915
1.0250847 0.11322683 1.4235198 10197915
1.0750837 0.11319773 1.4231104 10197915
1.1184289 0.11316193 1.4292848 10197915
0.49143422 -0.65250379 1.4636796 3228759
0.52915168 -0.65747005 1.4864062 3097174
0.55106759 -0.66041118 1.4996115 2965332
0.48433056 -0.62500525 1.4594394 3228502
0.52500808 -0.62495428 1.4839573 2965589
0.55109215 -0.62502658 1.4996787 2900052
0.48432615 -0.5750013 1.4595089 3030868
0.52505887 -0.57500041 1.4840612 2833747
0.55112666 -0.57535875 1.499773 2636882
0.48436406 -0.52499217 1.4596061 2900053
0.52509272 -0.5250209 1.4841555 2768468
0.55116183 -0.52506369 1.4998683 2637140
0.48439118 -0.47497618 1.4596963 2636883
0.5251174 -0.47499639 1.4842442 2505555
0.55119479 -0.47786772 1.499958 2374482
0.4844391 -0.42501178 1.4597998 2308433
0.52518159 -0.42496645 1.4843574 2177361
0.48443854 -0.37504086 1.4598736 1914190
0.52518743 -0.3749685 1.4844334 1914191
0.48397589 -0.32478952 1.4596689 1783118
0.52524143 -0.32498276 1.4845407 1783119
0.48376805 -0.27502823 1.4596159 1585741
0.52526647 -0.27499121 1.4846293 1651533
0.48377472 -0.2249898 1.4596953 1322570
0.52530438 -0.22499278 1.4847264 1256521
0.4838421 -0.17499986 1.4598066 1190728
0.52531791 -0.17498824 1.484807 1190472
0.48385206 -0.1250041 1.4598892 1388876
0.52535635 -0.12503511 1.4849052 1323084
0.48388684 -0.074891284 1.4599829 1191241
0.52545774 -0.07505618 1.4850401 1190985
0.48389089 -0.024911562 1.4600602 1059399
0.52537644 -0.025015283 1.4850643 1191241
0.48392114 0.024913656 1.460153 1125191
0.52540857 0.025017362 1.4851583 993606
0.48397824 0.074906029 1.4602604 1257545
0.52482921 0.075028762 1.4848825 927043
0.48440659 0.10688774 1.4604903 2768469
0.52553153 0.10798066 1.4825895 3952225
0.57498705 0.11340397 1.4794849 10197915
0.62488651 0.11337446 1.4793613 10197915
0.67476153 0.11334562 1.4788535 10197915
0.72481602 0.11331642 1.4784752 10197915
0.77484202 0.11328723 1.478092 10197915
0.82484508 0.11325813 1.4777145 10197915
0.87502378 0.11322863 1.4774586 10197915
0.92497247 0.11319994 1.476824 10197915
0.97489673 0.11317037 1.4766988 10197915
1.0250001 0.1131416 1.4760644 10197915
1.0750726 0.11311201 1.4759364 10197915
1.1251231 0.11308306 1.4754305 10197915
1.1639861 0.11305127 1.4807403 10197915
0.57797402 -0.664056 1.5158228 2768467
0.61807919 -0.66949463 1.5399891 2702675
0.57609141 -0.62496519 1.5147487 2768467
0.61745363 -0.62498599 1.5396776 2571090
0.57610863 -0.57498741 1.5148312 2637139
0.61749661 -0.57501304 1.5397767 2373712
0.57595325 -0.52513433 1.5148109 2571604
0.61733329 -0.52477461 1.5397532 2440019
0.5752703 -0.47490951 1.514473 2308690
0.61671919 -0.47499582 1.5394564 2242897
0.57460403 -0.4250102 1.5141457 2046032
0.61677456 -0.42500174 1.5395638 2045776
0.57461435 -0.37499717 1.5142267 1848655
0.61680114 -0.37503293 1.5396529 1783119
0.574678 -0.32497779 1.5143402 1783119
0.61675298 -0.32518741 1.5396976 1783118
0.57471681 -0.27499336 1.5144328 1651533
0.61604625 -0.27502266 1.5393453 1585997
0.57475364 -0.22500306 1.5145302 1322313
0.61609834 -0.22500615 1.5394516 1453899
0.57475555 -0.17498529 1.514607 1190728
0.61611944 -0.1749844 1.5395375 1257034
0.57481414 -0.12494128 1.5147154 1257291
0.61620092 -0.12498716 1.5396607 1455182
0.57482249 -0.075015172 1.5147933 1191241
0.6161409 -0.074889541 1.5396991 1389132
0.57492989 -0.025063241 1.5149314 1191497
0.61628228 -0.02487958 1.5398579 1257033
0.57496697 0.025065357 1.5150274 1059398
0.61632133 0.024881661 1.539955 1124935
0.5499838 0.075195722 1.5000446 860994
0.5749104 0.0750499 1.5150713 860737
0.61626303 0.074872404 1.5399934 860737
0.57502025 0.10715839 1.5145335 3162968
0.62004924 0.10878652 1.5350764 5069418
0.67495781 0.11326674 1.5273604 10197915
0.72476333 0.11323773 1.5269687 10197915
0.77496207 0.11320826 1.526715 10197915
0.82513082 0.11317949 1.5260416 10197915
0.87506777 0.11315017 1.5257876 10197915
0.92518914 0.11312072 1.5255349 10197915
0.97507459 0.11309189 1.5250021 10197915
1.0247229 0.11306296 1.5246122 10197915
1.0749772 0.11303367 1.5242209 10197915
1.1252021 0.11300442 1.5238227 10197915
1.174781 0.1129753 1.5235728 10197915
1.2102567 0.11293597 1.534786 10197915
0.68668461 -0.70374984 1.5812896 2242898
0.70933574 -0.70680046 1.5949382 2177361
0.64217192 -0.67276144 1.5545059 2505810
0.67513883 -0.67493987 1.5743728 2374225
0.70888627 -0.67506337 1.594714 2111568
0.64207792 -0.62498695 1.5545198 2505554
0.6750828 -0.62504768 1.5744134 2308689
0.70895827 -0.6250385 1.5948317 2111311
0.64214289 -0.57500476 1.5546329 2176847
0.67474687 -0.57522506 1.5742843 2045262
0.70854193 -0.57430387 1.594655 1979726
0.642169 -0.52501571 1.5547215 2308690
0.67430699 -0.52500772 1.5740932 2177361
0.70813292 -0.52502513 1.5944811 2046032
0.64220917 -0.47501993 1.5548208 2177361
0.67432445 -0.47501028 1.5741773 2111569
0.70817041 -0.47504959 1.5945783 2046033
0.64224017 -0.42501849 1.5549129 1914447
0.67437178 -0.42500609 1.5742803 1914191
0.70823431 -0.42500201 1.5946903 1914447
0.64230031 -0.37493926 1.5550232 1783119
0.67444056 -0.3749966 1.5743952 1783119
0.70827436 -0.37494749 1.5947881 1783119
0.64220589 -0.32462505 1.5550405 1453385
0.67447132 -0.32498029 1.5744876 1387849
0.70833123 -0.32495275 1.5948966 1387849
0.64152592 -0.27502739 1.5547041 1321800
0.67448926 -0.27498081 1.5745723 1322056
0.70833308 -0.27501848 1.5949712 1322056
0.64155746 -0.22506039 1.5547982 1520204
0.67456478 -0.22499837 1.5746918 1520205
0.70802212 -0.22565408 1.5948564 1585997
0.64161319 -0.17502142 1.5549035 1257290
0.67461735 -0.17500995 1.5747964 1388619
0.70756227 -0.17499623 1.5946542 1388619
0.64164078 -0.12504146 1.5549937 1389389
0.67461818 -0.1249917 1.5748712 1389389
0.7075693 -0.12516345 1.5947319 1389132
0.64164126 -0.075186335 1.555068 1389132
0.67472535 -0.074943163 1.5750096 1389132
0.7076245 -0.075250231 1.594839 1388875
0.6417281 -0.025127385 1.5551941 1322825
0.67468172 -0.024960928 1.5750573 1322825
0.70769078 -0.025108993 1.5949538 1257032
0.64176923 0.025129508 1.5552949 1125447
0.67472404 0.024963027 1.5751565 1191240
0.70773578 0.02511112 1.595054 1190983
0.64176303 0.075201154 1.5553644 860994
0.67484897 0.074934632 1.5753058 927043
0.70775908 0.075265087 1.5951416 860993
0.64201045 0.10677172 1.5555593 2833748
0.67566407 0.10756175 1.5739839 3819613
0.7179597 0.11027461 1.5854079 6844538
0.77508533 0.11312439 1.578346 10197915
0.82522428 0.11309521 1.5779383 10197915
0.87511843 0.11306592 1.5776863 10197915
0.92498505 0.11303713 1.5771282 10197915
0.97504681 0.11300801 1.5767213 10197915
1.0250793 0.11297886 1.576315 10197915
1.0750896 0.11294976 1.5759089 10197915
1.1250702 0.11292064 1.5755029 10197915
1.175029 0.11289157 1.5750972 10197915
1.2233198 0.11286101 1.5761975 10197915
1.2571728 0.1128184 1.590052 10197915
0.73469049 -0.71025264 1.6102157 2440275
0.77621514 -0.71577466 1.635236 3754328
0.80036324 -0.71834475 1.6497871 4148570
0.73348367 -0.67511445 1.6095406 2045775
0.77462143 -0.67496365 1.6343353 1980239
0.80040753 -0.67463881 1.6498781 1980239
0.73355198 -0.62506878 1.6096562 1979982
0.77460629 -0.62497872 1.6344 1848654
0.80044985 -0.63297725 1.6499653 1914703
0.73360336 -0.57494295 1.6097604 1848397
0.77464682 -0.5750376 1.6344979 1782861
0.7336365 -0.52495873 1.6098548 1914448
0.77472854 -0.52503932 1.6346217 1914447
0.73367077 -0.47500503 1.609949 1980497
0.77475685 -0.47498253 1.6347115 1980497
0.73375517 -0.42500758 1.6100734 1848911
0.77480662 -0.42499769 1.6348163 1783375
0.73376983 -0.3750414 1.6101569 1651790
0.77489012 -0.3750065 1.6349403 1651790
0.73380423 -0.32506865 1.6102498 1387849
0.77487415 -0.32500836 1.635003 1322057
0.73386377 -0.27501547 1.610359 1322313
0.77499646 -0.27500466 1.6351516 1322056
0.73349464 -0.22465837 1.6102121 1586253
0.77501249 -0.22499381 1.6352371 1520204
0.73302889 -0.1750374 1.6100034 1388875
0.77506161 -0.17502967 1.6353391 1388875
0.73303479 -0.12501882 1.6100816 1323339
0.77509189 -0.12498064 1.6354295 1389388
0.73326695 -0.074993871 1.6102949 1323082
0.77494985 -0.075158924 1.6354206 1323082
0.73310304 -0.025002377 1.6102694 1191240
0.77432913 -0.025063915 1.6351181 1125191
0.73315257 0.024969324 1.6103717 1125191
0.77437806 0.025066013 1.6352227 1125190
0.73340249 0.074973553 1.6105983 860737
0.77429616 0.075011477 1.6352475 794944
0.73346919 0.10675291 1.6105992 3030357
0.77519274 0.10776045 1.6326387 4279905
0.82478315 0.11302084 1.6239095 10197915
0.874677 0.11299202 1.623367 10197915
0.92488354 0.11296281 1.622947 10197915
0.9750579 0.1129332 1.6227796 10197915
1.0252086 0.11290444 1.6221085 10197915
1.0750034 0.11287523 1.6218179 10197915
1.126314 0.11284214 1.6234016 10197915
1.1748507 0.11280189 1.6303914 10197915
1.2249681 0.11277249 1.6301384 10197915
1.2720606 0.11274089 1.6323477 10197915
1.3058887 0.11269436 1.648602 10197915
0.82575917 -0.7182917 1.6650957 4148570
0.86665535 -0.71832699 1.689744 4082777
0.82573777 -0.67492509 1.6651456 1848911
0.86667871 -0.67500526 1.6898228 1651532
0.82549179 -0.62471986 1.6650718 1848654
0.86676747 -0.62494594 1.6899495 1717582
0.82486415 -0.57499385 1.6647669 1651276
0.86679566 -0.57496732 1.6900398 1651532
0.82492584 -0.52499771 1.6648774 1717326
0.86685979 -0.52498233 1.6901525 1651533
0.82497257 -0.47502178 1.664979 1651277
0.86691278 -0.47499076 1.6902603 1453898
0.82500768 -0.42498586 1.6650741 1651790
0.86699021 -0.42499352 1.6903791 1585997
0.82512665 -0.374971 1.6652201 1651790
0.86699164 -0.37503356 1.6904526 1520461
0.82511872 -0.324976 1.6652896 1322057
0.86709839 -0.32502356 1.6905915 1256521
0.82465273 -0.27522784 1.6650814 1256264
0.86653543 -0.27461007 1.6903279 1190728
0.82424343 -0.22499807 1.6649101 1586253
0.86558568 -0.22533263 1.689828 1520460
0.82431203 -0.17496015 1.6650237 1389131
0.86517018 -0.17500328 1.6896518 1388875
0.8243919 -0.12497197 1.6651458 1389132
0.86534071 -0.12500373 1.6898278 1323339
0.79910296 -0.054686252 1.6500072 1323339
0.82436782 -0.074893914 1.6652061 1257546
0.86525035 -0.075174846 1.6898469 1257289
0.79913259 -0.025293069 1.6500685 1059398
0.824489 -0.024893567 1.6653531 1059398
0.86541235 -0.025205281 1.6900185 993862
0.79918385 0.025295228 1.6501744 1059398
0.82454127 0.024895653 1.6654576 1059655
0.86546749 0.025207426 1.6901257 1059398
0.79923415 0.07520622 1.6502781 794688
0.82452387 0.074908629 1.6655214 794944
0.86541474 0.075189695 1.6901677 794944
0.79926598 0.10665999 1.6503439 3162199
0.82555908 0.10749494 1.664272 4016991
0.87008858 0.10897136 1.6820655 5792625
0.92499769 0.11288376 1.6716111 10197915
0.97507286 0.11285464 1.6711802 10197915
1.025121 0.11282585 1.6705633 10197915
1.0749087 0.11279631 1.6705034 10197915
1.1234547 0.1127665 1.6710533 10197915
1.1748848 0.11272221 1.6794673 10197915
1.2250112 0.11269286 1.6791718 10197915
1.2747717 0.11266392 1.6787407 10197915
1.3181599 0.11263517 1.6805466 10197915
0.89118767 -0.7183454 1.7045306 4148314
0.92458266 -0.71840096 1.7246597 4148569
0.95871276 -0.71851766 1.74523 4214106
0.8912077 -0.67495441 1.7046067 1651789
0.92460567 -0.6750024 1.7247361 1519947
0.95881933 -0.67508161 1.7453592 1388105
0.89129293 -0.62502939 1.7047325 1717582
0.92467141 -0.62499374 1.7248513 1717581
0.95803624 -0.62560558 1.7449602 1585996
0.89133114 -0.57501006 1.7048292 1980752
0.92470998 -0.57500917 1.7249486 1914703
0.95781034 -0.57501316 1.7448984 1783374
0.89141297 -0.52498507 1.7049519 1783375
0.9248206 -0.52501863 1.7250884 1717582
0.95792466 -0.52506328 1.7450416 1651789
0.891433 -0.47504178 1.7050377 1453899
0.92483163 -0.47499099 1.7251688 1388362
0.95794058 -0.47510713 1.7451246 1322569
0.8915295 -0.42500335 1.7051703 1585997
0.92493707 -0.42498809 1.7253059 1520204
0.95803702 -0.42504171 1.7452568 1388619
0.89156032 -0.37495998 1.7052629 1388619
0.92496085 -0.37500781 1.7253945 1322313
0.95808852 -0.37496793 1.7453619 1256263
0.89163119 -0.32499698 1.7053789 1190728
0.92500871 -0.32502115 1.7254975 1190471
0.95814902 -0.32499418 1.7454721 1124422
0.89165848 -0.27502829 1.7054695 1190984
0.92508727 -0.27499872 1.7256182 1125191
0.95818311 -0.27501172 1.7455661 1190471
0.89110726 -0.22428349 1.7052116 1454924
0.925138 -0.22502957 1.7257218 1520460
0.95827043 -0.22492062 1.745693 1454667
0.8907069 -0.17487212 1.7050436 1389131
0.92522836 -0.17502359 1.7258506 1388874
0.95833111 -0.17502949 1.7458031 1388874
0.89082712 -0.12503959 1.7051899 1323338
0.92521298 -0.12495236 1.7259156 1323338
0.95836467 -0.12503034 1.7458973 1323594
0.89088392 -0.074887082 1.7052978 1191496
0.92526054 -0.074995384 1.7260191 1191496
0.95847899 -0.075123355 1.7460402 1191239
0.89094037 -0.024728261 1.7054056 993606
0.92544985 -0.025029873 1.7262057 993605
0.95750111 -0.025521995 1.745523 993605
0.89099598 0.024730328 1.7055119 993861
0.92550892 0.025031971 1.7263144 1059397
0.95749044 0.025311502 1.7455924 993604
0.89105195 0.074901767 1.7056205 794688
0.92489493 0.074727692 1.7260166 794944
0.95690936 0.076120816 1.7453171 794943
0.89108813 0.10670363 1.7056892 3228761
0.92523187 0.10741449 1.7241665 4280931
0.96622372 0.10969549 1.733413 6845051
1.0246664 0.11274191 1.7224351 10197915
1.0746967 0.11271309 1.7218415 10197915
1.1246974 0.1126838 1.7215472 10197915
1.174677 0.112655 1.7209543 10197915
1.2246251 0.11262575 1.7206606 10197915
1.2749069 0.11259653 1.7202138 10197915
1.3251619 0.11256734 1.719768 10197915
1.3607486 0.11253906 1.7241242 10197915
0.98382658 -0.71850467 1.7603672 4214106
1.0251147 -0.71849036 1.7852534 4279641
0.9838832 -0.67502749 1.7604657 1322313
1.025146 -0.67509347 1.7853384 1256776
0.9830718 -0.62477815 1.7600513 1454411
1.0252324 -0.62510532 1.7854624 1454154
0.98288393 -0.57498538 1.7600123 1717581
1.0247233 -0.57529062 1.7852296 1783373
0.98299009 -0.52497989 1.7601495 1651532
1.0242096 -0.52501065 1.7849928 1453898
0.98301256 -0.47496891 1.7602367 1322056
1.0242742 -0.47503626 1.7851068 1388362
0.98308223 -0.42504165 1.7603523 1388362
1.0243069 -0.42498496 1.7851996 1322313
0.98313874 -0.37506318 1.7604598 1190471
1.0244012 -0.37496334 1.7853318 1190727
0.98323089 -0.32498693 1.7605896 1124421
1.0244968 -0.32496974 1.7854623 1058372
0.98325497 -0.27499631 1.7606782 1124935
1.0245208 -0.27497062 1.7855507 1124934
0.98336881 -0.22504377 1.7608209 1454410
1.0246276 -0.22496381 1.7856891 1323081
0.98304027 -0.17534691 1.7606958 1323081
1.0242569 -0.17475796 1.7855418 1323081
0.98243219 -0.12500083 1.7604039 1323337
1.0236626 -0.12502456 1.7852539 1323081
0.98234183 -0.074832298 1.7604233 1125447
1.0235528 -0.075141601 1.7852621 1125190
0.98148483 -0.024704851 1.7599807 993605
1.0237958 -0.025149683 1.7854822 993604
0.98148513 0.024792006 1.7600534 1059140
1.0235046 0.024892775 1.7853812 993347
0.98142201 0.074791349 1.7600899 794686
1.0226228 0.075148538 1.7849232 728637
0.98231447 0.10709774 1.7596961 4083553
1.0242679 0.10800896 1.7802013 5135211
1.0749558 0.11262383 1.7767642 10197915
1.1247201 0.11259493 1.7763021 10197915
1.1747073 0.11256588 1.7758509 10197915
1.2251512 0.11253661 1.7753888 10197915
1.2750859 0.1125073 1.7751501 10197915
1.3249934 0.11247867 1.7744743 10197915
1.3740098 0.11244873 1.7749287 10197915
1.4119943 0.11240061 1.7906661 10197915
1.0745318 -0.7186138 1.8150399 4345433
1.11601 -0.71863943 1.8400396 4410970
1.0746468 -0.6750735 1.8151735 1322825
1.1160899 -0.67484468 1.8401529 1257032
1.0746202 -0.62505174 1.8152312 1388361
1.1161633 -0.62484068 1.8402712 1388360
1.0492417 -0.56228012 1.8000269 1783373
1.0747024 -0.57498795 1.8153534 1783373
1.1162332 -0.57499456 1.840387 1651787
1.049291 -0.52501816 1.8001117 1454154
1.0748169 -0.52499014 1.8154963 1519946
1.1161065 -0.52530664 1.8403835 1454154
1.0493573 -0.47508195 1.8002256 1388361
1.0748851 -0.47498477 1.8156111 1322569
1.1151447 -0.47499555 1.8398777 1388361
1.0494236 -0.42513934 1.8003392 1256776
1.0749493 -0.42497402 1.815724 1256776
1.1152266 -0.42500684 1.8400006 1388617
1.04949 -0.3751905 1.8004529 1124934
1.0749707 -0.37499225 1.8158119 1256776
1.1153021 -0.37501252 1.8401212 1257032
1.0495561 -0.32523528 1.8005667 1058628
1.0750986 -0.32500428 1.8159634 1124677
1.1153897 -0.32501239 1.8402483 1124677
1.0496228 -0.27527383 1.8006803 1059141
1.0751237 -0.27497393 1.8160506 1124677
1.1154442 -0.27500466 1.8403552 1058885
1.0496889 -0.22530603 1.8007941 1323081
1.0752479 -0.2249734 1.8161999 1322824
1.1154798 -0.2250504 1.8404493 1257031
1.0497551 -0.17533195 1.8009081 1322824
1.0752195 -0.17496644 1.8162571 1322824
1.1156405 -0.17508923 1.8406204 1322567
1.0498214 -0.12535155 1.8010216 1257288
1.075417 -0.12495294 1.8164492 1257287
1.1156836 -0.12506236 1.8407197 1191238
1.0498879 -0.075364828 1.8011353 1190726
1.0752988 -0.074827164 1.8164517 1125189
1.1156398 -0.075209208 1.8407671 1124932
1.0499542 -0.025371755 1.8012495 993348
1.0755475 -0.024836417 1.8166759 993603
1.1158239 -0.025168324 1.8409522 1059139
1.0485384 0.029084463 1.8004761 1058370
1.0746548 0.024998534 1.8162115 1058883
1.1158954 0.025170466 1.841069 1058882
1.0477881 0.075321682 1.8000922 728636
1.0743277 0.074832164 1.8160874 728636
1.1158463 0.075165421 1.8411131 794428
1.0478286 0.10590156 1.8001617 3031382
1.0755703 0.10652905 1.8166844 3689052
1.1204134 0.1082767 1.8379395 5661295
1.1752435 0.11247081 1.834214 10197915
1.2247027 0.11244185 1.8339318 10197915
1.2749004 0.11241301 1.8332767 10197915
1.3250623 0.11238363 1.8329825 10197915
1.3748275 0.11235476 1.8325117 10197915
1.424204 0.11232583 1.83223 10197915
1.4582015 0.11228686 1.8437804 10197915
1.1414285 -0.71858978 1.8553606 4411225
1.1748453 -0.71867466 1.8755025 4476761
1.2076014 -0.71883148 1.8952461 6710886
1.1415349 -0.67492318 1.8554896 1257031
1.1748387 -0.67492986 1.8755629 1322568
1.2076775 -0.6750288 1.895357 6710886
1.1416072 -0.62499666 1.8556074 1388360
1.1749666 -0.62492782 1.8757142 1519688
1.2077339 -0.62494457 1.8954642 6710886
1.1416793 -0.575064 1.8557242 1585994
1.1750337 -0.57499784 1.8758272 1585994
1.2078505 -0.57498568 1.8956088 6710886
1.1414918 -0.52448434 1.8556854 1388361
1.1750895 -0.52502275 1.8759362 1454152
1.2078733 -0.52502078 1.8956957 6710886
1.1406047 -0.47499117 1.8552244 1322311
1.1751461 -0.47504121 1.8760443 1388103
1.2079896 -0.47504857 1.8958395 6710886
1.1406763 -0.42505914 1.855342 1388617
1.1752322 -0.42501494 1.8761706 1453896
1.2080528 -0.42506984 1.895951 6710886
1.1407164 -0.37502572 1.8554391 1322568
1.1753379 -0.37498194 1.8763069 1388104
1.2081157 -0.37508523 1.8960636 6710886
1.1408067 -0.32508048 1.8555671 1124420
1.1753668 -0.32494286 1.8763981 1256005
1.2071209 -0.3256124 1.8955377 6710886
1.1409069 -0.27513012 1.8557016 1058884
1.1754662 -0.27497506 1.8765333 1190212
1.2070115 -0.27485538 1.8955463 6710886
1.1408949 -0.22498135 1.8557687 1257031
1.1755255 -0.22500065 1.8766435 1322567
1.2071205 -0.22476554 1.8956856 6710886
1.1411082 -0.17501588 1.8559704 1256774
1.175645 -0.17498195 1.8767874 1322310
1.2071806 -0.17482841 1.8957953 6710886
1.1410389 -0.12505023 1.8560028 1191238
1.1757261 -0.12499405 1.8769106 1322310
1.2071915 -0.12520427 1.895875 6710886
1.1412572 -0.074971147 1.8562082 1124675
1.1756676 -0.074886106 1.876949 1321796
1.2073162 -0.075407743 1.8960243 6710886
1.1411781 -0.024998054 1.8562349 1058882
1.1759049 -0.024885714 1.877166 1256003
1.2073929 -0.025137329 1.8961439 6710886
1.1412507 0.025000153 1.8563516 992832
1.1759785 0.024887817 1.8772835 1255489
1.2074696 0.02513946 1.8962644 6710886
1.1414399 0.074891247 1.8565391 794171
1.1758511 0.074938886 1.8772805 991034
1.207546 0.075422667 1.8963854 6710886
1.1402186 0.10610217 1.8558494 3491161
1.175797 0.10696834 1.8760874 4543074
1.2195101 0.11011063 1.8877013 9211020
1.2754364 0.11233196 1.8830372 10197915
1.325025 0.11230321 1.8825554 10197915
1.3749678 0.11227459 1.8818746 10197915
1.4252808 0.1122454 1.8813853 10197915
1.4722583 0.11221451 1.8832053 10197915
1.5030465 0.11217936 1.8935401 10197915
1.2725415 -0.85940415 1.9418687 6710886
1.2723844 -0.82501984 1.941359 6710886
1.2724411 -0.77508461 1.9413943 6710886
1.2319922 -0.71878004 1.9099473 6710886
1.2740992 -0.72450501 1.9361999 6710886
1.2321105 -0.67499387 1.9100832 6710886
1.2731249 -0.67491424 1.9351703 6710886
1.2321697 -0.62499702 1.9101921 6710886
1.2732388 -0.62494051 1.9353232 6710886
1.2322285 -0.57499504 1.9103017 6710886
1.2732618 -0.57495248 1.9354055 6710886
1.2323002 -0.52498561 1.9104191 6710886
1.2733649 -0.52504689 1.9355351 6710886
1.2324035 -0.47497141 1.9105549 6710886
1.2734336 -0.47509024 1.9356432 6710886
1.2324812 -0.42494953 1.9106755 6710886
1.2735147 -0.42499575 1.9357604 6710886
1.2325468 -0.37498337 1.9107889 6710886
1.2734652 -0.37514612 1.9357971 6710886
1.2314725 -0.32482094 1.9102159 6710886
1.2723111 -0.32497737 1.9351574 6710886
1.2314757 -0.27500924 1.9102919 6710886
1.2724313 -0.2749567 1.935297 6710886
1.2314479 -0.22505316 1.9103485 6710886
1.2724441 -0.22493032 1.9353719 6710886
1.2315764 -0.17503263 1.910499 6710886
1.2725642 -0.17494598 1.9355146 6710886
1.2315984 -0.12489458 1.9105862 6710886
1.2726578 -0.12500131 1.9356383 6710886
1.2318352 -0.075029589 1.9108031 6710886
1.2725798 -0.074865676 1.9356543 6710886
1.2317158 -0.02510969 1.9108051 6710886
1.2728211 -0.024862019 1.9358724 6710886
1.2317946 0.025111826 1.9109266 6710886
1.2728927 0.024863925 1.9359827 6710886
1.2321063 0.074987262 1.9111881 6710886
1.2727994 0.074879192 1.9359902 6710886
1.2320368 0.10609908 1.9111923 7697781
1.274332 0.10742712 1.9340372 8224125
1.3245803 0.1122189 1.9346743 10197915
1.3751202 0.11218929 1.934383 10197915
1.425239 0.11216027 1.9338825 10197915
1.4749281 0.1121318 1.9331733 10197915
1.5201435 0.11209926 1.9366494 10197915
1.2384356 -0.86875832 1.9836018 6710886
1.257465 -0.86276108 1.9569929 6710886
1.326292 -0.86506391 1.9672421 6710886
1.3652394 -0.87039149 1.9907138 6710886
1.2392772 -0.82496488 1.9823161 6710886
1.2581244 -0.82501906 1.9566658 6710886
1.3244941 -0.8249886 1.9662101 6710886
1.364772 -0.82501113 1.9904885 6710886
1.2421638 -0.7880978 1.9776262 6710886
1.2590425 -0.77889764 1.9563198 6710886
1.3246003 -0.77502495 1.9663371 6710886
1.3648283 -0.77497464 1.9905866 6710886
1.2987964 -0.72496575 1.950845 6710886
1.3246343 -0.72505522 1.9664198 6710886
1.3649035 -0.72500855 1.9906949 6710886
1.298867 -0.6748932 1.950951 6710886
1.324733 -0.67498994 1.9665436 6710886
1.3650358 -0.67496181 1.990839 6710886
1.2989376 -0.62481529 1.9510571 6710886
1.3248149 -0.6249634 1.9666567 6710886
1.3650763 -0.62491006 1.9909264 6710886
1.299008 -0.57473207 1.9511629 6710886
1.324843 -0.57502365 1.9667362 6710886
1.3651414 -0.57500184 1.9910299 6710886
1.2990787 -0.52464324 1.951269 6710886
1.3249145 -0.52498698 1.9668419 6710886
1.3651819 -0.52508944 1.9911169 6710886
1.2991493 -0.47454891 1.951375 6710886
1.3250383 -0.47499007 1.9669808 6710886
1.3652903 -0.47509542 1.9912453 6710886
1.2992201 -0.42444932 1.9514813 6710886
1.325084 -0.4250333 1.9670728 6710886
1.3653643 -0.42502177 1.9913527 6710886
1.2990549 -0.37246409 1.9514478 6710886
1.3251548 -0.37502545 1.9671786 6710886
1.3650794 -0.37543777 1.9912437 6710886
1.2979879 -0.3253147 1.9508642 6710886
1.3252058 -0.32496771 1.9672725 6710886
1.3641275 -0.32494426 1.9907347 6710886
1.2980802 -0.27561942 1.9509829 6710886
1.3252803 -0.27494842 1.9673816 6710886
1.3641787 -0.2748988 1.990829 6710886
1.2981507 -0.225519 1.9510887 6710886
1.3253876 -0.22497056 1.9675074 6710886
1.3642339 -0.22492827 1.9909251 6710886
1.2982212 -0.17541315 1.9511948 6710886
1.3254621 -0.17503098 1.9676163 6710886
1.3642755 -0.17503738 1.9910136 6710886
1.2982918 -0.12530188 1.9513011 6710886
1.3255635 -0.12504272 1.9677415 6710886
1.364521 -0.12513682 1.991225 6710886
1.2983625 -0.07518512 1.951407 6710886
1.3255811 -0.075137898 1.9678159 6710886
1.3644012 -0.074826501 1.9912173 6710886
1.2984332 -0.025062921 1.9515135 6710886
1.3256088 -0.025140261 1.9678947 6710886
1.3645725 -0.024749978 1.9913828 6710886
1.2985035 0.025064733 1.9516193 6710886
1.3256795 0.025142092 1.9680015 6710886
1.3646451 0.024751734 1.9914896 6710886
1.2985741 0.075197831 1.9517254 6710886
1.3257968 0.075150616 1.9681355 6710886
1.3646234 0.07483913 1.9915397 6710886
1.2986174 0.10592706 1.9517905 7697781
1.3270024 0.10639287 1.9687086 7895160
1.3680143 0.10791221 1.9871216 8487297
1.4244922 0.11209394 1.9749641 10197915
1.4748373 0.11206482 1.9744508 10197915
1.5251563 0.11203568 1.9739376 10197915
1.5600405 0.11201551 1.9735819 10197915
