# .PCD v0.7 - Point Cloud Data file format
VERSION 0.7
FIELDS x y z rgb
SIZE 4 4 4 4
TYPE F F F U
COUNT 1 1 1 1
WIDTH 1179
HEIGHT 1
VIEWPOINT 0 0 0 1 0 0 0
POINTS 1179
DATA ascii
-0.32779819 0.024985414 1.5244403 6513507
-0.32782593 0.074966595 1.52479 8224125
-1.2112285 0.10560837 1.5377536 2906249
-1.1750385 0.10574766 1.5284396 2316429
-1.1250913 0.10587397 1.530265 1523054
-1.0767484 0.10600329 1.5304604 5661296
-1.0227009 0.10619764 1.519598 10132122
-0.97764218 0.10633226 1.5166388 10066329
-0.94707584 0.10647599 1.5029799 10066329
-0.32585278 0.10479958 1.5236956 10197915
-0.27497283 0.10817745 1.5271283 10197915
-0.22505011 0.10830452 1.5287714 10197915
-0.17521675 0.1084307 1.5305523 10197915
-0.12536922 0.10856911 1.529621 10197915
-0.075017333 0.10875878 1.5175824 10197915
-0.024962291 0.10888625 1.5192128 10197915
0.025001002 0.10901286 1.5209795 10197915
0.074866362 0.10913923 1.5227422 9605778
0.12485114 0.10926588 1.5245103 2894892
0.17494836 0.10939284 1.5262811 4934475
0.22473954 0.10951839 1.5281811 6513507
0.27485991 0.10964604 1.5298134 6513507
0.32530653 0.10977387 1.5315967 6513507
0.37400001 0.10995273 1.5209712 6513507
0.42488748 0.11010044 1.5185961 6513507
0.47492591 0.11022797 1.5202066 6513507
0.52508122 0.11035452 1.5221009 6513507
0.57513827 0.11048084 1.5239899 6513507
0.62488532 0.11060762 1.5255885 6513507
0.67495716 0.11073457 1.5273428 6513507
0.72514737 0.11086188 1.5290947 6513507
0.77502048 0.11098769 1.5309833 6513507
0.82579303 0.11114744 1.5258662 6513507
0.87501425 0.1113153 1.5180025 6513507
0.92512208 0.11144248 1.5197331 6513507
0.97491884 0.11156885 1.5214565 6513507
1.0248268 0.11169484 1.5233256 6513507
1.0744339 0.11182009 1.525182 6513507
1.108812 0.11185715 1.5375412 6513507
-0.30077133 -0.57100171 1.5512238 6513507
-0.27943742 -0.57104176 1.5759449 6513507
-0.30081865 -0.52514672 1.5515182 6513507
-0.27947918 -0.52498877 1.5762479 6513507
-0.30121574 -0.47254011 1.5514579 6513507
-0.28003943 -0.47504812 1.5759803 6513507
-0.30146396 -0.42487794 1.5515335 6513507
-0.28016114 -0.42500731 1.5762199 6513507
-0.30152431 -0.37481615 1.5518444 6513507
-0.28017789 -0.37499377 1.5765812 6513507
-0.30158481 -0.32473406 1.5521554 6513507
-0.28024989 -0.32499644 1.5768759 6513507
-0.30199176 -0.27308628 1.5520773 6513507
-0.28079078 -0.27510637 1.5766295 6513507
-0.30222639 -0.22490321 1.5521723 6513507
-0.28091604 -0.22501783 1.576867 6513507
-0.30229342 -0.17510314 1.5524734 6513507
-0.28096724 -0.17498615 1.5771878 6513507
-0.30236045 -0.12528411 1.5527754 6513507
-0.28102535 -0.12498888 1.5775025 6513507
-0.30279878 -0.074122161 1.5526567 6513507
-0.28150797 -0.075120807 1.5773232 6513507
-0.30299568 -0.025088139 1.552802 6513507
-0.28168938 -0.025021877 1.5774935 6513507
-0.30305654 0.025094844 1.5531131 6513507
-0.28173962 0.025009919 1.5778147 6513507
-0.30311728 0.075297982 1.5534252 8158332
-0.28177178 0.075001627 1.578158 8092539
-1.2581499 0.10523456 1.5928373 3037576
-1.2235297 0.10538045 1.5811167 2381965
-1.1770564 0.10553015 1.5756557 1920132
-1.125235 0.10567446 1.5745924 2440022
-1.0731226 0.10582005 1.5734205 10197915
-1.0250059 0.10596855 1.5692164 10197915
-0.99024248 0.10609876 1.5610654 10197915
-0.30305076 0.10438171 1.5537236 10197915
-0.27843457 0.10497356 1.5769862 10197915
-0.2252977 0.10807025 1.580765 10197915
-0.17506476 0.10823585 1.574017 10197915
-0.12331241 0.10837747 1.573501 10197915
-0.074946828 0.10852958 1.56864 10197915
-0.024937158 0.10865602 1.5704675 10197915
0.02497579 0.10878227 1.5722926 10197915
0.075003281 0.10890809 1.5742726 10000536
0.12514392 0.10903556 1.5759529 2894892
0.17518681 0.1091628 1.5776244 4539717
0.225125 0.10928772 1.5797608 6513507
0.27363712 0.10941643 1.5801865 6513507
0.32515913 0.10958131 1.5743661 6513507
0.37734333 0.1097416 1.569971 6513507
0.42497623 0.10987306 1.5692627 6513507
0.47515294 0.10999938 1.5712279 6513507
0.52500486 0.11012619 1.5728749 6513507
0.57497203 0.11025339 1.5745289 6513507
0.62505019 0.1103787 1.5766475 6513507
0.67502606 0.11050587 1.5782968 6513507
0.7251181 0.11063264 1.5801076 6513507
0.77301759 0.11076438 1.5794979 6513507
0.82623631 0.11093386 1.5736642 6513507
0.87508422 0.11108983 1.568243 6513507
0.92507744 0.1112171 1.5698752 6513507
0.97496498 0.11134348 1.5716585 6513507
1.0249624 0.11147007 1.573446 6513507
1.0750773 0.11159698 1.5752373 6513507
1.122297 0.11170625 1.5792212 6513507
1.1548818 0.11172009 1.5956669 6513507
-0.25404868 -0.57105267 1.6053669 6513507
-0.23293832 -0.57116121 1.6298314 6513507
-0.25410771 -0.52509272 1.6056488 6513507
-0.23297752 -0.52506322 1.6301357 6513507
-0.25467747 -0.47480005 1.6053715 6513507
-0.23303327 -0.47499713 1.6304525 6513507
-0.25477481 -0.42498708 1.6056378 6513507
-0.23312314 -0.42500383 1.6307286 6513507
-0.25481591 -0.37502432 1.6059701 6513507
-0.23361573 -0.37509128 1.6305386 6513507
-0.25488016 -0.32504201 1.6062765 6513507
-0.23378654 -0.32501212 1.630722 6513507
-0.25540343 -0.27469236 1.6060538 6513507
-0.23378688 -0.27499998 1.6311007 6513507
-0.25554317 -0.22499186 1.6062694 6513507
-0.23386163 -0.22499193 1.6313951 6513507
-0.25558057 -0.17505023 1.6066061 6513507
-0.23429942 -0.17518921 1.6312675 6513507
-0.25566319 -0.12495725 1.6068921 6513507
-0.23450652 -0.1250086 1.6314082 6513507
-0.25612187 -0.074663252 1.6067441 6513507
-0.23465098 -0.075010903 1.6316212 6513507
-0.25633258 -0.02505748 1.6068777 6513507
-0.23456086 -0.025017181 1.6321073 6513507
-0.25638399 0.025064176 1.607199 6513507
-0.23493332 0.024783188 1.6320553 6513507
-0.2563588 0.075013287 1.6076087 8026746
-0.23536378 0.074999824 1.6319368 7960953
-1.2717369 0.10504379 1.6271619 2512779
-1.2249471 0.10516902 1.6273369 2118794
-1.1730989 0.10533454 1.6215732 1455195
-1.1249522 0.10546557 1.6212705 8159623
-1.0749578 0.10559066 1.6233779 10197915
-1.0337365 0.10571752 1.6198586 10197915
-0.25642675 0.10390718 1.6077499 10197915
-0.23092809 0.10503315 1.6302059 10197915
-0.17490229 0.10803135 1.6196293 10197915
-0.12494589 0.10815818 1.6213473 10197915
-0.07509993 0.10828239 1.6235716 10197915
-0.0251345 0.10840921 1.6252937 10197915
0.024950014 0.10853484 1.6273568 10197915
0.074918561 0.10866243 1.6289051 10132122
0.12244254 0.10880196 1.6263325 3355443
0.17487474 0.10895595 1.6234878 4144959
0.22490421 0.10908335 1.6251153 6513507
0.27677217 0.10922395 1.6249152 6513507
0.32522941 0.1093779 1.6196941 6513507
0.37532106 0.10950439 1.6215627 6513507
0.42484561 0.10962947 1.6234144 6513507
0.47471377 0.10975461 1.62545 6513507
0.52492225 0.10988214 1.6271571 6513507
0.57478911 0.11000807 1.6290213 6513507
0.62241763 0.11014285 1.6275656 6513507
0.67493504 0.1103031 1.6233803 6513507
0.72486448 0.11042921 1.6252366 6513507
0.77732873 0.11057937 1.6232637 6513507
0.82494771 0.11072342 1.6197393 6513507
0.87493348 0.11084974 1.6215869 6513507
0.92502946 0.11097633 1.6234391 6513507
0.97524393 0.11110323 1.6252948 6513507
1.0251119 0.11122846 1.6273071 6513507
1.0748588 0.11135573 1.628803 6513507
1.1229898 0.11148521 1.6288334 6513507
1.1657803 0.11161719 1.6251101 6513507
-0.20818329 -0.57119077 1.6585176 6513507
-0.18620755 -0.57111228 1.6839837 6513507
-0.20822583 -0.52509296 1.6588186 6513507
-0.18691061 -0.52505308 1.6835201 6513507
-0.20827252 -0.47502148 1.6591455 6513507
-0.18696249 -0.47499976 1.6838398 6513507
-0.20831434 -0.42498115 1.6594785 6513507
-0.18699524 -0.42498505 1.6841829 6513507
-0.20888931 -0.37481847 1.6591936 6513507
-0.18701309 -0.37498116 1.6845442 6513507
-0.20901348 -0.32498568 1.6594294 6513507
-0.1874688 -0.32528538 1.6843936 6513507
-0.20901527 -0.27495408 1.6598077 6513507
-0.18772037 -0.27505419 1.6844847 6513507
-0.20847423 -0.22503842 1.6608146 6513507
-0.18713172 -0.22495569 1.685547 6513507
-0.20895572 -0.17471629 1.6606399 6513507
-0.18719462 -0.17502749 1.6858555 6513507
-0.20915502 -0.12505074 1.6607879 6513507
-0.18738396 -0.12532617 1.6860139 6513507
-0.20921265 -0.07488171 1.6611009 6513507
-0.18792358 -0.075135171 1.6857711 6513507
-0.20925568 -0.024866011 1.6614335 6513507
-0.18788053 -0.025147762 1.6862017 6513507
-0.20965274 0.025270842 1.6613547 6513507
-0.18791837 0.025154533 1.686541 6513507
-0.2099314 0.074904017 1.66141 7895160
-0.18807182 0.075075462 1.6867429 7829367
-1.3182709 0.10467582 1.681167 2578314
-1.2751578 0.10481817 1.6753325 2250893
-1.225026 0.10494324 1.6775343 1456486
-1.1768293 0.10509665 1.6722823 5595503
-1.1251007 0.10524039 1.6712986 10197915
-1.0770332 0.10536529 1.6723094 10197915
-1.0479114 0.10548057 1.664097 10197915
-0.2096501 0.10427012 1.6612328 10197915
-0.18072557 0.1057248 1.6808952 10197915
-0.12686612 0.10792335 1.6724662 10197915
-0.075154409 0.10806473 1.6719972 10197915
-0.024963165 0.1081905 1.6740897 10197915
0.025001874 0.10831629 1.6760373 10197915
0.074731417 0.10844214 1.6778328 10066329
0.12711142 0.10860468 1.6730541 3552822
0.17500353 0.10873855 1.6719584 3750201
0.22489846 0.10886507 1.6737038 6513507
0.274914 0.10899189 1.675458 6513507
0.32527086 0.10911706 1.6777785 6513507
0.37300479 0.10925204 1.6763519 6513507
0.42519534 0.10941398 1.67159 6513507
0.47526008 0.10954078 1.6733774 6513507
0.52508229 0.10966507 1.6755749 6513507
0.5750196 0.10979218 1.6772181 6513507
0.6275686 0.10994875 1.6738627 6513507
0.67483979 0.11008795 1.6712135 6513507
0.72482955 0.110214 1.6731268 6513507
0.77492952 0.11034032 1.6750439 6513507
0.82491308 0.11046632 1.6769567 6513507
0.87500554 0.11059176 1.6790583 6513507
0.9245711 0.11075828 1.6717027 6513507
0.97513688 0.11088889 1.6729449 6513507
1.025161 0.11101569 1.6747106 6513507
1.0753015 0.11114153 1.6767559 6513507
1.1275418 0.11129098 1.6748004 6513507
1.174818 0.11143684 1.670669 6513507
1.2118095 0.11147634 1.6840528 6513507
-0.1611121 -0.57110465 1.7130656 6513507
-0.13967617 -0.57113332 1.7379053 6513507
-0.16173038 -0.52486098 1.7127005 6513507
-0.13970822 -0.52488071 1.7382212 6513507
-0.16181478 -0.47504595 1.7129827 6513507
-0.140259 -0.47519717 1.7379611 6513507
-0.16182317 -0.42506006 1.7133548 6513507
-0.14040761 -0.42490551 1.7381727 6513507
-0.16188769 -0.37505358 1.7136595 6513507
-0.1404535 -0.37490886 1.738499 6513507
-0.16231424 -0.32472029 1.7135476 6513507
-0.14047389 -0.32494166 1.7388574 6513507
-0.1625836 -0.27500531 1.7136143 6513507
-0.14073734 -0.27536649 1.7389275 6513507
-0.16259149 -0.22501869 1.7139848 6513507
-0.14118353 -0.22500823 1.7387944 6513507
-0.16265815 -0.17497472 1.7142897 6513507
-0.14122152 -0.17497814 1.7391315 6513507
-0.16286643 -0.12469316 1.7144315 6513507
-0.14121717 -0.12498008 1.7395171 6513507
-0.1633974 -0.074890107 1.7141948 6513507
-0.14129969 -0.075168192 1.7398002 6513507
-0.16334088 -0.024861624 1.7146407 6513507
-0.14192529 -0.025272265 1.7394557 6513507
-0.16337343 0.024868192 1.7149819 6513507
-0.14199163 0.025173275 1.7397621 6513507
-0.16353011 0.074967846 1.7151824 7763574
-0.14203779 0.075142384 1.7400904 7697781
-1.3626155 0.10433922 1.7295189 2775177
-1.3249662 0.10445215 1.7269551 2316942
-1.274981 0.10457744 1.7290268 1721207
-1.2248815 0.10470441 1.7307966 4280932
-1.1732593 0.10487344 1.7241141 10197915
-1.1250281 0.10500405 1.723956 10197915
-1.0884115 0.10514739 1.7139952 10197915
-0.16344644 0.10401645 1.7151915 10197915
-0.13064077 0.10603373 1.7295291 10197915
-0.074975893 0.10783377 1.7235075 10197915
-0.025021125 0.10795747 1.7259203 10197915
0.023587085 0.10808648 1.7263404 10197915
0.075143471 0.108258 1.7190614 10066329
0.12514718 0.10838374 1.7210529 4013373
0.17490108 0.10850807 1.7231921 3355443
0.22513562 0.10863438 1.7251974 6513507
0.27512625 0.10876071 1.7270393 6513507
0.32523003 0.10888597 1.729193 6513507
0.37768275 0.10904191 1.7259276 6513507
0.42484686 0.10918433 1.7224946 6513507
0.47487372 0.10931015 1.7244792 6513507
0.52501154 0.10943531 1.726674 6513507
0.57285458 0.10957275 1.7247603 6513507
0.62528378 0.10973579 1.7198932 6513507
0.67485845 0.10985983 1.7219992 6513507
0.7249136 0.10998577 1.723973 6513507
0.77544427 0.11011358 1.7258143 6513507
0.8253637 0.11023849 1.7279346 6513507
0.87503302 0.11036346 1.7298932 6513507
0.92565018 0.11053637 1.7217512 6513507
0.97502369 0.11066246 1.7232789 6513507
1.0247276 0.11078754 1.7252331 6513507
1.074792 0.11091264 1.7273965 6513507
1.1224219 0.11105925 1.7233186 6513507
1.1748581 0.11121161 1.7208371 6513507
1.2236829 0.11133242 1.7232167 6513507
1.2552201 0.11136752 1.7343009 6513507
-0.11489484 -0.57121849 1.7666227 6513507
-0.093493938 -0.57123786 1.7914233 6513507
-0.11491694 -0.52496254 1.7669489 6513507
-0.093524791 -0.52502322 1.7917389 6513507
-0.11553005 -0.47480783 1.7666205 6513507
-0.093562201 -0.47501442 1.7920763 6513507
-0.11562959 -0.42505121 1.7668839 6513507
-0.093560241 -0.42491019 1.7924604 6513507
-0.11568411 -0.37505174 1.7672029 6513507
-0.094208084 -0.37513438 1.7920882 6513507
-0.11569122 -0.3249985 1.767575 6513507
-0.094295748 -0.32498941 1.7923687 6513507
-0.11600299 -0.27471757 1.7675964 6513507
-0.094337761 -0.27504694 1.7927003 6513507
-0.11639471 -0.22498991 1.7675219 6513507
-0.094328858 -0.22500019 1.7930912 6513507
-0.11648007 -0.17497757 1.7678024 6513507
-0.094632797 -0.1756555 1.7931144 6513507
-0.11647297 -0.12500884 1.7681911 6513507
-0.09505517 -0.12488364 1.7930119 6513507
-0.11654013 -0.074957006 1.7684933 6513507
-0.095110588 -0.075132489 1.7933261 6513507
-0.11667394 -0.024650812 1.7687237 6513507
-0.094680332 -0.026054099 1.7941993 6513507
-0.1164805 0.024923157 1.769323 6513507
-0.094431385 0.025283124 1.794878 6513507
-0.11662301 0.074956603 1.7695391 7566195
-0.095031023 0.074576423 1.7945584 7500402
-1.407915 0.10398957 1.7801976 3037576
-1.374536 0.10412432 1.7702135 2447757
-1.3251312 0.10424868 1.7721475 2052488
-1.2749104 0.10437507 1.7741201 1783381
-1.224565 0.10450029 1.7764248 9343123
-1.1748177 0.10462553 1.7783716 10197915
-1.1334865 0.10474009 1.7776501 10197915
-0.11585421 0.10421143 1.7695009 10197915
-0.081090219 0.106275 1.7835561 10197915
-0.025079528 0.10771066 1.7808294 10197915
0.026726959 0.10785275 1.7802565 10197915
0.074949898 0.10801365 1.7733437 10066329
0.12506358 0.10813735 1.7758478 4539717
0.17298844 0.1082923 1.7700812 2960685
0.22494373 0.1084402 1.7683097 6513507
0.27508166 0.10856453 1.7706888 6513507
0.3253423 0.10869063 1.7727461 6513507
0.37534976 0.10881687 1.7746255 6513507
0.42509854 0.1089402 1.7769953 6513507
0.47495577 0.10906679 1.7787019 6513507
0.52493685 0.10919221 1.7807468 6513507
0.57741731 0.10935073 1.7769263 6513507
0.62487215 0.10949287 1.773731 6513507
0.67488116 0.10961641 1.7762082 6513507
0.72254413 0.10976793 1.7710491 6513507
0.77493387 0.10991955 1.7687074 6513507
0.82497704 0.11004521 1.7707297 6513507
0.87512612 0.11016966 1.7730852 6513507
0.92539442 0.11029741 1.7747879 6513507
0.97540516 0.11042225 1.7769737 6513507
1.0251516 0.11054721 1.7789842 6513507
1.0750047 0.1106739 1.7806635 6513507
1.1273165 0.11084055 1.7749324 6513507
1.1751494 0.11097293 1.7741289 6513507
1.2247864 0.1110987 1.7758979 6513507
1.2660048 0.11120974 1.7758781 6513507
-0.068617888 -0.57133937 1.8202493 6513507
-0.046641313 -0.57135105 1.8457166 6513507
-0.068636619 -0.52504379 1.8205807 6513507
-0.046659037 -0.52495646 1.8460498 6513507
-0.068629704 -0.47499683 1.8209683 6513507
-0.046753399 -0.47568449 1.8463156 6513507
-0.068685189 -0.4249905 1.8212864 6513507
-0.047407031 -0.42500827 1.8459443 6513507
-0.069332987 -0.37492049 1.8209157 6513507
-0.047427863 -0.37499237 1.8463008 6513507
-0.069414236 -0.32504466 1.8212023 6513507
-0.047448721 -0.3249574 1.8466573 6513507
-0.069420166 -0.27504128 1.8215746 6513507
-0.047424212 -0.27489889 1.847067 6513507
-0.069423407 -0.22501794 1.821954 6513507
-0.047785975 -0.22692618 1.8470125 6513507
-0.0697501 -0.17476362 1.8219572 6513507
-0.04820399 -0.1752203 1.8469219 6513507
-0.070201509 -0.12500978 1.8218124 6513507
-0.048213724 -0.12474505 1.8472944 6513507
-0.070256419 -0.074987404 1.822129 6513507
-0.048223305 -0.075014703 1.8476624 6513507
-0.070161022 -0.024945589 1.8226213 6513507
-0.04823292 -0.025264503 1.8480302 6513507
-0.070154056 0.024924105 1.8230085 6513507
-0.048828807 0.023750555 1.8477122 6513507
-0.070933454 0.075074531 1.8224865 7434609
-0.048995912 0.075026333 1.8479093 7368816
-1.451309 0.10366492 1.8264545 6713470
-1.4215419 0.10378458 1.8176677 2315915
-1.3749316 0.1039104 1.8176016 2250893
-1.3249389 0.10403601 1.8196074 1456483
-1.2748328 0.10416032 1.8219733 6779002
-1.2249675 0.10428483 1.824151 10197915
-1.1763985 0.10440953 1.8255051 10197915
-1.1454124 0.10453864 1.815347 10197915
-0.069825768 0.10429689 1.8218492 10197915
-0.028139908 0.106957 1.8301636 10197915
0.025017817 0.10762664 1.8295696 10197915
0.074746802 0.10775189 1.8315003 10066329
0.12459455 0.10787577 1.833805 5131854
0.17668524 0.10804976 1.8262885 2894892
0.22241883 0.108199 1.8204815 6052956
0.27504271 0.1083597 1.8162577 6513507
0.32546043 0.10848516 1.8185496 6513507
0.37523979 0.10861064 1.8204587 6513507
0.42512724 0.10873482 1.8227333 6513507
0.47513798 0.10886087 1.8246516 6513507
0.52487296 0.10898376 1.8271025 6513507
0.57472277 0.10911033 1.8288321 6513507
0.62469321 0.10923541 1.8309296 6513507
0.6751579 0.10936099 1.8332301 6513507
0.72720313 0.1095315 1.826471 6513507
0.77381337 0.10966729 1.8241882 6513507
0.82494348 0.10984226 1.8158817 6513507
0.87484497 0.10996738 1.8179497 6513507
0.92523956 0.11009291 1.8202163 6513507
0.97536755 0.11021858 1.8222944 6513507
1.0252192 0.11034435 1.8241818 6513507
1.0751876 0.11046881 1.8264318 6513507
1.1248815 0.11059339 1.8284913 6513507
1.1750702 0.11072002 1.8303919 6513507
1.225382 0.11084531 1.8326566 6513507
1.2773159 0.11101347 1.8263512 6513507
1.3167776 0.11108134 1.8349086 6513507
-0.021715252 -0.57144618 1.8746017 6447714
-0.021750843 -0.52508533 1.8749135 6447714
-0.021871835 -0.47488397 1.8751557 6447714
-0.022838788 -0.42519686 1.8744135 6447714
-0.023282994 -0.37498668 1.8742808 6513507
-0.023315905 -0.32499614 1.8746226 6513507
-0.023273012 -0.2750133 1.8750533 6513507
-0.023739493 -0.2247756 1.874896 6513507
-0.024521781 -0.1751918 1.8743654 6513507
-0.02488284 -0.12504859 1.874329 6513507
-0.024841025 -0.075004391 1.8747588 6513507
-0.024845541 -0.024970887 1.8751339 6513507
-0.025494983 0.02507587 1.8747619 6513507
-0.026261883 0.074866496 1.8742535 7303023
-1.4673167 0.10343724 1.8675431 2380678
-1.4247323 0.10356164 1.8653727 2382735
-1.374985 0.10368472 1.8677981 1721463
-1.3251119 0.10380984 1.8698438 2965073
-1.275126 0.1039335 1.8722792 8487297
-1.2253914 0.10405742 1.8745126 9342606
-1.1881038 0.10417237 1.8712709 9868950
-0.024496783 0.10439094 1.8732921 10197915
0.02491164 0.10740547 1.8787374 10197915
0.075198039 0.10753191 1.8807393 10066329
0.12521665 0.10765682 1.8829169 5460819
0.17495026 0.10778008 1.8852899 2894892
0.22517416 0.10796874 1.8734016 5658198
0.27499831 0.10814242 1.8646026 6513507
0.32519439 0.10826875 1.8665756 6513507
0.37512416 0.10839356 1.8687207 6513507
0.42477003 0.10851679 1.8710569 6513507
0.47492811 0.10864213 1.8732185 6513507
0.52480638 0.10876769 1.8751713 6513507
0.57479912 0.10889176 1.8775222 6513507
0.62490904 0.10901791 1.8794841 6513507
0.67513037 0.10914253 1.8818463 6513507
0.72507495 0.10926736 1.8839988 6513507
0.77632648 0.10940847 1.883312 6513507
0.82398993 0.10961576 1.8657398 6513507
0.87533534 0.10975492 1.8655409 6513507
0.92508149 0.10987939 1.8676564 6513507
0.97492617 0.11000235 1.8701645 6513507
1.0248977 0.11012915 1.8719013 6513507
1.0749837 0.11025444 1.8740319 6513507
1.1247742 0.11037816 1.8763435 6513507
1.175086 0.11050404 1.8784833 6513507
1.225512 0.11063018 1.8806282 6513507
1.2748436 0.11075451 1.8825245 6513507
1.3246958 0.11087923 1.8846508 6513507
1.3625709 0.1109475 1.8921547 6513507
-1.5425459 -0.86043894 1.9465762 3958668
-1.5427575 -0.8248896 1.9466015 3892361
-1.5429075 -0.77485281 1.9468094 4089739
-1.5431222 -0.72542262 1.9469361 4024202
-1.5436535 -0.67490745 1.9467057 3759747
-1.5437998 -0.62483311 1.9469163 3627649
-1.5439568 -0.57488358 1.9471147 3693441
0.021591531 -0.57142985 1.9247875 8553090
-1.5441144 -0.52492344 1.9473132 3562114
0.021488098 -0.5250138 1.9250199 8553090
-1.5443627 -0.47582147 1.9473976 3430272
0.020889077 -0.47513303 1.9247071 8421504
-1.5448487 -0.42513579 1.9472215 3626620
-0.0007871812 -0.41012129 1.9000821 6447714
0.020742441 -0.42501849 1.924919 8421504
-1.5450062 -0.37515816 1.9474196 3626877
-0.00078729284 -0.37475055 1.9003513 6513507
0.020721721 -0.3750062 1.9252747 8421504
-1.5451633 -0.32517004 1.9476179 3627647
-0.00078745134 -0.32442912 1.9007343 6513507
0.020739838 -0.32500497 1.9256762 8421504
-1.5453203 -0.27517185 1.9478158 3627903
-0.00078760763 -0.27487427 1.9011114 6513507
0.02075175 -0.27498344 1.9260708 8421504
-1.5455903 -0.22631741 1.9478757 3692668
-0.00078776409 -0.22529964 1.9014883 6513507
0.020060247 -0.22506876 1.9256488 8355711
-1.5460563 -0.17510106 1.9477252 3955578
-0.0013931805 -0.17122306 1.9011987 6513507
0.019944048 -0.1749898 1.9258971 8355711
-1.5462139 -0.12508482 1.9479232 3822452
-0.0015750302 -0.12445638 1.9013437 6513507
0.019927839 -0.12497197 1.9262593 8355711
-1.5463717 -0.075058334 1.9481221 3954550
-0.0015753426 -0.074845932 1.9017208 6513507
0.020011101 -0.074933127 1.9267365 8355711
-1.5465288 -0.025021713 1.9483203 4087162
-0.0015756551 -0.025215682 1.9020984 6513507
0.019910846 -0.024974218 1.927 8355711
-1.5468286 0.023319773 1.948341 4283767
-0.0015759727 0.025222467 1.9024822 6513507
0.019141663 0.024912599 1.9264885 7763574
-1.5472651 0.07506337 1.9482299 4283253
-0.0022921746 0.076292962 1.9020406 7237230
0.019199073 0.074905999 1.9269354 8092539
-1.5195282 0.10283915 1.9253019 2774145
-1.474939 0.10319799 1.9162363 2316942
-1.4246635 0.10332386 1.918347 1920642
-1.3750418 0.10344627 1.9208473 1717071
-1.325295 0.10357089 1.9229332 6119009
-1.2754369 0.10369384 1.9254441 6513507
-1.230003 0.10382003 1.9245883 6513507
-0.0022507471 0.10346585 1.9022958 10197915
0.022401024 0.10445075 1.9265292 10197915
0.074871726 0.10729778 1.9326552 10000536
0.12506399 0.10742186 1.9351195 5987163
0.17174789 0.10758153 1.9275534 2894892
0.22906923 0.10778327 1.9170117 5723991
0.27534986 0.10791508 1.915414 6513507
0.32531467 0.10804063 1.9174184 6513507
0.37540212 0.10816462 1.9198431 6513507
0.42479602 0.10828879 1.9218147 6513507
0.47471234 0.10841326 1.9240313 6513507
0.52513665 0.10853808 1.9264716 6513507
0.57528192 0.10866316 1.9286916 6513507
0.62513644 0.10878848 1.9306828 6513507
0.67510098 0.10891213 1.9331104 6513507
0.72518641 0.10903801 1.9351114 6513507
0.77150416 0.1091921 1.9285808 6513507
0.8259787 0.10940161 1.9146093 6513507
0.87463915 0.10952708 1.9158485 6513507
0.92449516 0.1096525 1.9178146 6513507
0.9744733 0.10977633 1.9202085 6513507
1.024559 0.10990234 1.9221843 6513507
1.0747628 0.11002675 1.9245888 6513507
1.1250796 0.11015333 1.9265738 6513507
1.1746897 0.11027625 1.9289532 6513507
1.2248266 0.11040143 1.9311427 6513507
1.2754837 0.11052888 1.9331424 6513507
1.3254358 0.11065263 1.9355367 6513507
1.3718079 0.11081021 1.9282626 6513507
-1.517951 -0.86681563 1.9750299 5931176
-1.4981462 -0.87199777 1.9979403 4813729
-1.5201936 -0.82502508 1.9727446 5537191
-1.4983093 -0.82510275 1.9981079 4880035
-1.5203009 -0.7750535 1.9730027 5274535
-1.4984696 -0.77510071 1.9983028 4682914
-1.5205117 -0.72489482 1.9731413 4945829
-1.4988874 -0.72730488 1.9981825 4485537
-1.520641 -0.67498636 1.97337 4551330
-1.4987568 -0.67526758 1.9987303 4157086
-1.5207883 -0.62499183 1.9735876 4222623
-1.4989251 -0.62482888 1.9989188 3894429
-1.5209365 -0.57498807 1.9737921 4025759
-1.4990706 -0.57478148 1.999131 3631516
0.046966318 -0.57137108 1.954193 11711154
0.068046398 -0.57134062 1.9786214 11711154
-1.5211127 -0.52499133 1.9739637 3762844
-1.4992226 -0.5251416 1.9993333 3565209
0.046960492 -0.5249157 1.9545397 11711154
0.0680582 -0.52490944 1.9789906 11711154
-1.5213529 -0.4749116 1.9740695 3302553
-1.4996195 -0.47925508 1.9992228 3368088
0.046256188 -0.47417805 1.9541101 11711154
0.068047769 -0.47503138 1.9793571 11711154
-1.5217092 -0.42489961 1.9740391 3105688
-1.4999468 -0.4331705 1.9991941 3302552
0.046132796 -0.42491305 1.9543427 11711154
0.068085663 -0.42505553 1.979781 11711154
-1.5215665 -0.37499231 1.9745829 3039896
0.046163674 -0.37495187 1.9547588 11711154
0.067293137 -0.37511772 1.9792429 11711154
-1.5217195 -0.32497704 1.9747874 3040409
0.046194535 -0.32496896 1.9551754 11711154
0.067255616 -0.32500994 1.9795806 11711154
-1.5218636 -0.2749846 1.9750034 2843031
0.046182167 -0.27496585 1.9555413 11711154
0.06728024 -0.27503836 1.9799891 11711154
-1.5224893 -0.22498721 1.9746541 2777494
0.045456748 -0.2245305 1.9550846 11711154
0.067265764 -0.22504647 1.9803532 11711154
-1.5230743 -0.1750277 1.9743593 2843543
0.045364793 -0.17511106 1.9553541 11711154
0.067252524 -0.17507537 1.9807185 11711154
-1.5231719 -0.12506235 1.9746268 2645394
0.045342084 -0.12531948 1.9557074 11711154
0.066536494 -0.12514918 1.9802703 11711154
-1.5232953 -0.075054638 1.9748642 2381967
0.045387354 -0.075366825 1.956139 11711154
0.066592902 -0.074925125 1.9807162 11711154
-1.523597 -0.025023388 1.9748954 2382736
0.045396466 -0.025126768 1.956533 11711154
0.066397093 -0.024968913 1.98087 11711154
-1.5242206 0.025028061 1.9745498 2250894
0.044597764 0.025233677 1.9559908 10329501
0.06641034 0.024975549 1.9812664 10329501
-1.5246247 0.075040467 1.9744635 2184587
0.044583607 0.075376816 1.9563552 10066329
0.066612214 0.074928306 1.9818795 10066329
-1.5225759 0.10185645 1.9710013 2250893
-1.4747564 0.10294677 1.9722639 2118537
-1.4245906 0.10307221 1.9744173 1258068
-1.3751022 0.10319387 1.9769973 5396317
-1.3250929 0.10331789 1.9793733 6513507
-1.2756994 0.1034447 1.980754 6513507
-1.2430369 0.10358643 1.968778 6513507
0.044588659 0.10375511 1.9565777 10132122
0.069319382 0.10436571 1.979966 10000536
0.12525342 0.10723887 1.9759619 6316128
0.17726935 0.10742563 1.9655743 2894892
0.22487931 0.10754851 1.9667591 5000268
0.27448896 0.10767298 1.9687905 6513507
0.32503164 0.10779775 1.9713172 6513507
0.37528455 0.10792282 1.9736038 6513507
0.4252364 0.10804813 1.9756507 6513507
0.47530693 0.10817174 1.9781557 6513507
0.52507901 0.1082956 1.9804212 6513507
0.57496238 0.10842181 1.9822282 6513507
0.6249544 0.10854413 1.9849658 6513507
0.67528713 0.10873191 1.9733449 6513507
0.72516644 0.10885611 1.9755989 6513507
0.77734572 0.10904141 1.9656265 6513507
0.8252728 0.10916635 1.9665453 6513507
0.87515062 0.10929061 1.9687837 6513507
0.92471784 0.10941513 1.9707781 6513507
0.97482568 0.10953994 1.9730338 6513507
1.0254571 0.10966509 1.97553 6513507
1.0753753 0.10979048 1.9775382 6513507
1.1249762 0.10991199 1.9802279 6513507
1.1746907 0.11003792 1.9819956 6513507
1.2249476 0.11016209 1.9844832 6513507
1.2714443 0.11031359 1.9786272 6513507
1.3248581 0.11047267 1.9752346 6513507
1.3769529 0.1106572 1.9653962 6513507
1.4163604 0.11073969 1.9706515 6513507
-1.4638897 -0.90578687 2.0373812 2769756
-1.4748962 -0.87484038 2.0248609 3101559
-1.4754111 -0.8250221 2.0246432 2970231
-1.4756008 -0.77500641 2.0248024 2838902
-1.476053 -0.72490102 2.0246623 2772854
-1.476326 -0.6750403 2.0247247 2707574
-1.4767201 -0.62517041 2.0246503 2575990
-1.4770648 -0.57500535 2.0246308 2510197
0.093168207 -0.57142889 2.0077322 11711154
0.11450483 -0.57147425 2.032459 11711154
-1.4772503 -0.52500027 2.0247955 2246770
0.093185559 -0.52494693 2.0081069 11711154
0.11451771 -0.52494353 2.0328279 11711154
-1.4777138 -0.47489312 2.0246398 2049135
0.093178704 -0.47502244 2.0084794 11711154
0.11457678 -0.47498176 2.0332758 11711154
-1.4780012 -0.42498037 2.024688 1983599
0.093219198 -0.42497411 2.0089076 11711154
0.1145522 -0.42499909 2.0336287 11711154
-1.4782777 -0.37509125 2.0247474 2049905
0.092417188 -0.37478763 2.0083601 11711154
0.11450122 -0.37521836 2.0339484 11711154
-1.478757 -0.324994 2.0245733 2247797
0.09235058 -0.32510212 2.0086606 11711154
0.11371368 -0.32495183 2.0334189 11711154
-1.4788766 -0.27499911 2.0248156 2116467
0.092388704 -0.2751337 2.0090854 11711154
0.1137448 -0.27490994 2.0338364 11711154
-1.5006044 -0.21792303 2.0000708 2579859
-1.4790602 -0.22499506 2.0249834 2050674
0.092400767 -0.22505379 2.0094812 11711154
0.11375523 -0.2249053 2.0342288 11711154
-1.5007335 -0.17567903 2.0002429 2778263
-1.4792114 -0.17497982 2.0251899 2050931
0.092412859 -0.17495431 2.009876 11711154
0.11382644 -0.17499134 2.0346918 11711154
-1.5005988 -0.12093145 2.0008159 2778519
-1.479148 -0.1251711 2.0256419 1984625
0.091660552 -0.124643 2.009388 11711154
0.11383697 -0.12500368 2.0350838 11711154
-1.5005987 -0.074614994 2.0011687 2712212
-1.4795282 -0.07507921 2.0255818 1853039
0.091599099 -0.074932471 2.0096946 11711154
0.11293561 -0.075132266 2.0344188 11711154
-1.5007508 -0.024873905 2.0013716 2580113
-1.4796201 -0.025105089 2.0258563 1721197
0.091617398 -0.024981931 2.0100965 11711154
0.1129409 -0.025171325 2.0348065 11711154
-1.5012413 0.026944023 2.0011969 2316173
-1.479772 0.025108533 2.0260639 1720940
0.091635667 0.02498859 2.0104973 10329501
0.11296367 0.025178084 2.0352149 10329501
-1.5014977 0.074619338 2.0012624 2184074
-1.4799826 0.075084291 2.0262008 1720940
0.09165401 0.074979097 2.0109003 10066329
0.11301884 0.075118646 2.0356593 10066329
-1.5015792 0.10115556 2.0013707 2053002
-1.4758331 0.10178786 2.0256712 1522532
-1.4272114 0.10280923 2.0313821 4082005
-1.374945 0.10299566 2.02121 6513507
-1.3254406 0.10311819 2.0236142 6513507
-1.2864071 0.10321479 2.0255101 6513507
0.091584139 0.10405727 2.0094247 10000536
0.11961134 0.10515452 2.0267885 8224125
0.17499743 0.10717013 2.0210907 2894892
0.22506908 0.10729557 2.0231884 4539717
0.2748462 0.10741913 2.0255184 6513507
0.32515427 0.10754292 2.0281212 6513507
0.37515998 0.10766707 2.0304625 6513507
0.42485148 0.10779156 2.032541 6513507
0.47084033 0.10792181 2.0311172 6513507
0.52460271 0.10810402 2.0227854 6513507
0.57470632 0.1082285 2.0251143 6513507
0.62492597 0.10835325 2.0274487 6513507
0.67505354 0.10854313 2.0152256 6513507
0.72515094 0.10866766 2.0175376 6513507
0.77492678 0.10879029 2.0200777 6513507
0.82482898 0.10891543 2.0221379 6513507
0.87483001 0.10903862 2.0246885 6513507
0.92452681 0.10916212 2.0269828 6513507
0.97476745 0.10928812 2.029057 6513507
1.0251147 0.10941217 2.0316253 6513507
1.0751529 0.10953656 2.0339346 6513507
1.1215998 0.10969468 2.0265768 6513507
1.1748046 0.10984926 2.02406 6513507
1.2248255 0.10997366 2.0263524 6513507
1.278046 0.11015929 2.016943 6513507
1.32512 0.11028658 2.01683 6513507
1.375132 0.11041101 2.0191061 6513507
1.4248147 0.11053575 2.0211186 6513507
1.4626037 0.11059686 2.030169 6513507
-1.4511685 -0.90908593 2.0520976 1651788
-1.4375807 -0.91258764 2.0678205 5922144
-1.4516711 -0.87360543 2.051785 1717068
-1.4386017 -0.87500137 2.0669212 5790815
-1.4518975 -0.82498956 2.051893 1717069
-1.4387232 -0.82495606 2.0671639 5790815
-1.4520769 -0.77491468 2.0520654 1585483
-1.4389027 -0.77493536 2.0673358 5790559
-1.4521978 -0.72504109 2.0523067 1453898
-1.4390281 -0.72497767 2.0675731 5790559
-1.4520645 -0.67375165 2.052851 1519948
-1.438893 -0.67517501 2.0681059 5922144
-1.4522991 -0.62373209 2.0529602 1454411
-1.4388392 -0.62491751 2.068552 5987680
-1.4526528 -0.57493758 2.0529218 1453898
-1.4389936 -0.57501036 2.0687563 5987680
0.13921346 -0.57154888 2.0610919 2894892
0.16076928 -0.57153869 2.0860703 2894892
-1.4528215 -0.52509511 2.0531054 1322313
-1.4391603 -0.52498204 2.0689375 5922144
0.13921468 -0.52491677 2.0614476 2894892
0.16076906 -0.52503991 2.0864255 2894892
-1.4529243 -0.47509965 2.0533667 1124678
-1.4392787 -0.47494325 2.069186 5922144
0.13921362 -0.47493437 2.0618272 2894892
0.16079329 -0.4750734 2.086833 2894892
-1.4531207 -0.42495567 2.0535216 1124678
-1.439442 -0.42500591 2.0693786 5922143
0.13926458 -0.42501059 2.0622663 2894892
0.16086371 -0.42501447 2.0872962 2894892
-1.4532875 -0.37340927 2.0537202 1256776
-1.4394656 -0.37524721 2.0697243 5987680
0.13912344 -0.37474585 2.0624859 3026478
0.16069327 -0.37523848 2.0874777 2894892
-1.4533907 -0.32505593 2.053968 1323082
-1.4392539 -0.32499778 2.0703523 6184801
0.13838279 -0.32504755 2.0620048 3618615
0.15994494 -0.32493991 2.0869942 2894892
-1.453563 -0.27509341 2.0541494 1323081
-1.4394155 -0.27496645 2.0705459 6250593
0.13843967 -0.27505791 2.0624526 3618615
0.16000696 -0.27500433 2.0874462 2894892
-1.4536549 -0.22511387 2.0544231 1257289
-1.4395385 -0.22496399 2.0707834 6250593
0.13845408 -0.22504593 2.0628505 3618615
0.16003892 -0.22496934 2.0878639 2894892
-1.4538666 -0.1749237 2.0545592 1257545
-1.4396785 -0.17498872 2.0710051 6250593
0.13846345 -0.17501625 2.063241 3618615
0.1600651 -0.17491424 2.0882747 2894892
-1.4540726 -0.12470168 2.0547032 1257288
-1.4398668 -0.12488811 2.0711663 6250593
0.13854901 -0.12503515 2.0637212 3618615
0.16004886 -0.12507674 2.0886347 2894892
-1.4545985 -0.074900202 2.0544729 1191239
-1.4400121 -0.074778326 2.0713773 6250593
0.13752899 -0.07481911 2.0629208 4210752
0.15928915 -0.075475655 2.0881324 2894892
-1.454308 -0.024531381 2.0551925 1059397
-1.4396763 -0.024970539 2.0721495 6447714
0.13765791 -0.024790226 2.0634506 4210752
0.15921393 -0.025090294 2.0884275 2894892
-1.4544247 0.024695097 2.0554323 1059397
-1.4397888 0.024898944 2.0723984 6513507
0.13768516 0.024796763 2.0638611 4013373
0.15924579 0.025096996 2.0888479 2894892
-1.4545736 0.074943744 2.0556431 993347
-1.4399642 0.074786276 2.0725751 6513507
0.13761111 0.074799769 2.0641549 4013373
0.15924808 0.075218901 2.0892317 2894892
-1.4546518 0.10134921 2.0557532 927042
-1.4286075 0.10188178 2.0725024 6513507
-1.3752 0.10278757 2.0673938 6513507
-1.327551 0.10291308 2.0680146 6513507
-1.2954209 0.10305454 2.0557926 6513507
0.13851982 0.10388546 2.0644572 3815994
0.16979718 0.10546009 2.0832205 2894892
0.22443531 0.10702569 2.0828824 4013373
0.27534267 0.10721881 2.07042 6513507
0.32546878 0.107343 2.072819 6513507
0.37484369 0.10746534 2.0751817 6513507
0.4243319 0.107588 2.0775499 6513507
0.47904783 0.10776325 2.071332 6513507
0.52497762 0.10790525 2.0672586 6513507
0.57487214 0.10803016 2.0693641 6513507
0.62489367 0.10815296 2.0720046 6513507
0.67501992 0.10827845 2.0741203 6513507
0.72483397 0.108402 2.0764861 6513507
0.77518898 0.10852567 2.0791445 6513507
0.82522905 0.10864974 2.0815217 6513507
0.87371343 0.10877504 2.0826964 6513507
0.92492348 0.1089654 2.0710113 6513507
0.97493851 0.10908951 2.0733702 6513507
1.0250671 0.10921389 2.0757339 6513507
1.0744278 0.10933633 2.0780616 6513507
1.1270651 0.10952466 2.0677078 6513507
1.1749171 0.10965379 2.0676463 6513507
1.2251439 0.10977849 2.0699968 6513507
1.2750334 0.10990117 2.0725946 6513507
1.3245996 0.11002423 2.0749152 6513507
1.3747176 0.11014983 2.0769994 6513507
1.4249488 0.11027336 2.0796134 6513507
1.4748513 0.11039724 2.0819504 6513507
1.5114321 0.11043749 2.094919 6513507
0.1857501 -0.57167894 2.1150181 2894892
0.20747414 -0.57156229 2.1401942 2894892
0.18580312 -0.52502257 2.1154358 2894892
0.20752816 -0.52499908 2.1406121 2894892
0.18582337 -0.474976 2.11584 2894892
0.20754755 -0.47509903 2.1410122 2894892
0.18586022 -0.42497072 2.1162622 2894892
0.20758474 -0.42517972 2.1414363 2894892
0.18576898 -0.37475061 2.1165404 2894892
0.20714645 -0.37602001 2.1413035 2894892
0.18493526 -0.32499546 2.1159523 2894892
0.20666213 -0.325167 2.1411309 2894892
0.18502218 -0.27496481 2.1164343 2894892
0.20673391 -0.27504182 2.1415954 2894892
0.18507271 -0.22503273 2.116873 2894892
0.20679557 -0.22502089 2.1420469 2894892
0.1850643 -0.17502186 2.1172445 2894892
0.20682675 -0.17497972 2.1424634 2894892
0.18502805 -0.12498962 2.1175828 2894892
0.20667316 -0.12510814 2.1426654 2894892
0.18445672 -0.074840926 2.1173022 2894892
0.20589821 -0.074546501 2.1421511 2894892
0.18412231 -0.025004333 2.1172943 2894892
0.20593907 -0.02485323 2.1425772 2894892
0.18415903 0.025011005 2.1177187 2894892
0.20597999 0.024859807 2.1430037 2894892
0.18446994 0.075030543 2.1184595 2894892
0.20602101 0.074592605 2.1434293 2894892
-1.4611067 0.10220643 2.1452506 6513507
-1.4248204 0.1023699 2.1306136 6513507
-1.3788216 0.10250415 2.128299 6513507
-1.3406433 0.10265403 2.1178138 6513507
0.18433677 0.10355771 2.1183558 2894892
0.21765071 0.10516465 2.135278 3421236
0.27542356 0.10700839 2.1173005 6513507
0.32535118 0.10713312 2.1194634 6513507
0.3754029 0.10725567 2.1221926 6513507
0.42512488 0.10737865 2.1246257 6513507
0.47495249 0.10750444 2.1264923 6513507
0.52489817 0.10762539 2.1295078 6513507
0.57496399 0.10774922 2.1319582 6513507
0.62096745 0.10790307 2.1252813 6513507
0.67477256 0.10806829 2.1207561 6513507
0.72480392 0.1081921 2.1231863 6513507
0.77494997 0.10831623 2.1256213 6513507
0.82521147 0.10844059 2.1280625 6513507
0.87766474 0.10858407 2.1275733 6513507
0.92488611 0.10875914 2.1169176 6513507
0.97467273 0.10888112 2.1196029 6513507
1.0245643 0.10900597 2.1217225 6513507
1.0745742 0.10912855 2.1244192 6513507
1.1246958 0.10925394 2.126549 6513507
1.1749309 0.10937708 2.1292572 6513507
1.2252841 0.10950306 2.1313972 6513507
1.2709841 0.10963526 2.1293647 6513507
1.324868 0.10981958 2.1206419 6513507
1.3747334 0.10994314 2.123028 6513507
1.4247118 0.110067 2.1254196 6513507
1.4748024 0.11019111 2.1278164 6513507
1.5240926 0.11031324 2.1301754 6513507
0.23279122 -0.57174909 2.1695313 3421236
0.25460121 -0.57193631 2.1948044 6513507
0.23283319 -0.52510875 2.1699352 3421236
0.25463963 -0.52497923 2.1952069 6513507
0.23286742 -0.47502041 2.170357 3421236
0.25470033 -0.47482803 2.1956587 6513507
0.23294416 -0.42496395 2.1708267 3421236
0.25475135 -0.42488286 2.1960983 6513507
1.529737 -0.41999128 2.1823986 6513507
1.5594689 -0.4198406 2.1670227 6513507
0.23237877 -0.37461519 2.1705539 3421236
0.25382489 -0.37528834 2.1954021 6513507
1.5298111 -0.37502152 2.1824303 6513507
1.5598361 -0.37487859 2.1676097 6513507
0.23200077 -0.32496259 2.1704967 3421236
0.25377533 -0.32505926 2.1957271 6513507
1.5299004 -0.32502726 2.1824625 6513507
1.5605497 -0.32491046 2.1685557 6513507
0.2320407 -0.27501211 2.1709201 3421236
0.25387701 -0.2750755 2.1962254 6513507
1.5299028 -0.27500451 2.18257 6513507
1.5611858 -0.27500322 2.1694078 6513507
0.23211642 -0.22499077 2.1713889 3421236
0.25387684 -0.22508635 2.1966064 6513507
1.5300076 -0.22495374 2.1825845 6513507
1.561723 -0.22526525 2.1701524 6513507
0.23209012 -0.17500022 2.1717393 3421236
0.25395361 -0.17476191 2.197077 6513507
1.5299816 -0.17494842 2.1827238 6513507
1.5592518 -0.17573825 2.1678951 6513507
0.23209496 -0.12486693 2.1721272 3421236
0.25367162 -0.12699346 2.1971147 6513507
1.5300163 -0.12496836 2.1827948 6513507
1.5595838 -0.12531769 2.1684687 6513507
0.23109551 -0.075189359 2.1713457 3355443
0.25300351 -0.074625917 2.196739 6513507
1.5302202 -0.075283699 2.1827316 6513507
1.5600809 -0.075267464 2.169225 6513507
0.23131441 -0.025194284 2.1719811 3355443
0.25305411 -0.024576351 2.1971786 6513507
1.5307537 -0.025189579 2.1823719 6513507
1.5608965 -0.025173694 2.1702876 6513507
0.23136082 0.025201045 2.1724188 3355443
0.25310388 0.024582788 2.1976106 6513507
1.5308014 0.025190622 2.1824474 6513507
1.561445 0.025076285 2.1710885 6513507
0.23056081 0.074887574 2.1718695 3289650
0.25239104 0.076854035 2.1971824 6513507
1.5308117 0.075152285 2.1825418 6513507
1.5608969 0.074385725 2.1707485 6513507
-1.4725528 0.10202263 2.1792939 6513507
-1.4254138 0.10213849 2.1817679 6513507
-1.375608 0.10232442 2.1702335 6513507
0.23157808 0.10393962 2.1706963 3355443
0.26727733 0.10603783 2.1805501 6513507
0.32523328 0.10691211 2.1685903 6513507
0.37507722 0.10703512 2.1710856 6513507
0.42503673 0.10715843 2.1735866 6513507
0.47511065 0.10728204 2.1760938 6513507
0.52530104 0.10740591 2.1786063 6513507
0.5756067 0.10753006 2.1811249 6513507
0.62832522 0.1077235 2.1696665 6513507
0.67496628 0.1078498 2.1695185 6513507
0.72477943 0.10797419 2.1716917 6513507
0.7746945 0.10809612 2.1744733 6513507
0.82473856 0.10822105 2.1766572 6513507
0.87487894 0.10834355 2.1794508 6513507
0.92468578 0.10846657 2.1819255 6513507
0.97281355 0.10865011 2.1699243 6513507
1.0249622 0.10878933 2.1701941 6513507
1.0756488 0.10891461 2.1726933 6513507
1.125528 0.10903788 2.1751523 6513507
1.1755201 0.10916144 2.1776173 6513507
1.2256255 0.10928527 2.1800878 6513507
1.2791449 0.10946383 2.1724241 6513507
1.3246894 0.10960474 2.1683493 6513507
1.3752104 0.10972837 2.171118 6513507
1.425392 0.10985247 2.173574 6513507
1.4752207 0.10997709 2.1757035 6513507
1.5290781 0.1057883 2.1808503 6513507
1.5635881 0.10662351 2.1713667 6513507
0.27907199 -0.57181382 2.2231627 6513507
0.30087325 -0.57193792 2.2484262 6513507
0.27910563 -0.52513283 2.223557 6513507
0.30093038 -0.52453113 2.2488534 6513507
0.27919859 -0.4750469 2.2240453 6513507
0.30099091 -0.47431621 2.2493057 6513507
0.27921718 -0.4250378 2.2244487 6513507
0.30105039 -0.42501161 2.2497504 6513507
1.4762168 -0.42016485 2.2285831 6513507
1.5047451 -0.42001495 2.2039645 6513507
1.5940961 -0.41973636 2.2025168 6513507
1.6170447 -0.41986772 2.2291105 6513507
0.27830619 -0.37494662 2.223774 6513507
0.30108184 -0.39895672 2.249985 6513507
1.476312 -0.37500867 2.2285972 6513507
1.5047553 -0.37505439 2.2040527 6513507
1.5956428 -0.37447363 2.2046533 6513507
1.6184698 -0.37467399 2.2311053 6513507
0.27827305 -0.32503086 2.2241166 6513507
1.4763336 -0.32498065 2.2286878 6513507
1.504847 -0.32496047 2.204083 6513507
1.5973473 -0.32458541 2.2070086 6513507
1.6203408 -0.32479516 2.233654 6513507
0.27833483 -0.27500701 2.2245693 6513507
1.4764383 -0.27495062 2.2287052 6513507
1.504899 -0.27497622 2.2041457 6513507
1.5990574 -0.27459025 2.2093716 6513507
1.6207185 -0.27706772 2.2344546 6513507
0.27837807 -0.22500803 2.2249997 6513507
1.4764688 -0.22496313 2.22879 6513507
1.5048851 -0.22509529 2.2042673 6513507
1.5999593 -0.24819058 2.2106175 6513507
1.6123806 -0.22462285 2.2251914 6513507
0.27840421 -0.17503677 2.2254097 6513507
1.4765059 -0.17506152 2.2288637 6513507
1.5050159 -0.1748855 2.2042625 6513507
1.5912377 -0.17234242 2.2010872 6513507
1.6139462 -0.17501216 2.2273824 6513507
0.27777669 -0.12497564 2.2250624 6513507
1.4765781 -0.12506709 2.2289093 6513507
1.50502 -0.1251142 2.2043669 6513507
1.592842 -0.12504975 2.2033062 6513507
1.6155262 -0.12500778 2.2295938 6513507
0.27630863 -0.074903391 2.2237437 6513507
1.4766319 -0.074936531 2.2289743 6513507
1.5052021 -0.074361108 2.2043207 6513507
1.5945423 -0.074925147 2.2056582 6513507
1.617391 -0.074900143 2.232137 6513507
0.27652898 -0.02488059 2.2243805 6513507
1.4765675 -0.024934497 2.229135 6513507
1.5056872 -0.024653429 2.2040086 6513507
1.5962461 -0.024694052 2.208015 6513507
1.6191078 -0.024990276 2.2345068 6513507
0.27658409 0.024887191 2.2248223 6513507
1.4765921 0.024914201 2.2292244 6513507
1.5057099 0.024752175 2.2040968 6513507
1.5979226 0.02472863 2.2103341 6513507
1.6176646 0.022508301 2.2331951 6513507
0.27647403 0.074949883 2.2250752 6513507
1.4761689 0.074941158 2.2296991 6513507
1.5052052 0.074895374 2.2046409 6513507
1.5959016 0.075605378 2.208379 6513507
1.6146182 0.077324413 2.230082 6513507
-1.5201523 0.10163858 2.2362597 6513507
-1.4755124 0.10185475 2.2149088 6513507
-1.4249417 0.1019788 2.2176065 6513507
-1.3965024 0.10204857 2.2191238 6513507
0.27964073 0.10405108 2.2227976 6513507
0.32510445 0.10668215 2.2196929 6513507
0.37520525 0.10680562 2.2222483 6513507
0.4249458 0.10692663 2.2251279 6513507
0.47527561 0.10705058 2.2277076 6513507
0.52525121 0.10717515 2.2299368 6513507
0.5711354 0.10732619 2.2238164 6513507
0.62571108 0.10750022 2.2177932 6513507
0.67517221 0.1076221 2.2203078 6513507
0.72474623 0.1077443 2.2228289 6513507
0.77537125 0.10786906 2.2254031 6513507
0.82517254 0.1079918 2.2279348 6513507
0.8750881 0.10811482 2.2304733 6513507
0.9251166 0.10823813 2.2330167 6513507
0.97594476 0.10843779 2.2190459 6513507
1.0253741 0.10856412 2.2205529 6513507
1.074885 0.10868479 2.223376 6513507
1.1245056 0.10880864 2.2255538 6513507
1.1751854 0.10893216 2.2284367 6513507
1.2255102 0.10905628 2.2309759 6513507
1.2726051 0.10923024 2.2204897 6513507
1.3254415 0.10938073 2.2186635 6513507
1.3747666 0.10950247 2.2211332 6513507
1.4251539 0.10962684 2.2236555 6513507
1.4759388 0.10521179 2.2290616 6513507
1.5052328 0.10503796 2.2046824 6513507
1.589397 0.10486569 2.2010636 6513507
1.6133473 0.10596776 2.2283001 6513507
0.32325375 -0.57191706 2.2743621 6513507
0.32318062 -0.52510321 2.2746329 6513507
0.32335281 -0.47500458 2.2752142 6513507
0.3233411 -0.42498502 2.2755828 6513507
1.3963712 -0.42033392 2.2974834 6513507
1.4247731 -0.42028457 2.272975 6513507
1.4507277 -0.41914266 2.2505796 6513507
1.6404697 -0.41969571 2.2562575 6513507
1.6523923 -0.42038387 2.2700686 6513507
0.32211545 -0.3751249 2.2745407 6513507
1.3963753 -0.37503225 2.2975776 6513507
1.4247723 -0.37495726 2.2730751 6513507
1.4508219 -0.37529704 2.2505932 6513507
1.6420349 -0.37518409 2.2584105 6513507
1.6539803 -0.37560049 2.2722502 6513507
0.32124621 -0.32500744 2.273916 6513507
1.3963995 -0.32535163 2.2976646 6513507
1.4248222 -0.32498822 2.2731361 6513507
1.4508555 -0.3254168 2.2506723 6513507
1.6437994 -0.32500881 2.2608373 6513507
1.6557685 -0.32511786 2.2747068 6513507
0.32134655 -0.27498505 2.2744138 6513507
1.3964806 -0.27491739 2.2977045 6513507
1.4248915 -0.27503902 2.2731879 6513507
1.450901 -0.27507427 2.2507429 6513507
1.6429994 -0.27074623 2.2603233 6513507
1.6575598 -0.27452582 2.2771678 6513507
0.32136619 -0.22494286 2.274817 6513507
1.3965055 -0.22465949 2.297792 6513507
1.4249007 -0.22501811 2.2732909 6513507
1.4509462 -0.22472872 2.250813 6513507
1.6414005 -0.22458522 2.2588205 6513507
1.6585233 -0.24731536 2.2784915 6513507
0.32138103 -0.17492965 2.2752144 6513507
1.3970014 -0.17617309 2.2974687 6513507
1.4250035 -0.17494878 2.2733057 6513507
1.4509916 -0.17438 2.2508831 6513507
1.6430351 -0.17470592 2.2610946 6513507
0.29922715 -0.10719969 2.2500572 6513507
0.32148969 -0.12499441 2.2757201 6513507
1.3971982 -0.12539111 2.2974095 6513507
1.4250821 -0.12496618 2.2733495 6513507
1.4510357 -0.12496059 2.2509515 6513507
1.6393644 -0.12524204 2.2572176 6513507
1.6508565 -0.12416276 2.2705436 6513507
0.29926506 -0.075514637 2.2503424 6513507
0.32127023 -0.07537543 2.2758422 6513507
1.3972769 -0.074961148 2.2974503 6513507
1.424831 -0.075049147 2.2736719 6513507
1.4510801 -0.075538121 2.2510207 6513507
1.6406987 -0.074870825 2.2591469 6513507
1.6525735 -0.075326748 2.2729049 6513507
0.29932532 -0.02517605 2.2507954 6513507
0.32037953 -0.025036426 2.2751944 6513507
1.3973031 -0.024747768 2.2975371 6513507
1.4252473 -0.025045747 2.2734203 6513507
1.4511254 -0.025180075 2.2510908 6513507
1.6424292 -0.025292443 2.2615302 6513507
1.6543274 -0.025446607 2.2753172 6513507
0.29938561 0.025182808 2.2512481 6513507
0.32044095 0.024990786 2.2756472 6513507
1.3973458 0.024748784 2.2976072 6513507
1.4252979 0.02504679 2.2734888 6513507
1.4511708 0.025181115 2.2511613 6513507
1.639771 0.028873289 2.2588618 6513507
1.6560845 0.024538843 2.277734 6513507
0.29944587 0.075561948 2.2517018 6513507
0.32080758 0.074969441 2.276453 6513507
1.3974067 0.074968345 2.2976639 6513507
1.4249442 0.075033419 2.2739015 6513507
1.4512159 0.075545438 2.2512317 6513507
1.6399378 0.075363472 2.2594087 6513507
1.6573123 0.059494019 2.2794223 6513507
-1.558531 0.10131402 2.2855113 6513507
-1.5210891 0.10143676 2.2806327 6513507
-1.4751428 0.10160373 2.2710011 6513507
-1.4362645 0.10174356 2.2631795 6513507
0.29947937 0.10355829 2.2519538 6513507
0.32303226 0.10391266 2.2752948 6513507
0.37533349 0.1065632 2.2762837 6513507
0.42485589 0.10668489 2.2788832 6513507
0.47449172 0.10680687 2.2814882 6513507
0.52424109 0.1069291 2.2840998 6513507
0.57805181 0.10712814 2.272054 6513507
0.62473285 0.10725777 2.2711825 6513507
0.6744284 0.10738 2.2737701 6513507
0.72471941 0.10750516 2.2760453 6513507
0.77511346 0.10762758 2.2790132 6513507
0.82107604 0.10776524 2.2759221 6513507
0.87491107 0.10795522 2.2659135 6513507
0.92477578 0.10807793 2.2684896 6513507
0.97475374 0.10820092 2.2710712 6513507
1.0248456 0.1083242 2.2736583 6513507
1.0750518 0.10844774 2.2762518 6513507
1.1253726 0.10857156 2.278851 6513507
