# .PCD v0.7 - Point Cloud Data file format
VERSION 0.7
FIELDS x y z rgb
SIZE 4 4 4 4
TYPE F F F U
COUNT 1 1 1 1
WIDTH 1159
HEIGHT 1
VIEWPOINT 0 0 0 1 0 0 0
POINTS 1159
DATA ascii
-0.17500268 0.11439762 0.92658371 10132122
-0.1242634 0.11442222 0.92522418 10132122
-0.075020716 0.11444608 0.92391378 10132122
-0.025011607 0.11446774 0.92407858 10132122
0.025017887 0.1144893 0.92425311 10197915
0.075022131 0.11451082 0.92444628 10197915
0.12500352 0.11453245 0.92459083 10197915
0.17500311 0.11455402 0.9247843 10197915
0.22428906 0.11457802 0.92341715 10197915
0.27499908 0.11460261 0.92209095 10197915
0.32486448 0.11462422 0.92221057 10197915
0.37484428 0.11464557 0.9224838 10197915
0.4249866 0.1146673 0.92261171 10197915
0.47500381 0.11468894 0.92274481 10197915
0.52499253 0.11471044 0.92296475 10197915
0.57495165 0.11473204 0.92313045 10197915
0.62497765 0.1147536 0.92329508 10197915
0.67511803 0.11477522 0.92348015 10197915
0.71897644 0.11478646 0.92794144 10197915
0.75089425 0.11476892 0.94548416 10197915
-0.76425946 0.11404581 0.97893453 10197915
-0.72486609 0.11407384 0.97293556 10197915
-0.67489457 0.11409525 0.97318059 10197915
-0.6249631 0.1141169 0.97328705 10197915
-0.57501197 0.11413832 0.97353142 10197915
-0.52504259 0.11415987 0.9737156 10197915
-0.47499633 0.11418157 0.97383827 10197915
-0.42498901 0.11420295 0.97409958 10197915
-0.37507707 0.11422439 0.97432995 10197915
-0.32509083 0.11424621 0.9743576 10132122
-0.27502641 0.11426761 0.97465062 10132122
-0.22500069 0.11428925 0.97480345 10132122
-0.17501415 0.1143108 0.9749707 10132122
-0.12500869 0.11433236 0.97514069 10132122
-0.074984409 0.11435389 0.97535372 10132122
-0.024999538 0.11437545 0.97555435 10132122
0.025005816 0.11439698 0.97573829 10197915
0.07502839 0.11441857 0.97590512 10197915
0.12501261 0.11444011 0.97610611 10197915
0.17501561 0.11446165 0.97625738 10197915
0.22590618 0.11448701 0.97457439 10197915
0.27503824 0.11451087 0.97324657 10197915
0.32484481 0.11453237 0.97340727 10197915
0.37487301 0.11455388 0.97362822 10197915
0.42501947 0.11457548 0.97381616 10197915
0.47498354 0.11459716 0.97392565 10197915
0.52501667 0.11461854 0.9742316 10197915
0.57501811 0.11464025 0.97431093 10197915
0.62498832 0.11466169 0.97456259 10197915
0.67512774 0.11468337 0.97471464 10197915
0.72513628 0.1147049 0.97490793 10197915
0.7657876 0.11470906 0.98250639 10197915
0.82324445 -0.45882121 1.0451949 2039583
0.82342058 -0.42501053 1.0449803 2039583
0.82360399 -0.37524572 1.0447719 2039583
0.82366139 -0.32502547 1.0447491 2039583
0.82368684 -0.27500322 1.044769 2039583
0.82370782 -0.22500382 1.0447967 2039583
0.82373005 -0.17502718 1.0448225 2039583
0.82374656 -0.12502272 1.0448545 2039583
0.82377702 -0.075092196 1.0448686 2039583
0.82379067 -0.025082519 1.0449082 2039583
0.82381207 0.025083367 1.0449346 2039583
0.8238405 0.075072758 1.0449505 2039583
-0.81125695 0.11392616 1.0341789 10197915
-0.77476174 0.11396237 1.022897 10197915
-0.72512805 0.11398432 1.0227656 10197915
-0.67507309 0.1140058 1.0230122 10197915
-0.6250003 0.11402733 1.0232073 10197915
-0.57496834 0.11404898 1.023381 10197915
-0.52497774 0.11407061 1.0235018 10197915
-0.47496855 0.114092 1.0237675 10197915
-0.42500108 0.11411346 1.0239966 10197915
-0.37483326 0.11413515 1.0241563 10197915
-0.32482675 0.11415669 1.0243458 10197915
-0.27498499 0.11417809 1.0245767 10197915
-0.22500229 0.11419968 1.0247335 10132122
-0.17500079 0.11422136 1.0248544 10132122
-0.1249807 0.11424275 1.0251381 10132122
-0.075002223 0.11426429 1.0253115 10132122
-0.02500554 0.1142858 1.0255245 10132122
0.025011841 0.11430735 1.0257177 10197915
0.074985489 0.11432887 1.0259093 10197915
0.12497867 0.11435044 1.0260863 10197915
0.17499045 0.11437205 1.0262417 10197915
0.22496048 0.11439347 1.026489 10197915
0.27494919 0.11441507 1.0266465 10197915
0.32477465 0.11443663 1.0268 10197915
0.37483826 0.11446474 1.0233282 10197915
0.42501378 0.11448636 1.0235103 10197915
0.47506741 0.11450796 1.0236717 10197915
0.52499813 0.11452954 1.0238519 10197915
0.57494771 0.11455104 1.0240564 10197915
0.62498689 0.11457249 1.0242912 10197915
0.6751864 0.11459407 1.024485 10197915
0.72519273 0.11461566 1.0246648 10197915
0.77500433 0.11463711 1.0248793 10197915
0.82022101 0.10921531 1.0417614 9803157
0.79253006 -0.46875969 1.0896356 2039583
0.80920941 -0.46337044 1.0654975 2039583
0.7928496 -0.42498335 1.0892243 2039583
0.81003177 -0.42500249 1.0643598 2039583
0.79287058 -0.37498644 1.0892522 2039583
0.81022227 -0.37491348 1.0641366 2039583
0.79288894 -0.32498658 1.0892818 2039583
0.81027746 -0.3249976 1.0641179 2039583
0.79291451 -0.27498397 1.0893027 2039583
0.81030285 -0.27500519 1.0641379 2039583
0.79293329 -0.22500637 1.0893338 2039583
0.81031877 -0.22500075 1.0641719 2039583
0.79295188 -0.1750264 1.0893652 2039583
0.81034756 -0.17499389 1.0641904 2039583
0.79297096 -0.12501611 1.089397 2039583
0.81035906 -0.12500288 1.0642316 2039583
0.79298586 -0.075003341 1.08943 2039583
0.81039143 -0.074972406 1.0642383 2039583
0.79302162 -0.025002345 1.0894368 2039583
0.8104037 -0.024967425 1.064285 2039583
0.79289937 0.024826862 1.089674 2039583
0.8102833 0.025083369 1.0645118 2039583
0.79282737 0.075005673 1.0898348 2039583
0.8102448 0.074972354 1.064626 2039583
-0.85774231 0.11380888 1.0882325 10197915
-0.82371676 0.11384807 1.0746684 10197915
-0.77507895 0.11387125 1.0736251 10197915
-0.72517538 0.11389268 1.0738624 10197915
-0.67510337 0.11391412 1.0741049 10197915
-0.62493962 0.11393569 1.0743064 10197915
-0.57505304 0.11395734 1.0744598 10197915
-0.52507347 0.11397883 1.0746515 10197915
-0.47500059 0.11400028 1.0749027 10197915
-0.42498299 0.11402174 1.0751431 10197915
-0.37487301 0.11404348 1.075249 10197915
-0.32481638 0.11406498 1.0754869 10197915
-0.2749652 0.11408634 1.0757631 10197915
-0.22502071 0.11410797 1.0758798 10197915
-0.17498276 0.11412953 1.0760601 10132122
-0.12500037 0.11415096 1.076298 10132122
-0.074999474 0.11417241 1.0765625 10132122
-0.024979634 0.11419404 1.076704 10132122
0.024985895 0.11421553 1.0769066 10132122
0.074969158 0.11423691 1.0771834 10132122
0.12497076 0.11425862 1.0772878 10197915
0.17499243 0.11428007 1.0775152 10197915
0.22503181 0.1143015 1.0777924 10197915
0.27501678 0.11432331 1.0778582 10197915
0.32494262 0.11434475 1.078064 10197915
0.37484628 0.11437354 1.0741715 10197915
0.42496014 0.11439497 1.0744985 10197915
0.47496629 0.11441654 1.0746163 10197915
0.52455258 0.11444426 1.0712905 10197915
0.57507181 0.11446703 1.0708981 10197915
0.62502813 0.11448848 1.0711482 10197915
0.67500448 0.11451023 1.0712289 10197915
0.72499621 0.11453131 1.0716487 10197915
0.78561491 0.11008089 1.0825558 9868950
0.81007516 0.1077142 1.0643036 9737364
0.78137416 -0.47238889 1.1057767 2039583
0.78146893 -0.4250153 1.1056927 2039583
0.78149748 -0.37499347 1.1057105 2039583
0.78151172 -0.32501945 1.1057479 2039583
0.78153342 -0.27501777 1.1057721 2039583
0.78155529 -0.22496286 1.1058006 2039583
0.78141594 -0.17467555 1.1060604 2039583
0.78137171 -0.12501387 1.1061803 2039583
0.78137195 -0.075038925 1.1062399 2039583
0.78141958 -0.025014715 1.1062278 2039583
0.78143895 0.025015552 1.1062572 2039583
0.78143257 0.075045049 1.1063263 2039583
-0.90550536 0.11368559 1.1453083 10197915
-0.87179404 0.11373103 1.128198 10197915
-0.82496768 0.11375681 1.1252598 10197915
-0.77491933 0.11377809 1.1256146 10197915
-0.72477335 0.11379978 1.1257572 10197915
-0.67484003 0.11382119 1.1259947 10197915
-0.62504518 0.11384257 1.1262376 10197915
-0.57499772 0.11386421 1.1263807 10197915
-0.52493137 0.11388576 1.1265776 10197915
-0.47610325 0.11390974 1.1251322 10197915
-0.42505255 0.11393686 1.1224679 10197915
-0.37489954 0.11395829 1.1227472 10197915
-0.32491079 0.11397973 1.1229914 10197915
-0.2749981 0.11400127 1.1231703 10197915
-0.22497332 0.11402284 1.1233485 10197915
-0.17502226 0.11404438 1.1235245 10197915
-0.12505239 0.11406579 1.1237717 10197915
-0.075064398 0.11408713 1.1240834 10132122
-0.025057167 0.1141088 1.1241953 10132122
0.02506347 0.11413039 1.1244078 10132122
0.075014979 0.11415175 1.1246855 10132122
0.12498573 0.1141734 1.1247967 10132122
0.17506811 0.11419478 1.1251097 10197915
0.22498344 0.11421623 1.1253215 10197915
0.27501121 0.11423787 1.1254671 10197915
0.32496291 0.11425937 1.1256759 10197915
0.37493575 0.11428085 1.1258905 10197915
0.42492509 0.11430231 1.1260996 10197915
0.47484121 0.11432368 1.1263796 10197915
0.52544868 0.11435262 1.122581 10197915
0.57497483 0.11437498 1.1222172 10197915
0.62499571 0.1143964 1.1224853 10197915
0.67480183 0.11441778 1.1227069 10197915
0.72478372 0.11443935 1.1228789 10197915
0.77611381 0.11048624 1.1149248 9934743
0.80006516 0.11443069 1.1461015 10197915
-0.95123303 0.11357266 1.1971152 10197915
-0.9195202 0.11361503 1.1812364 10197915
-0.87508845 0.11364163 1.177251 10197915
-0.82510561 0.11366296 1.1775519 10197915
-0.77510238 0.11368474 1.1776199 10197915
-0.72498614 0.11370599 1.1779976 10197915
-0.6749447 0.11372762 1.1781418 10197915
-0.62498438 0.11374889 1.1784813 10197915
-0.57500452 0.11377057 1.1785866 10197915
-0.52500516 0.11379214 1.1787728 10197915
-0.47381172 0.11381835 1.1766424 10197915
-0.42496794 0.1138436 1.174463 10197915
-0.37492827 0.1138655 1.1744931 10197915
-0.3257921 0.11388861 1.1735915 10197915
-0.27504867 0.11391729 1.1699857 10197915
-0.22516108 0.11393844 1.1703578 10197915
-0.17506126 0.11396004 1.1705428 10197915
-0.12494269 0.11398154 1.1708002 10197915
-0.074998155 0.11400326 1.1708686 10197915
-0.025036979 0.11402444 1.1712415 10132122
0.025043279 0.11404598 1.1714627 10132122
0.075042143 0.11406775 1.1715308 10132122
0.12496497 0.11408894 1.1719038 10132122
0.1749057 0.11411052 1.1720465 10132122
0.22496234 0.11413202 1.1722703 10132122
0.27503762 0.11415333 1.1726038 10197915
0.32493713 0.11417501 1.1727091 10197915
0.37495488 0.11419632 1.1730069 10197915
0.4250854 0.11421815 1.1730757 10197915
0.47514006 0.11423941 1.1734495 10197915
0.52511495 0.11426093 1.1736305 10197915
0.57510877 0.11428238 1.1738906 10197915
0.62512189 0.11430398 1.1740338 10197915
0.67486042 0.11432537 1.1742526 10197915
0.72481447 0.11434671 1.1745514 10197915
0.77507764 0.11436859 1.1746207 10197915
0.81272745 0.11437254 1.1816013 10197915
-0.96346962 0.11351143 1.2282767 10197915
-0.92502087 0.11353696 1.2234071 10197915
-0.87500691 0.11355837 1.2236916 10197915
-0.82484883 0.11357985 1.2239509 10197915
-0.7749216 0.11360144 1.2240989 10197915
-0.72510576 0.11362273 1.2243853 10197915
-0.67501521 0.11364425 1.2246171 10197915
-0.62503296 0.11366566 1.2248756 10197915
-0.57503319 0.11368728 1.2250246 10197915
-0.52501363 0.11370862 1.2253383 10197915
-0.47497541 0.11373014 1.2255429 10197915
-0.42504388 0.11375169 1.2257178 10197915
-0.37509525 0.11377304 1.2260048 10197915
-0.32382053 0.11379811 1.2245233 10197915
-0.27500224 0.11382584 1.2209958 10197915
-0.224961 0.11384698 1.221398 10197915
-0.17500216 0.11386859 1.2215405 10197915
-0.12502526 0.11388997 1.2218161 10197915
-0.075028822 0.11391155 1.2220008 10197915
-0.02501479 0.11393288 1.2223191 10197915
0.02491954 0.11395444 1.222461 10132122
0.074971765 0.1139758 1.2227796 10132122
0.12504347 0.11399753 1.2228801 10132122
0.17503197 0.11401875 1.2232407 10132122
0.22504085 0.11404048 1.2233397 10132122
0.27496532 0.11406159 1.2237445 10132122
0.32490912 0.11408328 1.2238435 10197915
0.37487307 0.11410472 1.2240736 10197915
0.42495623 0.11412597 1.2244351 10197915
0.47495595 0.11414777 1.22449 10197915
0.52487463 0.11416911 1.2247645 10197915
0.57491153 0.11419038 1.2251264 10197915
0.62496954 0.11421211 1.2252252 10197915
0.67484045 0.11423351 1.2254541 10197915
0.72483522 0.11425484 1.2257738 10197915
0.7749477 0.11427645 1.2259593 10197915
0.82416874 0.11429637 1.2268506 10197915
0.85848439 0.11428571 1.2411668 10197915
-1.0117707 0.11338563 1.28666 10197915
-0.97445118 0.11342466 1.2739723 10197915
-0.92498702 0.11344687 1.2736725 10197915
-0.8751303 0.11346836 1.2738602 10197915
-0.82525444 0.11348958 1.2742003 10197915
-0.77514863 0.11351124 1.2743456 10197915
-0.72512996 0.11353268 1.2745825 10197915
-0.67519623 0.11355393 1.2749231 10197915
-0.62503475 0.11357564 1.2750683 10197915
-0.57495904 0.11359713 1.2753062 10197915
-0.52496934 0.1136184 1.2756472 10197915
-0.47506684 0.11364009 1.2757392 10197915
-0.4250401 0.11366127 1.2761283 10197915
-0.37634432 0.11368763 1.2733227 10197915
-0.32508558 0.11371466 1.2707597 10197915
-0.2749927 0.11373608 1.2710309 10197915
-0.22488153 0.11375774 1.2711813 10197915
-0.17488185 0.1137791 1.2714803 10197915
-0.12486339 0.11380067 1.2716583 10197915
-0.074959002 0.11382189 1.2719898 10197915
-0.025034791 0.1138434 1.2721989 10197915
0.025041088 0.11386489 1.2724386 10197915
0.075002924 0.11388626 1.2727091 10197915
0.12498255 0.11390787 1.2728565 10132122
0.17498231 0.11392915 1.2731885 10132122
0.22500026 0.11395067 1.2733977 10132122
0.27503845 0.1139723 1.2735447 10132122
0.32496059 0.1139935 1.2739074 10132122
0.3750371 0.11401506 1.2741171 10197915
0.42499769 0.11403658 1.2742937 10197915
0.47497851 0.11405794 1.2745961 10197915
0.52510965 0.11407939 1.2748672 10197915
0.57499534 0.11410096 1.2750126 10197915
0.62489927 0.11412211 1.2754061 10197915
0.67482144 0.11414379 1.2754912 10197915
0.72489738 0.11416519 1.275795 10197915
0.77498949 0.11418676 1.2759719 10197915
0.82497013 0.11420807 1.2763051 10197915
0.87105876 0.11422353 1.2789245 6250335
0.90188026 0.11420956 1.2942569 2039583
-1.0585424 0.11326671 1.3415538 10197915
-1.024039 0.11330514 1.3285273 10197915
-0.97497535 0.11332766 1.3279498 10197915
-0.92495066 0.11334932 1.3280983 10197915
-0.87504387 0.11337056 1.3284171 10197915
-0.82498205 0.11339195 1.3287033 10197915
-0.77489907 0.11341345 1.32892 10197915
-0.7250728 0.11343478 1.3292052 10197915
-0.67509234 0.11345657 1.329249 10197915
-0.6249541 0.11347775 1.3296731 10197915
-0.57493287 0.11349923 1.3299242 10197915
-0.52489477 0.11352047 1.330245 10197915
-0.47483721 0.11354209 1.3304271 10197915
-0.42582002 0.11356492 1.329672 10197915
-0.37324601 0.11360404 1.320668 10197915
-0.32504207 0.11362887 1.318573 10197915
-0.27510992 0.11365023 1.3188876 10197915
-0.22515571 0.11367133 1.3192726 10197915
-0.17504862 0.11369329 1.319285 10197915
-0.12505847 0.11371442 1.3196681 10197915
-0.075047702 0.11373609 1.3197824 10197915
-0.025021527 0.11375736 1.3201659 10197915
0.024890514 0.11377878 1.32038 10197915
0.074955486 0.11380044 1.3205631 10197915
0.12504105 0.11382174 1.3208785 10197915
0.17500751 0.11384308 1.321161 10132122
0.22499326 0.11386476 1.3213086 10132122
0.2749967 0.11388604 1.3216587 10132122
0.32501996 0.11390754 1.3218734 10132122
0.37492615 0.11392893 1.3221216 10132122
0.4249872 0.1139503 1.3224047 10132122
0.47506562 0.11397199 1.3225529 10197915
0.52502751 0.11399323 1.3228687 10197915
0.57514441 0.11401471 1.3231521 10197915
0.62514448 0.1140364 1.3232619 10197915
0.67488569 0.11405746 1.3236486 10197915
0.72478652 0.11407892 1.3238626 10197915
0.77497947 0.11410033 1.3241464 10197915
0.82505286 0.11412177 1.3243958 8355711
0.87500852 0.11414371 1.3244044 2171169
0.91461289 0.11415031 1.3303709 2039583
-1.1012262 0.11316723 1.3866028 10197915
-1.0712758 0.11320096 1.3750825 10197915
-1.0250856 0.1132243 1.3733463 10197915
-0.975012 0.11324558 1.3737079 10197915
-0.92510891 0.11326729 1.3737621 10197915
-0.8749972 0.11328842 1.3742266 10197915
-0.82486469 0.11331026 1.374283 10197915
-0.77490669 0.11333126 1.3747476 10197915
-0.72473711 0.11335294 1.3749069 10197915
-0.67473704 0.11337435 1.3751642 10197915
-0.62490934 0.1133955 1.3755264 10197915
-0.5748741 0.11341733 1.3755816 10197915
-0.52500868 0.11343829 1.3760464 10197915
-0.4751232 0.11346001 1.3760998 10197915
-0.42388391 0.11348433 1.3750485 10197915
-0.37516645 0.11351489 1.369933 10197915
-0.32513729 0.11353607 1.3703076 10197915
-0.27495152 0.11355784 1.3704139 10197915
-0.22488499 0.1135788 1.3709388 10197915
-0.17494442 0.11360061 1.3709685 10197915
-0.12498242 0.1136222 1.3711505 10197915
-0.075004436 0.11364303 1.3717138 10197915
-0.025006564 0.11366484 1.3717437 10197915
0.025012851 0.1136863 1.3720024 10197915
0.075048469 0.11370737 1.3724898 10197915
0.12510183 0.11372933 1.3724432 10197915
0.1750344 0.11375032 1.3728912 10197915
0.22498482 0.11377196 1.3730363 10197915
0.27495357 0.11379299 1.373486 10132122
0.32494047 0.1138148 1.373553 10132122
0.37509191 0.11383624 1.3738124 10132122
0.42497319 0.1138575 1.3741447 10132122
0.47487691 0.11387862 1.3745576 10132122
0.52493846 0.11390055 1.374548 10132122
0.57487762 0.11392166 1.3749582 10197915
0.62497967 0.11394332 1.3751043 10197915
0.67495537 0.11396459 1.3754375 10197915
0.724953 0.11398616 1.375621 10197915
0.774966 0.11400741 1.3759545 10000536
0.82485771 0.11402874 1.376251 3289650
0.8749094 0.11405045 1.3763576 2039583
0.92484874 0.114071 1.3771155 2039583
0.96033376 0.11406526 1.3889495 2039583
-1.1180128 0.11308456 1.4285694 10197915
-1.0750328 0.11311498 1.4221132 10197915
-1.0250049 0.11313661 1.4222573 10197915
-0.97495526 0.1131581 1.4224789 10197915
-0.92503321 0.11317919 1.4229206 10197915
-0.87494659 0.11320069 1.4231471 10197915
-0.82513529 0.11322195 1.423458 10197915
-0.77500862 0.1132436 1.4236027 10197915
-0.72471917 0.11326499 1.4239556 10197915
-0.67484844 0.11328625 1.4242667 10197915
-0.62510955 0.11330786 1.4243606 10197915
-0.57505506 0.113329 1.4248035 10197915
-0.52498341 0.1133504 1.4250733 10197915
-0.47503975 0.11337186 1.4252988 10197915
-0.4249281 0.11339332 1.4255688 10197915
-0.37509573 0.1134148 1.4257483 10197915
-0.3252407 0.11343598 1.4261051 10197915
-0.27507347 0.11345728 1.4264607 10197915
-0.22503679 0.11347912 1.4265136 10197915
-0.17512673 0.11350014 1.4269559 10197915
-0.12505101 0.11352164 1.4271822 10197915
-0.07495442 0.11354336 1.4273211 10197915
-0.024990678 0.11356441 1.4277637 10197915
0.024918789 0.11359888 1.4207234 10197915
0.074962072 0.11362031 1.4209911 10197915
0.12502728 0.11364175 1.4212594 10197915
0.17510836 0.11366317 1.4215274 10197915
0.22501314 0.11368433 1.4219073 10197915
0.27493802 0.11370592 1.422062 10197915
0.32507557 0.11372738 1.4223304 10132122
0.3750385 0.11374879 1.4225975 10132122
0.42521384 0.11377025 1.4228661 10132122
0.475214 0.11379144 1.4232471 10132122
0.52503479 0.11381296 1.4234005 10132122
0.57507133 0.11383459 1.4235538 10132122
0.62492806 0.11385554 1.4240485 10197915
0.67480505 0.11387708 1.4242023 10197915
0.72489953 0.11389852 1.4244707 10197915
0.7750119 0.11391977 1.4248514 10197915
0.82514012 0.11394145 1.4250075 4342338
0.87509322 0.11396303 1.4251587 2039583
0.9248662 0.11398394 1.4256546 2039583
0.97229719 0.11400171 1.4273261 2039583
1.0032446 0.11399148 1.4405777 2039583
-1.1794626 -0.65958411 1.4957153 2960685
-1.1797409 -0.624991 1.495594 2960685
-1.1797923 -0.57506156 1.495664 2960685
-1.1798368 -0.52504933 1.4957392 2960685
-1.1799206 -0.47510326 1.4957861 2960685
-1.1803601 -0.42496735 1.4955883 2960685
-1.1804028 -0.37500292 1.4956603 2960685
-1.1804562 -0.32507405 1.4957293 2960685
-1.1805053 -0.27501887 1.495801 2960685
-1.1805587 -0.2249576 1.4958674 2960685
-1.1806456 -0.17497578 1.4959149 2960685
-1.1806488 -0.12511109 1.4960165 2960685
-1.1807367 -0.0749145 1.4960614 2960685
-1.181132 -0.024947692 1.4958918 2960685
-1.1812273 0.024790009 1.4959298 2960685
-1.1812906 0.074949138 1.4959903 3026478
-1.1762015 0.10838132 1.4913665 10132122
-1.1249059 0.1129993 1.4744656 10197915
-1.0748186 0.11302091 1.4746196 10197915
-1.0249146 0.11304226 1.474895 10197915
-0.97499508 0.11306362 1.4751768 10197915
-0.92485166 0.11308485 1.4755818 10197915
-0.87489188 0.11310668 1.4756069 10197915
-0.82491595 0.11312757 1.4761395 10197915
-0.77512062 0.1131491 1.4762894 10197915
-0.72510648 0.11317045 1.476571 10197915
-0.67506993 0.11319185 1.4768469 10197915
-0.62501836 0.11321326 1.4771292 10197915
-0.5749445 0.11323468 1.4774058 10197915
-0.52505833 0.1132558 1.4778125 10197915
-0.47494689 0.11327767 1.4778382 10197915
-0.42502418 0.11329857 1.4783715 10197915
-0.37528339 0.11332007 1.4785199 10197915
-0.3251147 0.1133415 1.478803 10197915
-0.27493051 0.11336298 1.4790797 10197915
-0.22492872 0.11338413 1.4794874 10197915
-0.17490922 0.11340576 1.479638 10197915
-0.12507464 0.1134273 1.479789 10197915
-0.075019531 0.11344825 1.4803237 10197915
-0.02494303 0.11346991 1.4804746 10197915
0.02502203 0.11350528 1.4729121 10197915
0.074922502 0.11352623 1.4734259 10197915
0.1248419 0.11354803 1.4734663 10197915
0.17493415 0.11356927 1.4738364 10197915
0.22504517 0.11359086 1.4740223 10197915
0.27502131 0.11361183 1.4745365 10197915
0.32501575 0.11363365 1.4745771 10197915
0.37503269 0.11365478 1.4749945 10197915
0.42491037 0.11367646 1.4750834 10132122
0.47481129 0.11369744 1.4755483 10132122
0.52488106 0.11371894 1.4757828 10132122
0.57496995 0.1137403 1.4761045 10132122
0.62350512 0.11376559 1.4738455 10132122
0.67507386 0.11379708 1.4688629 10197915
0.72490972 0.11381817 1.4692646 10197915
0.77496177 0.11384004 1.4692912 10197915
0.82503855 0.113861 1.4698173 8553090
0.87513089 0.11388288 1.4698443 2039583
0.92524236 0.11390387 1.4703707 2039583
0.97517073 0.11392545 1.4705204 2039583
1.0151136 0.11393532 1.4747695 2039583
-1.1609133 -0.66248018 1.508526 2960685
-1.1237317 -0.66821986 1.5342089 2960685
-1.1615477 -0.6250124 1.5081664 2960685
-1.1254683 -0.62499094 1.5330963 2960685
-1.1615844 -0.57498807 1.5082462 2960685
-1.1255275 -0.57499409 1.533161 2960685
-1.1616342 -0.52498102 1.5083169 2960685
-1.1258551 -0.52509969 1.5330381 2960685
-1.1617256 -0.47495207 1.5083581 2960685
-1.1260459 -0.47500545 1.5330113 2960685
-1.1621575 -0.42501953 1.5081644 2960685
-1.1260991 -0.42500669 1.5330805 2960685
-1.1622243 -0.37500992 1.5082228 2960685
-1.1261588 -0.3750152 1.5331427 2960685
-1.1622547 -0.3249957 1.5083058 2960685
-1.1261992 -0.32501963 1.5332211 2960685
-1.1622989 -0.27499738 1.5083804 2960685
-1.1262432 -0.27501824 1.5332943 2960685
-1.162364 -0.22501543 1.5084411 2960685
-1.1262989 -0.22501275 1.5333619 2960685
-1.1624297 -0.17500836 1.5085008 2960685
-1.1263589 -0.17500284 1.533427 2960685
-1.1625198 -0.12499739 1.5085428 2960685
-1.1264945 -0.12503646 1.5334338 2960685
-1.1625019 -0.075002171 1.5086597 2960685
-1.1268249 -0.07494393 1.5333124 2960685
-1.1629212 -0.024925143 1.5084754 2960685
-1.1269751 -0.024980122 1.5333136 2960685
-1.1630132 0.024998588 1.5085152 2960685
-1.1270252 0.024981648 1.5333828 2960685
-1.1630658 0.074998766 1.5085837 2960685
-1.1269685 0.074943215 1.5335275 2960685
-1.1630751 0.10676415 1.5084225 10132122
-1.1262685 0.10727487 1.5313795 10132122
-1.0748738 0.11293432 1.5228776 10197915
-1.0250121 0.11295564 1.5231646 10197915
-0.97513449 0.11297671 1.5235931 10197915
-0.92523938 0.11299827 1.5237399 10197915
-0.87511152 0.11301992 1.5238917 10197915
-0.82475877 0.11304093 1.5244585 10197915
-0.77480292 0.11306251 1.524606 10197915
-0.72504169 0.11308378 1.5248928 10197915
-0.67504853 0.11310515 1.5251808 10197915
-0.62503809 0.11312631 1.5256107 10197915
-0.57501078 0.11314791 1.5257571 10197915
-0.5249607 0.11316928 1.5260458 10197915
-0.47510555 0.11319061 1.5263332 10197915
-0.42522806 0.11321191 1.5266203 10197915
-0.37533554 0.11323324 1.5269086 10197915
-0.32520896 0.1132544 1.5273376 10197915
-0.27506775 0.11327608 1.5274855 10197915
-0.22511846 0.11329742 1.5277733 10197915
-0.17493595 0.11331887 1.5280628 10197915
-0.12494895 0.11334025 1.5283507 10197915
-0.074939549 0.11336161 1.5286392 10197915
-0.024914863 0.113383 1.5289271 10197915
0.024921084 0.11340428 1.5292144 10197915
0.074983485 0.11342566 1.5295036 10197915
0.12506835 0.11344708 1.5297915 10197915
0.17495765 0.11346815 1.5302185 10197915
0.2248656 0.11348973 1.5303667 10197915
0.27500701 0.11351118 1.5306561 10197915
0.32516387 0.11353262 1.5309443 10197915
0.3751314 0.11355395 1.5312321 10197915
0.42511633 0.11357506 1.531661 10197915
0.47511709 0.11359669 1.5318079 10132122
0.52492827 0.11361823 1.531951 10132122
0.57497048 0.11363933 1.5323843 10132122
0.62681091 0.11366797 1.5290911 10132122
0.67433435 0.11369788 1.52402 10132122
0.72491914 0.11373313 1.5167015 10132122
0.77491516 0.11375425 1.5171256 10197915
0.82492667 0.11377589 1.5172715 10197915
0.87496173 0.11379727 1.517557 4802889
0.92480141 0.11381858 1.5178406 2039583
0.97466367 0.11383991 1.5181243 2039583
1.0245408 0.11386122 1.5184091 2039583
1.0589396 0.11385606 1.5296706 2039583
-1.0597273 -0.70306236 1.5783585 2960685
-1.0382262 -0.70641416 1.5932084 2960685
-1.1002817 -0.67185915 1.5504017 2960685
-1.0745286 -0.67439127 1.5681903 2960685
-1.0391847 -0.6750322 1.5926121 2960685
-1.1003289 -0.62499672 1.5504677 2960685
-1.0750581 -0.62499285 1.5679278 2960685
-1.0392439 -0.62503099 1.5926749 2960685
-1.1003786 -0.57492036 1.5505381 2960685
-1.0751082 -0.57500327 1.5680003 2960685
-1.0392723 -0.57499599 1.592762 2960685
-1.1007844 -0.52160621 1.5503694 2960685
-1.0751356 -0.52501905 1.5680845 2960685
-1.0393329 -0.52495658 1.5928237 2960685
-1.1009096 -0.47466284 1.5503811 2960685
-1.0751981 -0.4750194 1.5681492 2960685
-1.0393807 -0.47494131 1.5928961 2960685
-1.1009598 -0.4245823 1.5504519 2960685
-1.0752412 -0.42501408 1.5682236 2960685
-1.039416 -0.42497897 1.5929753 2960685
-1.1010096 -0.37449735 1.5505221 2960685
-1.0753032 -0.37501568 1.5682852 2960685
-1.039628 -0.37523931 1.5929346 2960685
-1.1010538 -0.32472542 1.5505959 2960685
-1.0753441 -0.32500222 1.5683607 2960685
-1.0399709 -0.32499045 1.5928029 2960685
-1.1011144 -0.27528045 1.5506576 2960685
-1.0753855 -0.27497214 1.5684365 2960685
-1.0400221 -0.27503234 1.5928706 2960685
-1.1011583 -0.2254996 1.5507319 2960685
-1.0754341 -0.22497177 1.5685066 2960685
-1.040049 -0.22500898 1.592959 2960685
-1.1012083 -0.17539644 1.550802 2960685
-1.0754824 -0.17497836 1.56858 2960685
-1.0401015 -0.17498115 1.593027 2960685
-1.1013808 -0.12343061 1.5507914 2960685
-1.075513 -0.12498032 1.5686637 2960685
-1.0401839 -0.12509994 1.5930754 2960685
-1.101379 -0.074097097 1.5508962 2960685
-1.0751951 -0.0750596 1.5689874 2960685
-1.0402128 -0.075184062 1.5931588 2960685
-1.1013578 -0.025059905 1.5510142 2960685
-1.0752627 -0.024993852 1.5690463 2960685
-1.0402381 -0.025082193 1.5932461 2960685
-1.1014084 0.025061425 1.5510839 2960685
-1.0753109 0.024995338 1.5691162 2960685
-1.0402831 0.025083702 1.5933195 2960685
-1.1014585 0.075187266 1.5511549 3026478
-1.075242 0.074984021 1.5692694 3026478
-1.0406375 0.074908778 1.5931807 3026478
-1.1014898 0.10667876 1.5511992 10197915
-1.0747448 0.10691713 1.5687108 10197915
-1.0349374 0.1087487 1.5861688 10197915
-0.97506952 0.11288454 1.5749985 10197915
-0.92499959 0.11290591 1.5752965 10197915
-0.87491399 0.1129273 1.575596 10197915
-0.82524234 0.11294825 1.5760458 10197915
-0.77533239 0.11296983 1.5761893 10197915
-0.72519022 0.11299124 1.5764866 10197915
-0.67502534 0.11301265 1.5767862 10197915
-0.62484503 0.11303407 1.5770853 10197915
-0.57507801 0.11305505 1.5775353 10197915
-0.52507502 0.11307666 1.577679 10197915
-0.47483802 0.11309814 1.5779791 10197915
-0.42479572 0.11311951 1.5782766 10197915
-0.37517375 0.11314069 1.5785689 10197915
-0.32531148 0.11316198 1.5788699 10197915
-0.27499864 0.11318346 1.5791695 10197915
-0.2250994 0.1132045 1.5796207 10197915
-0.17518264 0.11322606 1.5797642 10197915
-0.12502864 0.11324778 1.5799056 10197915
-0.075076729 0.11326854 1.5805149 10197915
-0.025103025 0.11329013 1.5806583 10197915
0.025109362 0.11331161 1.5809569 10197915
0.074900106 0.11333287 1.58125 10197915
0.12471335 0.11335415 1.5815511 10197915
0.173491 0.1133771 1.5806556 10197915
0.22519504 0.11341306 1.5732319 10197915
0.27511269 0.11343414 1.573642 10197915
0.32504299 0.1134557 1.5738239 10197915
0.37499717 0.11347681 1.5742337 10197915
0.42496625 0.11349837 1.574416 10197915
0.47495645 0.11351948 1.5748264 10197915
0.52496433 0.11354104 1.575009 10197915
0.57499111 0.11356218 1.5754194 10132122
0.62503773 0.11358377 1.5756009 10132122
0.67621505 0.11360776 1.5747116 10132122
0.72492999 0.1136421 1.5674464 10132122
0.77507657 0.11366352 1.5677423 10132122
0.82502854 0.11368459 1.568187 10197915
0.87499833 0.11370621 1.5683305 9211020
0.92520082 0.11372765 1.5686258 2368548
0.97520941 0.11374901 1.5689207 2039583
1.0247979 0.11377021 1.5692089 2039583
1.0718583 0.11378659 1.5715443 2039583
1.1041838 0.11377235 1.5874069 2039583
-1.0132892 -0.71028382 1.6104319 2960685
-0.97641534 -0.71595281 1.6358999 2960685
-1.0143648 -0.67501557 1.6097627 2960685
-0.97802842 -0.67498004 1.6348708 2960685
-1.0144038 -0.62498397 1.6098396 2960685
-0.97817767 -0.62510538 1.6348712 2960685
-1.0144472 -0.57494611 1.6099145 2960685
-0.9786002 -0.57502884 1.6346825 2960685
-1.0145116 -0.52499086 1.6099747 2960685
-0.97865677 -0.52501333 1.6347506 2960685
-1.0145448 -0.47503063 1.6100569 2960685
-0.97869015 -0.47499141 1.634832 2960685
-1.0145959 -0.42500094 1.6101266 2960685
-0.97872418 -0.42501259 1.634912 2960685
-1.0148076 -0.37480175 1.6100854 2960685
-0.97877049 -0.37501293 1.6349869 2960685
-1.0151588 -0.32498801 1.6099477 2960685
-0.97884059 -0.32500854 1.6350417 2960685
-1.0151955 -0.27497643 1.6100266 2960685
-0.97884637 -0.27500024 1.6351426 2960685
-1.0152236 -0.22498167 1.6101115 2960685
-0.97889984 -0.22500163 1.6352112 2960685
-1.0152997 -0.17500323 1.610165 2960685
-0.97906953 -0.17510736 1.6351966 2960685
-1.0153883 -0.12501922 1.6102072 2960685
-0.97949338 -0.1249438 1.635011 2960685
-1.0152626 -0.074988775 1.610399 2960685
-0.97957355 -0.075007416 1.63506 2960685
-1.0153639 -0.024828278 1.6104341 2960685
-0.97937578 -0.025178859 1.6353009 2960685
-1.015075 0.024977041 1.6107397 2960685
-0.97907299 0.025071993 1.6356165 2960685
-1.0152328 0.075153798 1.6107352 3026478
-0.97922963 0.075028859 1.6356125 3026478
-1.0155503 0.10661408 1.6104115 10197915
-0.97787958 0.1073581 1.6336634 10197915
-0.92474669 0.11280678 1.6306356 10197915
-0.87707925 0.11283784 1.6249295 10197915
-0.82500023 0.11286642 1.6216911 10197915
-0.77509409 0.11288796 1.6218714 10197915
-0.72517252 0.11290903 1.6223031 10197915
-0.6752274 0.11293057 1.6224834 10197915
-0.62526929 0.11295165 1.6229153 10197915
-0.57528532 0.1129732 1.6230965 10197915
-0.52529091 0.11299431 1.6235286 10197915
-0.47493532 0.11301579 1.6238368 10197915
-0.42456093 0.11303727 1.6241461 10197915
-0.37517974 0.11305857 1.6243194 10197915
-0.32543829 0.11307982 1.6246279 10197915
-0.27534786 0.11310094 1.6250603 10197915
-0.22523178 0.11312256 1.6252424 10197915
-0.17510475 0.11314374 1.6256754 10197915
-0.12528946 0.11316501 1.6259807 10197915
-0.075119235 0.11318661 1.6261623 10197915
-0.024932755 0.11320779 1.626596 10197915
0.024939001 0.1132291 1.6269019 10197915
0.075163394 0.11325073 1.6270839 10197915
0.12540944 0.11327196 1.6275175 10197915
0.17696242 0.11329911 1.6249604 10197915
0.22487672 0.1133314 1.6186572 10197915
0.27499723 0.11335247 1.6191275 10197915
0.3251397 0.11337415 1.6192682 10197915
0.37508041 0.11339521 1.6197389 10197915
0.42480788 0.11341701 1.6197054 10197915
0.47478583 0.11343803 1.6201804 10197915
0.52500254 0.11345919 1.620652 10197915
0.57523787 0.11348091 1.6207933 10197915
0.62504673 0.1135022 1.6210922 10132122
0.67487055 0.11352344 1.6214005 10132122
0.72516596 0.11354488 1.6217068 10132122
0.7750271 0.11356617 1.6220067 10132122
0.82491118 0.11358746 1.6223146 10132122
0.87503535 0.11360857 1.6227869 10132122
0.92495531 0.11363047 1.6227535 6513507
0.97489083 0.11365118 1.6233958 2039583
1.0246228 0.11367269 1.6235278 2039583
1.0746006 0.11369403 1.6238371 2039583
1.1188201 0.11370431 1.6288971 2039583
-0.90583432 -0.75183851 1.6845937 2960685
-0.89071083 -0.75424403 1.6950383 2960685
-0.95278364 -0.71962667 1.6522202 2960685
-0.92410922 -0.72351688 1.6720239 2960685
-0.89155483 -0.72500736 1.6945163 2960685
-0.95284516 -0.67493254 1.6522714 2960685
-0.92511457 -0.67501754 1.6714321 2960685
-0.89160317 -0.67493135 1.6945883 2960685
-0.95302451 -0.62425125 1.6522539 2960685
-0.92516476 -0.62502295 1.6715039 2960685
-0.89202106 -0.62523001 1.694404 2960685
-0.95342416 -0.57502514 1.6520803 2960685
-0.92520571 -0.57501036 1.6715788 2960685
-0.89220417 -0.57500249 1.6943822 2960685
-0.95346367 -0.5249874 1.6521579 2960685
-0.92523897 -0.52500618 1.671661 2960685
-0.89223307 -0.52504593 1.6944672 2960685
-0.95350671 -0.47504279 1.6522329 2960685
-0.9252978 -0.4750123 1.6717265 2960685
-0.89229858 -0.47499192 1.6945269 2960685
-0.95355773 -0.42499584 1.6523025 2960685
-0.92531562 -0.4250131 1.6718162 2960685
-0.89229703 -0.4249801 1.6946326 2960685
-0.95358562 -0.37504154 1.652388 2960685
-0.92536557 -0.37499604 1.6718873 2960685
-0.8923701 -0.37505752 1.6946872 2960685
-0.95365584 -0.32498714 1.6524447 2960685
-0.92541748 -0.32500219 1.6719582 2960685
-0.89238703 -0.3250365 1.6947798 2960685
-0.95366031 -0.27502137 1.6525464 2960685
-0.92545938 -0.27501777 1.672032 2960685
-0.89245677 -0.2749632 1.6948371 2960685
-0.95374203 -0.22505768 1.6525942 2960685
-0.92546296 -0.22501424 1.6721342 2960685
-0.89244676 -0.22498065 1.6949486 2960685
-0.9538632 -0.17440113 1.6526165 2960685
-0.9255563 -0.17499304 1.6721756 2960685
-0.89279014 -0.17554285 1.6948144 2960685
-0.95432311 -0.12502359 1.6524018 2960685
-0.92557371 -0.12502214 1.6722684 2960685
-0.89306873 -0.12497456 1.6947283 2960685
-0.95431602 -0.075046159 1.6525121 2960685
-0.92571384 -0.07497891 1.6722764 2960685
-0.89310914 -0.075128533 1.6948044 2960685
-0.95441008 -0.0250786 1.652552 2960685
-0.92557716 -0.024943737 1.6724757 2960685
-0.89314944 -0.025277907 1.6948813 2960685
-0.95400429 0.025249317 1.6529382 2960685
-0.92516255 0.024911506 1.6728656 2960685
-0.89319074 0.025279447 1.6949592 2960685
-0.95395231 0.075024426 1.6530789 3026478
-0.92532802 0.074979819 1.6728566 3092271
-0.89323086 0.07513912 1.6950359 3026478
-0.95400822 0.10615355 1.6531044 10197915
-0.92473811 0.10672998 1.672865 10197915
-0.88447481 0.10897786 1.6850623 10197915
-0.82497555 0.11277972 1.6700706 10197915
-0.77484262 0.11280109 1.6703867 10197915
-0.7251544 0.11282227 1.6706954 10197915
-0.67521322 0.11284357 1.671016 10197915
-0.62479681 0.11286506 1.6713343 10197915
-0.57481873 0.11288604 1.6718323 10197915
-0.52505356 0.11290792 1.6717767 10197915
-0.47527105 0.11292849 1.6724607 10197915
-0.42523587 0.11295015 1.6725944 10197915
-0.37472427 0.11297169 1.6729127 10197915
-0.32465068 0.11299302 1.6732241 10197915
-0.27479339 0.11301431 1.673544 10197915
-0.22468279 0.11303534 1.6740433 10197915
-0.17478651 0.11305729 1.6739876 10197915
-0.12487164 0.11307788 1.6746734 10197915
-0.074934147 0.11309984 1.6746179 10197915
-0.024985323 0.11312047 1.6753038 10197915
0.024991583 0.11314178 1.6756196 10197915
0.074978076 0.11316376 1.6755646 10197915
0.12499085 0.11318442 1.6762512 10197915
0.17501853 0.1132064 1.6761957 10197915
0.22506563 0.11322708 1.676883 10197915
0.2749016 0.11324868 1.6770095 10197915
0.32498485 0.11327 1.6773307 10197915
0.3750912 0.11329138 1.6776421 10197915
0.42498279 0.11331231 1.6781456 10197915
0.47512162 0.11333435 1.6780906 10197915
0.5250513 0.11335497 1.6787784 10197915
0.57476455 0.11337649 1.6789023 10197915
0.62496513 0.11339787 1.6792246 10197915
0.67413294 0.11342066 1.6785327 10132122
0.72502851 0.11345829 1.6699588 10132122
0.7749868 0.1134796 1.6702724 10132122
0.82495815 0.1135014 1.6703104 10132122
0.87495124 0.11352222 1.6708999 10132122
0.9249661 0.11354355 1.6712136 10132122
0.97499943 0.1135649 1.6715277 2894892
1.0246991 0.11358633 1.6717001 2039583
1.0747713 0.1136077 1.6720178 2039583
1.1252041 0.11362895 1.6724706 2039583
1.1606461 0.11363724 1.6765153 2039583
-0.86475766 -0.75819451 1.7129631 2960685
-0.8288551 -0.76374364 1.7377588 2960685
-0.86657816 -0.72498536 1.7117736 2960685
-0.83054692 -0.72515059 1.7366725 2960685
-0.86664748 -0.67499828 1.7118286 2960685
-0.83093184 -0.67499799 1.7365077 2960685
-0.86706978 -0.62486744 1.7116472 2960685
-0.83095932 -0.62499607 1.7365969 2960685
-0.86724615 -0.57495856 1.7116266 2960685
-0.83099616 -0.57503104 1.736676 2960685
-0.86727458 -0.52493578 1.7117114 2960685
-0.83104765 -0.52504033 1.7367429 2960685
-0.86733651 -0.4749738 1.7117795 2960685
-0.83107895 -0.47500336 1.7368296 2960685
-0.86733979 -0.42498568 1.7118772 2960685
-0.83110386 -0.42498392 1.7369171 2960685
-0.86740857 -0.37497148 1.7119335 2960685
-0.83116549 -0.37500018 1.7369759 2960685
-0.86741924 -0.32495266 1.712038 2960685
-0.83117282 -0.3250331 1.7370793 2960685
-0.86749482 -0.27495086 1.7120827 2960685
-0.83123142 -0.27504027 1.7371413 2960685
-0.86748767 -0.22496608 1.7121981 2960685
-0.83168149 -0.22514369 1.7369345 2960685
-0.86784762 -0.17475893 1.7120528 2960685
-0.83186644 -0.17505041 1.736913 2960685
-0.86805993 -0.12495247 1.7120048 2960685
-0.83183622 -0.12504455 1.7370379 2960685
-0.86824274 -0.074830078 1.7119911 2960685
-0.83199275 -0.075162217 1.7370346 2960685
-0.86815536 -0.024826171 1.7121542 2960685
-0.83192718 -0.025168397 1.7371856 2960685
-0.86819237 0.024827655 1.7122253 2960685
-0.8319661 0.025169931 1.7372638 2960685
-0.86835909 0.074819729 1.7122216 3092271
-0.83210504 0.075172961 1.7372721 3092271
-0.86790949 0.10662468 1.7122897 10197915
-0.83029759 0.10747038 1.7344438 10197915
-0.77469242 0.11270869 1.7219273 10197915
-0.72489268 0.11272988 1.7222513 10197915
-0.67508215 0.11275165 1.7222724 10197915
-0.62524575 0.11277234 1.7228999 10197915
-0.57538956 0.11279358 1.7232242 10197915
-0.52516049 0.11281522 1.7234015 10197915
-0.47491276 0.11283638 1.7238783 10197915
-0.42500004 0.11285765 1.7242031 10197915
-0.37471676 0.11287934 1.7243809 10197915
-0.32476491 0.11290062 1.7247014 10197915
-0.27515793 0.11292146 1.7251782 10197915
-0.22516985 0.11294278 1.7255037 10197915
-0.17516306 0.11296406 1.7258292 10197915
-0.12478639 0.1129858 1.7260072 10197915
-0.074740328 0.11300713 1.7263286 10197915
-0.025038045 0.11302802 1.7268064 10197915
0.02504435 0.11304937 1.727132 10197915
0.074783996 0.11307083 1.7273018 10197915
0.12454531 0.11309174 1.7277799 10197915
0.17504014 0.11311355 1.7279584 10197915
0.22519955 0.11313491 1.7282804 10197915
0.27500999 0.11315586 1.7287589 10197915
0.32520568 0.11317725 1.7290859 10197915
0.37506232 0.11319873 1.7292558 10197915
0.42493194 0.11321971 1.7297348 10197915
0.47518429 0.11324113 1.7300619 10197915
0.52509439 0.11326268 1.7302322 10197915
0.57502317 0.11328368 1.7307117 10197915
0.62497228 0.11330523 1.7308823 10197915
0.67637813 0.11333061 1.7292728 10197915
0.72488314 0.11336673 1.7209884 10132122
0.77493662 0.11338802 1.7213175 10132122
0.82501352 0.11340939 1.7216358 10132122
0.87486678 0.11343027 1.722162 10132122
0.92497987 0.11345234 1.7220845 10132122
0.97510815 0.11347298 1.7228106 7566195
1.0247806 0.11349452 1.7229278 2039583
1.0747125 0.11351576 1.7232567 2039583
1.124898 0.11353716 1.7235757 2039583
1.1734568 0.11355482 1.725596 2039583
1.2083894 0.11354153 1.741514 2039583
-0.75164837 -0.80062085 1.7910309 2960685
-0.74314916 -0.80193412 1.7969012 2960685
-0.80508816 -0.76741159 1.7541745 2960685
-0.7736358 -0.77223718 1.775897 2960685
-0.74417257 -0.7749753 1.7962501 2960685
-0.80543309 -0.72445166 1.7540261 2960685
-0.77508235 -0.7250005 1.7749972 2960685
-0.74420297 -0.72499973 1.7963339 2960685
-0.80580622 -0.67495239 1.7538731 2960685
-0.77509809 -0.67499357 1.7750916 2960685
-0.74466693 -0.67546934 1.7961174 2960685
-0.8058399 -0.62491077 1.7539539 2960685
-0.77513736 -0.62499785 1.7751681 2960685
-0.74484271 -0.62504566 1.7961011 2960685
-0.80589938 -0.57499701 1.7540157 2960685
-0.77521974 -0.57498169 1.7752155 2960685
-0.74488807 -0.57505232 1.7961752 2960685
-0.80590415 -0.52501178 1.7541193 2960685
-0.77518356 -0.5249939 1.7753474 2960685
-0.74490637 -0.52496934 1.796267 2960685
-0.80595845 -0.47495779 1.7541856 2960685
-0.77523738 -0.47501814 1.7754149 2960685
-0.74495196 -0.47496796 1.7963405 2960685
-0.80599439 -0.42502913 1.7542666 2960685
-0.77530706 -0.42500538 1.77547 2960685
-0.74497825 -0.42495915 1.7964274 2960685
-0.80602258 -0.37503141 1.7543503 2960685
-0.77530807 -0.37500373 1.7755755 2960685
-0.74503094 -0.37494701 1.7964958 2960685
-0.8060531 -0.32496265 1.7544355 2960685
-0.7753486 -0.3249976 1.7756517 2960685
-0.74502295 -0.32501256 1.7966053 2960685
-0.80613571 -0.27502221 1.7544837 2960685
-0.77540207 -0.2749702 1.7757193 2960685
-0.74511766 -0.27507561 1.796645 2960685
-0.80653483 -0.22471498 1.7543131 2960685
-0.77542919 -0.2249895 1.7758067 2960685
-0.74508673 -0.22496425 1.7967712 2960685
-0.80676204 -0.17491314 1.7542615 2960685
-0.7754243 -0.17500298 1.7759147 2960685
-0.745713 -0.17525843 1.7964425 2960685
-0.8067556 -0.1250118 1.7543689 2960685
-0.77552003 -0.12497866 1.7759537 2960685
-0.74576002 -0.12503797 1.7965156 2960685
-0.8067925 -0.074865058 1.7544488 2960685
-0.77560753 -0.075002357 1.7759972 2960685
-0.745794 -0.07517498 1.7965972 2960685
-0.80682921 -0.024713738 1.7545291 2960685
-0.77548468 -0.025018822 1.7761849 2960685
-0.74582738 -0.025307437 1.7966782 2960685
-0.80686551 0.024715209 1.754606 2960685
-0.77551973 0.025020318 1.7762675 2960685
-0.74586177 0.025308995 1.7967607 2960685
-0.80690205 0.074875623 1.7546865 3158064
-0.77569956 0.07499624 1.7762468 3092271
-0.74589515 0.075185627 1.7968416 3092271
-0.80692649 0.1067994 1.7545764 10197915
-0.77509898 0.10703985 1.7745676 10197915
-0.73295158 0.11000162 1.784606 10197915
-0.67553341 0.11267033 1.7675337 10197915
-0.62493908 0.11269445 1.7664335 10197915
-0.57492644 0.11271603 1.7666054 10197915
-0.52488387 0.11273704 1.7671012 10197915
-0.47483206 0.11275866 1.7672734 10197915
-0.42475277 0.11277968 1.7677691 10197915
-0.37466168 0.11280131 1.7679414 10197915
-0.3245461 0.11282235 1.7684377 10197915
-0.27477792 0.11284351 1.76877 10197915
-0.2249971 0.11286531 1.7687734 10197915
-0.17519484 0.11288591 1.7694345 10197915
-0.12537064 0.11290712 1.7697668 10197915
-0.075161852 0.1129288 1.7699399 10197915
-0.024937231 0.11294989 1.770437 10197915
0.024943478 0.11297113 1.7707697 10197915
0.075206071 0.11299281 1.770943 10197915
0.12549078 0.11301393 1.7714407 10197915
0.17505839 0.11303531 1.7716048 10197915
0.22464472 0.11305612 1.7721024 10197915
0.27498606 0.11307786 1.772276 10197915
0.3253434 0.11309899 1.7727747 10197915
0.37535599 0.1131203 1.7731079 10197915
0.42501533 0.11314173 1.7732724 10197915
0.47469667 0.11316258 1.773771 10197915
0.52476549 0.11318388 1.7741047 10197915
0.57484961 0.11320576 1.7741092 10197915
0.62495029 0.11322651 1.7747731 10197915
0.67507565 0.11324783 1.7751074 10197915
0.72521967 0.11326919 1.7754421 10132122
0.77500993 0.1132907 1.775607 10132122
0.82482231 0.11331159 1.7761068 10132122
0.87502295 0.11333299 1.7764421 10132122
0.92486626 0.11335449 1.7766068 10132122
0.97473782 0.11337543 1.7771074 10132122
1.0246199 0.11339696 1.7772725 4605510
1.0745271 0.11341793 1.7777734 2039583
1.1248224 0.11343934 1.7781088 2039583
1.1747576 0.11346089 1.7782745 2039583
1.2217436 0.11347714 1.7806929 2039583
-0.71567678 -0.80624729 1.8158741 2960685
-0.68194669 -0.81142992 1.8391713 2960685
-0.71903175 -0.77501315 1.8136215 2960685
-0.68317515 -0.77496755 1.8383992 2960685
-0.71907496 -0.72500139 1.8136972 2960685
-0.68320382 -0.7249878 1.8384832 2960685
-0.71959388 -0.67488343 1.8134434 2960685
-0.68325108 -0.67500234 1.8385555 2960685
-0.71973228 -0.62500697 1.8134528 2960685
-0.68325871 -0.6249845 1.8386532 2960685
-0.71975213 -0.57498384 1.813544 2960685
-0.68331671 -0.57499045 1.838721 2960685
-0.71981198 -0.52497852 1.8136072 2960685
-0.68331736 -0.52501982 1.8388251 2960685
-0.71982169 -0.47499037 1.813705 2960685
-0.68337762 -0.47504508 1.8388872 2960685
-0.71987152 -0.42499834 1.8137757 2960685
-0.68338031 -0.42503718 1.8389908 2960685
-0.71991372 -0.37497869 1.8138508 2960685
-0.68386507 -0.37522319 1.8387594 2960685
-0.71991158 -0.32497784 1.8139575 2960685
-0.68406373 -0.32503846 1.8387252 2960685
-0.71998447 -0.27497068 1.8140112 2960685
-0.68408179 -0.2750085 1.8388196 2960685
-0.71996677 -0.2249828 1.8141282 2960685
-0.68415403 -0.22506283 1.8388757 2960685
-0.72060788 -0.17491344 1.8137913 2960685
-0.68411535 -0.17508271 1.8390061 2960685
-0.72061223 -0.12495748 1.813893 2960685
-0.68416601 -0.12503888 1.8390752 2960685
-0.72075152 -0.074849598 1.8139009 2960685
-0.68429726 -0.075169742 1.8390908 2960685
-0.72069699 -0.024844375 1.8140446 2960685
-0.6842171 -0.02514511 1.8392495 2960685
-0.72073042 0.024845839 1.8141259 2960685
-0.68424964 0.025146652 1.8393327 2960685
-0.72084993 0.074838586 1.8141469 3092271
-0.68438923 0.075180322 1.8393418 3158064
-0.72019267 0.10634387 1.8146173 10197915
-0.68073434 0.10798718 1.8341404 10197915
-0.62517059 0.11259119 1.8239306 10197915
-0.57515329 0.11261206 1.8245125 10197915
-0.52511823 0.11263371 1.8246204 10197915
-0.4750638 0.11265545 1.8247212 10197915
-0.42499506 0.11267593 1.8255451 10197915
-0.37465107 0.11269777 1.825657 10197915
-0.32504866 0.11273891 1.8148085 10197915
-0.27476197 0.11276158 1.8144418 10197915
-0.22481237 0.11278251 1.8149592 10197915
-0.17484523 0.11280409 1.8151258 10197915
-0.12485946 0.11282504 1.8156435 10197915
-0.074853107 0.11284661 1.8158103 10197915
-0.024831168 0.11286758 1.8163283 10197915
0.024837364 0.11288872 1.8166684 10197915
0.074896924 0.11291033 1.8168353 10197915
0.12497862 0.11293131 1.8173538 10197915
0.17507756 0.11295294 1.8175209 10197915
0.22519548 0.11297397 1.8180398 10197915
0.27495766 0.11299511 1.8183807 10197915
0.32510996 0.11301678 1.8185482 10197915
0.3752878 0.11303781 1.8190672 10197915
0.42510629 0.11305899 1.8194084 10197915
0.47493666 0.11308083 1.8193923 10197915
0.52478945 0.11310139 1.820091 10197915
0.57466412 0.11312261 1.8204327 10197915
0.62493449 0.11314433 1.8206004 10197915
0.67522097 0.11316541 1.8211207 10132122
0.7251519 0.11318666 1.8214625 10132122
0.7751016 0.1132079 1.8218048 10132122
0.82506329 0.11322981 1.8217889 10132122
0.8750475 0.11325041 1.822489 10132122
0.92505378 0.11327168 1.8228312 10132122
0.97507858 0.11329298 1.8231736 10132122
1.0247374 0.11331441 1.8233321 8947848
1.0748011 0.1133357 1.8236803 2039583
1.1252563 0.11335687 1.8242016 2039583
1.1753561 0.11337817 1.8245449 2039583
1.2250931 0.11339967 1.8247036 2039583
1.2636858 0.11340868 1.8290919 2039583
-0.65781367 -0.81515974 1.8558385 2960685
-0.62338054 -0.82050014 1.8796191 2960685
-0.59678137 -0.82452363 1.8979906 2960685
-0.65810281 -0.77501035 1.8557227 2960685
-0.62497604 -0.77501678 1.8786138 2960685
-0.59684122 -0.77486187 1.8980534 2960685
-0.65811771 -0.72501642 1.8558136 2960685
-0.62500352 -0.7250194 1.8786987 2960685
-0.59687638 -0.72488344 1.898134 2960685
-0.65815705 -0.6750173 1.8558967 2960685
-0.62501991 -0.67501777 1.8787912 2960685
-0.59728283 -0.67608708 1.8979559 2960685
-0.65819937 -0.62501436 1.8559718 2960685
-0.62504882 -0.62501162 1.8788776 2960685
-0.59755558 -0.62488329 1.8978746 2960685
-0.65821576 -0.57506043 1.8560636 2960685
-0.62507123 -0.57498068 1.8789663 2960685
-0.59759289 -0.5749824 1.8979532 2960685
-0.65823585 -0.52504838 1.8561567 2960685
-0.62509847 -0.5249657 1.8790516 2960685
-0.59763002 -0.52507746 1.8980321 2960685
-0.65830117 -0.47497609 1.8562137 2960685
-0.62516403 -0.47498557 1.8791128 2960685
-0.59764194 -0.47496858 1.898129 2960685
-0.65828508 -0.42500919 1.8563322 2960685
-0.62516195 -0.42500144 1.8792182 2960685
-0.59766901 -0.42466015 1.8982159 2960685
-0.65879995 -0.37462956 1.8560805 2960685
-0.62518692 -0.37501165 1.8793057 2960685
-0.59767538 -0.37473655 1.8983163 2960685
-0.65898079 -0.32500523 1.8560586 2960685
-0.62521517 -0.32497868 1.8793893 2960685
-0.59774369 -0.32521248 1.8983729 2960685
-0.65899503 -0.27503785 1.8561572 2960685
-0.62522197 -0.27498046 1.8794926 2960685
-0.59775013 -0.27527997 1.8984729 2960685
-0.65910393 -0.22496159 1.8561839 2960685
-0.62532741 -0.22497766 1.8795218 2960685
-0.59777743 -0.22495317 1.8985598 2960685
-0.65899134 -0.17498244 1.8563646 2960685
-0.62531239 -0.17501107 1.8796374 2960685
-0.59798622 -0.17616424 1.8985176 2960685
-0.65916365 -0.12500365 1.8563536 2960685
-0.62531489 -0.12507869 1.8797414 2960685
-0.5984779 -0.12504329 1.8982853 2960685
