# .PCD v0.7 - Point Cloud Data file format
VERSION 0.7
FIELDS x y z rgb
SIZE 4 4 4 4
TYPE F F F U
COUNT 1 1 1 1
WIDTH 1179
HEIGHT 1
VIEWPOINT 0 0 0 1 0 0 0
POINTS 1179
DATA ascii
0.92478913 0.11327083 1.8727622 7039851
0.97485822 0.11331895 1.8735573 5855577
1.0245726 0.11336711 1.8741502 6513507
1.0683863 0.11340399 1.8774235 6513507
-0.2512137 -0.61793715 1.9497573 6566193
-0.22512624 -0.6183753 1.9409804 6566193
-0.17455876 -0.61839736 1.9240283 6566193
-0.14684242 -0.62042063 1.9274122 6566193
-0.85398698 -0.59769291 1.9103349 6447714
-0.82467431 -0.59768999 1.9232683 6447714
-0.77502012 -0.59764063 1.9234468 6316128
-0.72499657 -0.59759051 1.9232593 4401706
-0.67498183 -0.59754038 1.9231718 6368814
-0.63876855 -0.59749818 1.9201751 6566193
-0.46157792 -0.59728974 1.9045254 4354723
-0.25122213 -0.57433724 1.9498227 6501942
-0.22514164 -0.5750519 1.9410477 6501685
-0.17451927 -0.57501417 1.9240812 6501685
-0.14692031 -0.57491797 1.9274074 6502713
-0.25123179 -0.52427459 1.9498975 6447714
-0.22519509 -0.52505344 1.9411372 6447714
-0.17465115 -0.52502149 1.9241995 6447714
-0.14694099 -0.52486795 1.9275943 6447714
-0.25124085 -0.47743818 1.9499675 6447714
-0.22519489 -0.47505116 1.941209 6447714
-0.17454365 -0.47500002 1.9242415 6447714
-0.146946 -0.47500467 1.9278278 6447714
-0.22519456 -0.42504522 1.9412799 6447714
-0.1746296 -0.42499936 1.9243441 6447714
-0.14698219 -0.42513481 1.9279683 6447714
-0.22406389 -0.37640005 1.9409699 6447714
-0.17452028 -0.37504664 1.9243844 6447714
-0.14697178 -0.37505138 1.9282483 6447714
-1.4607803 -0.30952758 1.9018742 2039583
-0.20853689 -0.34643614 1.935789 6447714
-0.16831569 -0.33473578 1.9216673 6447714
-0.1470132 -0.32495925 1.9283748 6447714
-1.4608743 -0.27499667 1.9019547 2039583
-1.4259864 -0.27250978 1.9169451 3032928
-1.3871046 -0.28921339 1.9153447 2039583
-1.3056315 -0.28917274 1.9413501 2434341
-1.272837 -0.28910738 1.9245082 4149603
-1.2250077 -0.28905174 1.9220419 3298422
-1.1851504 -0.2889989 1.9163381 2439760
-1.1058836 -0.28895071 1.9368284 4147798
-1.0747901 -0.28889844 1.9262871 6316385
-1.0441103 -0.28884786 1.9163829 6447714
-0.62575316 -0.28838372 1.9071088 2039583
-0.45933053 -0.28824693 1.9303045 3500956
-0.43161353 -0.28820914 1.9257884 2908307
-0.32169643 -0.28809392 1.9272128 4418709
-0.27511439 -0.28804183 1.9259375 2172974
-0.22512649 -0.28798774 1.9256431 2039583
-0.17290719 -0.27080855 1.9067686 2434857
-0.14700781 -0.27505636 1.9286389 3226179
-1.4609205 -0.22523786 1.902042 2039583
-1.4280015 -0.2248738 1.9159296 3495285
-0.17298673 -0.22505656 1.9060938 6450036
-0.14703369 -0.2251415 1.9288106 5930404
-1.4610233 -0.17494409 1.9021486 2039583
-1.4283003 -0.17496586 1.9152905 3166838
-0.17296766 -0.17506491 1.9061742 6318451
-0.14705949 -0.17521834 1.9289823 5273506
-1.4611254 -0.12464442 1.9022549 2039583
-1.4283675 -0.12501559 1.9153361 2575218
-0.17363238 -0.12456552 1.9064165 5990002
-0.1470387 -0.12508021 1.9292936 4091036
-1.4611428 -0.075005308 1.9023317 2039583
-1.4283543 -0.075025961 1.9156275 2115182
-0.1738233 -0.075006925 1.9066048 5727088
-0.14709567 -0.074741229 1.9293745 3104916
-1.4612451 -0.025220811 1.9024378 2039583
-1.4284906 -0.025001498 1.9154688 1918574
-0.17395578 -0.025217388 1.9066577 5596016
-0.14709039 -0.024781778 1.9296392 2513552
-1.4604042 0.025703685 1.9022278 2039583
-1.428548 0.025002822 1.9155465 1655145
-0.17396489 0.025219226 1.9067653 5398638
-0.14710575 0.024785236 1.9298398 2316429
-1.4603029 0.07498385 1.9022642 5789784
-1.428534 0.07499931 1.9158374 2377066
-0.1738506 0.075019583 1.9069121 8029585
-0.14714187 0.074765608 1.9299815 3431819
-1.4605088 0.10491994 1.9023763 10000536
-1.4271595 0.10590766 1.9164885 10000536
-1.3909966 0.110865 1.9252062 10000536
-1.3002939 0.11095203 1.9267175 10000536
-1.2718199 0.11100093 1.9165215 7635859
-1.2251283 0.11105129 1.9145505 1523306
-1.1836253 0.11109775 1.911961 1387592
-1.1042051 0.11114013 1.9299839 10197915
-1.0731839 0.11119489 1.9181499 10197915
-1.0413994 0.11124327 1.9098518 10197915
-0.90830797 0.11134149 1.9266216 10197915
-0.87517864 0.11138669 1.9205443 10197915
-0.83957833 0.1114298 1.9167131 5139857
-0.75704336 0.11148854 1.9281849 1722235
-0.72495133 0.11153084 1.9230294 2308692
-0.67504996 0.11157873 1.9238552 9934743
-0.63896656 0.11161911 1.9216058 9934743
-0.45941684 0.11178076 1.9298413 2316685
-0.43196234 0.11181434 1.9267201 1721727
-0.32182521 0.11191621 1.9304255 2905475
-0.27470848 0.11196332 1.9302677 8554122
-0.22481993 0.11201076 1.9313046 10132122
-0.17409889 0.10599127 1.9070245 10132122
-0.1340595 0.1098508 1.9313637 10132122
-0.0096188365 0.11221728 1.9348649 10197915
0.024858419 0.11225035 1.9354357 10197915
0.074227788 0.11229906 1.935595 10197915
0.12512702 0.11237364 1.9237248 10197915
0.17461333 0.11242115 1.9245381 10197915
0.22494078 0.11246945 1.9253649 10197915
0.27867493 0.1125429 1.9154332 10197915
0.32509044 0.1125919 1.9139793 10197915
0.37480882 0.11264005 1.9145836 10197915
0.42496496 0.11268737 1.9158163 10197915
0.47515672 0.11273639 1.9162219 10197915
0.52540231 0.11278465 1.9170412 10197915
0.57528704 0.11283211 1.9180627 10197915
0.62521625 0.11288048 1.9186702 10197915
0.67518389 0.11292801 1.9196929 10197915
0.72479838 0.11297563 1.9205025 10197915
0.77485126 0.11302412 1.9211122 10197915
0.8249495 0.11307179 1.9221371 10197915
0.87508947 0.11312033 1.9227475 10197915
0.92527157 0.11316808 1.9237744 9737364
0.9750973 0.11321594 1.9245872 4473924
1.0253615 0.11326461 1.9251997 6513507
1.075274 0.11331254 1.9260074 6513507
1.1097115 0.1133319 1.9333439 6513507
-0.40017617 -0.61807746 1.9998699 3294552
-0.37455601 -0.61838651 1.9912496 4272702
-0.32476714 -0.61838746 1.9745004 6566193
-0.27580035 -0.61838567 1.9580284 6566193
-0.81881732 -0.59778261 1.9720929 6447714
-0.77509367 -0.5977422 1.9736812 5000268
-0.72635609 -0.59768945 1.9715993 5449511
-0.67754424 -0.59762436 1.9635143 6566193
-0.64490473 -0.5975799 1.9576347 6566193
-0.40018943 -0.57501328 1.9999362 2965846
-0.3745462 -0.57494789 1.9913099 4273473
-0.32475567 -0.57496691 1.9745587 6501942
-0.27578953 -0.5750066 1.9580865 6501685
-0.40019965 -0.5418852 1.999987 2768468
-0.37454021 -0.52496982 1.9913793 4213848
-0.32477769 -0.52500188 1.9746386 6447714
-0.27584127 -0.5249629 1.9581753 6447714
-0.37455159 -0.47504473 1.9914542 4148055
-0.32480785 -0.47503421 1.9747198 6447714
-0.27574328 -0.47484052 1.9582151 6447714
-0.37287843 -0.43218917 1.9909528 4410712
-0.32445559 -0.42529175 1.9746727 6447714
-0.27493483 -0.42497939 1.9580135 6447714
-0.31208321 -0.39443526 1.9705542 6447714
-0.27185276 -0.38556597 1.9570333 6447714
-1.4297203 -0.28935653 1.9697616 1910063
-1.3170152 -0.28924608 1.9754723 4409937
-1.2750305 -0.28919476 1.9719328 4155021
-1.2274617 -0.28914037 1.9700228 2440275
-1.1968067 -0.28907984 1.9545518 2373966
-1.1187119 -0.28904283 1.9805915 5725023
-1.0841298 -0.28898939 1.9714277 6513507
-0.46501702 -0.2883395 1.9785337 3303322
-0.43682081 -0.28830406 1.9756269 2776978
-0.35186017 -0.28823152 1.9859375 2448016
-0.32650107 -0.28818423 1.9747177 4483728
-0.27755386 -0.28811821 1.9671025 2040873
-0.23260225 -0.28805637 1.9594922 2039583
-1.4537739 0.11069344 1.979182 10000536
-1.4261748 0.11075155 1.9639992 10000536
-1.3159105 0.11084493 1.9719667 9015189
-1.2752677 0.11089277 1.9682697 2708352
-1.2277591 0.11094189 1.9672987 1190984
-1.1974564 0.11099563 1.9556128 3095891
-1.1167654 0.11103817 1.9741946 10066329
-1.0825621 0.11108371 1.9684761 10197915
-0.91987771 0.11122874 1.976652 10197915
-0.87720674 0.11127796 1.973258 8030102
-0.8491928 0.11132958 1.9614968 3432851
-0.76702571 0.11137573 1.9790218 1390944
-0.725052 0.11142021 1.9776314 5727088
-0.67495346 0.11146872 1.9782537 10000536
-0.64554155 0.11152484 1.9649369 10000536
-0.46574739 0.11166582 1.9835243 2250635
-0.43756449 0.11169961 1.9806464 1523579
-0.35212645 0.11176064 1.9924265 2052231
-0.3247225 0.11180399 1.9844432 2378358
-0.27510515 0.11185201 1.9850566 9014415
-0.22982547 0.11191238 1.977442 10132122
-0.12755625 0.11202153 1.9736878 10197915
-0.0098217195 0.11213442 1.9756771 10197915
0.025382951 0.11216816 1.9762717 10197915
0.076808624 0.11222096 1.9754227 10197915
0.12531362 0.11229183 1.9642135 10197915
0.17543131 0.11234035 1.9648291 10197915
0.2251889 0.11238807 1.9656634 10197915
0.27497742 0.11243492 1.9669498 10197915
0.32481566 0.11248363 1.9673349 10197915
0.37470019 0.11253148 1.9681718 10197915
0.4250282 0.11257927 1.9692419 10197915
0.47499603 0.11262722 1.9700799 10197915
0.52459359 0.11267526 1.970686 10197915
0.57505393 0.11272318 1.9717588 10197915
0.62514961 0.11277123 1.9725991 10197915
0.67487055 0.11281938 1.9732066 10197915
0.72505337 0.1128675 1.9740489 10197915
0.77485836 0.11291483 1.975111 10197915
0.82471573 0.1129631 1.9757206 10197915
0.87501848 0.11301041 1.9770181 10197915
0.92536509 0.11305963 1.977409 10197915
0.97534919 0.11310711 1.9784743 6908265
1.025367 0.11315556 1.9790864 5592405
1.075434 0.11320312 1.9801537 6447714
1.1229892 0.11324558 1.9824922 6447714
1.1531615 0.11324956 1.9953246 6447714
-0.47117817 -0.61850905 2.0237536 5339813
-0.42517421 -0.6183939 2.0082798 2509424
-0.81244838 -0.59785324 2.0102048 6447714
-0.78040034 -0.59781247 2.0058661 4802375
-0.74783516 -0.59777069 2.0012298 6566193
-0.47122759 -0.5750702 2.0238352 4945315
-0.42515838 -0.57502538 2.0083354 2443888
-0.47123289 -0.52499259 2.0239048 4551072
-0.42457104 -0.52483964 2.0082116 2312302
-0.47122043 -0.47498158 2.0239723 4222879
-0.42426294 -0.47499502 2.0081775 2246252
-0.47129303 -0.43471143 2.0240574 3762329
-0.4243876 -0.434659 2.0082772 1982825
-0.95524037 -0.30952531 2.0349522 3750201
-1.4388252 -0.28942367 2.0017333 2039583
-1.3621933 -0.28940219 2.0355406 4013631
-1.3249366 -0.28934216 2.0243499 4810887
-1.2750487 -0.28928804 2.0239727 2638944
-1.2391187 -0.28922763 2.0116973 2176846
-1.1594785 -0.28918549 2.0357981 2305076
-1.1261303 -0.28913552 2.0278373 3487029
-1.0954103 -0.28907734 2.0137761 3289650
-0.9563421 -0.29354292 2.0360603 2039583
-0.47194913 -0.28842822 2.0237968 3171736
-0.44151253 -0.2883825 2.016572 2777233
-0.35472903 -0.28826922 2.0052404 2579345
-1.4741023 0.11058144 2.0245245 10000536
-1.445845 0.11064291 2.0080271 10000536
-1.3614881 0.1106758 2.0331533 10000536
-1.3249701 0.11072922 2.0246782 4351628
-1.2747737 0.11077679 2.0257998 1191760
-1.2404288 0.11083169 2.0155451 2044748
-1.1591527 0.11087086 2.0360541 9934743
-1.125904 0.11092151 2.0273483 9934743
-1.0947721 0.11097919 2.0141301 10132122
-0.95959967 0.1110644 2.0383482 10197915
-0.92508811 0.11111268 2.0314288 10197915
-0.88862646 0.11115503 2.0284042 5073550
-0.80553472 0.11119606 2.048876 1920644
-0.77499288 0.11125591 2.0343001 1389138
-0.72800338 0.1113219 2.0247536 8751244
-0.67998177 0.11137652 2.0213411 10000536
-0.47063577 0.11157704 2.0249805 2118537
-0.44222128 0.11160427 2.0254745 1457528
-0.35521683 0.1116876 2.0269868 2248583
-0.32506806 0.11171648 2.0275109 2048619
-0.2756263 0.11176383 2.0283706 10066329
-0.22620618 0.11183729 2.0163355 10066329
-0.1505802 0.1118836 2.030544 10197915
-0.12988409 0.11193346 2.016077 10197915
-0.010034376 0.1120477 2.0184548 10197915
0.025095975 0.11208133 2.0190611 10197915
0.074892864 0.11212955 2.0196741 10197915
0.12473638 0.11217681 2.0207808 10197915
0.17504266 0.112225 2.0216491 10197915
0.22496325 0.11227333 2.0222642 10197915
0.27493885 0.11232074 2.0233736 10197915
0.32494664 0.11236914 2.0239894 10197915
0.37500557 0.1124166 2.0251005 10197915
0.42510077 0.1124651 2.025718 10197915
0.47524312 0.11251266 2.0268307 10197915
0.52542621 0.11256123 2.0274494 10197915
0.57480752 0.11260803 2.028549 10197915
0.62465632 0.11265578 2.0294094 10197915
0.67496318 0.11270449 2.03003 10197915
0.72489899 0.11275234 2.0308917 10197915
0.77487248 0.11279925 2.0322504 10197915
0.82488132 0.11284815 2.0326173 10197915
0.87494457 0.11289611 2.0334814 10197915
0.92461985 0.1129432 2.0345869 10197915
0.9702732 0.1130007 2.0285828 10066329
1.0251629 0.11306923 2.0216608 3947580
1.0750326 0.11311702 2.0225153 6447714
1.1249443 0.11316486 2.0233705 6513507
1.1613458 0.11319975 2.0239942 6447714
-0.94157243 -0.3095217 2.0755811 3684408
-1.4044019 -0.28954965 2.0925603 3355443
-1.3741508 -0.28949559 2.0806262 4874100
-1.3248813 -0.28944027 2.0790732 3101044
-1.2834127 -0.28938866 2.0751345 2111053
-1.2025502 -0.28934193 2.0973201 1322824
-1.1718764 -0.28927854 2.0803773 1908771
-1.1368129 -0.28922877 2.0734568 2039583
-0.96948296 -0.28905946 2.0790031 2039583
-0.94189727 -0.29384404 2.0767443 2039583
-0.49787199 -0.28851044 2.0542791 3172765
-1.5202867 0.11040975 2.0867095 10000536
-1.4918741 0.11047749 2.0671964 10000536
-1.414593 0.1104879 2.0999484 10000536
-1.3733826 0.11059088 2.0693176 7373202
-1.3250704 0.11063708 2.0701826 1589356
-1.2826589 0.11067765 2.0709417 1453640
-1.1696903 0.11078576 2.0729644 8948622
-1.1356723 0.11081831 2.0735734 9934743
-0.96869147 0.11097808 2.0765631 10197915
-0.92516267 0.11101975 2.0773427 8161429
-0.89954466 0.11104427 2.0778015 2578572
-0.8114959 0.1111285 2.0793774 1589611
-0.77469718 0.1111637 2.0800366 2309724
-0.72324324 0.11124161 2.0667768 7240586
-0.68687397 0.11128489 2.0632246 10000536
-0.50270343 0.11142396 2.0849061 2250380
-0.47422808 0.11148223 2.0700684 1986438
-0.44584286 0.11153009 2.0603385 1390707
-0.35943082 0.11158806 2.0741122 2249095
-0.32457009 0.11162546 2.0727279 3033451
-0.27488226 0.11167302 2.0736113 10132122
-0.23156552 0.11171666 2.0733078 10000536
-0.15278202 0.11178366 2.0788589 10197915
-0.13201213 0.11181048 2.0757921 10197915
-0.010331937 0.11192623 2.0783126 10197915
0.024978897 0.11196002 2.0789399 10197915
0.074965172 0.11200786 2.079828 10197915
0.12498552 0.11205681 2.0801854 10197915
0.17505318 0.11210363 2.0816069 10197915
0.22516774 0.11215162 2.0824981 10197915
0.27489159 0.11219978 2.0831106 10197915
0.32269558 0.11224793 2.0827737 10197915
0.37470758 0.112326 2.0696962 10197915
0.42462024 0.11237378 2.0705767 10197915
0.4745754 0.1124216 2.0714576 10197915
0.52457315 0.11246946 2.0723398 10197915
0.57461345 0.11251736 2.0732226 10197915
0.62469631 0.11256534 2.0741062 10197915
0.67482203 0.11261331 2.0749898 10197915
0.72499031 0.11266132 2.0758748 10197915
0.77520174 0.11270943 2.0767603 10197915
0.82545573 0.11275754 2.0776479 10197915
0.87488496 0.11280484 2.0785191 10197915
0.92435604 0.11285218 2.0793917 10197915
0.97858644 0.11292831 2.0684035 10197915
1.0253768 0.11297951 2.0660803 5855577
1.075048 0.1130276 2.0666862 5921370
1.1247513 0.11307464 2.067821 6447714
1.1726587 0.11311701 2.0704038 6447714
1.2037315 0.11311967 2.0843201 6447714
-0.92774594 -0.30954549 2.1166813 3756652
-1.4024159 -0.28958184 2.1117423 5207705
-1.374265 -0.28957403 2.1242599 3958675
-1.325819 -0.2895208 2.1235559 2308690
-1.2954011 -0.28947151 2.1141462 1452864
-1.2130212 -0.28942057 2.1349661 1843752
-1.1773831 -0.2893694 2.127773 2039583
-1.1467289 -0.28930429 2.1097183 2039583
-1.0079616 -0.28920326 2.1362507 2039583
-0.97501081 -0.28915301 2.1280029 2039583
-0.9318158 -0.29253495 2.1209555 2834775
-1.5589805 0.11028444 2.1296184 10000536
-1.5389553 0.11030358 2.129988 10000536
-1.4167293 0.1104339 2.1255534 8752533
-1.3750255 0.11049409 2.1162829 3168644
-1.3255694 0.11054142 2.1171682 1257292
-1.2915591 0.11060556 2.1021848 1847370
-1.2108279 0.11063357 2.1279449 7436415
-1.1760991 0.1106856 2.1192834 9934743
-1.1440905 0.11074657 2.1048646 9934743
-1.0081455 0.11081687 2.1368339 10197915
-0.97543663 0.11087558 2.1238744 10197915
-0.93407512 0.11092184 2.1213086 6518929
-0.82125276 0.1110177 2.1293037 1390684
-0.77482128 0.1110668 2.1278336 2378356
-0.72532994 0.11111468 2.1284544 4346985
-0.6950686 0.11117598 2.1130259 10000536
-0.5093354 0.11131398 2.1359541 2316942
-0.47883725 0.11135251 2.1318958 1788290
-0.36344936 0.1114931 2.1190534 2051974
-0.32492799 0.11152993 2.1197536 3953004
-0.27498886 0.1115777 2.1206608 10197915
-0.23378001 0.11161712 2.1214101 10066329
-0.15390827 0.11169348 2.1228614 10197915
-0.13282409 0.11171363 2.1232448 10197915
-0.01056635 0.11183055 2.1254671 9737622
0.024664717 0.11186425 2.1261072 10197915
0.074903786 0.1119123 2.1270206 10197915
0.12518576 0.11196036 2.1279345 10197915
0.17462783 0.11200766 2.1288331 10197915
0.22499579 0.11205581 2.1297483 10197915
0.2754069 0.11210402 2.1306646 10197915
0.32807159 0.11216415 2.1267967 10197915
0.37484032 0.11223192 2.1162653 10197915
0.42500076 0.11227875 2.1177287 10197915
0.47519514 0.11232793 2.1180754 10197915
0.52544588 0.11237601 2.1189818 10197915
0.57529265 0.11242312 2.1201606 10197915
0.62518412 0.11247139 2.1207807 10197915
0.67511332 0.11251861 2.1219614 10197915
0.72509181 0.11256697 2.1225824 10197915
0.77510387 0.11261424 2.1237652 10197915
0.82472259 0.1126617 2.1246607 10197915
0.87482435 0.11271019 2.1252832 10197915
0.92496771 0.11275758 2.1264689 10197915
0.97471321 0.11280517 2.1273661 10197915
1.0249382 0.11285379 2.1279912 9737364
1.0752137 0.11290132 2.1291792 4276545
1.1250862 0.11294902 2.1300788 6447714
1.1749938 0.11299791 2.1304061 6447714
1.2186219 0.11302932 2.136291 6447714
-1.5090805 -0.50420058 2.1971869 2039583
-1.4950969 -0.50243127 2.1949232 2039583
-1.5080681 -0.47484255 2.1968923 2039583
-1.495028 -0.47500518 2.1950898 2039583
-1.5079033 -0.442821 2.1968901 2039583
-1.4950835 -0.44197726 2.1951389 2039583
-0.97438037 -0.41377822 2.1917734 2039583
-0.92823058 -0.4208982 2.1785316 2040872
-0.97432339 -0.37498188 2.1918094 3685183
-0.94671232 -0.37493107 2.1825223 2832971
-0.97172725 -0.3411732 2.1909859 5595501
-0.94665718 -0.33879176 2.1825554 5010078
-1.367434 -0.28964764 2.1692955 2507102
-1.3361186 -0.28960595 2.1648104 1913674
-1.2544814 -0.28956553 2.1910574 1518398
-1.2240242 -0.28950927 2.1778967 1974306
-1.1888446 -0.28946304 2.1731033 2039583
-1.0175545 -0.28928661 2.1770017 2039583
-0.96807808 -0.28130588 2.1694789 2039583
-0.941333 -0.27032259 2.1597462 3696275
-0.95181966 -0.22495912 2.1633546 2039583
-0.94132048 -0.22548659 2.1598215 3367827
-0.95185632 -0.17567195 2.1634374 2039583
-0.94135708 -0.17538521 2.1599059 2973586
-0.95189345 -0.12548484 2.163522 2039583
-0.94139403 -0.12527998 2.1599901 2644880
-0.95193052 -0.075293772 2.1636064 2039583
-0.94143069 -0.075170837 2.160074 2513808
-0.9519676 -0.025098791 2.1636908 2039583
-0.94146729 -0.025057821 2.1601586 2447757
-0.95200461 0.025100101 2.1637757 2039583
-0.9415037 0.025059119 2.1602426 2250378
-0.95204192 0.075302891 2.1638598 8618883
-0.94154054 0.075179942 2.1603265 2184586
-1.6087339 0.11010003 2.1963401 10000536
-1.5780823 0.11017374 2.1749725 10000536
-1.4644279 0.11025652 2.1898286 9803414
-1.4281996 0.11031386 2.1792824 4089486
-1.3749725 0.11039283 2.1663742 1390428
-1.3368225 0.11042929 2.167089 1519177
-1.223105 0.1105379 2.1692207 8948622
-1.1875236 0.11057189 2.1698875 10000536
-1.0164235 0.11073532 2.1730947 10197915
-0.96971732 0.10906158 2.1704078 10197915
-0.94156271 0.10561224 2.1603782 1920389
-0.85555786 0.11088896 2.1761098 2052486
-0.82422477 0.11091888 2.176697 1191242
-0.77495569 0.11096595 2.1776206 2444924
-0.73102659 0.1110079 2.1784439 6252917
-0.51448053 0.11121475 2.1825032 2382734
-0.48386547 0.11124399 2.1830769 1655677
-0.36797395 0.11138618 2.1696546 1985668
-0.32485029 0.11143052 2.1689196 5201263
-0.27509901 0.11147741 2.1701512 10000536
-0.23646322 0.11151661 2.1697466 10000536
-0.15620218 0.1115884 2.1736591 10066329
-0.13455135 0.11161267 2.1722836 10132122
-0.010812919 0.11172992 2.1750667 7041916
0.025240509 0.11176437 2.1757376 10066329
0.075293422 0.11181281 2.1763611 10197915
0.12494606 0.11186026 2.1772847 10197915
0.17507987 0.11190753 2.1785243 10197915
0.22481468 0.11195503 2.1794493 10197915
0.27459204 0.11200262 2.1803749 10197915
0.32485625 0.11205126 2.1810026 10197915
0.37472087 0.1120989 2.1819301 10197915
0.42082494 0.11215723 2.1757104 10197915
0.47495174 0.1122283 2.1671546 10197915
0.52455389 0.11227568 2.1680703 10197915
0.57510078 0.11232401 2.1690032 10197915
0.62478715 0.1123715 2.16992 10197915
0.6745159 0.11241901 2.1708379 10197915
0.72519189 0.11246745 2.1717732 10197915
0.7750054 0.11251507 2.1726923 10197915
0.82486153 0.11256272 2.1736124 10197915
0.87475926 0.11261038 2.1745336 10197915
0.92469966 0.11265813 2.1754551 10197915
0.97468227 0.11270589 2.1763775 10197915
1.0247076 0.11275369 2.1773007 10197915
1.0747751 0.11280157 2.1782248 6776679
1.1248851 0.11284945 2.1791494 5329233
1.1750376 0.11289737 2.1800752 6447714
1.225233 0.11294536 2.1810014 6447714
1.2571958 0.1129759 2.1815913 6447714
-1.5510851 -0.50939357 2.2114458 2039583
-1.5347561 -0.50741571 2.2059033 2039583
-1.4842601 -0.5024417 2.2240217 2697513
-1.5511373 -0.47551101 2.2115207 2039583
-1.5331361 -0.47498003 2.2054069 2039583
-1.4843256 -0.4750157 2.2239647 2304045
-1.5511802 -0.44803727 2.2115812 2039583
-1.5307024 -0.44560197 2.2046297 2039583
-1.4835863 -0.42593822 2.2263877 2107697
-1.0531839 -0.41447279 2.2182841 2039583
-1.0249048 -0.41368511 2.208771 2039583
-1.4844886 -0.39489433 2.2238836 2106666
-1.0531956 -0.3754167 2.2183442 5526612
-1.02491 -0.3750723 2.2088318 5000268
-1.483237 -0.30286577 2.2280238 3297649
-1.0173155 -0.34620342 2.2063153 6447714
-1.4833025 -0.27502048 2.2279718 3757942
-1.3615704 -0.28971544 2.2106922 1650761
-1.3488553 -0.28969318 2.205853 1583160
-1.2656696 -0.28965041 2.2317469 1909287
-1.2281387 -0.28959551 2.223563 2039583
-1.1973881 -0.28952861 2.2046001 2039583
-1.0546373 -0.28941622 2.2271838 2039583
-1.0269388 -0.28936309 2.2140815 2039583
-0.9878422 -0.28930879 2.2071834 2039583
-1.4833643 -0.22502574 2.2280331 3560822
-1.4834143 -0.17510693 2.2281339 3166580
-1.483466 -0.1251034 2.2282324 2706802
-1.4835371 -0.074938677 2.2282677 2443888
-1.4835559 -0.024926914 2.2284603 2312302
-1.4836116 0.02492816 2.2285454 2114924
-1.4837055 0.074947447 2.2285178 3101560
-1.6224903 0.11001511 2.2315311 6844538
-1.4816306 0.10569605 2.2290936 7636116
-1.4209906 0.11022528 2.2265501 1523304
-1.3782507 0.11029094 2.2150908 1190983
-1.3469979 0.11034986 2.2013242 3950939
-1.2647135 0.11037772 2.227916 7961988
-1.2276548 0.11043291 2.2188425 10000536
-1.1962545 0.11049375 2.2041945 10000536
-1.058154 0.11055342 2.2424505 10197915
-1.0250884 0.11062104 2.2252722 10197915
-0.989236 0.11067072 2.2183211 10197915
-0.86710006 0.11076459 2.2318723 1589093
-0.8255471 0.11081146 2.2291024 1719135
-0.77555037 0.11085983 2.2297373 2310758
-0.73853642 0.11090354 2.2263067 9014415
-0.5189597 0.11114027 2.2170916 2250892
-0.48786101 0.11116994 2.2176836 1589628
-0.37246487 0.11128007 2.2198806 1853566
-0.32477462 0.11132561 2.220789 6450295
-0.27520904 0.11137291 2.2217329 10000536
-0.23938681 0.1114071 2.222415 10000536
-0.1575533 0.11148523 2.2239733 10000536
-0.1354658 0.11150632 2.2243936 10132122
-0.011069905 0.11162505 2.2267625 7041660
0.024917506 0.11165939 2.2274477 10000536
0.074780829 0.111707 2.2283971 10132122
0.12468668 0.11175463 2.2293475 10197915
0.17463513 0.1118023 2.2302983 10197915
0.2246262 0.11185001 2.2312505 10197915
0.27465996 0.11189779 2.232203 10197915
0.32473654 0.11194559 2.2331567 10197915
0.37485582 0.11199342 2.2341108 10197915
0.42880246 0.11207226 2.2216327 10197915
0.47515425 0.11212457 2.2185369 10197915
0.52500933 0.11217216 2.2194784 10197915
0.57535785 0.11222091 2.2201118 10197915
0.62530023 0.11226861 2.2210429 10197915
0.67481369 0.11231522 2.2223091 10197915
0.72483832 0.11236296 2.2232535 10197915
0.77490544 0.11241078 2.2241998 10197915
0.82500643 0.11245994 2.2244971 10197915
0.87515312 0.1125065 2.2260938 10197915
0.92534852 0.11255444 2.2270422 10197915
0.97512019 0.11260262 2.2276509 10197915
1.0249282 0.11264952 2.2289233 10197915
1.0752512 0.11269756 2.2298741 9671571
1.1251451 0.11274588 2.230485 4210752
1.1750848 0.11279287 2.2317603 6381921
1.2220135 0.1128622 2.2205493 6447714
1.2668648 0.11291616 2.2158921 6447714
-1.2760446 -0.45669883 2.2931964 2039583
-1.2428515 -0.45247841 2.2820361 2039583
-1.2722747 -0.42511231 2.2919738 2039583
-1.242242 -0.4250848 2.2818704 2039583
-1.2611721 -0.39727291 2.2882786 2039583
-1.2415942 -0.39544168 2.2816951 2039583
-1.3040473 -0.27027869 2.2873917 1844268
-1.283273 -0.28299603 2.2852452 1974048
-1.2407806 -0.28969672 2.2724576 2039583
-1.3040587 -0.22508717 2.2876911 1778475
-1.299491 -0.22467376 2.2979379 2039583
-1.3041815 -0.17496249 2.2876623 1778475
-1.2995431 -0.17517635 2.2980299 2039583
-1.3041905 -0.1251121 2.2878294 1712426
-1.2995951 -0.12567496 2.2981217 2039583
-1.3042432 -0.07488063 2.2879195 1712682
-1.2996482 -0.075217545 2.2982152 2039583
-1.3042953 -0.02464515 2.2880125 1778474
-1.2997012 -0.024756046 2.2983088 2039583
-1.304347 0.024646429 2.2881036 1712681
-1.299753 0.024757367 2.2984009 2039583
-1.3043991 0.074889928 2.2881947 4607061
-1.2998058 0.075227052 2.2984946 6250335
-1.6598538 0.10990546 2.2674148 1518919
-1.6385512 0.10992577 2.2678339 8290952
-1.4697036 0.1100867 2.2711542 2052744
-1.4250895 0.11012927 2.2720315 1059655
-1.3943994 0.1101585 2.2726352 2176589
-1.3043585 0.10551145 2.2874677 6910074
-1.2790467 0.10955791 2.2786629 10000536
-1.2406957 0.11030503 2.2756584 10000536
-1.0669379 0.11047067 2.2790756 10000536
-1.0276297 0.11050814 2.2798483 10132122
-0.90204245 0.11062784 2.2823181 2119050
-0.87482506 0.11065379 2.2828536 1324374
-0.82505363 0.11070124 2.2838328 2181753
-0.77523923 0.11074872 2.2848117 4609383
-0.74796593 0.11077471 2.2853479 10197915
-0.55290657 0.11096068 2.2891848 2184331
-0.52410114 0.11102407 2.2719779 2118794
-0.49300528 0.11106953 2.2647629 1523321
-0.40378255 0.1111178 2.2847161 1788803
-0.37495652 0.11116771 2.2741771 1721461
-0.32468918 0.11121637 2.2748079 7830915
-0.2748535 0.11126246 2.2764792 10000536
-0.24183165 0.11130127 2.2735043 10000536
-0.16002667 0.11137088 2.2792523 10000536
-0.13733609 0.11139571 2.2781253 10000536
-0.012198609 0.11151704 2.2795656 6844538
0.025319872 0.11158697 2.2634146 10000536
0.075050034 0.1116344 2.2643766 10066329
0.12482275 0.11168188 2.2653401 10197915
0.17463757 0.1117294 2.2663038 10197915
0.22449505 0.11177696 2.2672682 10197915
0.27533674 0.11182547 2.2682521 10197915
0.32527983 0.1118731 2.2692187 10197915
0.37526557 0.11192077 2.2701855 10197915
0.4252938 0.11196849 2.2711535 10197915
0.47536495 0.11201625 2.2721224 10197915
0.52547848 0.11206406 2.273092 10197915
0.57468837 0.11211101 2.2740443 10197915
0.62488717 0.11215889 2.2750154 10197915
0.67512852 0.11220681 2.2759874 10197915
0.7244637 0.11225387 2.2769423 10197915
0.77479053 0.11230188 2.277916 10197915
0.82516003 0.11234993 2.2788906 10197915
0.87462127 0.11239712 2.2798476 10197915
0.92507666 0.11244525 2.2808237 10197915
0.97557491 0.11249341 2.281801 10197915
1.0251626 0.11254071 2.2827604 10197915
1.074792 0.11258806 2.2837207 10197915
1.1244632 0.11263545 2.2846818 7237230
1.1741763 0.11268286 2.2856436 4934475
1.2270008 0.11276544 2.2707717 6447714
1.2752936 0.11281682 2.2690859 6447714
1.3115901 0.11282375 2.2834554 6447714
-1.7863455 -0.56581825 2.3370159 2039583
-1.7863798 -0.52503985 2.337116 2039583
-1.7864065 -0.49961495 2.3371623 2039583
-1.319314 -0.4620899 2.3077443 2039583
-1.298155 -0.45940572 2.3006308 2039583
-1.7839365 -0.40099207 2.3450215 2039583
-1.3177272 -0.4284676 2.3072593 2039583
-1.2981883 -0.42605716 2.3006899 2039583
-1.7867789 -0.39579383 2.3365681 2039583
-1.2934991 -0.27166468 2.3103724 2039583
-1.2955579 -0.22495301 2.3096285 2039583
-1.2956171 -0.17491719 2.3097003 2039583
-1.2956932 -0.1246895 2.309725 2039583
-1.2957169 -0.074643157 2.3099039 2039583
-1.2957695 -0.024881937 2.3099964 2039583
-1.2958211 0.024883276 2.3100901 2039583
-1.295873 0.074652463 2.3101823 6118749
-1.7124776 0.10969956 2.3432794 1650504
-1.6799624 0.10978744 2.315835 6450039
-1.5163646 0.10990813 2.3364642 2118537
-1.4748886 0.1099654 2.3285248 1324633
-1.4337789 0.11002234 2.3205695 1585226
-1.2894883 0.10645481 2.3107083 10066329
-1.1007357 0.11036147 2.3164196 10000536
-1.0750613 0.11038593 2.3169332 10066329
-1.036056 0.11042309 2.317713 10197915
-0.90934265 0.1105438 2.3202465 1920637
-0.87499493 0.11057651 2.3209338 1257033
-0.82534796 0.11062382 2.3219261 1984375
-0.7794829 0.11066751 2.3228428 6121588
-0.55728823 0.11087916 2.3272858 2316942
-0.52465194 0.11091026 2.3279383 1920388
-0.4074021 0.11102195 2.3302827 1986182
-0.37468174 0.11105312 2.3309367 1522793
-0.32460579 0.11110082 2.331938 9342865
-0.27448684 0.11114858 2.3329403 10000536
-0.24458942 0.11117704 2.3335381 10000536
-0.16252898 0.11125521 2.3351789 3823479
-0.13933817 0.11127731 2.3356426 9803158
-0.010235554 0.11141139 2.3327425 7567745
0.024988821 0.11147268 2.3197391 10000536
0.074994951 0.11152037 2.3207304 10000536
0.12503311 0.11156953 2.3209841 10132122
0.17511962 0.11161575 2.3227158 10197915
0.22525424 0.11166353 2.32371 10197915
0.27494767 0.11171167 2.3243186 10197915
0.32467812 0.11175828 2.3256819 10197915
0.37494087 0.11180618 2.3266783 10197915
0.42475593 0.11185441 2.3272896 10197915
0.47461912 0.11190117 2.3286555 10197915
0.52501035 0.11194918 2.3296545 10197915
0.57106507 0.11200479 2.3247838 10197915
0.6246019 0.11208316 2.3123419 10197915
0.67470402 0.11213091 2.3133273 10197915
0.72484875 0.11217871 2.3143134 10197915
0.77503639 0.11222655 2.3153005 10197915
0.82526684 0.11227445 2.3162882 10197915
0.8755402 0.11232236 2.3172772 10197915
0.92488831 0.1123694 2.3182478 10197915
0.97427791 0.11241649 2.3192186 10197915
1.0246786 0.11246453 2.3202097 10197915
1.0751222 0.11251263 2.3212018 10197915
1.1256093 0.11256075 2.3221948 9737364
1.175167 0.11260799 2.3231699 3552822
1.2247669 0.11265527 2.3241451 6447714
1.2753817 0.11270351 2.3251402 6447714
1.3240905 0.11274994 2.3260984 6447714
-1.7737448 -0.56577861 2.3746009 2039583
-1.7737964 -0.52502018 2.3746529 2039583
-1.773231 -0.49967861 2.3764617 2039583
-1.7731907 -0.40665567 2.3770452 2039583
-1.7782395 -0.39228565 2.3620579 2237478
-1.7660145 -0.32497829 2.3988574 4411739
-1.7660714 -0.27529633 2.3989348 4083034
-1.7661285 -0.22561112 2.3990123 3425624
-1.7661866 -0.17492889 2.3990912 2702675
-1.7662446 -0.12424332 2.3991702 1979983
-1.7663019 -0.074548349 2.3992479 1652047
-1.7663592 -0.024850164 2.3993254 1454925
-1.7664162 0.024851231 2.3994029 1125705
-1.7664733 0.074555837 2.3994803 1059911
-1.7611765 0.10632998 2.3932915 1256519
-1.729921 0.10960121 2.3833623 5332075
-1.5584553 0.10976432 2.3869085 2184587
-1.5252706 0.10979588 2.3875947 1589353
-1.4793692 0.10983953 2.3885443 1453641
-1.3132412 0.11001711 2.3823173 10000536
-1.2881573 0.110089 2.3590701 10000536
-1.1166326 0.11021199 2.3824966 10132122
-1.0769391 0.11026686 2.374841 10000536
-1.0447667 0.11033518 2.3568566 10197915
-0.92554069 0.11041415 2.3763552 1655402
-0.87517059 0.11049662 2.3603048 1587291
-0.82565236 0.11054376 2.3613119 1719653
-0.78581429 0.11058167 2.3621221 8291208
-0.56181794 0.11079491 2.3666766 2382991
-0.52863133 0.11082649 2.3673513 1854082
-0.41135433 0.11093812 2.3697362 2052488
-0.37514448 0.11097259 2.3704724 1784932
-0.32519886 0.11102013 2.3714879 10000536
-0.2752102 0.11106773 2.3725047 10000536
-0.2467681 0.11109481 2.3730831 10000536
-0.16331737 0.11117424 2.3747799 1916257
-0.13973363 0.11119668 2.3752589 10000536
-0.011821033 0.11131846 2.3778601 7107709
0.024637382 0.11135315 2.3786016 10132122
0.074926451 0.11140103 2.3796244 10000536
0.12525849 0.11144893 2.3806477 10000536
0.17464584 0.11149593 2.3816519 10197915
0.22506401 0.11154394 2.3826771 10197915
0.27552533 0.11159199 2.383703 10197915
0.32503957 0.11163912 2.3847098 10197915
0.37459555 0.1116863 2.3857176 10197915
0.42518601 0.11173446 2.3867462 10197915
0.47581989 0.11178266 2.3877759 10197915
0.52550352 0.11182993 2.3887856 10197915
0.5794571 0.11190598 2.3776999 10197915
0.62514412 0.11196596 2.3704791 10197915
0.67502564 0.11201265 2.3718755 10197915
0.72495818 0.11206102 2.3724914 10197915
0.7749216 0.11210782 2.3738899 10197915
0.82494181 0.1121562 2.3745072 10197915
0.87498724 0.11220309 2.3759077 10197915
0.92459178 0.11225033 2.3769081 10197915
0.97473437 0.11229889 2.377527 10197915
1.0249122 0.11234587 2.378931 10197915
1.0706336 0.11240084 2.3742061 10197915
1.1248174 0.11248156 2.3609183 10197915
1.1752014 0.11252954 2.3619261 5329233
1.2246398 0.11257663 2.362915 5723991
1.2751094 0.1126247 2.3639238 6447714
1.3256221 0.11267284 2.364934 6447714
1.3603112 0.11270587 2.3656273 6447714
-1.7578946 -0.56581211 2.4218788 2039583
-1.7492384 -0.56584078 2.4476979 2039583
-1.7579319 -0.52493978 2.4219697 2039583
-1.7492763 -0.5249508 2.4477892 2039583
-1.7590233 -0.49963436 2.4188404 2039583
-1.7496375 -0.49975175 2.4468367 2039583
-1.7585462 -0.4175933 2.4206715 2039583
-1.7587357 -0.35108796 2.4204392 1845559
-1.7587973 -0.32502261 2.4203851 2108729
-1.7588695 -0.27503213 2.4204171 2108729
-1.7589059 -0.2249921 2.4205587 1977145
-1.7589713 -0.17490318 2.4206161 1845816
-1.7590396 -0.12499373 2.4206586 1648438
-1.759087 -0.075128429 2.4207654 1648438
-1.7591215 -0.025073761 2.4209149 1582902
-1.7591792 0.025074843 2.4209926 1517109
-1.7592585 0.075136036 2.4210029 1911611
-1.7592968 0.10499322 2.4205742 4805990
-1.745002 0.10950212 2.4248993 10132122
-1.5715566 0.10966697 2.4285495 2052744
-1.5248853 0.10971134 2.4295318 1059655
-1.4920951 0.10974251 2.430222 2111053
-1.3527721 0.10987493 2.4331548 10197915
-1.333837 0.10989291 2.4335532 10197915
-1.1541543 0.11006372 2.4373355 10197915
-1.124151 0.11009224 2.4379666 10197915
-1.0871289 0.11012742 2.438746 10132122
-0.95886558 0.11024933 2.4414456 2118791
-0.92100215 0.1103145 2.4278221 1059655
-0.87495351 0.11037178 2.4221294 1918837
-0.82513452 0.11041917 2.4231689 3886436
-0.79311728 0.11048282 2.4074278 10197915
-0.57074469 0.11065656 2.4307015 2316941
-0.53374135 0.11073902 2.4081044 1721984
-0.41444787 0.1108525 2.4105718 2118281
-0.37462783 0.1108904 2.4113958 2704229
-0.32481593 0.11093774 2.412426 10000536
-0.2749615 0.11098519 2.4134569 10000536
-0.24902205 0.11100984 2.4139934 10000536
-0.16513263 0.11108965 2.415729 2441828
-0.14114265 0.11111248 2.4162252 10000536
-0.012025028 0.11123528 2.418896 7107709
0.025062729 0.11127057 2.4196634 10197915
0.075216845 0.11131828 2.4207006 10066329
0.12541397 0.11136603 2.4217389 10000536
0.17565419 0.11141381 2.4227781 10132122
0.2249313 0.11146069 2.4237974 10197915
0.27425015 0.11150759 2.4248176 10197915
0.32461825 0.1115555 2.4258595 10197915
0.37502965 0.11160344 2.4269021 10197915
0.42548436 0.11165144 2.4279456 10197915
0.47497192 0.11169852 2.4289691 10197915
0.5245015 0.11174563 2.4299936 10197915
0.57508492 0.11179376 2.4310403 10197915
0.62469888 0.11184096 2.4320662 10197915
0.67435485 0.11188818 2.4330938 10197915
0.72506744 0.11193642 2.4341428 10197915
0.77480799 0.11198372 2.4351711 10197915
0.82459092 0.11203108 2.4362009 10197915
0.87543315 0.11207944 2.437253 10197915
0.92530084 0.11212688 2.4382846 10197915
0.97521126 0.11217436 2.4393172 10197915
1.0251635 0.11222186 2.4403498 10197915
1.0793445 0.112299 2.4288125 10197915
1.1250972 0.11235965 2.4212744 10197915
1.1752564 0.11240654 2.4227264 9211020
1.2254571 0.11245519 2.4233322 4079166
1.2746829 0.11250114 2.4247651 6316128
1.3244634 0.1125485 2.4257863 6447714
1.3733513 0.1125932 2.4276924 6447714
1.4088571 0.11258683 2.4482868 6447714
1.2877442 -1.1083896 2.4958422 4868682
1.3224397 -1.1057539 2.4842155 6447714
1.3660157 -1.1024613 2.4696119 6447714
1.2883092 -1.0750074 2.4957097 4934475
1.3251326 -1.0750515 2.4833646 6447714
1.3745589 -1.0750016 2.4667938 6447714
1.4087657 -1.0743549 2.4553273 6447714
1.2883513 -1.024965 2.4957807 5000268
1.3251809 -1.0250372 2.4834332 6447714
1.3745867 -1.02499 2.4668698 6447714
1.408826 -1.0250947 2.4553912 6447714
1.2883627 -0.97506577 2.4958606 5066061
1.3251843 -0.97498131 2.483515 6447714
1.3745949 -0.97501111 2.4669516 6447714
1.4089419 -0.97490627 2.4554362 6447714
1.2884207 -0.92516446 2.4959252 5066061
1.3252188 -0.92499715 2.4835896 6447714
1.3746504 -0.92499423 2.4670165 6447714
1.4089154 -0.9249056 2.4555335 6447714
1.2884167 -0.87511247 2.4960117 5131854
1.3253486 -0.87500995 2.4836307 6447714
1.374742 -0.8750087 2.4670711 6447714
1.4090005 -0.87498999 2.4555905 6447714
1.2884945 -0.82491237 2.4960699 5131854
1.325277 -0.82505518 2.4837391 6447714
1.3747115 -0.82502115 2.4671657 6447714
1.4090484 -0.82498008 2.4556596 6447714
1.2888396 -0.77530009 2.4960392 5263440
1.3253968 -0.77502537 2.4837832 6447714
1.3747991 -0.77503067 2.4672191 6447714
1.4090379 -0.77505916 2.4557474 6447714
1.2890414 -0.72542483 2.4960556 5395026
1.3249606 -0.72474194 2.4840145 6447714
1.3748296 -0.72500128 2.4672959 6447714
1.4091984 -0.72504467 2.4557772 6447714
1.2886119 -0.67497683 2.496285 5395026
1.3245553 -0.67500484 2.4842336 6447714
1.3748089 -0.67497057 2.4673865 6447714
1.4090627 -0.67493117 2.4559069 6447714
1.2887067 -0.62492454 2.4963374 5460819
1.3247072 -0.62501854 2.4842684 6447714
1.375023 -0.62500596 2.4673989 6447714
1.4092807 -0.62509847 2.4559193 6447714
-1.7436785 -0.56579739 2.4642832 2039583
1.2886618 -0.57503939 2.4964359 5460819
1.3245256 -0.57499373 2.4844131 6447714
1.3748128 -0.57503855 2.4675546 6447714
1.4091758 -0.57507002 2.4560382 6447714
-1.7437544 -0.52504843 2.4642615 2039583
1.2886382 -0.52523655 2.4965281 5460819
1.3246647 -0.5249663 2.4844506 6447714
1.3750508 -0.52500039 2.4675579 6447714
1.4090438 -0.52552372 2.4561646 6447714
-1.7436984 -0.49968967 2.4645531 2039583
1.288691 -0.47517383 2.4965956 5592405
1.3247622 -0.47493735 2.4845026 6447714
1.3749846 -0.47498921 2.4676669 6447714
1.4085133 -0.47505328 2.4564245 6447714
1.2887977 -0.42493874 2.4966443 5658198
1.3247488 -0.42500895 2.4845915 6447714
1.3750459 -0.42498136 2.4677303 6447714
1.4084115 -0.42488587 2.4565432 6447714
1.2890633 -0.3750416 2.4966404 5723991
1.3248667 -0.37504262 2.4846365 6447714
1.375151 -0.37500066 2.4677784 6447714
1.4086263 -0.37504044 2.4565558 6447714
1.2897309 -0.32476091 2.496501 5987163
1.3247279 -0.32500541 2.4847684 6447714
1.3750738 -0.32505509 2.4678895 6447714
1.4085262 -0.3248657 2.4566748 6447714
1.2897677 -0.27512369 2.4965732 5987163
1.3247972 -0.27499786 2.4848294 6447714
1.3751875 -0.27496526 2.4679363 6447714
1.4086776 -0.27501184 2.456708 6447714
1.2898045 -0.22548385 2.496645 6052956
1.3251313 -0.22484957 2.4848027 6447714
1.3753238 -0.22512044 2.4679747 6447714
1.4086623 -0.22493845 2.4567983 6447714
1.2897433 -0.17536242 2.4967501 6118749
1.3249172 -0.17501298 2.4849589 6447714
1.3750976 -0.17502071 2.4681346 6447714
1.4087025 -0.17507026 2.4568684 6447714
1.2899776 -0.12469941 2.496757 6184542
1.3247324 -0.12527551 2.4851041 6447714
1.3754387 -0.12496355 2.468106 6447714
1.4087424 -0.12519917 2.4569397 6447714
1.289917 -0.074478127 2.4968615 6250335
1.3252137 -0.074843302 2.4850273 6447714
1.3751653 -0.074818149 2.468281 6447714
1.4087833 -0.075325243 2.4570105 6447714
1.2899538 -0.02482667 2.496933 6250335
1.3250322 -0.024709748 2.4851737 6447714
1.3754964 -0.024723366 2.4682543 6447714
1.4088238 -0.025448358 2.4570808 6447714
1.2899909 0.024827627 2.4970055 6316128
1.3250706 0.024710694 2.4852448 6447714
1.3755356 0.024724307 2.4683259 6447714
1.4088675 0.025449391 2.4571569 6447714
1.2909104 0.074475966 2.4967813 6447714
1.3253282 0.07485 2.4852421 6447714
1.3752844 0.074824847 2.4684939 6447714
1.4089086 0.075332128 2.4572279 6447714
-1.6103725 0.10954221 2.4711282 2118795
-1.5750221 0.10957578 2.4718859 1523044
-1.5305531 0.10961802 2.4728386 1453897
-1.3645012 0.10977572 2.4763961 10197915
-1.3452332 0.10979402 2.4768088 10197915
-1.1644031 0.10996576 2.4806833 10197915
-1.1247065 0.11000346 2.4815335 10132122
-1.0972108 0.11002956 2.4821227 10066329
-0.96667355 0.11015354 2.4849191 1654887
-0.92479801 0.11019331 2.4858162 1323861
-0.87471312 0.11024088 2.4868896 1589099
-0.83072639 0.11028265 2.4878318 7041916
-0.60206908 0.11049982 2.4927309 2184331
-0.57339442 0.11053059 2.4915934 2119051
-0.53965151 0.1106151 2.4664052 1655933
-0.42049557 0.11071219 2.4768908 2052231
-0.37484321 0.11076092 2.4752207 4281193
-0.32472366 0.11080854 2.476285 10000536
-0.27833125 0.11085714 2.4750407 10000536
-0.16701137 0.11100196 2.4581125 2836071
-0.14260094 0.11102517 2.4586263 10000536
-0.01223617 0.11114907 2.4613702 7107709
0.025502985 0.11118497 2.4621644 10197915
0.075517334 0.11123247 2.4632173 10132122
0.1245526 0.11127908 2.4642496 10000536
0.17465203 0.1113267 2.4653034 10066329
0.22479399 0.11137435 2.4663594 10197915
0.2749792 0.11142204 2.4674156 10197915
0.3252072 0.11146981 2.468473 10197915
0.37445197 0.11151662 2.4695094 10197915
0.42476544 0.11156443 2.4705682 10197915
0.47512195 0.11161229 2.4716282 10197915
0.52449268 0.11165922 2.4726672 10197915
0.57493502 0.11170717 2.4737289 10197915
0.62542039 0.11175513 2.4747918 10197915
0.6749177 0.1118022 2.4758332 10197915
0.72445661 0.11184927 2.476876 10197915
0.77507097 0.11189738 2.4779415 10197915
0.82572836 0.11194552 2.4790075 10197915
0.8753944 0.11199272 2.4800527 10197915
0.92510265 0.11203998 2.4810994 10197915
0.9748525 0.11208727 2.4821463 10197915
1.0246445 0.1121346 2.4831946 10197915
1.0744785 0.11218195 2.4842432 10197915
1.1243545 0.11222937 2.4852929 10197915
1.1742728 0.11227681 2.4863439 10197915
1.2242335 0.1123243 2.4873955 7303023
1.286163 0.10747004 2.4944317 5921370
1.3243608 0.10670543 2.4855258 6447714
1.375453 0.10635731 2.4684908 6447714
1.4099747 0.10608863 2.4583905 6447714
1.1379352 -1.1196121 2.5460477 6447714
1.1745577 -1.1168166 2.5337739 6447714
1.2240261 -1.1130881 2.5171962 6316128
1.2620963 -1.110271 2.5044377 2894892
1.1381301 -1.0749235 2.5460572 6447714
1.1751361 -1.0752398 2.5336468 6447714
1.2247217 -1.074738 2.5170279 6316128
1.2626725 -1.0749954 2.5043044 2894892
1.1381456 -1.0248891 2.5461371 6447714
1.1746265 -1.0250328 2.5339117 6447714
1.2242953 -1.0249879 2.5172536 6316128
1.2626795 -1.024948 2.5043867 2894892
1.1382017 -0.97509962 2.5462022 6447714
1.1746994 -0.97498262 2.533958 6447714
1.2243768 -0.97499448 2.5173128 6250335
1.2627258 -0.97489822 2.5044553 2894892
1.1383603 -0.92533076 2.5462329 6447714
1.1747848 -0.92500788 2.5340288 6447714
1.2243658 -0.92499971 2.5174 6250335
1.2627726 -0.92484522 2.5045245 2894892
1.1392217 -0.87486362 2.54603 6447714
1.1748177 -0.87507004 2.5340953 6447714
1.2244267 -0.87500244 2.5174661 6250335
1.262779 -0.87485778 2.5046077 2894892
1.139185 -0.82496196 2.5461264 6447714
1.1747791 -0.82505119 2.5341938 6447714
1.224493 -0.82500112 2.5175271 6250335
1.26282 -0.82493663 2.5046775 2894892
1.1392108 -0.77505571 2.5462017 6513507
1.174835 -0.77498972 2.5342684 6513507
1.2245028 -0.77499729 2.5176075 6250335
1.2632445 -0.77461445 2.5046203 2894892
1.1393242 -0.72505879 2.5462492 6513507
1.1749203 -0.72496444 2.5343087 6513507
1.2245724 -0.72502851 2.5176699 6184542
1.2637874 -0.72508305 2.5045226 2894892
1.1393694 -0.6749717 2.5463176 6513507
1.1749913 -0.67497635 2.5343795 6513507
1.2245786 -0.67505628 2.5177505 6184542
1.2638441 -0.67510307 2.5045874 2894892
1.1392357 -0.62487966 2.5464494 6513507
1.1748722 -0.6249845 2.5345001 6513507
1.2246109 -0.62500691 2.5178266 6184542
1.2638988 -0.62505603 2.5046542 2894892
1.139387 -0.57505119 2.5464821 6513507
1.1749431 -0.57498962 2.5345602 6513507
1.2246532 -0.57491714 2.5178955 6184542
1.2639534 -0.57500637 2.5047202 2894892
1.1394911 -0.52513301 2.5465314 6513507
1.1750414 -0.52503115 2.5346162 6513507
1.2246552 -0.52489883 2.5179789 6184542
1.2638918 -0.52501845 2.5048251 2894892
1.1400754 -0.47524205 2.5464184 6513507
1.1750785 -0.4751097 2.5346794 6513507
1.2246845 -0.47487786 2.5180545 6118749
1.263932 -0.47509143 2.5048969 2894892
1.1403241 -0.42485061 2.5464208 6513507
1.1750362 -0.42506662 2.5347888 6513507
1.2247405 -0.42489055 2.5181193 6118749
1.2639732 -0.42516205 2.5049667 2894892
1.1405199 -0.37519187 2.5464392 6513507
1.1751096 -0.37498221 2.5348461 6513507
1.2247697 -0.37493867 2.5181952 6118749
1.2641914 -0.37490982 2.5049784 2894892
1.1404538 -0.32494104 2.5465457 6513507
1.1752394 -0.32501227 2.5348806 6513507
1.2248274 -0.3249833 2.5182605 6052956
1.2649357 -0.32510716 2.5048125 2894892
1.1403811 -0.27478075 2.5466552 6513507
1.1752939 -0.27500185 2.5349522 6513507
1.2249025 -0.27510038 2.5183196 6052956
1.2649945 -0.27500018 2.504878 2894892
1.1406265 -0.22521582 2.5466576 6513507
1.1751597 -0.22479135 2.5350726 6513507
1.2249615 -0.22525264 2.5183847 6052956
1.2651175 -0.22471057 2.5049231 2894892
1.1405524 -0.17514564 2.5467672 6513507
1.1750524 -0.1746919 2.5352056 6513507
1.2248968 -0.17528771 2.5184894 6052956
1.2651324 -0.1744754 2.5050015 2894892
1.1405865 -0.12450474 2.5468409 6513507
1.1753507 -0.12514336 2.535182 6513507
1.2249317 -0.12520905 2.5185628 5987163
1.2651039 -0.12453957 2.5050952 2894892
1.1409568 -0.075458147 2.5468004 6513507
1.1754293 -0.075472519 2.5352404 6513507
1.2249663 -0.075127617 2.5186341 5987163
1.2651404 -0.074725859 2.5051677 2894892
1.1415696 -0.025321286 2.5466788 6513507
1.1753321 -0.025208747 2.5353644 6513507
1.2250019 -0.02504318 2.5187078 5987163
1.2651774 -0.024909267 2.5052407 2894892
1.1416029 0.025322277 2.5467534 6513507
1.1753668 0.025209716 2.5354252 6513507
1.2250372 0.025044143 2.5187817 5921370
1.2652134 0.024910232 2.505312 2894892
1.1416357 0.074913599 2.5468264 6579300
1.1755574 0.075441182 2.5354571 6645093
1.225073 0.075134329 2.5188539 6052956
1.2661357 0.074723676 2.5050874 3026478
-1.6248844 0.10943751 2.5157905 1986177
-1.574501 0.10948532 2.5168893 1059655
-1.5436343 0.10951462 2.5175629 2505553
-1.4014258 0.10964956 2.5206654 10197915
-1.3818178 0.10966815 2.5210931 10197915
-1.1750237 0.10986438 2.5256038 10000536
-1.1315042 0.10990569 2.5265534 10000536
-1.0007471 0.11002978 2.5294061 2184586
-0.97476578 0.1100544 2.5299718 1390683
-0.92485315 0.11010178 2.5310612 1720940
-0.87489754 0.11014917 2.5321505 1520471
-0.83844566 0.11018378 2.5329461 10197915
-0.6077404 0.1104027 2.5379789 2316685
-0.57425743 0.11043447 2.5387094 2052487
-0.54704148 0.1104603 2.5393031 1654648
-0.45167896 0.11055079 2.5413833 1855109
-0.42545119 0.11057567 2.5419548 1920129
-0.3750644 0.11062348 2.5430539 5924210
-0.3246341 0.11067134 2.5441549 10000536
-0.2775439 0.11072918 2.5386808 10000536
-0.16894804 0.11086385 2.5253961 3756140
-0.14377891 0.1108932 2.5232539 10000536
-0.012454863 0.11105978 2.5053627 7107709
0.024920329 0.11109527 2.5061636 10197915
0.074789323 0.11114263 2.5072317 10197915
0.12470087 0.11119003 2.5083013 10066329
0.17465501 0.11123747 2.5093718 10000536
0.22465177 0.11128494 2.5104425 10197915
0.27469119 0.11133248 2.5115142 10197915
0.32477349 0.11138005 2.5125871 10197915
0.37489852 0.11142766 2.5136616 10197915
0.42506647 0.11147529 2.5147359 10197915
0.4752773 0.11152297 2.5158117 10197915
0.52553099 0.11157071 2.5168884 10197915
0.57582778 0.11161846 2.5179658 10197915
0.62511849 0.11166529 2.5190222 10197915
0.67445081 0.11171215 2.5200789 10197915
0.72487503 0.11176002 2.5211594 10197915
0.77534294 0.11180795 2.5222404 10197915
0.82480091 0.1118549 2.5233004 10197915
0.87430096 0.11190193 2.5243604 10197915
0.92489702 0.11194999 2.5254447 10197915
0.97553653 0.11199807 2.5265296 10197915
1.0251629 0.11204521 2.5275927 10197915
1.0748316 0.11209238 2.5286567 10197915
1.1370682 0.1074072 2.5419788 10197915
1.1749201 0.10679965 2.534991 10197915
1.2250948 0.10644211 2.5188994 9013641
1.2661591 0.1058603 2.5051315 3026478
1.4673018 0.11246511 2.537065 6447714
0.98784882 -1.155743 2.5963032 6447714
1.020456 -1.1534137 2.5853755 6447714
1.0546167 -1.150589 2.5739281 6447714
0.9889124 -1.1254145 2.5959983 6447714
1.0254321 -1.1250072 2.5837557 6447714
1.0747344 -1.1241931 2.5672278 6447714
1.1130557 -1.1214246 2.5543857 6447714
0.98940372 -1.0750064 2.5959184 6447714
1.0254867 -1.0749749 2.5838213 6447714
1.0752103 -1.0750784 2.567152 6447714
1.1132572 -1.0750325 2.5543962 6447714
0.98944253 -1.0249388 2.5959897 6447714
1.0255533 -1.0250229 2.583884 6447714
1.0753123 -1.0250033 2.5672014 6447714
1.1133485 -1.0250996 2.55445 6447714
0.98948097 -0.97486883 2.5960622 6447714
1.0255036 -0.9750281 2.5839849 6447714
