# .PCD v0.7 - Point Cloud Data file format
VERSION 0.7
FIELDS x y z rgb
SIZE 4 4 4 4
TYPE F F F U
COUNT 1 1 1 1
WIDTH 1153
HEIGHT 1
VIEWPOINT 0 0 0 1 0 0 0
POINTS 1153
DATA ascii
-0.22011185 -0.45031282 1.6788033 6447714
-0.22030166 -0.42375296 1.6740168 6447714
-0.22047201 -0.37496486 1.6735861 6447714
-0.22061507 -0.32502416 1.6746258 6447714
-0.22076292 -0.27501714 1.6754547 6447714
-0.22091874 -0.22594213 1.6757604 6447714
-0.22113928 -0.17510635 1.6732936 6447714
-0.22128111 -0.12499722 1.6744239 6447714
-0.22142681 -0.07496246 1.6753515 6447714
-0.22160357 -0.023953209 1.6749754 6447714
-0.22180487 0.025073029 1.6731327 6447714
-1.3162115 0.095620476 1.6755496 10197915
-1.2753296 0.095753506 1.6749148 9737364
-1.2253364 0.095888197 1.6771089 6579300
-1.1752129 0.096020631 1.6795875 6447714
-1.1283246 0.096270315 1.6685554 6447714
-1.0966474 0.096521415 1.6523504 6447714
-0.21993898 0.079108424 1.6736822 6447714
-0.17500588 0.09918081 1.6741041 6447714
-0.12500681 0.099313125 1.6765524 6447714
-0.075929739 0.099455781 1.6776023 6447714
-0.024914837 0.099677444 1.6708983 6447714
0.011087569 0.099774078 1.6725185 6447714
-0.71858132 -0.65154326 1.7248951 6447714
-0.71868068 -0.62500423 1.7243567 6447714
-0.71883649 -0.57498825 1.7248077 6447714
-0.71902239 -0.52797681 1.7233769 6447714
-0.7195881 -0.49969438 1.7012018 6447714
-0.21936828 -0.45080566 1.7136549 6447714
-0.21944287 -0.42515039 1.7141329 6447714
-0.21958257 -0.37520757 1.7153295 6447714
-0.21972632 -0.32520106 1.7163476 6447714
-0.21985744 -0.27491239 1.7180026 6447714
-0.21984072 -0.22427046 1.7266535 6447714
-0.22004861 -0.17491703 1.7245586 6447714
-0.22022992 -0.12609136 1.723626 6447714
-0.22043815 -0.075045146 1.7217784 6447714
-0.22057441 -0.024983276 1.7231581 6447714
-0.22071604 0.025004687 1.7242658 6447714
-1.3653131 0.094893597 1.7365137 10197915
-1.3251734 0.095117375 1.7260027 9934743
-1.275455 0.095343485 1.7184027 7500402
-1.2249157 0.095484816 1.7200767 6447714
-1.1748869 0.095619142 1.7223204 6447714
-1.1422466 0.095778473 1.7161759 6447714
-0.21933909 0.077872306 1.7250022 6447714
-0.17484784 0.09869124 1.7261258 6447714
-0.12459961 0.09882392 1.7286223 6447714
-0.073435165 0.098982036 1.7287161 6447714
-0.024973184 0.099189639 1.7226644 6447714
0.011431229 0.099286884 1.7243533 6447714
-0.71748686 -0.65178293 1.7762715 6447714
-0.71760958 -0.62501729 1.7746732 6447714
-0.71776497 -0.57504135 1.7751484 6447714
-0.71794176 -0.53482026 1.7730732 6447714
-0.21867304 -0.25107154 1.7773378 6447714
-0.21874848 -0.22522539 1.7778116 6447714
-0.21890521 -0.17584062 1.7781222 6447714
-0.21919823 -0.12360428 1.7724756 6447714
-0.21939239 -0.074985817 1.7709085 6447714
-0.21952723 -0.024962204 1.7723452 6447714
-0.21966827 0.024983579 1.7734829 6447714
-1.4103702 0.094281569 1.7866255 10197915
-1.3749744 0.09444537 1.7809145 10197915
-1.3248091 0.094576158 1.7835773 7566195
-1.2748033 0.09481784 1.7744204 6447714
-1.2276155 0.095006555 1.7699541 6447714
-1.1835989 0.095194481 1.7645257 6447714
-0.21841374 0.077509701 1.7734381 6447714
-0.17527729 0.098273695 1.7703159 6447714
-0.12520318 0.098408282 1.7725486 6447714
-0.07500612 0.098540127 1.7751154 6447714
-0.025031986 0.098672889 1.7775071 6447714
0.011795326 0.098770753 1.7792697 6447714
-0.71643198 -0.65196002 1.825796 6447714
-0.71655107 -0.62492818 1.8244072 6447714
-0.71670675 -0.57495177 1.8248603 6447714
-0.7169016 -0.54205579 1.8208135 6447714
-0.21759319 -0.25142214 1.8280039 6447714
-0.21774593 -0.22511204 1.8249185 6447714
-0.21791181 -0.17409365 1.8250526 6447714
-0.21814042 -0.12499402 1.8219446 6447714
-0.21828513 -0.074923046 1.8229241 6447714
-0.21841861 -0.0249399 1.8244206 6447714
-0.21855877 0.024961246 1.8255911 6447714
-1.455868 0.093656801 1.8379421 10197915
-1.4231904 0.093852475 1.8279498 10197915
-1.3749397 0.093986563 1.829639 8684676
-1.3252342 0.094117083 1.8321805 6447714
-1.275026 0.094250634 1.8345659 6447714
-1.2266623 0.0945087 1.8231268 6447714
-1.195881 0.094804555 1.8018686 6447714
-0.21743231 0.077124044 1.8248905 6447714
-0.17497452 0.0978394 1.8165194 6447714
-0.12509553 0.097969659 1.8191469 6447714
-0.075079605 0.098103642 1.8214254 6447714
-0.024932163 0.098234624 1.8240662 6447714
0.012104391 0.098332591 1.8258857 6447714
-0.71536046 -0.65223759 1.8760782 6447714
-0.71547103 -0.62505746 1.8751053 6447714
-0.71563894 -0.57594168 1.8748503 6447714
-0.71606535 -0.54774535 1.8592049 6447714
-0.21660988 -0.25155002 1.8741719 6447714
-0.21668872 -0.22491536 1.8746058 6447714
-0.21682414 -0.17485741 1.8760244 6447714
-0.21702828 -0.12632525 1.873979 6447714
-0.21722566 -0.075055912 1.872673 6447714
-0.21736726 -0.025035385 1.8737909 6447714
-0.21750399 0.024861583 1.8751249 6447714
-1.5005552 0.093051627 1.8874463 10066329
-1.4713882 0.093224011 1.8787665 10132122
-1.4251019 0.093374282 1.8780837 9605778
-1.3752764 0.093502618 1.8808988 6513507
-1.3253034 0.09363503 1.8833282 6447714
-1.2777759 0.093774535 1.8841995 6447714
-1.2448797 0.093967862 1.8745264 6447714
-0.21624936 0.077237606 1.874079 6447714
-0.17504348 0.097375505 1.8657483 6447714
-0.12498006 0.097510941 1.867887 6447714
-0.074774772 0.097643122 1.8704185 6447714
-0.024826987 0.097772807 1.8731314 6447714
0.012430092 0.097870886 1.8750106 6447714
-0.71432346 -0.65247667 1.924749 6447714
-0.71441668 -0.6250481 1.9246151 6447714
-0.71458691 -0.58213139 1.9233106 6447714
-0.21549396 -0.25141168 1.9266108 6447714
-0.21557054 -0.22494599 1.9271246 6447714
-0.21570694 -0.17516088 1.9284563 6447714
-0.21593346 -0.12367354 1.9258151 6447714
-0.21611072 -0.074959137 1.925059 6447714
-0.21634471 -0.026078036 1.9216617 6447714
-0.21651942 0.024880636 1.9213744 6447714
-1.5180938 0.092577063 1.9320414 10132122
-1.4753247 0.0927338 1.92951 9934743
-1.4249684 0.092862643 1.9324473 6974058
-1.3765422 0.093004093 1.9334103 6447714
-1.32469 0.09325476 1.9239012 6447714
-1.2817678 0.093415268 1.9210253 6447714
-0.21539047 0.076836228 1.9215031 6447714
-0.17511503 0.096893393 1.9169023 6447714
-0.12485334 0.097023107 1.9197181 6447714
-0.074849695 0.097154081 1.9223099 6447714
-0.025115088 0.097286351 1.9246763 6447714
0.012773802 0.097383618 1.9268515 6447714
-0.71325374 -0.65267342 1.9749686 6447714
-0.71335238 -0.62486464 1.9746463 6447714
-0.71353078 -0.58912534 1.9718323 6447714
-0.21440889 -0.25194713 1.9774956 6447714
-0.21452492 -0.22475252 1.9762701 6447714
-0.2146606 -0.17492098 1.9776425 6447714
-0.21479416 -0.1250228 1.9791211 6447714
-0.21493669 -0.075061157 1.9801868 6447714
-0.21532299 -0.023914684 1.9699895 6447714
-0.21548258 0.025103757 1.9701145 6447714
-1.5649731 0.091903433 1.9880824 10066329
-1.5263151 0.092069924 1.9831635 10132122
-1.4756428 0.092330173 1.9722544 8224125
-1.4253553 0.09246029 1.9750333 6447714
-1.3716437 0.092641994 1.9734646 6447714
-1.3268799 0.092867166 1.9643306 6447714
-1.2956545 0.093067013 1.9534194 6447714
-0.21447298 0.076613925 1.9710076 6447714
-0.17478795 0.096378982 1.9716235 6447714
-0.12513009 0.096508384 1.9742712 6447714
-0.075337909 0.096638121 1.9769255 6447714
-0.025009189 0.096771456 1.9793776 6447714
0.013137068 0.096868671 1.9816415 6447714
-0.7121743 -0.65295082 2.0256302 6447714
-0.71227747 -0.62510097 2.0250995 6447714
-0.7125833 -0.59570599 2.0153081 6447714
-0.21334325 -0.25198266 2.0275462 6447714
-0.21342289 -0.22475846 2.0280325 6447714
-0.21357487 -0.17594868 2.0284801 6447714
-0.2138349 -0.12494468 2.024189 6447714
-0.21397492 -0.0752386 2.0253348 6447714
-0.21424912 -0.025106216 2.0202458 6447714
-0.21438758 0.025127836 2.0215514 6447714
-1.6055151 0.091432162 2.024744 10000536
-1.5749843 0.091510676 2.0264821 10066329
-1.5218544 0.091679968 2.0260379 8816262
-1.4751755 0.091912769 2.0167208 6513507
-1.4253538 0.092041016 2.0195444 6447714
-1.3749977 0.092168413 2.0226319 6447714
-1.3401377 0.092381351 2.0115273 6447714
-0.21351755 0.076171361 2.0231538 6447714
-0.17527226 0.095836788 2.0290289 6447714
-0.12542227 0.095963567 2.0320151 6447714
-0.078901134 0.096119165 2.0308464 6447714
-0.025132725 0.09636379 2.0226173 6447714
0.013422667 0.096463844 2.0247171 6447714
-0.71111679 -0.65309972 2.0752761 6447714
-0.71121806 -0.62925965 2.0742104 6447714
-0.21233194 -0.25187695 2.0750647 6447714
-0.21240705 -0.22444409 2.0757985 6447714
-0.21258767 -0.17363574 2.0752113 6447714
-0.21282703 -0.12507701 2.0715089 6447714
-0.21296695 -0.0749228 2.0727303 6447714
-0.21310031 -0.024917999 2.0742407 6447714
-0.21323696 0.0249393 2.0755708 6447714
-1.6543782 0.090710044 2.0852766 10000536
-1.6219611 0.090917669 2.07393 10000536
-1.5747565 0.091065191 2.0738437 9539985
-1.5244974 0.091193803 2.0767725 6710886
-1.4745156 0.09132421 2.0794206 6447714
-1.4255842 0.091454953 2.0816851 6447714
-1.3841511 0.091705531 2.0687561 6447714
-0.21286379 0.074290752 2.076329 6447714
-0.17448054 0.095408656 2.0747342 6447714
-0.12479477 0.095536835 2.0775208 6447714
-0.070435584 0.09576159 2.0715952 6447714
-0.024837527 0.095939241 2.0677814 6447714
0.013722425 0.096038848 2.0699284 6447714
-0.71002591 -0.65347278 2.1264615 6447714
-0.71013832 -0.63691694 2.1237545 6447714
-0.21128182 -0.25241101 2.1243067 6447714
-0.2113371 -0.224997 2.1259685 6447714
-0.21148448 -0.17491063 2.1268287 6447714
-0.21174149 -0.12572284 2.1223993 6447714
-0.21190834 -0.074735627 2.1224861 6447714
-0.21204783 -0.024930272 2.1236777 6447714
-0.21218379 0.024951592 2.1250389 6447714
-1.7045552 0.089947812 2.1496453 10132122
-1.6669371 0.090365693 2.1176977 10000536
-1.6249849 0.090472482 2.1202002 10066329
-1.5745156 0.090600982 2.1232116 7237230
-1.5247476 0.090727665 2.1261806 6447714
-1.4748394 0.090854727 2.1291583 6447714
-1.4276989 0.090999916 2.1292982 6447714
-1.3949572 0.091372751 2.1005116 6447714
-0.21139708 0.075760312 2.1255872 6447714
-0.17540245 0.094959386 2.1221304 6447714
-0.12501687 0.095086075 2.1253059 6447714
-0.074930564 0.095214657 2.12818 6447714
-0.025156913 0.09534514 2.1307507 6447714
0.012599626 0.095461346 2.1308713 6447714
-0.70900035 -0.65344763 2.1746378 6447714
-0.70914012 -0.64401644 2.1695366 6447714
-0.2101528 -0.25344774 2.1771798 6447714
-0.21022826 -0.22556478 2.1779628 6447714
-0.21036494 -0.1751495 2.1793783 6447714
-0.21065111 -0.12412149 2.173866 6447714
-0.21079932 -0.074992441 2.1745377 6447714
-0.21093786 -0.025015116 2.1757975 6447714
-0.21118572 0.023858303 2.1717503 6447714
-1.7183123 0.089580424 2.1841152 10197915
-1.6749448 0.089856461 2.1691136 10066329
-1.6251035 0.089982681 2.1721597 8224125
-1.5746969 0.090113148 2.1749413 6447714
-1.5245728 0.090240158 2.1779938 6447714
-1.4770415 0.090376891 2.1791582 6447714
-1.4408938 0.090616643 2.1656299 6447714
-0.21088722 0.07419493 2.1708043 6447714
-0.17457664 0.094490416 2.1721818 6447714
-0.12435037 0.094618753 2.1751313 6447714
-0.074888431 0.094745107 2.178036 6447714
-0.025293414 0.094871804 2.180949 6447714
0.016567795 0.095042184 2.1766737 6447714
-0.70823622 -0.65445262 2.2103748 6447714
-0.70840013 -0.64906353 2.2035108 6447714
-0.20915389 -0.25338209 2.2241087 6447714
-0.20923403 -0.22520176 2.2247238 6447714
-0.20936547 -0.17493269 2.2263591 6447714
-0.20949961 -0.1252058 2.2277853 6447714
-0.20963888 -0.075110555 2.229027 6447714
-0.20977008 -0.024949018 2.2306616 6447714
-0.21004649 0.026023641 2.2255976 6447714
-1.7570529 0.089139216 2.2181692 10197915
-1.7246233 0.089220852 2.220201 10197915
-1.6745578 0.089346908 2.2233374 9013641
-1.6252319 0.089471094 2.2264278 6447714
-1.5748837 0.089597858 2.2295818 6447714
-1.5243939 0.08972498 2.2327454 6447714
-1.4826057 0.089899428 2.2280133 6447714
-0.20965791 0.073711611 2.2238798 6447714
-0.17509089 0.093995713 2.2245369 6447714
-0.12549259 0.094121777 2.2275198 6447714
-0.075300917 0.094252385 2.2302136 6447714
-0.025657976 0.094532132 2.2168975 6447714
0.014704365 0.094646916 2.2180269 6447714
-0.20811103 -0.25331357 2.2731059 6447714
-0.20818663 -0.22514096 2.2739313 6447714
-0.20832561 -0.17501275 2.2751901 6447714
-0.20845953 -0.12513278 2.2766533 6447714
-0.20858547 -0.074875757 2.2785451 6447714
-0.20872864 -0.024872378 2.2795916 6447714
-0.20886223 0.024893599 2.2810495 6447714
-1.8112015 0.088281892 2.2913225 10197915
-1.7732822 0.088545948 2.2757947 10197915
-1.7250527 0.088684089 2.2770422 9408399
-1.6793206 0.088862531 2.2731855 6776679
-1.6247207 0.089116082 2.2642796 6447714
-1.5744146 0.089242242 2.2674851 6447714
-1.5257709 0.089364216 2.2705846 6447714
-0.20873749 0.073460601 2.2807686 6447714
-0.17468236 0.093481809 2.279237 6447714
-0.12480509 0.09360785 2.2823105 6447714
-0.074792199 0.093734279 2.2853925 6447714
-0.024445912 0.094035678 2.2699995 6447714
0.015064972 0.094135724 2.2724142 6447714
-0.20698282 -0.2536262 2.3260474 6447714
-0.20709544 -0.22539508 2.3251445 6447714
-0.2072344 -0.17509888 2.3264313 6447714
-0.2073642 -0.12473828 2.3281617 6447714
-0.20750198 -0.074955821 2.329427 6447714
-0.20763026 -0.025107246 2.3311484 6447714
-0.2078619 0.022633351 2.3276861 6447714
-1.85156 0.087801963 2.3289514 10197915
-1.824947 0.087868139 2.3307068 10197915
-1.774376 0.08799389 2.3340421 10197915
-1.7245833 0.088117689 2.3373263 6447714
-1.6706303 0.088387981 2.3264353 6447714
-1.6248411 0.088556483 2.3236532 6447714
-1.5754961 0.088690288 2.3257318 6447714
-1.5382086 0.088963628 2.3090169 6447714
-0.20771155 0.073886856 2.3237698 6447714
-0.17472018 0.093123071 2.3173044 6447714
-0.12496639 0.093248323 2.3204215 6447714
-0.075078584 0.093373924 2.3235471 6447714
-0.025056196 0.093499862 2.3266814 6447714
0.015441607 0.093601838 2.3292184 6447714
-0.20587839 -0.25414884 2.3778441 6447714
-0.2059609 -0.22500284 2.3785002 6447714
-0.20608374 -0.17486206 2.3805168 6447714
-0.20631686 -0.12759417 2.3769152 6447714
-0.20654504 -0.075235598 2.3743324 6447714
-0.20668583 -0.025100751 2.3755074 6447714
-0.20696652 0.027023971 2.3704247 6447714
-1.867178 0.087370709 2.3695912 10197915
-1.8251677 0.087474674 2.3724117 10197915
-1.7746278 0.087599799 2.3758047 7960953
-1.7248834 0.087722942 2.3791442 6447714
-1.6749982 0.087846428 2.3824933 6447714
-1.6249731 0.087970257 2.3858523 6447714
-1.5899704 0.088056915 2.3882022 6447714
-0.20674841 0.073365569 2.3698795 6447714
-0.17477946 0.092556551 2.3774269 6447714
-0.12874365 0.092786103 2.3682437 6447714
-0.075374693 0.093001358 2.3629978 6447714
-0.025481425 0.093126483 2.3661766 6447714
0.015704054 0.093229741 2.3688006 6447714
-0.20488866 -0.25410298 2.424341 6447714
-0.20496538 -0.22505775 2.4252486 6447714
-0.20509785 -0.17493311 2.4268157 6447714
-0.20537551 -0.12234864 2.4219439 6447714
-0.20556824 -0.074871361 2.4202735 6447714
-0.2056945 -0.025083276 2.42208 6447714
-0.20582722 0.025104849 2.4236429 6447714
-1.9079965 0.086863287 2.4099867 10197915
-1.874809 0.086945057 2.4122548 10197915
-1.8253947 0.087066807 2.4156332 9474192
-1.7748868 0.087191254 2.4190857 6447714
-1.7242353 0.087316073 2.4225481 6447714
-1.6743977 0.087438859 2.4259553 6447714
-1.6282711 0.08755251 2.4291084 6447714
-0.2058183 0.071963139 2.4253626 6447714
-0.17484072 0.091971248 2.4395418 6447714
-0.12150486 0.092270374 2.4253855 6447714
-0.07483355 0.092423111 2.424572 6447714
-0.028386708 0.092572771 2.4240074 6447714
0.015975598 0.092844903 2.4097543 6447714
-0.20385672 -0.2540552 2.4728215 6447714
-0.20393857 -0.22510706 2.4734745 6447714
-0.20406367 -0.17535233 2.4753296 6447714
-0.20419554 -0.12518372 2.4769332 6447714
-0.20432767 -0.07495027 2.4785328 6447714
-0.20454255 -0.027476858 2.4758155 6447714
-0.20480646 0.02509784 2.4715855 6447714
-1.9675204 0.085859336 2.4969337 10197915
-1.929163 0.086244293 2.4687147 10197915
-1.874993 0.086522743 2.457022 10197915
-1.8246604 0.086646169 2.4605265 7039851
-1.7751563 0.086767562 2.4639735 6447714
-1.7255124 0.086889267 2.4674301 6447714
-1.674752 0.087013729 2.4709642 6447714
-1.6424692 0.087092884 2.4732125 6447714
-0.20475423 0.072148047 2.4738007 6447714
-0.17488424 0.091559894 2.4832067 6447714
-0.1256706 0.091681719 2.486511 6447714
-0.075295947 0.091806442 2.4898925 6447714
-0.020619063 0.092045039 2.4825974 6447714
0.016402259 0.092240095 2.4741027 6447714
-0.20278552 -0.25400552 2.5231433 6447714
-0.20286186 -0.22481889 2.5240927 6447714
-0.20299284 -0.17473798 2.5257225 6447714
-0.20312729 -0.12511754 2.5271184 6447714
-0.2032526 -0.075432844 2.5289545 6447714
-0.20352104 -0.022612981 2.5245516 6447714
-0.20373277 0.025078887 2.522017 6447714
-2.0103838 0.085301824 2.5419729 6776679
-1.9744813 0.085388936 2.5445688 7960953
-1.9206334 0.085666925 2.5328259 9342606
-1.8751853 0.086084597 2.5034842 8355711
-1.8248881 0.086207286 2.5070529 6447714
-1.7754371 0.086327925 2.5105612 6447714
-1.7248541 0.086451337 2.5141499 6447714
-1.6820965 0.086555637 2.5171835 6447714
-0.20382914 0.071082227 2.5232069 6447714
-0.1759712 0.091130883 2.528389 6447714
-0.12586237 0.091254346 2.5318143 6447714
-0.075617589 0.091378145 2.5352492 6447714
-0.025236303 0.091502272 2.5386932 6447714
0.016849611 0.091605969 2.5415702 6447714
-0.20163231 -0.25471509 2.5772035 6447714
-0.20174894 -0.22486518 2.5763631 6447714
-0.20193368 -0.17733313 2.5750711 6447714
-0.20223601 -0.12506217 2.5689957 6447714
-0.20235649 -0.075078726 2.5711012 6447714
-0.20249636 -0.025049793 2.5723035 6447714
-0.20262691 0.025071314 2.5739605 6447714
-2.0548234 0.084723942 2.5886698 6579300
-2.0254111 0.084794909 2.5908377 6579300
-1.9745953 0.084917545 2.5945857 6513507
-1.9246531 0.085038073 2.5982678 6447714
-1.87438 0.085631855 2.5518076 6447714
-1.8251224 0.085751384 2.5553696 6447714
-1.7757267 0.085871257 2.5589416 6447714
-1.7251804 0.085993931 2.5625968 6447714
-1.6978312 0.086060278 2.5645747 6447714
-0.20270859 0.070942394 2.5756323 6447714
-0.17497472 0.090691157 2.5753934 6447714
-0.12499698 0.090813711 2.5788734 6447714
-0.074883044 0.090936571 2.5823629 6447714
-0.024634274 0.091059797 2.5858619 6447714
0.017162587 0.091162272 2.5887723 6447714
-0.20050088 -0.25498593 2.6303048 6447714
-0.20057952 -0.22455972 2.6313374 6447714
-0.20083043 -0.17223337 2.6276808 6447714
-0.20108646 -0.12499081 2.6230037 6447714
-0.20120199 -0.075044803 2.6253343 6447714
-0.20134389 -0.025710844 2.6263351 6447714
-0.20169824 0.024944404 2.6175594 6447714
-2.0740974 0.084188692 2.6391284 6513507
-2.0255101 0.084305257 2.6427834 6513507
-1.9757496 0.084424652 2.6465261 6447714
-1.9404227 0.08450941 2.6491828 6447714
-1.8755922 0.085156463 2.6018853 6447714
-1.8253675 0.085277669 2.6055887 6447714
-1.7750006 0.085399218 2.6093028 6447714
-1.7389407 0.085486248 2.6119616 6447714
-0.20179914 0.070522912 2.6188684 6447714
-0.17502324 0.090232261 2.6241057 6447714
-0.12518342 0.090353839 2.6276417 6447714
-0.075209148 0.090475768 2.631187 6447714
-0.025099827 0.090598002 2.6347423 6447714
0.017487435 0.090701893 2.6377635 6447714
-0.19953293 -0.25495991 2.6757782 6447714
-0.1996097 -0.22511348 2.6768079 6447714
-0.20002311 -0.1602391 2.6674681 6447714
-0.19966848 -0.17899087 2.6812162 6447714
-0.20011413 -0.12493036 2.6686816 6447714
-0.19962102 -0.12489998 2.6918502 6447714
-0.20024219 -0.075226575 2.6703894 6447714
-0.1997499 -0.074763909 2.6935878 6447714
-0.20041406 -0.023597626 2.6703384 6447714
-0.19987892 -0.024563543 2.6953275 6447714
-0.2005973 0.027521551 2.6696754 6447714
-0.19997075 0.01117208 2.6965661 6447714
-2.119381 0.083571941 2.6896565 6513507
-2.0751913 0.083677322 2.6930485 6513507
-2.0245552 0.083798081 2.6969347 6447714
-1.9917809 0.083876252 2.6994503 6447714
-1.9154392 0.08456935 2.6510623 6447714
-1.8758063 0.084664471 2.654043 6447714
-1.825621 0.084784865 2.6578178 6447714
-1.7805445 0.084893018 2.6612084 6447714
-0.20060961 0.070194244 2.6754589 6447714
-0.17507339 0.089755543 2.6746926 6447714
-0.12537692 0.089876145 2.6782861 6447714
-0.074438393 0.08999975 2.6819699 6447714
-0.024471946 0.090120994 2.6855829 6447714
0.017824791 0.090223648 2.6886418 6447714
-0.19853084 -0.25493294 2.7228501 6447714
-0.19860862 -0.22456117 2.723917 6447714
-0.19873543 -0.17501947 2.7256565 6447714
-0.19886957 -0.12485311 2.7271519 6447714
-0.19899251 -0.074621402 2.7291822 6447714
-0.19911987 -0.024887955 2.7309287 6447714
-0.19924735 0.024909191 2.7326772 6447714
-2.1653647 0.082933784 2.742245 6513507
-2.1257303 0.083027698 2.7453504 6513507
-2.0838633 0.083126903 2.7486308 6513507
-1.9674183 0.083934352 2.7013202 6447714
-1.9249686 0.084035583 2.7045784 6447714
-1.8749641 0.084154844 2.7084167 6447714
-1.8248161 0.084274441 2.7122657 6447714
-1.7970196 0.084340721 2.7143989 6447714
-0.18957789 0.077233262 2.7313764 6447714
-0.12445109 0.089382499 2.7310076 6447714
-0.074768595 0.089502387 2.7346711 6447714
-0.02495262 0.089622609 2.7383444 6447714
0.018175444 0.089726686 2.7415249 6447714
-0.19749287 -0.25490493 2.7716084 6447714
-0.19757633 -0.22455442 2.7724047 6447714
-0.19768952 -0.17528678 2.7747438 6447714
-0.19782291 -0.12535988 2.7762401 6447714
-0.19795632 -0.075384498 2.7777369 6447714
-0.19807763 -0.025333429 2.7798159 6447714
-0.19820672 0.025355428 2.7816269 6447714
-2.2120891 0.082272619 2.7970138 6513507
-2.1870053 0.08233165 2.7990205 6513507
-2.0580497 0.083188072 2.750653 6447714
-2.0246429 0.083267242 2.7532711 6447714
-1.9749616 0.083384991 2.7571638 6447714
-1.9251392 0.083503053 2.7610679 6447714
-1.8751763 0.083621457 2.7649827 6447714
-1.8403403 0.083703995 2.7677124 6447714
-0.18887961 0.077148154 2.7825277 6447714
-0.12463766 0.088866152 2.7857573 6447714
-0.075111918 0.088984989 2.7894819 6447714
-0.025452523 0.089104123 2.7932169 6447714
0.018540146 0.089209683 2.796526 6447714
-0.19641711 -0.25487602 2.8221455 6447714
-0.19649388 -0.22456262 2.8232491 6447714
-0.1966259 -0.17496242 2.8247545 6447714
-0.19674043 -0.12472102 2.827183 6447714
-0.19688062 -0.074416153 2.828414 6447714
-0.19700038 -0.024623124 2.8305259 6447714
-0.19712517 0.024643909 2.832319 6447714
-2.1618862 0.082390778 2.8010306 6513507
-2.1246827 0.082478352 2.8040085 6447714
-2.0742288 0.082597129 2.8080461 6447714
-2.0247312 0.082713656 2.8120074 6447714
-1.9750925 0.082830504 2.8159797 6447714
-1.9253148 0.082947679 2.8199635 6447714
-1.8842835 0.083044261 2.823247 6447714
-0.18849795 0.076056354 2.8355823 6447714
-0.12483186 0.088328682 2.8427465 6447714
-0.074291855 0.08844921 2.8466253 6447714
-0.040133119 0.088530667 2.849247 6447714
-0.19529833 -0.25603285 2.8745148 6447714
-0.19538456 -0.2245553 2.8753567 6447714
-0.19550194 -0.17523877 2.8775115 6447714
-0.19562785 -0.12525038 2.879364 6447714
-0.19575389 -0.075197592 2.8812199 6447714
-0.19588007 -0.025080232 2.8830776 6447714
-0.19600646 0.025101796 2.8849385 6447714
-2.2596068 0.081587099 2.8541055 6513507
-2.2251413 0.081667647 2.8569231 6513507
-2.1749969 0.081784867 2.8610239 6513507
-2.1247091 0.081902422 2.8651361 6447714
-2.0753977 0.082017682 2.8691683 6447714
-2.0248225 0.082135923 2.8733039 6447714
-1.9741012 0.082254484 2.8774519 6447714
-1.9277625 0.082362801 2.8812416 6447714
-0.18643743 0.075594321 2.8891847 6447714
-0.015353457 0.088589758 2.8511484 6447714
0.018919785 0.088671513 2.8537796 6447714
-0.36064738 -0.45657668 2.9310529 6447714
-0.32535031 -0.45645967 2.9303007 6447714
-0.27547708 -0.4562943 2.929239 6447714
-0.22479703 -0.45622385 2.9281592 6447714
-0.19543605 -0.45683017 2.9300909 6447714
-0.35951632 -0.43174309 2.9312601 6447714
-0.3252143 -0.42510572 2.9305902 6447714
-0.2755048 -0.42478439 2.9295344 6447714
-0.22433797 -0.42474702 2.9284432 6447714
-0.19547546 -0.42535344 2.9306848 6447714
-0.31552544 -0.38747081 2.9307363 6447714
-0.27504021 -0.3755883 2.9299834 6447714
-0.22448297 -0.37494418 2.9289124 6447714
-0.1955702 -0.37488511 2.9315245 6447714
-0.26287189 -0.33771458 2.930079 6447714
-0.22373772 -0.32597762 2.9293547 6447714
-0.19556873 -0.32519394 2.9326937 6447714
-0.21128611 -0.28962198 2.9294293 6447714
-0.19531748 -0.27749181 2.9323092 6447714
-0.19421034 -0.22518325 2.930414 6447714
-0.19434348 -0.17490573 2.9319763 6447714
-0.19447671 -0.12458061 2.9335382 6447714
-0.19463736 -0.078357786 2.9331713 6447714
-0.19501352 -0.025433782 2.9237247 6447714
-0.19514114 0.025455957 2.9256377 6447714
-2.307976 0.080875754 2.9136755 6513507
-2.2739732 0.080954641 2.9165175 6513507
-2.2239912 0.081070632 2.920696 6513507
-2.1750064 0.081184283 2.9247906 6447714
-2.1258829 0.081298269 2.9288971 6447714
-2.0754747 0.081415243 2.9331114 6447714
-2.0249212 0.081532545 2.9373376 6447714
-1.9753767 0.081647523 2.9414792 6447714
-1.9488235 0.081709124 2.9436986 6447714
-0.19347519 0.072666667 2.9178908 6447714
-0.12503542 0.087768875 2.9021196 6447714
-0.075840637 0.087885454 2.9059741 6447714
-0.025310829 0.088005193 2.9099336 6447714
0.019315321 0.088110946 2.9134302 6447714
-0.19243914 -0.45642817 2.9776926 6447714
-0.19251853 -0.4245266 2.9789205 6447714
-0.19264972 -0.37478897 2.9804852 6447714
-0.19276616 -0.32498547 2.9827526 6447714
-0.19288866 -0.2757318 2.9846482 6447714
-0.19332053 -0.22533253 2.9721856 6447714
-0.19344608 -0.17496137 2.9741158 6447714
-0.19356874 -0.12575543 2.9760013 6447714
-0.19385639 -0.070802353 2.9710286 6447714
-0.19412242 -0.024570625 2.9657149 6447714
-0.19424516 0.024591323 2.9675894 6447714
-2.3584039 0.080133975 2.9757805 6513507
-2.3248825 0.080211133 2.978646 6513507
-2.2750688 0.080325849 2.9829059 6513507
-2.2251112 0.080440871 2.9871771 6447714
-2.1750119 0.080556214 2.9914601 6447714
-2.1247671 0.080671899 2.9957564 6447714
-2.0872877 0.080758207 2.9989614 6447714
-0.18603632 0.075184561 2.965678 6447714
-0.12524641 0.08718507 2.9640219 6447714
-0.075001128 0.08730334 2.9680431 6447714
-0.024620473 0.087421939 2.9720747 6447714
0.019727722 0.087526344 2.9756236 6447714
-0.19150902 -0.45686778 3.0213108 6447714
-0.19158606 -0.42574415 3.0225263 6447714
-0.1917095 -0.3758983 3.0244739 6447714
-0.19183314 -0.32598829 3.0264239 6447714
-0.19195686 -0.27601367 3.0283756 6447714
-0.19240211 -0.22549102 3.0153074 6447714
-0.19251963 -0.17502072 3.017628 6447714
-0.19264349 -0.12509444 3.0195689 6447714
-0.19276753 -0.075103909 3.0215123 6447714
-0.19289157 -0.025048975 3.0234582 6447714
-0.19301589 0.025070479 3.0254064 6447714
-2.4086752 0.07936538 3.0408018 6513507
-2.3744709 0.079443477 3.0437939 6513507
-2.3271906 0.079551443 3.047931 6513507
-2.062644 0.080814928 3.0010681 6447714
-2.0250225 0.080901563 3.0042851 6447714
-1.9944036 0.080972053 3.0069027 6447714
-0.18520477 0.075049646 3.0259383 6447714
-0.12546659 0.086575828 3.0286224 6447714
-0.075379469 0.086692907 3.0327177 6447714
-0.02515674 0.086810298 3.0368247 6447714
0.020158118 0.086916231 3.0405309 6447714
-0.19052014 -0.45672226 3.0677836 6447714
-0.19063586 -0.42509612 3.0672634 6447714
-0.1907506 -0.37514609 3.0696344 6447714
-0.19087537 -0.3244898 3.0716424 6447714
-0.19099721 -0.27503625 3.073602 6447714
-0.19111912 -0.2255189 3.0755649 6447714
-0.19125123 -0.17529997 3.0771637 6447714
-0.19136673 -0.12502763 3.0795491 6447714
-0.19148244 -0.074671209 3.0819378 6447714
-0.19162172 -0.024917938 3.0831261 6447714
-0.19199918 0.023362281 3.072896 6447714
-2.3023205 0.079608232 3.0501068 6513507
-2.2750309 0.079670563 3.052495 6447714
-2.2250972 0.079784594 3.0568633 6447714
-2.1750205 0.079898961 3.0612454 6447714
-2.1248004 0.080013633 3.0656397 6447714
-2.0744352 0.080128677 3.0700462 6447714
-2.0407836 0.080205508 3.0729904 6447714
-0.18123259 0.077848993 3.0827608 6447714
-0.12569675 0.085939541 3.0961065 6447714
-0.089873493 0.08602266 3.0991006 6447714
-0.18956463 -0.45650229 3.1127017 6447714
-0.18964322 -0.42443702 3.1139927 6447714
-0.18976283 -0.37565032 3.1159563 6447714
-0.18988572 -0.32551554 3.1179745 6447714
-0.19000868 -0.27531615 3.1199939 6447714
-0.19013172 -0.22505105 3.1220143 6447714
-0.19025511 -0.17472149 3.1240394 6447714
-0.19037545 -0.12561932 3.1260159 6447714
-0.19049911 -0.075160049 3.1280468 6447714
-0.19062297 -0.024635747 3.1300805 6447714
-0.19118907 0.02166773 3.1106873 6447714
-2.4611888 0.078562312 3.1087232 6513507
-2.4250677 0.078644074 3.1119585 6513507
-2.3743789 0.078758851 3.1164997 6513507
-2.324755 0.078871191 3.1209455 6447714
-2.2749875 0.078983866 3.1254036 6447714
-2.2250793 0.079096861 3.1298749 6447714
-2.1750271 0.079210177 3.1343591 6447714
-2.1248322 0.079323813 3.1388564 6447714
-2.0892453 0.079404384 3.1420436 6447714
-0.19151309 0.066838168 3.1024864 6447714
-0.064238302 0.086082153 3.1012442 6447714
-0.024432207 0.08617451 3.1045713 6447714
0.020607738 0.086279035 3.1083369 6447714
-2.5136449 0.077728078 3.1799736 6513507
-2.4742899 0.077816352 3.1835852 6513507
-2.4249759 0.077926993 3.1881113 6513507
-2.3755212 0.078037933 3.1926503 6447714
-2.3259254 0.078149185 3.1972017 6447714
-2.2985935 0.07821051 3.1997108 6447714
-0.17164366 0.085168891 3.1627533 6447714
-0.12463027 0.08527714 3.1667728 6447714
-0.074876383 0.0853917 3.1710269 6447714
-0.024988636 0.085506566 3.1752923 6447714
0.021077847 0.085612625 3.1792314 6447714
-2.2724526 0.078269146 3.2021093 6447714
-2.2238111 0.078378268 3.2065742 6447714
-2.1750348 0.078487687 3.2110505 6447714
-2.13868 0.078569248 3.2143872 6447714
-0.1742938 0.084467962 3.2363026 6447714
-0.12485169 0.084580876 3.240629 6447714
-0.075278401 0.084694095 3.2449663 6447714
-0.034988765 0.084786095 3.2484913 6447714
-2.5685656 0.076854832 3.2545717 6513507
-2.5245767 0.076952539 3.2587101 6513507
-2.4741704 0.077064529 3.2634525 6513507
-2.4248831 0.077174038 3.2680895 6447714
-2.3754547 0.077283844 3.2727394 6447714
-2.3246131 0.077396795 3.277523 6447714
-2.2748995 0.077507235 3.2822003 6447714
-2.2250428 0.077618003 3.2868905 6447714
-2.1878829 0.077700563 3.2903864 6447714
-0.0094263805 0.084844463 3.2507279 6447714
0.021569934 0.084915258 3.2534404 6447714
-2.6248364 0.075942308 3.3328729 6513507
-2.5747163 0.076052517 3.3377094 6513507
-2.5244524 0.076163046 3.3425598 6447714
-2.4753361 0.07627105 3.3472998 6447714
-2.449435 0.076328002 3.3497994 6447714
-0.20165004 0.08367791 3.3111479 6447714
-0.17570418 0.083736628 3.3134716 6447714
-0.12508348 0.083851241 3.3180065 6447714
-0.074325204 0.083966158 3.3225543 6447714
-0.024804479 0.08407826 3.3269899 6447714
0.02208552 0.084184423 3.3311911 6447714
-2.4234834 0.076385066 3.3523033 6447714
-2.3740799 0.07649368 3.3570707 6447714
-2.3245356 0.076602638 3.3618517 6447714
-2.2748497 0.076711878 3.3666465 6447714
-2.2394652 0.076789677 3.3700612 6447714
-0.20376158 0.082909942 3.3919716 6447714
-0.17438418 0.082975835 3.3946676 6447714
-0.13234651 0.083070159 3.3985255 6447714
-2.7075052 0.074933574 3.4127011 6513507
-2.6760108 0.075002067 3.4158196 6513507
-2.6260355 0.075110748 3.4207695 6513507
-2.5759153 0.075219758 3.4257343 6447714
-2.5256493 0.075329088 3.4307127 6447714
-2.4752374 0.075438723 3.4357066 6447714
-2.4246783 0.075548671 3.4407139 6447714
-2.3753088 0.075656042 3.4456041 6447714
-2.3405361 0.07573168 3.4490483 6447714
-0.10707799 0.083126821 3.4008446 6447714
-0.074733309 0.083199389 3.4038134 6447714
-0.025410846 0.08331003 3.4083397 6447714
0.022626346 0.083417803 3.4127491 6447714
-2.7700901 0.073927082 3.4988961 6513507
-2.3150773 0.075787045 3.45157 6447714
-2.292269 0.075836644 3.4538291 6447714
-0.20597896 0.082103692 3.4768455 6447714
-0.17443365 0.082173772 3.4798136 6447714
-0.1255834 0.082282305 3.4844091 6447714
-0.075160697 0.082394324 3.4891531 6447714
-0.024601832 0.082506634 3.4939091 6447714
0.020292962 0.082606383 3.4981334 6447714
-2.7539856 0.073961705 3.5005343 6513507
-2.7244127 0.074025251 3.5035424 6513507
-2.6745749 0.074132398 3.5086126 6513507
-2.6245899 0.074239843 3.5136979 6447714
-2.574461 0.074347585 3.5187976 6447714
-2.5255475 0.074452735 3.5237741 6447714
-2.4751296 0.074561104 3.5289032 6447714
-2.424566 0.074669793 3.5340471 6447714
-2.3752272 0.074775845 3.5390677 6447714
-2.3463862 0.074837841 3.5420008 6447714
0.043504238 0.082657948 3.5003169 6447714
-2.8523955 0.072833449 3.5878344 6513507
-2.8249214 0.072891779 3.5907078 6513507
-2.7739894 0.072999887 3.5960329 6513507
-2.7422585 0.073067263 3.5993519 6513507
-0.20977898 0.081252687 3.5659287 6447714
-0.17595652 0.081327058 3.5691926 6447714
-0.12585187 0.081437223 3.5740278 6447714
-0.075611286 0.081547707 3.5788763 6447714
-0.025234196 0.081658468 3.5837369 6447714
0.023791607 0.081766285 3.5884686 6447714
-2.7173769 0.073120065 3.601953 6513507
-2.674444 0.073211223 3.6064436 6447714
-2.6244543 0.073317319 3.6116705 6447714
-2.5743203 0.073423751 3.6169133 6447714
-2.5240405 0.073530503 3.6221716 6447714
-2.4750168 0.073634565 3.6272976 6447714
-2.4272611 0.07373593 3.6322918 6447714
-2.9151034 0.071732953 3.6839905 6513507
-2.8756704 0.071815543 3.6882319 6513507
-2.8248446 0.071922012 3.6936994 6513507
-2.7823775 0.072010949 3.698267 6447714
-0.21227132 0.080360353 3.659852 6447714
-0.17453891 0.080442414 3.6635897 6447714
-0.12462076 0.080550969 3.668534 6447714
-0.07456632 0.080659837 3.673492 6447714
-0.024377776 0.080768973 3.6784627 6447714
0.024420459 0.080875129 3.6832967 6447714
-2.7582669 0.072061464 3.7008617 6447714
-2.7255831 0.07212992 3.7043767 6447714
-2.6743107 0.07223732 3.7098918 6447714
-2.6243165 0.072342016 3.7152703 6447714
-2.5756109 0.072444052 3.72051 6447714
-2.5253286 0.072549373 3.7259188 6447714
-2.4835596 0.07263685 3.7304115 6447714
-3.0043261 0.070524096 3.7828801 6513507
-2.9754856 0.070583627 3.7860744 6513507
-2.9249082 0.070688054 3.7916751 6513507
-2.8741813 0.070792787 3.7972927 6513507
-0.21489792 0.079419598 3.7588508 6447714
-0.17459637 0.079506233 3.7629511 6447714
-0.12487771 0.079613097 3.7680092 6447714
-0.075025253 0.079720266 3.7730811 6447714
-0.025038382 0.079827704 3.7781661 6447714
0.025083408 0.079935461 3.7832656 6447714
-2.824759 0.07089483 3.8027668 6447714
-2.7751939 0.070997171 3.8082559 6447714
-2.725486 0.071099803 3.813761 6447714
-2.6756341 0.071202733 3.8192821 6447714
-2.6256371 0.071305946 3.8248179 6447714
-2.5754957 0.071409486 3.8303721 6447714
-2.5429785 0.071476601 3.8339725 6447714
-3.0755088 -0.66029716 3.8828211 6513507
-3.0773144 -0.64393526 3.8837636 6513507
-3.0718796 0.069302745 3.8902688 6513507
-3.0259831 0.069396034 3.8955047 6513507
-2.9933443 0.069462404 3.8992305 6513507
-0.21767037 0.078426532 3.863354 6447714
-0.174657 0.078517839 3.8678527 6447714
-0.12514898 0.07862293 3.8730292 6447714
-0.07550972 0.078728318 3.8782203 6447714
-0.025735786 0.078833975 3.8834248 6447714
0.025783353 0.078943342 3.888813 6447714
-3.0744879 -0.66022325 3.9246633 6513507
-3.1112442 -0.64031655 3.9266553 6513507
-3.0778418 -0.64382976 3.9237127 6513507
-2.9680729 0.069513761 3.9021142 6513507
-2.9248776 0.069601573 3.907043 6447714
-2.8741007 0.069704793 3.9128373 6447714
-2.8246732 0.069805294 3.9184785 6447714
-2.7751009 0.069906063 3.9241352 6447714
-2.7253878 0.070007131 3.9298091 6447714
-2.6755285 0.070108481 3.935498 6447714
-2.6285625 0.070203967 3.9408581 6447714
-3.0732474 -0.66043621 3.9754791 6513507
-3.1632514 -0.64109617 3.9922926 6513507
-3.1245515 -0.64083141 3.9769537 6513507
-3.0788798 -0.64330852 3.9757075 6513507
-3.1782722 0.067940131 3.9998169 6513507
-0.22223862 0.077373378 3.9736657 6447714
-0.17471993 0.077472918 3.9787774 6447714
-0.12379173 0.077579588 3.984256 6447714
-0.074371964 0.077683114 3.989572 6447714
-0.024820101 0.077786893 3.9949021 6447714
0.011597825 0.077863179 3.9988205 6447714
-3.0720184 -0.66071671 4.0257783 6513507
-3.2086377 -0.64172757 4.0443573 6513507
-3.1749635 -0.64151484 4.0328784 6513507
-3.1257546 -0.64134479 4.031086 6513507
-3.0770383 -0.64408994 4.0273352 6513507
-3.1631103 0.067970432 4.0016007 6513507
-3.1251445 0.068046317 4.0060682 6513507
-3.0749083 0.068146758 4.0119824 6513507
-3.0245218 0.068247482 4.0179119 6447714
-2.9739881 0.06834852 4.02386 6447714
-2.9248412 0.068446763 4.029644 6447714
-2.8755527 0.068545297 4.0354457 6447714
-2.8261228 0.068644136 4.0412636 6447714
-2.7765493 0.068743229 4.0470977 6447714
0.036472533 0.077915266 4.0014954 6447714
0.051411573 0.077946573 4.0031033 6447714
-3.0708148 -0.66099519 4.0750265 6447714
-3.2521687 -0.64229906 4.0906816 6513507
-3.2220719 -0.64211345 4.0809145 6513507
-3.1750638 -0.64193267 4.0772495 6513507
-3.1244016 -0.64176887 4.0765786 6513507
-3.0759826 -0.64431113 4.0751925 6447714
-3.2486823 -0.35606688 4.0927 6513507
-3.248781 -0.32469031 4.0929713 6513507
-3.2489462 -0.27556857 4.0928841 6513507
-3.2491038 -0.22553812 4.0932307 6513507
-3.2492673 -0.17467362 4.0934367 6513507
-3.2494276 -0.12420895 4.0937481 6513507
-3.2496293 -0.075668 4.0918527 6513507
-3.2497928 -0.025428552 4.0919619 6513507
-3.2500513 0.033883899 4.0890846 6513507
-3.2499051 0.020766176 4.0938683 6513507
-3.2501106 0.059308637 4.0902262 6513507
-3.2499771 0.05939908 4.0964637 6513507
-2.7501605 0.068795957 4.0502019 6447714
-2.7237213 0.068848856 4.0533161 6447714
-2.6910157 0.06891422 4.0571647 6447714
-0.22538979 0.076261654 4.090641 6447714
-0.17478782 0.076366141 4.0962458 6447714
-0.14436556 0.076428942 4.0996137 6447714
-3.0696375 -0.66107386 4.12327 6447714
-3.2668278 -0.64270377 4.1288376 6513507
-3.2246392 -0.64253533 4.124867 6513507
-3.1751089 -0.64237493 4.124217 6513507
-3.1247866 -0.64220089 4.1223426 6513507
-3.0758126 -0.64432943 4.1228175 6447714
-3.2479556 -0.35685027 4.1264277 6513507
-3.2595356 -0.33365321 4.1300783 6513507
-3.2481041 -0.33804914 4.1230583 6513507
-3.2487187 -0.27540141 4.1034493 6513507
-3.248878 -0.22611216 4.1036506 6513507
-3.2490423 -0.17511822 4.1038575 6513507
-3.2492065 -0.12411913 4.1040649 6513507
-3.2494116 -0.073960699 4.1022577 6513507
-3.2495694 -0.025493277 4.1023769 6513507
-3.2497332 0.025494991 4.1025853 6513507
-3.2550433 0.066568799 4.1200619 6513507
-3.2348142 0.063881904 4.1156073 6513507
-3.1754239 0.066725105 4.1297355 6513507
-3.1252794 0.066823542 4.135829 6513507
-3.0749869 0.0669223 4.1419401 6447714
-3.0292819 0.067012005 4.1474924 6447714
-0.11896735 0.07648138 4.102427 6447714
-0.074865773 0.076572455 4.1073112 6447714
-0.02555225 0.076674253 4.1127725 6447714
0.025599139 0.076779872 4.1184373 6447714
0.052931681 0.07683631 4.1214647 6447714
-3.0684226 -0.66146618 4.1729827 6447714
-3.312963 -0.64332366 4.1794376 6513507
-3.2753816 -0.64315188 4.1736097 6513507
-3.224411 -0.64297527 4.1716905 6513507
-3.1743236 -0.64281332 4.1710253 6513507
-3.1251473 -0.64265043 4.1699686 6447714
-3.0754635 -0.6446349 4.1711054 6447714
-3.2469063 -0.35712913 4.1751976 6513507
-3.3044457 -0.33425471 4.1803999 6513507
-3.2757487 -0.33415389 4.1791387 6513507
-3.2469749 -0.34189156 4.1760974 6513507
-3.0040169 0.067061633 4.1505642 6447714
-2.973954 0.067120649 4.1542163 6447714
-2.9248013 0.067217141 4.1601887 6447714
-2.8755059 0.067313932 4.1661787 6447714
-2.824472 0.06741412 4.17238 6447714
-2.781297 0.067498878 4.1776261 6447714
-3.0671861 -0.66170216 4.2235904 6447714
-3.3603821 -0.64400017 4.2356248 6513507
-3.3255613 -0.64376962 4.2226362 6513507
-3.2757378 -0.64360434 4.2215528 6513507
-3.2259395 -0.64343929 4.22047 6513507
-3.1761672 -0.64327437 4.2193875 6447714
-3.1255105 -0.64311028 4.2187071 6447714
-3.0745192 -0.64499676 4.2203393 6447714
-0.25285444 -0.61282068 4.2384367 6447714
-0.22472991 -0.6127376 4.2378616 6447714
-0.17552879 -0.61259216 4.2368555 6447714
-0.12459528 -0.61244142 4.2358136 6447714
-0.073686436 -0.61229098 4.2347732 6447714
-0.024556961 -0.61214584 4.2337685 6447714
0.024549201 -0.61200058 4.2327642 6447714
0.054353215 -0.61191255 4.2321548 6447714
-0.25287506 -0.5759927 4.2387819 6447714
-0.22474824 -0.57591444 4.2382054 6447714
-0.1755431 -0.57577789 4.2371998 6447714
-0.1246054 -0.57563627 4.2361579 6447714
-0.073692411 -0.57549471 4.235117 6447714
-0.024558956 -0.57535815 4.2341127 6447714
0.0245512 -0.57522172 4.233108 6447714
0.054357648 -0.57513887 4.2324991 6447714
-0.25290349 -0.52512538 4.2392583 6447714
-0.22477351 -0.5250541 4.2386823 6447714
-0.17556283 -0.52492958 4.2376757 6447714
-0.12461937 -0.52480036 4.2366347 6447714
-0.073700689 -0.52467138 4.2355933 6447714
-0.024946831 -0.52514625 4.2345901 6447714
0.024553861 -0.52617455 4.2335677 6447714
0.054363541 -0.52609861 4.2329578 6447714
-0.25293189 -0.47424689 4.2397346 6447714
-0.22479877 -0.47418264 4.2391596 6447714
-0.17558253 -0.47407001 4.238153 6447714
-0.12463336 -0.47395313 4.2371097 6447714
-0.073708944 -0.47383678 4.2360692 6447714
-0.024171615 -0.47437719 4.2350492 6447714
0.02455662 -0.47536409 4.2340431 6447714
0.054369636 -0.47529572 4.2334332 6447714
-0.25295934 -0.42511171 4.2401948 6447714
-0.22482324 -0.42505378 4.2396197 6447714
-0.17560159 -0.42495307 4.2386122 6447714
-0.1246469 -0.42484865 4.2375689 6447714
-0.073716961 -0.42474443 4.2365274 6447714
-0.024567137 -0.42464349 4.2355232 6447714
0.024559384 -0.42454267 4.2345171 6447714
0.054375745 -0.42448145 4.2339077 6447714
-3.2458625 -0.35727096 4.2237587 6513507
-0.25298682 -0.37596607 4.2406549 6447714
-0.22484754 -0.37591493 4.2400789 6447714
-0.17562068 -0.37582567 4.2390723 6447714
-0.12466046 -0.37573326 4.238029 6447714
-0.073724978 -0.37564096 4.2369876 6447714
-0.024569804 -0.37555173 4.2359819 6447714
0.024562042 -0.37546256 4.2349772 6447714
0.054381639 -0.3754085 4.2343669 6447714
-3.3250315 -0.33478162 4.2308321 6513507
-3.2760174 -0.33460897 4.2286515 6513507
-3.2459617 -0.34202611 4.2242413 6513507
-0.25301525 -0.32505381 4.2411323 6447714
-0.22487292 -0.3250097 4.2405562 6447714
-0.1756404 -0.32493243 4.2395487 6447714
-0.12467442 -0.32485265 4.2385058 6447714
-0.073733255 -0.32477266 4.2374635 6447714
-0.024572559 -0.32469538 4.2364578 6447714
0.024564793 -0.32461846 4.2354522 6447714
0.054387741 -0.32457176 4.2348418 6447714
-0.25304371 -0.27413025 4.2416086 6447714
-0.22489816 -0.27409303 4.2410326 6447714
-0.17566019 -0.27402791 4.2400255 6447714
-0.12468845 -0.27396047 4.2389827 6447714
-0.073741518 -0.27389315 4.2379403 6447714
-0.024575321 -0.27382806 4.2369342 6447714
0.024567554 -0.27376312 4.2359281 6447714
0.054393847 -0.27372366 4.2353172 6447714
-0.25307116 -0.2249517 4.2420697 6447714
-0.22492255 -0.22492111 4.2414932 6447714
-0.17567921 -0.22486769 4.2404861 6447714
-0.12470204 -0.22481239 4.2394428 6447714
-0.073749557 -0.22475712 4.238399 6447714
-0.024577983 -0.22470368 4.2373929 6447714
0.024570225 -0.22465046 4.2363877 6447714
0.054399747 -0.22461799 4.2357774 6447714
-0.2530987 -0.17576253 4.2425303 6447714
-0.22494705 -0.17573865 4.2419543 6447714
-0.17569833 -0.17569688 4.2409463 6447714
-0.12471554 -0.17565368 4.2399025 6447714
-0.073757529 -0.17561044 4.2388592 6447714
-0.024580656 -0.17556877 4.2378526 6447714
0.024572873 -0.17552707 4.2368469 6447714
0.054405648 -0.17550175 4.2362366 6447714
-0.25312719 -0.12480524 4.2430081 6447714
-0.22497235 -0.12478827 4.2424312 6447714
-0.17571814 -0.12475864 4.2414241 6447714
-0.12472954 -0.12472793 4.2403793 6447714
-0.073765829 -0.12469723 4.2393355 6447714
-0.024583412 -0.12466763 4.2383299 6447714
0.024575638 -0.12463801 4.2373228 6447714
0.054411765 -0.12462008 4.2367129 6447714
-0.25315562 -0.073836617 4.243485 6447714
-0.22499759 -0.073826566 4.2429085 6447714
-0.17573783 -0.073809057 4.2419 6447714
-0.1247436 -0.073790841 4.2408557 6447714
-0.073774137 -0.073772728 4.2398114 6447714
-0.024586188 -0.07375519 4.2388058 6447714
0.024578406 -0.073737666 4.2377996 6447714
0.054417871 -0.073727049 4.2371883 6447714
-0.25318316 -0.024614584 4.2439466 6447714
-0.22502208 -0.024611242 4.2433696 6447714
-0.1757569 -0.024605388 4.2423611 6447714
-0.12475711 -0.024599332 4.2413168 6447714
-0.073782131 -0.024593279 4.2402735 6447714
-0.024588842 -0.02458743 4.2392659 6447714
0.024581082 -0.024581602 4.2382593 6447714
0.05317796 -0.026446899 4.2376561 6447714
-0.25414416 0.027100926 4.2444496 6447714
-0.22504653 0.024614796 4.2438307 6447714
-0.17577605 0.024608947 4.2428226 6447714
-0.12477068 0.024602894 4.2417779 6447714
-0.073790148 0.024596835 4.2407331 6447714
-0.024591519 0.024590993 4.2397261 6447714
0.024583742 0.024585152 4.238719 6447714
0.052674357 0.024581814 4.2381434 6447714
-3.3541911 0.065078698 4.2455578 6513507
-3.333374 0.06511876 4.2481713 6513507
-0.25497118 0.062722072 4.2419167 6447714
-0.22509117 0.063339502 4.2403193 6447714
-0.17567401 0.063234612 4.2403808 6447714
-0.12493177 0.063132435 4.2402773 6447714
-0.074007504 0.063341022 4.2399035 6447714
-0.024591226 0.063233323 4.2398028 6447714
0.024585832 0.063223347 4.2390804 6447714
0.05267885 0.063214779 4.2385054 6447714
-2.1111965 -1.9044936 4.2644038 6447714
-2.0737252 -1.9041522 4.2636395 6447714
-2.0237832 -1.9036973 4.2626214 6447714
-1.9738652 -1.9032427 4.2616034 6447714
-1.9239705 -1.9027888 4.2605863 6447714
-1.8764799 -1.9055161 4.2722187 6447714
-2.1115084 -1.8758167 4.2646785 6447714
-2.0738544 -1.876007 4.2639046 6447714
-2.0239093 -1.8755589 4.262886 6447714
-1.9739879 -1.8751115 4.261869 6447714
-1.9240907 -1.8746632 4.2608523 6447714
-1.8791773 -1.8747048 4.2671566 6447714
-2.1113517 -1.828355 4.2651191 6447714
-2.0740728 -1.8285035 4.2643542 6447714
-2.0243721 -1.828667 4.2633357 6447714
-1.9742035 -1.8258713 4.2623339 6447714
-1.9243007 -1.8254369 4.2613168 6447714
-1.879364 -1.8253871 4.267581 6447714
-1.9658618 -1.7877502 4.2625198 6447714
-1.9241676 -1.7765323 4.2617698 6447714
-1.8794538 -1.7757804 4.2680016 6447714
-1.9130782 -1.7405872 4.2618809 6447714
-1.8786374 -1.7271503 4.268919 6447714
-1.8708504 -1.6971419 4.2786384 6447714
-3.0659201 -0.66177326 4.2754364 6447714
-3.4042025 -0.64461428 4.2863817 6513507
-3.3726752 -0.64440155 4.2742085 6513507
-3.325603 -0.64423561 4.2721295 6513507
-3.2751954 -0.6440683 4.2710204 6513507
-3.2248149 -0.64390123 4.2699122 6447714
-3.1744595 -0.64373416 4.268805 6447714
-3.12413 -0.6435672 4.2676978 6447714
-3.0739625 -0.64513385 4.2706795 6447714
-3.2447956 -0.35742909 4.2733488 6513507
-3.3700292 -0.33540559 4.2835727 6513507
-3.3240564 -0.33524349 4.2815022 6513507
-3.2744551 -0.33506858 4.2792683 6513507
-3.2449291 -0.34215355 4.2737021 6513507
-3.3093266 0.065165028 4.2511902 6513507
-3.2755961 0.065229982 4.2554269 6513507
-3.2256877 0.065326042 4.2616935 6513507
-3.175632 0.065422416 4.2679806 6447714
-3.1254284 0.065519035 4.2742844 6447714
-3.0750768 0.065615974 4.2806082 6447714
-3.0245759 0.065713182 4.2869496 6447714
-2.9755619 0.065807536 4.2931051 6447714
-2.9362516 0.065883189 4.2980404 6447714
-1.866533 -1.9189409 4.3278003 6447714
-1.8251961 -1.9310826 4.331996 6447714
-1.7747976 -1.9309226 4.3316383 6447714
-1.7244073 -1.9307626 4.3312788 6447714
-1.6744636 -1.9306018 4.3306994 6447714
-1.6250007 -1.9304459 4.3304963 6447714
-1.5750893 -1.9302883 4.330215 6447714
-1.5251834 -1.9301307 4.3299351 6447714
-1.4744967 -1.9299762 4.3302107 6447714
-1.4246775 -1.9298508 4.3332705 6447714
-1.3746557 -1.9296886 4.3326745 6447714
-1.3250066 -1.9295356 4.332798 6447714
-1.2753683 -1.9293748 4.332087 6447714
-1.2253666 -1.9292169 4.3318491 6447714
-1.1750195 -1.9290577 4.3314896 6447714
-1.1250402 -1.9288992 4.3311343 6447714
-1.0754331 -1.9287392 4.3305421 6447714
-1.0254686 -1.9285828 4.3304243 6447714
-0.97515446 -1.9284223 4.3300662 6447714
-0.92484891 -1.9282629 4.3297062 6447714
-0.87490833 -1.9281034 4.3292327 6447714
-0.82498229 -1.9279459 4.3289943 6447714
-0.77506047 -1.9277892 4.3287592 6447714
-0.72514564 -1.9276289 4.3282833 6447714
-0.6752463 -1.9274683 4.3276887 6447714
-0.62534624 -1.9273126 4.3275714 6447714
-0.57509863 -1.9271528 4.3272142 6447714
-0.52485907 -1.9269935 4.3268557 6447714
-0.47498682 -1.9268349 4.3265004 6447714
-0.42512262 -1.9266763 4.3261437 6447714
-0.37490812 -1.9265168 4.3257861 6447714
-0.32506251 -1.926358 4.3253121 6447714
-0.27473545 -1.9262356 4.3289523 6447714
-0.22507003 -1.9260789 4.3286977 6447714
-0.17544584 -1.92592 4.3282433 6447714
-0.12551701 -1.9257638 4.3281364 6447714
-0.075304106 -1.9256048 4.3277779 6447714
-0.025099522 -1.9254446 4.3274188 6447714
0.025096754 -1.9252857 4.3270612 6447714
0.057361718 -1.9251837 4.3268309 6447714
-1.8690596 -1.8744355 4.3255625 6447714
-1.8692175 -1.8244127 4.3259277 6447714
-1.8694412 -1.7750232 4.3229613 6447714
-1.8696134 -1.724555 4.3226814 6447714
-1.8697805 -1.6971172 4.318934 6447714
-3.0646875 -0.6620425 4.3259106 6447714
