# .PCD v0.7 - Point Cloud Data file format
VERSION 0.7
FIELDS x y z rgb
SIZE 4 4 4 4
TYPE F F F U
COUNT 1 1 1 1
WIDTH 1181
HEIGHT 1
VIEWPOINT 0 0 0 1 0 0 0
POINTS 1181
DATA ascii
0.12505652 0.10473451 2.1791668 2894892
0.17489161 0.10483965 2.1820381 2894892
0.2236468 0.10502842 2.1680956 2894892
0.27500197 0.10514612 2.1692271 2894892
0.32476324 0.10525437 2.1714602 2894892
0.37462774 0.10536281 2.1736972 5263440
0.42459443 0.10547148 2.1759396 10197915
0.47466493 0.10558039 2.1781859 10197915
0.52483833 0.10568953 2.1804376 10197915
0.57893211 0.10584127 2.1762168 10197915
0.62518984 0.10599308 2.1683099 10197915
0.6748271 0.10610268 2.1702175 10197915
0.72503269 0.10621198 2.1724527 10197915
0.7748726 0.10631889 2.1749747 10197915
0.82482821 0.10642917 2.1768956 10197915
0.87486929 0.10653654 2.1794276 10197915
0.9245643 0.10664472 2.1816406 10197915
0.97151309 0.10680252 2.1728919 10197915
1.0254694 0.10695038 2.1693668 10197915
1.075087 0.10705847 2.1715593 10197915
1.1341789 0.10456804 2.1880701 10197915
1.1740152 0.10394475 2.1738758 10197915
1.2099682 0.10358496 2.1554418 10197915
1.0370438 -0.72099131 2.2429936 2039583
1.0755275 -0.72094923 2.2227623 2039583
1.1098068 -0.72088569 2.2047412 2039583
1.0370796 -0.67509198 2.2431626 2039583
1.0756114 -0.67497849 2.2229061 2039583
1.1098515 -0.67504978 2.2049046 2039583
1.0375841 -0.62545341 2.243099 2039583
1.0757468 -0.62496966 2.2230382 2039583
1.1099489 -0.62499607 2.2050583 2039583
1.0380077 -0.5750609 2.2430804 2039583
1.0757726 -0.57498068 2.2232273 2039583
1.1100062 -0.57500267 2.2052302 2039583
1.0376273 -0.52536738 2.2434821 2039583
1.0753759 -0.52487695 2.2236412 2039583
1.1108108 -0.52494377 2.2050114 2039583
1.0374002 -0.47501522 2.2438068 2039583
1.0744931 -0.47500956 2.2243068 2039583
1.1101909 -0.47501743 2.2055409 2039583
1.0375249 -0.42508188 2.2439451 2039583
1.0745366 -0.42500833 2.224488 2039583
1.1102685 -0.42497647 2.205703 2039583
1.038082 -0.37537122 2.2438548 2039583
1.0746251 -0.37502661 2.2246447 2039583
1.110301 -0.37492758 2.2058902 2039583
1.0383658 -0.32499468 2.2439108 2039583
1.0747243 -0.32498315 2.2247963 2039583
1.1106832 -0.32463539 2.2058942 2039583
1.0384452 -0.27493903 2.2440722 2039583
1.0748062 -0.27493373 2.2249565 2039583
1.1112188 -0.27506551 2.2058148 2039583
1.038528 -0.22500013 2.2442319 2039583
1.0748185 -0.22495671 2.2251549 2039583
1.1112474 -0.22504762 2.2060032 2039583
1.0386558 -0.17524219 2.2443681 2039583
1.074919 -0.17499951 2.2253051 2039583
1.11148 -0.17491482 2.2060843 2039583
1.0394248 -0.12550844 2.2441669 2039583
1.0751133 -0.12487433 2.2254066 2039583
1.1114622 -0.12522349 2.206296 2039583
1.0395039 -0.075313359 2.2443283 2039583
1.0751295 -0.074768506 2.2256021 2039583
1.1119672 -0.074571975 2.2062371 2039583
1.0395802 -0.025106091 2.2444925 2039583
1.0751345 -0.024897037 2.2258031 2039583
1.1123463 -0.024678228 2.2062409 2039583
1.0396559 0.025108527 2.2446578 2039583
1.0752136 0.024899459 2.2259641 2039583
1.1124265 0.024680594 2.2063992 2039583
1.0398368 0.075099401 2.244766 9934743
1.0753415 0.074758105 2.2260997 9737364
1.1125079 0.074960783 2.2065613 9605778
-0.91820663 0.10202325 2.2185731 2894892
-0.87488979 0.10211697 2.2206111 2894892
-0.82515955 0.10222457 2.2229509 2894892
-0.775325 0.10233241 2.2252963 2894892
-0.72538441 0.10244046 2.2276459 2894892
-0.67533922 0.10254876 2.2300007 2894892
-0.6251874 0.10265727 2.2323608 2894892
-0.57337332 0.102782 2.2323387 2894892
-0.52539426 0.1029664 2.2188897 2894892
-0.47487709 0.10307414 2.2215719 2894892
-0.42470431 0.10318279 2.2239153 2894892
-0.37489009 0.10329231 2.225914 2894892
-0.32496428 0.10339875 2.2285686 2894892
-0.27493915 0.10350874 2.2305777 2894892
-0.22484864 0.10370766 2.215287 2894892
-0.17547016 0.10381471 2.2175734 2894892
-0.12507199 0.10392393 2.2199068 2894892
-0.074568339 0.1040334 2.2222455 2894892
-0.02487899 0.10414111 2.2245462 2894892
0.024913359 0.10424905 2.2268515 2894892
0.07480903 0.10435721 2.2291617 2894892
0.12480832 0.10446559 2.2314768 2894892
0.17491159 0.10457417 2.2337968 2894892
0.22562407 0.10477248 2.2189209 2894892
0.27509266 0.10488147 2.2208629 2894892
0.32464039 0.10499068 2.2228069 2894892
0.37476608 0.10509937 2.2251213 4013373
0.42544964 0.10520767 2.2277699 10197915
0.47531891 0.10531758 2.2297275 10197915
0.52124268 0.10544422 2.226568 10197915
0.57495892 0.10562274 2.2169561 10197915
0.62426978 0.10572982 2.2192039 10197915
0.67461348 0.1058391 2.2214983 10197915
0.72506166 0.10594866 2.2237971 10197915
0.77561408 0.1060584 2.2261014 10197915
0.82533205 0.10616637 2.2283673 10197915
0.87515217 0.10627457 2.2306376 10197915
0.92507309 0.10638294 2.2329128 10197915
0.97732085 0.10657396 2.2201757 10197915
1.0316087 0.10521774 2.2303071 10197915
1.0750309 0.10394026 2.2228339 10197915
1.1127567 0.10411393 2.2062275 10197915
0.93909818 -0.72120625 2.2944844 2960685
0.97482342 -0.72117633 2.2757032 2960685
1.0115112 -0.72103411 2.2564151 2631720
0.93944764 -0.67540181 2.2944863 2960685
0.97492737 -0.67499512 2.2758355 2960685
1.0115265 -0.67498195 2.2565951 2631720
0.94008726 -0.62493622 2.2943561 2960685
0.97496957 -0.62504011 2.2760172 2960685
1.0120264 -0.62459284 2.2565382 2565927
0.94014609 -0.57496417 2.2945285 2960685
0.97504723 -0.57501948 2.27618 2960685
1.0124491 -0.57498717 2.2565174 2565927
0.94020581 -0.52498609 2.2947011 2960685
0.97514611 -0.52498996 2.2763324 2960685
1.0125365 -0.52503955 2.256675 2565927
0.9402563 -0.47492981 2.2948775 2960685
0.9751398 -0.47501296 2.2765381 2894892
1.0125773 -0.47497267 2.2568552 2500134
0.94063073 -0.42539412 2.294883 2960685
0.97528869 -0.42499989 2.2766638 2894892
1.0126976 -0.42489845 2.2569985 2500134
0.9412697 -0.37489533 2.2947524 2960685
0.97539037 -0.37497744 2.2768142 2894892
1.0133004 -0.37473705 2.2568867 2500134
0.94123125 -0.32508442 2.2949739 2894892
0.97533458 -0.32497939 2.2770472 2894892
1.0135161 -0.32507733 2.2569759 2500134
0.94126832 -0.27510765 2.2951586 2894892
0.97551996 -0.27500352 2.2771528 2894892
1.0136515 -0.27507284 2.2571051 2500134
0.94120526 -0.22533725 2.2953951 2894892
0.97530681 -0.22479893 2.2774699 2894892
1.013804 -0.22511594 2.2572305 2500134
0.94102567 -0.17558222 2.2956924 2894892
0.97472209 -0.17495844 2.2779787 2894892
1.0137756 -0.17488848 2.2574501 2500134
0.94150823 -0.12544072 2.2956424 2894892
0.97511286 -0.12500964 2.2779777 2894892
1.0144465 -0.12471475 2.2572994 2434341
0.94163048 -0.075045735 2.2957838 2894892
0.97470766 -0.074987523 2.278394 2894892
1.0148108 -0.075215466 2.2573121 2434341
0.94167352 -0.024730666 2.2959657 2894892
0.97525525 -0.024976965 2.2783103 2894892
1.0147525 -0.025252087 2.2575471 2434341
0.94174153 0.024733042 2.2961307 5000268
0.97532648 0.024979426 2.278476 5131854
1.0148271 0.025254561 2.2577102 3684408
0.94224751 0.074374966 2.296066 10132122
0.97492123 0.075004607 2.2788918 10132122
1.0151466 0.075355425 2.2577462 10066329
-0.95794243 0.10157387 2.287544 2894892
-0.92493606 0.1017279 2.2729945 2894892
-0.87500912 0.10183205 2.2761018 2894892
-0.82496309 0.10194001 2.2785151 2894892
-0.77887869 0.10206725 2.2753224 2894892
-0.72514546 0.10225271 2.2643621 2894892
-0.67519975 0.10236057 2.2667513 2894892
-0.62514842 0.10246868 2.269145 2894892
-0.57499141 0.10257701 2.2715437 2894892
-0.52472818 0.10268556 2.2739477 2894892
-0.47435838 0.10279434 2.2763569 2894892
-0.42481786 0.10290138 2.2787263 2894892
-0.37517333 0.10300855 2.2811003 2894892
-0.32448602 0.10311799 2.283524 2894892
-0.27463284 0.10322566 2.285908 2894892
-0.22471902 0.10342861 2.2697489 2894892
-0.17459783 0.10353876 2.2717767 2894892
-0.12483529 0.10364632 2.2741368 2894892
-0.074984655 0.10375048 2.2772036 2894892
-0.025019607 0.10386214 2.2788713 2894892
0.021049833 0.10400383 2.272841 2894892
0.075083353 0.10417244 2.2653089 2894892
0.12495297 0.10428033 2.2676554 2894892
0.17492536 0.10438848 2.2700069 2894892
0.22500211 0.10449684 2.2723629 2894892
0.27518237 0.1046054 2.274724 2894892
0.32451746 0.10471216 2.2770452 2894892
0.37490544 0.10482117 2.2794161 2894892
0.42539781 0.10493044 2.2817919 9934743
0.47504023 0.10503785 2.284128 10197915
0.5291881 0.1052174 2.2745152 10197915
0.57471395 0.10534716 2.2705626 10197915
0.62474012 0.10545727 2.272553 10197915
0.67486298 0.10556405 2.275238 10197915
0.7246173 0.1056718 2.2775598 10197915
0.7749477 0.10578257 2.2795637 10197915
0.82173896 0.10594098 2.2706244 10197915
0.87502646 0.10609175 2.2662129 10197915
0.93392444 0.10482567 2.2828202 10197915
0.97541648 0.10364897 2.2769165 10197915
1.0146893 0.10321656 2.2581012 10197915
0.84160405 -0.72157103 2.3457365 2960685
0.8748461 -0.7214027 2.3282611 2960685
0.91397607 -0.72123247 2.3076906 2960685
0.84161723 -0.67506784 2.3459189 2960685
0.87492859 -0.67502409 2.3284063 2960685
0.91429317 -0.67466962 2.3077128 2960685
0.84187925 -0.6254257 2.3459828 2960685
0.87497085 -0.62500256 2.3285897 2960685
0.91491002 -0.62497813 2.3075912 2960685
0.84264791 -0.57500744 2.3457844 2960685
0.87509489 -0.57500428 2.328728 2960685
0.91499215 -0.57500583 2.3077509 2960685
0.84261769 -0.52494168 2.3460033 2960685
0.87510884 -0.5249995 2.3289225 2960685
0.91504312 -0.5250268 2.3079278 2960685
0.84266484 -0.47486737 2.3461831 2960685
0.87516618 -0.47495565 2.3290942 2960685
0.9150936 -0.47508913 2.3081057 2960685
0.84281111 -0.42511374 2.3463085 2960685
0.87522781 -0.42490417 2.3292677 2960685
0.91545618 -0.42484081 2.3081193 2960685
0.84297276 -0.37549666 2.3464262 2960685
0.87531847 -0.37493914 2.3294237 2960685
0.9160307 -0.37511078 2.3080196 2960685
0.84368271 -0.32477409 2.3462589 2960685
0.87540305 -0.32502955 2.3295825 2960685
0.91610879 -0.32498392 2.3081822 2960685
0.84375167 -0.27497789 2.3464258 2960685
0.8753835 -0.27504948 2.3297977 2960685
0.91611111 -0.27494356 2.3083851 2894892
0.84388083 -0.22530267 2.3465598 2960685
0.87545574 -0.2249998 2.3299596 2960685
0.91618526 -0.22499087 2.3085492 2894892
0.84389484 -0.17500171 2.3467569 2960685
0.87554955 -0.17500533 2.3301165 2894892
0.91665816 -0.17464666 2.3085051 2894892
0.84406894 -0.12487154 2.3468695 2960685
0.8757779 -0.12522459 2.3302009 2894892
0.91727972 -0.12469526 2.3083823 2894892
0.84483653 -0.074858889 2.3466697 2960685
0.87564093 -0.075307712 2.3304722 2894892
0.91719836 -0.074601844 2.3086295 2894892
0.84489787 -0.025278652 2.3468397 2894892
0.875705 -0.025104202 2.3306456 2894892
0.91726512 -0.024868876 2.3087966 2894892
0.84496045 0.025281133 2.3470128 4737096
0.87576932 0.025106637 2.3308165 4802889
0.9173314 0.02487128 2.3089647 4934475
0.84502113 0.074875824 2.347182 10132122
0.87586379 0.075294189 2.330972 10132122
0.91783184 0.0748972 2.3089051 10132122
-0.96703732 0.10133646 2.3295608 2894892
-0.92538774 0.10142605 2.3316207 2894892
-0.8751235 0.10153423 2.3341067 2894892
-0.82475257 0.10164258 2.3365979 2894892
-0.77059954 0.10182258 2.3268979 2894892
-0.72524804 0.10195728 2.3219056 2894892
-0.67498088 0.10206553 2.3243711 2894892
-0.6246075 0.10217403 2.3268416 2894892
-0.57553881 0.10228562 2.3280907 2894892
-0.52489668 0.10248978 2.3120353 2894892
-0.47558132 0.10259609 2.3144331 2894892
-0.42521194 0.10270468 2.3168826 2894892
-0.37473625 0.10281343 2.3193362 2894892
-0.3251088 0.10292041 2.3217492 2894892
-0.27537787 0.10302761 2.3241675 2894892
-0.22554328 0.10313503 2.3265913 2894892
-0.17560469 0.10324268 2.3290195 2894892
-0.12556173 0.10335055 2.3314533 2894892
-0.075414091 0.10345867 2.3338916 2894892
-0.025161425 0.103567 2.3363357 2894892
0.02867022 0.10375836 2.32427 2894892
0.075035937 0.10388193 2.3219202 2894892
0.1246895 0.103991 2.3239362 2894892
0.17494747 0.10409937 2.3263736 2894892
0.22530968 0.10420811 2.328788 2894892
0.27343184 0.10438881 2.3161261 2894892
0.32507354 0.10452089 2.3145909 2894892
0.37435898 0.10462734 2.3169477 2894892
0.42471409 0.1047361 2.3193564 8816262
0.47517377 0.10484508 2.3217695 10197915
0.5247649 0.10495217 2.3241415 10197915
0.57445824 0.1050595 2.3265181 10197915
0.62523019 0.10516916 2.3289466 10197915
0.67512858 0.10527693 2.3313329 10197915
0.72513002 0.10538491 2.3337247 10197915
0.77523345 0.10549314 2.3361208 10197915
0.83305901 0.10455161 2.3298845 10197915
0.87542611 0.10384161 2.3251832 10197915
0.91822392 0.10318463 2.3076799 10197915
0.78443873 -0.72161591 2.3757882 2960685
0.81691647 -0.72140729 2.3587162 2960685
0.78450888 -0.67504025 2.3759422 2960685
0.81698024 -0.67493773 2.358871 2960685
0.7845661 -0.62503958 2.3761153 2960685
0.81721586 -0.62477368 2.358952 2960685
0.78461999 -0.57503241 2.3762908 2960685
0.81795496 -0.57497382 2.3587658 2960685
0.78466713 -0.5249666 2.3764699 2960685
0.81795996 -0.52498823 2.3589673 2960685
0.78476542 -0.47499844 2.376621 2960685
0.81804973 -0.47504142 2.359123 2960685
0.7847954 -0.42507085 2.3768072 2960685
0.81812775 -0.42499563 2.3592858 2960685
0.78483146 -0.37503737 2.3769932 2960685
0.81827956 -0.37478724 2.3594105 2960685
0.78464842 -0.32474139 2.3772948 2960685
0.81904256 -0.32498339 2.359211 2960685
0.78346652 -0.27522054 2.3781168 2960685
0.81846076 -0.27482471 2.3597236 2960685
0.78322673 -0.22501819 2.3784485 2960685
0.8182829 -0.22495879 2.3600183 2960685
0.78353786 -0.17488736 2.3784881 2960685
0.81841564 -0.17510833 2.360152 2960685
0.78343838 -0.12515624 2.3787432 2960685
0.81867683 -0.12485209 2.360219 2960685
0.7834962 -0.074901998 2.3789179 2960685
0.81919366 -0.075078085 2.3601503 2960685
0.7835536 -0.024640443 2.3790922 2960685
0.81950969 -0.025224265 2.3601866 2960685
0.78360963 0.024642797 2.3792627 4473924
0.81956989 0.025226744 2.3603613 4737096
0.78366667 0.074919008 2.379437 10132122
0.81937242 0.07509511 2.3606687 10132122
-0.97576201 0.10111059 2.3695021 2894892
-0.92569888 0.10121807 2.372021 2894892
-0.87552905 0.10132582 2.3745451 2894892
-0.82525253 0.10143375 2.3770747 2894892
-0.77486891 0.10154193 2.3796101 2894892
-0.72437739 0.10165033 2.3821509 2894892
-0.67475259 0.10175688 2.3846474 2894892
-0.62502283 0.10186366 2.3871498 2894892
-0.57340318 0.10198997 2.3867292 2894892
-0.52467877 0.10218365 2.3718181 2894892
-0.47506088 0.10229029 2.3742938 2894892
-0.42533875 0.10239715 2.3767748 2894892
-0.37869775 0.10252548 2.3736134 2894892
-0.32478067 0.10271819 2.3613245 2894892
-0.27517489 0.10282492 2.3637776 2894892
-0.22546531 0.10293186 2.3662367 2894892
-0.17467475 0.10304113 2.3687484 2894892
-0.12475644 0.10314852 2.3712173 2894892
-0.07473325 0.10325614 2.3736913 2894892
-0.024606282 0.10336399 2.3761704 2894892
0.024639904 0.10346995 2.3786058 2894892
0.074975461 0.10357822 2.3810959 2894892
0.1254158 0.10368675 2.3835897 2894892
0.17497019 0.10379336 2.3860409 2894892
0.22462659 0.1039002 2.3884966 2894892
0.27592468 0.104109 2.371839 2894892
0.32445681 0.1042178 2.3733854 2894892
0.3745001 0.10432757 2.3754463 2894892
0.42463547 0.10443354 2.3782985 7303023
0.47143236 0.10460903 2.3660293 10197915
0.52474552 0.10475241 2.3630769 10197915
0.57527143 0.10486133 2.3655338 10197915
0.6249091 0.10496835 2.3679476 10197915
0.67464811 0.10507557 2.3703666 10197915
0.72448891 0.10518299 2.3727903 10197915
0.78026372 0.10363895 2.3775713 10197915
0.81953549 0.10269075 2.3606939 10197915
0.64585096 -1.0725535 2.447463 11711154
0.67164588 -1.0696304 2.4342978 11711154
0.70259458 -1.0715562 2.4435842 11711154
1.9370781 -1.0723745 2.4468658 11711154
0.64595455 -1.0249659 2.447593 11711154
0.67262053 -1.0250825 2.4340038 11711154
0.7028302 -1.02487 2.4444854 11711154
1.9374324 -1.025629 2.4468603 3947580
0.64592707 -0.97494006 2.4478002 10461087
0.67262638 -0.97503948 2.4342692 11579568
0.70273423 -0.97847253 2.4447525 11711154
1.9380839 -0.97512448 2.4467132 2039583
0.64602965 -0.92511225 2.4479387 2960685
0.67275369 -0.92502946 2.434479 4144959
0.70120287 -0.92582864 2.4423506 4868682
1.9381703 -0.93487459 2.4468229 2039583
0.64643747 -0.87637115 2.4479127 2960685
0.67281806 -0.87505019 2.4347224 2960685
0.70151103 -0.87562174 2.4434245 2960685
0.6469692 -0.82471538 2.4478331 2960685
0.67284787 -0.82506055 2.4349806 2960685
0.70181966 -0.82537043 2.4444995 2960685
0.64706826 -0.7750839 2.4479733 2960685
0.67293847 -0.77506107 2.4352107 2960685
0.70212865 -0.77507508 2.445575 2960685
0.64708549 -0.72518277 2.4481566 2960685
0.67301971 -0.72505194 2.4354444 2960685
0.70243776 -0.72473544 2.4466522 2960685
0.64710361 -0.67476737 2.4483421 2960685
0.67304015 -0.67503315 2.4356821 2960685
0.70274717 -0.67435151 2.4477296 2960685
0.64720279 -0.625117 2.448482 2960685
0.67309976 -0.62500376 2.4359536 2960685
0.70305055 -0.62493211 2.4487867 2960685
0.648018 -0.57570189 2.4482441 2960685
0.67321366 -0.57500595 2.4361739 2960685
0.70329845 -0.58455902 2.4496503 2960685
0.64813221 -0.52473986 2.4483814 2960685
0.67328316 -0.52503812 2.4364121 2960685
0.64817518 -0.47572649 2.4485483 2960685
0.67324275 -0.47490954 2.4367232 2960685
0.64735526 -0.42514384 2.4491744 2960685
0.67252803 -0.42495719 2.4373682 2960685
0.6474008 -0.37443694 2.4493465 2960685
0.67163324 -0.37513345 2.4373183 2960685
0.70013261 -0.37286231 2.4456813 2960685
0.64767641 -0.32845876 2.4493794 2960685
0.67151642 -0.32505047 2.4375801 2960685
0.70042247 -0.32537526 2.4466937 2960685
0.64838099 -0.27497819 2.4492159 2960685
0.67160618 -0.27498847 2.4377868 2960685
0.70073098 -0.27481449 2.4477713 2960685
0.6484257 -0.22527438 2.4493845 2960685
0.67181951 -0.22499894 2.4379747 2960685
0.70103353 -0.2252218 2.4488285 2960685
0.6484704 -0.17556368 2.4495533 2960685
0.67166865 -0.17483628 2.4383256 2960685
0.70127469 -0.1857204 2.4496706 2960685
0.64851594 -0.12483141 2.4497259 2960685
0.671655 -0.12482195 2.4386098 2960685
0.64856058 -0.075106911 2.4498944 2960685
0.67204386 -0.075256705 2.4386659 2960685
0.64858526 -0.047705013 2.4499872 2960685
0.67192191 -0.025260938 2.4390125 2960685
0.67199099 0.025264377 2.4392602 4276545
0.672221 0.075199977 2.4394314 10132122
-1.0092424 0.10082446 2.4095845 2894892
-0.97500777 0.10089782 2.4113374 2894892
-0.92504019 0.10100488 2.4138961 2894892
-0.87496597 0.10111214 2.4164598 2894892
-0.82478547 0.10121968 2.4190292 2894892
-0.7754854 0.10132527 2.4215536 2894892
-0.72509235 0.10143325 2.424134 2894892
-0.67459279 0.10154145 2.4267197 2894892
-0.62497842 0.10164776 2.42926 2894892
-0.57525992 0.10175428 2.4318056 2894892
-0.52543718 0.10186101 2.4343569 2894892
-0.47550967 0.10196801 2.4369135 2894892
-0.42547715 0.10207514 2.4394746 2894892
-0.37095818 0.10225398 2.4301674 2894892
-0.32526302 0.10239851 2.4234176 2894892
-0.27485758 0.10250873 2.4255607 2894892
-0.22814281 0.10263404 2.4230378 2894892
-0.17470761 0.10283045 2.409806 2894892
-0.12491962 0.10293735 2.4123113 2894892
-0.07502804 0.10304447 2.4148214 2894892
-0.025032504 0.1031518 2.4173367 2894892
0.025067303 0.10325937 2.4198575 2894892
0.075271703 0.10336715 2.4223833 2894892
0.12558103 0.10347516 2.4249148 2894892
0.17498593 0.10358123 2.4274008 2894892
0.22449289 0.10368752 2.4298918 2894892
0.27511477 0.10379621 2.4324389 2894892
0.32482687 0.10390294 2.4349399 2894892
0.37464198 0.10400989 2.4374466 2894892
0.42455915 0.10411709 2.4399581 5592405
0.47635427 0.10432575 2.423564 10197915
0.52471429 0.10444114 2.4237428 10197915
0.57501751 0.1045471 2.4266775 10197915
0.62140411 0.10468842 2.4208724 10197915
0.67187768 0.10309099 2.4325907 10197915
0.724841 0.10497637 2.4132361 10197915
0.76343262 0.10505939 2.4151449 10197915
0.54766148 -1.1087828 2.4989331 11711154
0.57121599 -1.1062715 2.4865618 11711154
0.60767597 -1.1018991 2.4674146 11711154
0.72647113 -1.1066935 2.4886703 11711154
1.8426013 -1.1084342 2.4963861 2894892
1.8701862 -1.1052258 2.4818985 5723991
1.904843 -1.1010593 2.4636989 11711154
0.54821628 -1.0769132 2.4987643 11711154
0.57536393 -1.0749663 2.484503 11711154
0.62057924 -1.0746422 2.4607387 11711154
0.71970326 -1.0760549 2.4760909 11711154
1.8429611 -1.0749491 2.4963255 2894892
1.8755207 -1.0750223 2.4792116 7171437
1.9153833 -1.0745559 2.458261 11711154
0.5486539 -1.0248442 2.4987357 10526880
0.57541823 -1.0249461 2.4846671 11579568
0.62085122 -1.0250133 2.4607871 11711154
0.71866387 -1.0249987 2.4746096 11711154
1.843392 -1.0256882 2.496289 2894892
1.875576 -1.0250233 2.4793756 4342338
1.915887 -1.0247804 2.4581883 4802889
0.54869169 -0.97522157 2.4989083 2960685
0.57545263 -0.97499305 2.4848437 4276545
0.62091291 -0.97499472 2.460948 8224125
0.71815401 -0.97396106 2.4741347 11382189
1.8439009 -0.97509199 2.496218 2894892
1.8757212 -0.974958 2.4794934 2434341
1.9164833 -0.97501618 2.4580679 2039583
0.54872936 -0.92559248 2.4990797 2960685
0.57552046 -0.92499673 2.4850001 2960685
0.62093079 -0.92496747 2.4611313 2960685
0.71705669 -0.92493963 2.4725227 3355443
1.8439987 -0.93503129 2.4963219 2894892
1.8758305 -0.93490726 2.4795909 2434341
1.9166468 -0.93487835 2.4581366 2039583
0.54874849 -0.87543237 2.4992638 2960685
0.57550508 -0.87499249 2.4852016 2960685
0.62139112 -0.87468207 2.4610848 2960685
0.71727842 -0.87479389 2.4734309 2960685
0.54884434 -0.8252728 2.4994066 2960685
0.57564199 -0.8250193 2.4853232 2960685
0.62197459 -0.82499379 2.4609694 2960685
0.71765274 -0.8249383 2.4746275 2960685
0.5497728 -0.77444416 2.4991155 2960685
0.57554787 -0.7750017 2.4855661 2960685
0.62197185 -0.77500427 2.4611638 2960685
0.71793652 -0.77504295 2.4756513 2960685
0.54981071 -0.72479707 2.4992871 2960685
0.57567465 -0.72497594 2.4856939 2960685
0.62203062 -0.72500712 2.4613259 2960685
0.71829689 -0.7249344 2.476824 2960685
0.5498485 -0.67514324 2.4994595 2960685
0.57567829 -0.67498344 2.4858818 2960685
0.62204701 -0.67504567 2.4615114 2960685
0.71780998 -0.67588228 2.4763739 2960685
0.54988623 -0.6254825 2.4996316 2960685
0.57573467 -0.6249814 2.4860475 2960685
0.62212557 -0.62499326 2.461664 2960685
0.71663576 -0.6253615 2.4746296 2960685
0.54992414 -0.57581478 2.4998035 2960685
0.57583606 -0.57497501 2.4861865 2960685
0.62295538 -0.57496035 2.461421 2960685
0.7160421 -0.57429814 2.4739954 2960685
0.54995495 -0.53545511 2.4999433 2960685
0.57577527 -0.52503568 2.4864118 2960685
0.62308365 -0.52502769 2.4615469 2960685
0.71485841 -0.52494109 2.4722226 2960685
0.57585973 -0.47501478 2.4865618 2960685
0.62318313 -0.47500855 2.4616866 2960685
0.71529418 -0.47496116 2.4735367 2960685
0.57586086 -0.42498705 2.4867532 2960685
0.62310255 -0.42502448 2.4619222 2960685
0.71563721 -0.42493665 2.4746747 2960685
0.57593119 -0.37502727 2.4869113 2960685
0.62328678 -0.37495252 2.4620194 2960685
0.71582544 -0.37486494 2.4755197 2960685
0.57602149 -0.3249864 2.4870558 2960685
0.62361103 -0.32472083 2.4620433 2960685
0.71620017 -0.32475081 2.4767191 2960685
0.57599783 -0.27501187 2.4872615 2960685
0.62417603 -0.27499408 2.4619386 2960685
0.71609479 -0.27561614 2.4769962 2960685
0.57688361 -0.22518609 2.4869893 2960685
0.62441278 -0.22499116 2.4620063 2960685
0.7145375 -0.22512607 2.4745219 2960685
0.57690841 -0.17508568 2.4871705 2960685
0.62405205 -0.17502186 2.4623897 2960685
0.71383107 -0.17405193 2.4736731 2960685
0.57687008 -0.12511736 2.4873838 2960685
0.62453377 -0.12501198 2.4623303 2960685
0.71289229 -0.12512939 2.4723628 2960685
0.5772959 -0.074758373 2.4873509 2960685
0.6241017 -0.074979223 2.4627502 2960685
0.71329463 -0.074971288 2.4736156 2960685
0.57690895 -0.024892613 2.4877512 2960685
0.62523198 -0.024766805 2.4623508 2960685
0.71343488 -0.024949268 2.4743671 2960685
0.57632864 0.024631405 2.4882457 3750201
0.62467766 0.025007237 2.4628336 4013373
0.71378934 0.024791006 2.4755239 4079166
0.57740396 0.074735112 2.4878755 10132122
0.62420684 0.074995629 2.4632754 10132122
0.71413016 0.074732125 2.4766576 10132122
-1.0524256 0.10028026 2.4954064 2894892
-1.0221412 0.10044117 2.4782438 2894892
-0.9781881 0.10057567 2.4726329 2894892
-0.92535615 0.10078186 2.4572239 2894892
-0.8753832 0.10088867 2.4598289 2894892
-0.82530409 0.10099575 2.4624391 2894892
-0.77511865 0.10110302 2.4650548 2894892
-0.72482657 0.10121053 2.4676762 2894892
-0.67442733 0.1013183 2.4703031 2894892
-0.62493211 0.1014241 2.472883 2894892
-0.57533288 0.10153013 2.4754682 2894892
-0.52461457 0.10163856 2.4781115 2894892
-0.47480595 0.10174505 2.4807081 2894892
-0.42489192 0.10185169 2.4833083 2894892
-0.37487391 0.1019586 2.4859149 2894892
-0.32475007 0.10206576 2.4885273 2894892
-0.27452156 0.10217313 2.4911458 2894892
-0.22048643 0.10235503 2.4810202 2894892
-0.17475922 0.10249703 2.4747775 2894892
-0.12611187 0.10261329 2.4749246 2894892
-0.075333208 0.10282531 2.457402 2894892
-0.025473757 0.10293212 2.4599547 2894892
0.024488702 0.10303915 2.4625132 2894892
0.074555896 0.10314643 2.4650767 2894892
0.12472674 0.10325392 2.4676456 2894892
0.17500296 0.10336165 2.4702196 2894892
0.22538346 0.10346958 2.4727995 2894892
0.2748383 0.10357553 2.4753315 2894892
0.32439443 0.10368171 2.477869 2894892
0.37508833 0.10379031 2.4804647 2894892
0.42588785 0.10389915 2.4830654 4671303
0.47575441 0.10400599 2.4856191 10197915
0.52572364 0.10411304 2.488178 10197915
0.5744403 0.10250117 2.4884703 10197915
0.62676126 0.10252376 2.4608469 10197915
0.72589189 0.10401382 2.4720335 10197915
0.76825196 0.10482469 2.4631593 10197915
0.52918035 -1.1112393 2.508637 11711154
0.74191773 -1.1128504 2.5179999 11711154
0.7534976 -1.1185108 2.5399761 11711154
1.7454989 -1.1198936 2.5473812 2039583
1.7735119 -1.1166543 2.5326695 2039583
1.8163756 -1.1114665 2.5101607 2105376
0.53061813 -1.074645 2.5080233 11711154
0.74044138 -1.0727429 2.5155802 11711154
0.75363845 -1.0757157 2.5406597 11711154
1.7455989 -1.0750947 2.5475016 2039583
1.7749202 -1.075008 2.5320897 2039583
1.817489 -1.0750115 2.5097141 2105376
0.53093702 -1.0249922 2.5080462 8882055
0.73957092 -1.024791 2.5143881 11711154
0.75396925 -1.0256428 2.541775 11711154
1.745724 -1.0250205 2.5476296 2039583
1.7750385 -1.0249743 2.5322201 2039583
1.8179592 -1.0247427 2.5096614 2171169
0.5310151 -0.97506291 2.508198 2960685
0.73994404 -0.97469795 2.5155849 9342606
0.75430042 -0.97552586 2.5428915 7960953
1.7458593 -0.97494215 2.5477517 2039583
1.7751454 -0.97506833 2.5323579 2039583
1.8184468 -0.97498775 2.5095975 2171169
0.53104705 -0.92506665 2.5083756 2960685
0.74029207 -0.92481518 2.5167305 2960685
0.75463194 -0.92536491 2.5440092 2960685
1.7458929 -0.93522537 2.5478876 2039583
1.7752064 -0.9352414 2.5324793 2039583
1.8185322 -0.93506503 2.5097096 2171169
0.53104758 -0.87506229 2.5085685 2960685
0.74061418 -0.87514853 2.5178256 2960685
0.75452977 -0.87829125 2.5442715 2960685
0.53110212 -0.82493043 2.508733 2960685
0.74086511 -0.82518077 2.5187879 2960685
0.75287026 -0.82552296 2.5416262 2960685
0.53112912 -0.77496189 2.5089114 2960685
0.74128819 -0.77491051 2.5200813 2960685
0.75320101 -0.77532101 2.542743 2960685
0.53121543 -0.72501135 2.5090597 2960685
0.74158859 -0.72485274 2.5211401 2960685
0.75353187 -0.72507507 2.5438602 2960685
0.53121901 -0.67510808 2.5092492 2960685
0.74101347 -0.67376179 2.5205405 2960685
0.75386333 -0.6747849 2.5449786 2960685
0.53125572 -0.62508893 2.5094259 2960685
0.73976558 -0.62464768 2.5186429 2960685
0.7541948 -0.62445045 2.546098 2960685
0.53130072 -0.57500803 2.5095966 2960685
0.74020725 -0.57418031 2.5199728 2960685
0.75451982 -0.57512182 2.547195 2960685
0.53170133 -0.52469796 2.5095794 2960685
0.73916268 -0.52570462 2.5184565 2960685
0.75309378 -0.52197033 2.5449982 2960685
0.53178 -0.47539803 2.5097299 2960685
0.55001009 -0.4630028 2.5001945 2960685
0.73839754 -0.47482616 2.5174942 2960685
0.75276494 -0.47548103 2.5448234 2960685
0.53138274 -0.42510581 2.5101321 2960685
0.55003935 -0.42470059 2.5003269 2960685
0.73879194 -0.42520902 2.5187259 2960685
0.7506817 -0.42534938 2.5413468 2960685
0.53142333 -0.37510636 2.5103042 2960685
0.5500772 -0.37500528 2.5004995 2960685
0.7390424 -0.37502477 2.5196888 2960685
0.75101155 -0.37497723 2.5424633 2960685
0.5314644 -0.32509989 2.5104749 2960685
0.55011517 -0.32530317 2.5006719 2960685
0.73943877 -0.32480034 2.5209305 2960685
0.75134152 -0.32456082 2.5435801 2960685
0.53152972 -0.27503222 2.5106359 2960685
0.55015308 -0.27559423 2.5008438 2960685
0.73918575 -0.2738508 2.5209453 2960685
0.75166488 -0.27515191 2.5446754 2960685
0.53161961 -0.22484949 2.5107815 2960685
0.55098867 -0.22317822 2.5006068 2960685
0.73765713 -0.22475213 2.5185125 2960685
0.75198865 -0.22570018 2.5457709 2960685
0.5306946 -0.1747023 2.5114617 2960685
0.55115801 -0.17508566 2.5007041 2960685
0.73801631 -0.1747425 2.519681 2960685
0.7523194 -0.17515247 2.5468912 2960685
0.53065664 -0.12486648 2.5116746 2960685
0.55119681 -0.12432986 2.5008798 2960685
0.73829472 -0.12511012 2.5206935 2960685
0.75265056 -0.12456023 2.548012 2960685
0.53069347 -0.074924953 2.5118484 2960685
0.55123478 -0.074602939 2.5010521 2960685
0.73869491 -0.075224444 2.5219386 2960685
0.75297523 -0.074978992 2.5491109 2960685
0.53073013 -0.024976511 2.5120211 2960685
0.55127275 -0.024869172 2.5012243 2960685
0.73901659 -0.025084523 2.5230381 2960685
0.75318938 -0.042254463 2.5498362 2960685
0.53076673 0.024978839 2.5121951 3750201
0.55147547 0.026150052 2.5013149 4079166
0.73933917 0.025099108 2.5241382 4079166
-1.0726196 0.099998876 2.540792 2894892
0.53080362 0.074941106 2.5123684 10132122
0.55227691 0.074604392 2.5010812 10132122
0.73958057 0.075118162 2.5250828 10132122
-1.0612953 0.10002295 2.5414035 2894892
-1.0252267 0.1000997 2.5433533 2894892
-0.97027802 0.10027634 2.5346816 2894892
-0.92532998 0.10043433 2.5249569 2894892
-0.87479573 0.10065909 2.5048339 2894892
-0.82482004 0.1007657 2.5074861 2894892
-0.77473783 0.10087251 2.5101442 2894892
-0.72455001 0.10097957 2.5128081 2894892
-0.67528278 0.10108464 2.5154231 2894892
-0.62488288 0.10119213 2.5180981 2894892
-0.57437634 0.10129985 2.5207789 2894892
-0.52479583 0.10140561 2.5234101 2894892
-0.47511181 0.1015116 2.5260477 2894892
-0.42532384 0.10161785 2.5286911 2894892
-0.37543151 0.10172426 2.5313396 2894892
-0.32543454 0.10183089 2.5339928 2894892
-0.27533266 0.10193775 2.5366521 2894892
-0.22512545 0.10204484 2.5393167 2894892
-0.17481263 0.10215213 2.5419872 2894892
-0.1219658 0.10229091 2.5397129 2894892
-0.074765354 0.10248535 2.5239406 2894892
-0.02913495 0.10261521 2.5200193 2894892
0.024928736 0.10281328 2.5067537 2894892
0.074855231 0.10292002 2.5093555 2894892
0.1248855 0.10302698 2.5119631 2894892
0.17501982 0.10313413 2.5145764 2894892
0.22525859 0.10324153 2.517195 2894892
0.27560213 0.10334915 2.5198188 2894892
0.3249982 0.10345475 2.5223937 2894892
0.3744961 0.10356057 2.5249734 2894892
0.42515147 0.10366886 2.5276139 3487029
0.47485372 0.1037751 2.5302043 10197915
0.52721995 0.10228011 2.5153518 10197915
0.55229759 0.10154825 2.5011744 10197915
0.74069762 0.10232855 2.5274725 10197915
0.77663058 0.10453019 2.5244987 10197915
0.80824065 0.10452973 2.5394113 10197915
0.7807703 -1.1560578 2.591501 11711154
1.6481168 -1.156158 2.5984268 2039583
1.6676769 -1.1539665 2.5881538 2039583
0.77090681 -1.1241184 2.5730443 11711154
1.6481739 -1.1249785 2.5985169 2039583
1.6754744 -1.125017 2.5841663 2039583
1.7198648 -1.1229067 2.5608437 2039583
0.77067924 -1.0750209 2.5730875 11711154
1.6482424 -1.0751531 2.5986741 2039583
1.6755579 -1.0750356 2.584316 2039583
1.7206498 -1.0750281 2.5606151 2039583
0.77114385 -1.0249426 2.5744581 11711154
1.6482576 -1.0261678 2.5988545 2039583
1.6755462 -1.0249059 2.5845146 2039583
1.7207741 -1.0250217 2.5607438 2039583
0.77144027 -0.97481495 2.5755091 5987163
1.6476432 -0.97458631 2.5993774 2039583
1.6749164 -0.97499293 2.5850399 2039583
1.7208422 -0.9749698 2.5609009 2039583
0.77186215 -0.92485654 2.5767965 2960685
1.6476851 -0.93530649 2.5995069 2039583
1.675056 -0.93534398 2.5851202 2039583
1.7209656 -0.93522578 2.5609891 2039583
0.77125818 -0.8738476 2.5761425 2960685
0.76990968 -0.82489872 2.5740519 2960685
0.77043921 -0.77493811 2.5755444 2960685
0.76900733 -0.72588593 2.5732956 2960685
0.76842487 -0.67514306 2.5726802 2960685
0.76888877 -0.62489194 2.5740509 2960685
0.76922381 -0.57502174 2.5751717 2960685
0.76955903 -0.52510768 2.5762937 2960685
0.76977068 -0.47472697 2.5771854 2960685
0.76770663 -0.42508936 2.5737402 2960685
0.76809222 -0.37531489 2.5749571 2960685
0.76785755 -0.3259916 2.5749898 2960685
0.76630151 -0.27495795 2.5725243 2960685
0.76655275 -0.22475418 2.5734897 2960685
0.76696843 -0.17493141 2.574764 2960685
0.76717377 -0.12527911 2.5756364 2960685
0.76771849 -0.074941076 2.5771616 2960685
0.76612461 -0.023827253 2.574625 2960685
0.76571625 0.024894591 2.5743217 3947580
-1.0715451 0.099753775 2.5890715 2894892
-1.0243046 0.09985406 2.5916736 2894892
-0.97697121 0.099954516 2.5942814 2894892
0.76624084 0.074870519 2.5758038 10132122
-0.95274478 0.10000594 2.5956161 2894892
-0.92435336 0.10007613 2.5952442 2894892
-0.87909758 0.10032338 2.5682633 2894892
-0.82535845 0.10052498 2.5541594 2894892
-0.77538633 0.10063132 2.5568609 2894892
-0.72530812 0.10073787 2.5595684 2894892
-0.67512387 0.10084466 2.5622816 2894892
-0.62483317 0.10095166 2.5650008 2894892
-0.57443565 0.1010589 2.5677254 2894892
-0.52498442 0.10116412 2.5703988 2894892
-0.47542953 0.1012696 2.5730786 2894892
-0.42471409 0.10137755 2.5758214 2894892
-0.37495041 0.10148343 2.5785117 2894892
-0.32508197 0.10158954 2.5812075 2894892
-0.27510992 0.10169588 2.5839097 2894892
-0.22503237 0.10180243 2.5866172 2894892
-0.17485051 0.10190921 2.5893302 2894892
-0.12563398 0.10201392 2.5919907 2894892
-0.075242542 0.10212114 2.5947149 2894892
-0.020500153 0.10231646 2.582305 2894892
0.021086274 0.10249826 2.5663636 2894892
0.075165518 0.1026853 2.5552547 2894892
0.12505005 0.1027917 2.5579023 2894892
0.17503737 0.10289833 2.5605555 2894892
0.22512917 0.10300517 2.5632143 2894892
0.2753244 0.10311223 2.5658779 2894892
0.3245531 0.10321723 2.5684907 2894892
0.37495613 0.10332472 2.5711663 2894892
0.42546338 0.10343246 2.5738466 2894892
0.47499856 0.1035381 2.5764763 9539985
0.51167333 0.10361631 2.5784223 10197915
0.77644861 0.10310926 2.5843225 10197915
0.81694263 0.10426741 2.5946245 10197915
0.79202068 -1.159234 2.6128752 11711154
0.8062517 -1.1656425 2.639889 11711154
1.5735215 -1.1650829 2.6376023 2039583
1.6206981 -1.1595025 2.6128249 2039583
0.79048592 -1.1250671 2.6102867 11711154
0.80533892 -1.1275297 2.6385217 11711154
1.5752572 -1.1250761 2.6368427 2039583
1.6230329 -1.1250225 2.6117291 2039583
0.79098022 -1.0747265 2.6117153 11711154
0.8037768 -1.075698 2.6360531 11711154
1.5753512 -1.0750659 2.6369867 2039583
1.6230931 -1.0750002 2.6118898 2039583
0.79125178 -1.025036 2.6127148 11711154
0.80407608 -1.0253634 2.6371112 11316396
1.5754449 -1.0250517 2.6371315 2039583
1.6232158 -1.0249735 2.6120217 2039583
0.79152387 -0.97531009 2.6137149 3947580
0.80448657 -0.97499651 2.6383808 2960685
1.5760318 -0.97529173 2.6370156 2039583
1.623282 -0.97501707 2.6121826 2039583
0.79194421 -0.92518276 2.6150012 2960685
0.80483818 -0.92512017 2.639534 2960685
1.576514 -0.93559939 2.6369152 2039583
1.6234637 -0.93548149 2.6122384 2039583
0.79228991 -0.87536883 2.6161418 2960685
0.80519003 -0.87520045 2.6406879 2960685
0.79263824 -0.82515204 2.6172924 2960685
0.80554223 -0.82523704 2.6418424 2960685
0.79298663 -0.77489138 2.6184433 2960685
0.80589479 -0.77522981 2.6429987 2960685
0.7914483 -0.72355849 2.6160147 2960685
0.80624735 -0.72517878 2.6441555 2960685
0.79102749 -0.67461479 2.6156886 2960685
0.80504382 -0.67882299 2.6423156 2960685
0.79148245 -0.62449253 2.6170411 2960685
0.80434328 -0.62486875 2.641506 2960685
0.79182565 -0.57486784 2.618175 2960685
0.80469495 -0.57478029 2.6426618 2960685
0.79199463 -0.52571452 2.6189737 2960685
0.80464464 -0.52284068 2.64307 2960685
0.78987795 -0.47532937 2.6154361 2960685
0.8028031 -0.47467685 2.6400335 2960685
0.79029751 -0.42495373 2.6167231 2960685
0.80315405 -0.42455062 2.6411879 2960685
0.79064286 -0.37488842 2.6178663 2960685
0.80344409 -0.3749238 2.642221 2960685
0.79018486 -0.32360312 2.6174924 2960685
0.80384916 -0.32526067 2.6434748 2960685
0.78879356 -0.27520159 2.615315 2960685
0.80400962 -0.27649602 2.6442528 2960685
0.78910959 -0.22518699 2.6164021 2960685
0.80195582 -0.22428322 2.6408515 2960685
0.78948098 -0.17513195 2.6175942 2960685
0.80229878 -0.17512493 2.6419816 2960685
0.78974319 -0.1250339 2.6185801 2960685
0.80264235 -0.1259243 2.6431127 2960685
0.79016942 -0.074889682 2.6198778 2960685
0.80299371 -0.07558693 2.6442699 2960685
0.79051244 -0.024972854 2.6210144 2960685
0.80334538 -0.025205454 2.6454277 2960685
0.79085565 0.024987314 2.6221521 3881787
0.80369753 0.025220174 2.6465871 3881787
-1.1067554 0.099422291 2.6371815 2894892
-1.0747079 0.099490158 2.6389813 2894892
-1.0254891 0.099594362 2.6417449 2894892
-0.97509331 0.099701039 2.6445754 2894892
-0.92459023 0.099807955 2.6474113 2894892
-0.88906908 0.099883154 2.649406 2894892
0.79119891 0.074990876 2.6232913 10132122
0.80404979 0.075690016 2.6477473 10132122
-0.86086535 0.10020097 2.6006775 2894892
-0.82485813 0.10027738 2.6026609 2894892
-0.77499706 0.1003832 2.605408 2894892
-0.72503114 0.10048927 2.6081612 2894892
-0.674959 0.10059556 2.6109192 2894892
-0.62478161 0.10070205 2.6136837 2894892
-0.57556838 0.10080652 2.6163948 2894892
-0.52517933 0.10091346 2.6191704 2894892
-0.4746843 0.10102069 2.6219535 2894892
-0.42515907 0.10112583 2.6246827 2894892
-0.37553066 0.10123118 2.6274166 2894892
-0.32579869 0.10133673 2.6301556 2894892
-0.27596286 0.10144252 2.6329017 2894892
-0.22602294 0.10154852 2.6356528 2894892
-0.17597854 0.10165472 2.6384101 2894892
-0.12582931 0.10176118 2.6411724 2894892
-0.075574972 0.10186784 2.6439407 2894892
-0.025215151 0.10197473 2.6467149 2894892
0.025628565 0.10219614 2.6273901 2894892
0.074407719 0.10243957 2.6028054 2894892
0.12413815 0.1025454 2.6054945 2894892
0.17397144 0.10265141 2.6081884 2894892
0.22499496 0.10275999 2.6109469 2894892
0.27503636 0.10286646 2.6136522 2894892
0.32409146 0.10297085 2.6163044 2894892
0.37433931 0.10307776 2.6190214 2894892
0.42469165 0.10318491 2.6217437 2894892
0.47514877 0.10329227 2.6244712 8289918
0.51690745 0.10338111 2.6267285 10197915
0.79138583 0.10218315 2.6239104 10197915
0.82480413 0.10395127 2.6436393 10197915
0.83613062 -1.2036444 2.6963675 11711154
1.4655796 -1.2026734 2.6941922 2039583
0.82716924 -1.1743454 2.6796026 11711154
1.4767509 -1.1748501 2.6884282 2039583
1.5236121 -1.1709148 2.6638129 2039583
0.82351232 -1.1235999 2.6731374 11711154
1.4769617 -1.1250879 2.6885097 2039583
1.5248319 -1.1250464 2.6633482 2039583
0.82212538 -1.0749764 2.6709702 11711154
1.4778836 -1.0750742 2.6882184 2039583
1.5249802 -1.0750498 2.6634643 2039583
0.82262659 -1.0251868 2.6724072 9408399
1.4779509 -1.0250154 2.6883764 2039583
1.5250297 -1.0249736 2.6636307 2039583
0.82298863 -0.97490877 2.6735842 2960685
1.4780681 -0.97499603 2.6885087 2039583
1.5251671 -0.97489172 2.6637521 2039583
1.5513078 -0.96613646 2.6500459 2039583
0.82330251 -0.92480791 2.6746669 2960685
1.4781253 -0.93574065 2.6886292 2039583
1.5252429 -0.93557215 2.6638634 2039583
1.5513591 -0.93652451 2.6501336 2039583
0.82366359 -0.87488467 2.6758385 2960685
0.82397568 -0.82491493 2.6769173 2960685
0.82438433 -0.77490169 2.6781807 2960685
0.82385099 -0.72610104 2.6776392 2960685
0.82036334 -0.67401206 2.6715093 2960685
0.82007426 -0.62511498 2.6714346 2960685
0.82052982 -0.57467246 2.6727901 2960685
0.82074565 -0.52462685 2.6736863 2960685
0.82138515 -0.47498852 2.6753848 2960685
0.82145965 -0.42508331 2.6760113 2960685
0.82186449 -0.37512943 2.6772666 2960685
0.82231766 -0.3251369 2.6786134 2960685
0.82062876 -0.27567777 2.6758807 2960685
0.81766647 -0.22505282 2.6707356 2960685
0.81807065 -0.17489503 2.6719913 2960685
0.81828701 -0.12469468 2.6728899 2960685
0.81892449 -0.074887954 2.674587 2960685
0.81899595 -0.025055174 2.6752059 2960685
0.81935251 0.025069717 2.6763713 3750201
-1.1182857 0.099131092 2.6885462 2894892
-1.075816 0.09922076 2.6909783 2894892
-1.0256275 0.099326737 2.6938517 2894892
-0.97533184 0.099432915 2.6967318 2894892
-0.93370461 0.099520802 2.6991155 2894892
-0.86427718 0.099935658 2.6507978 2894892
-0.84161979 0.099983618 2.6520703 2894892
0.81999159 0.074989095 2.6780715 10132122
-0.81677735 0.10003621 2.6534657 2894892
-0.77567548 0.10012323 2.6557739 2894892
-0.72582799 0.10022876 2.6585732 2894892
-0.67587531 0.10033451 2.6613774 2894892
-0.62581706 0.10044049 2.6641891 2894892
-0.57565296 0.1005467 2.667006 2894892
-0.52538276 0.10065313 2.6698289 2894892
-0.47500619 0.10075984 2.6726601 2894892
-0.42452249 0.1008667 2.6754944 2894892
-0.37503287 0.10097149 2.6782739 2894892
-0.32543954 0.10107648 2.6810586 2894892
-0.27463788 0.10118403 2.6839113 2894892
-0.22483622 0.10128947 2.6867082 2894892
-0.17492989 0.10139511 2.6895108 2894892
-0.12492013 0.10150099 2.6923189 2894892
-0.074805044 0.10160708 2.6951332 2894892
-0.024585871 0.10171341 2.6979532 2894892
0.027311144 0.10197672 2.6709569 2894892
0.074721314 0.10218684 2.6522207 2894892
0.12429479 0.10229206 2.6549511 2894892
0.17507516 0.10239983 2.6577489 2894892
0.22485486 0.1025055 2.6604917 2894892
0.27473816 0.10261138 2.6632392 2894892
0.32472384 0.10271749 2.665993 2894892
0.3748138 0.10282379 2.6687527 2894892
0.42500684 0.10293031 2.6715174 2894892
0.47530463 0.1030371 2.6742883 6974058
0.52234167 0.10313693 2.6768794 10197915
0.82967335 0.10289416 2.6857367 10197915
0.85872459 0.10385092 2.695411 10197915
0.84634149 -1.2074087 2.7157578 11711154
0.85705924 -1.2116455 2.7361085 11711154
1.3787502 -1.2129306 2.7397897 2039583
1.4218258 -1.2078735 2.71717 2039583
1.4524879 -1.2040656 2.7010679 2039583
0.84522808 -1.173309 2.7139699 11711154
0.85708374 -1.174513 2.7365153 11711154
1.3800138 -1.1749876 2.7392735 2039583
1.4253616 -1.1750568 2.7154381 2039583
1.4525352 -1.175009 2.7011549 2039583
0.84348422 -1.1251006 2.7111208 11711154
0.85745531 -1.1251174 2.7377019 11711154
1.380035 -1.1250137 2.7394555 2039583
1.4250165 -1.1253476 2.7158115 2039583
1.4521456 -1.122268 2.7015646 2039583
0.84401739 -1.0750413 2.7126215 11711154
0.85776901 -1.0751094 2.7387841 11711154
1.380131 -1.0750338 2.7395988 2039583
1.4245905 -1.0750967 2.7162302 2039583
1.4527352 -1.0749774 2.7014377 2039583
0.84413803 -1.0252725 2.7133334 7105644
0.85809457 -1.0240123 2.7398996 5526612
1.3802131 -1.0249969 2.739748 2039583
1.4247268 -1.0249996 2.716351 2039583
1.4527483 -1.0249437 2.7016232 2039583
0.84197843 -0.97493744 2.7097135 2960685
0.8557902 -0.97478706 2.7359931 2960685
1.3802668 -0.9750576 2.7399144 2039583
1.4247593 -0.97501522 2.7165279 2039583
1.4528584 -0.97491533 2.7017584 2039583
0.84222627 -0.92482173 2.7106712 2960685
0.85608077 -0.92494363 2.7370291 2960685
1.380486 -0.93608427 2.7399497 2039583
1.4249244 -0.9359085 2.7165914 2039583
1.4529222 -0.93578064 2.7018766 2039583
0.84271824 -0.87467086 2.7120938 2960685
0.856538 -0.87505144 2.738384 2960685
0.84296638 -0.82447571 2.7130532 2960685
0.85513473 -0.82730579 2.7361774 2960685
0.84339386 -0.77479178 2.7143481 2960685
0.85442138 -0.77458519 2.7353323 2960685
0.84246075 -0.72260898 2.7130802 2960685
0.85485786 -0.72446924 2.736649 2960685
0.84131211 -0.67475414 2.7113588 2960685
0.8552286 -0.67487615 2.7378352 2960685
0.84175992 -0.62484598 2.7126961 2960685
0.85559964 -0.62524015 2.739023 2960685
0.84204262 -0.57526231 2.7137148 2960685
0.8559708 -0.57556105 2.7402115 2960685
0.84257525 -0.52491665 2.7152169 2960685
0.85634214 -0.52583879 2.7414007 2960685
0.84286255 -0.47487295 2.7162488 2960685
0.85665607 -0.4755007 2.7424862 2960685
0.84314603 -0.42516801 2.7172706 2960685
0.85709476 -0.42513427 2.7438104 2960685
0.84359628 -0.37504965 2.7186136 2960685
0.85567886 -0.37839878 2.7415698 2960685
0.84396267 -0.32525861 2.7197938 2960685
0.85504049 -0.3247546 2.7408755 2960685
0.84228677 -0.2741054 2.7171021 2960685
0.85496235 -0.27294138 2.74123 2960685
0.83913255 -0.22505714 2.7115767 2960685
0.85300153 -0.22459111 2.7379682 2960685
0.83966166 -0.17495365 2.7130697 2960685
0.85337144 -0.17475733 2.7391562 2960685
0.83994609 -0.12480576 2.7140982 2960685
0.85374182 -0.12488031 2.7403448 2960685
0.84023118 -0.074622609 2.7151279 2960685
0.85411245 -0.074959993 2.7415345 2960685
0.84067714 -0.024756961 2.7164598 2960685
0.8544836 -0.024996312 2.7427251 2960685
0.84103882 0.024771156 2.7176292 3618615
0.85485476 0.025010793 2.743917 3618615
-1.1535602 0.098779276 2.7405906 2894892
-1.1247264 0.098839991 2.742275 2894892
-1.0747451 0.098945215 2.7451947 2894892
-1.0246578 0.099050686 2.7481208 2894892
-0.99678928 0.099109352 2.7497482 2894892
-0.90847313 0.099574089 2.7005608 2894892
-0.87441695 0.099645995 2.7025108 2894892
-0.82489914 0.099750541 2.7053461 2894892
-0.7752766 0.099855319 2.7081878 2894892
-0.72886992 0.099953294 2.7108452 2894892
0.84132242 0.074723162 2.7186525 10132122
0.85308397 0.072351485 2.7410078 10132122
-0.7034201 0.10000703 2.7123024 2894892
-0.67461061 0.10006785 2.7139525 2894892
-0.62467158 0.10017331 2.7168124 2894892
-0.57462811 0.10027897 2.7196779 2894892
-0.52559406 0.10038252 2.722486 2894892
-0.4753406 0.10048867 2.7253649 2894892
-0.4249813 0.100595 2.7282491 2894892
-0.37563756 0.10069918 2.7310743 2894892
-0.32506618 0.10080597 2.7339706 2894892
-0.27438825 0.10091296 2.7368722 2894892
-0.22473192 0.10101779 2.7397161 2894892
-0.17497234 0.10112286 2.7425652 2894892
-0.12510909 0.10122814 2.7454205 2894892
-0.075141951 0.10133365 2.7482817 2894892
-0.047847539 0.10139127 2.7498448 2894892
0.030215628 0.10182942 2.7010305 2894892
0.075047784 0.10192434 2.7035482 2894892
0.12558122 0.10203131 2.7063859 2894892
0.17509474 0.10213614 2.7091665 2894892
0.22471012 0.10224118 2.7119524 2894892
0.27442768 0.10234643 2.7147441 2894892
0.3242476 0.10245191 2.7175422 2894892
0.37417042 0.10255758 2.720345 2894892
0.42419627 0.10266351 2.7231545 2894892
0.47432563 0.10276964 2.7259696 5526612
0.52455866 0.10287598 2.7287905 10197915
0.55199802 0.10293405 2.7303307 10197915
0.84269553 0.10169914 2.7215271 10197915
0.8673858 0.1034031 2.7470744 10197915
1.268061 -1.2506754 2.7978263 2039583
0.87795925 -1.2207432 2.7757852 11711154
1.2817457 -1.2240876 2.7907362 2039583
1.3233664 -1.2194476 2.7688775 2039583
1.3546205 -1.2157521 2.7524636 2039583
0.87703288 -1.1746789 2.7744699 11711154
1.2821505 -1.1750177 2.7907133 2039583
1.3246498 -1.1750197 2.7683742 2039583
1.3547367 -1.1749431 2.7525606 2039583
0.87741846 -1.1245979 2.7756879 11711154
1.2822583 -1.1250618 2.7908494 2039583
1.3247553 -1.1250867 2.768513 2039583
1.3547916 -1.1250204 2.7527249 2039583
0.87769604 -1.0747006 2.7767012 11513775
1.2823656 -1.0750988 2.7909863 2039583
1.3248438 -1.0751045 2.7686584 2039583
1.3548881 -1.0750915 2.752867 2039583
0.87640542 -1.0262742 2.7747164 3684408
1.2828218 -1.0253446 2.7909405 2039583
1.3248616 -1.0250334 2.7688422 2039583
1.3549635 -1.0249678 2.7530208 2039583
0.8756693 -0.97503889 2.7738121 2960685
1.2834342 -0.97500616 2.7908115 2039583
1.3249551 -0.97495484 2.7689867 2039583
1.3550318 -0.97502822 2.7531776 2039583
0.87601912 -0.92516994 2.7749617 2960685
1.2834514 -0.93624842 2.7909529 2039583
1.3250688 -0.93603432 2.769079 2039583
1.355231 -0.935938 2.7532244 2039583
0.87643486 -0.87525314 2.7762377 2960685
0.87462932 -0.82395184 2.7732999 2960685
0.87423795 -0.77503502 2.7730308 2960685
0.87472612 -0.72502822 2.7744441 2960685
0.87510931 -0.67497885 2.7756593 2960685
0.87532842 -0.62535447 2.7765579 2960685
0.87444508 -0.57686311 2.775347 2960685
0.87336618 -0.52514875 2.7737958 2960685
0.87364829 -0.4750801 2.7748199 2960685
0.87409437 -0.42525995 2.7761517 2960685
0.87220991 -0.37433183 2.773062 2960685
0.87193406 -0.32536027 2.7730114 2960685
0.8724193 -0.27538759 2.7744203 2960685
0.87274885 -0.2251431 2.7755339 2960685
0.87307632 -0.17508568 2.7766423 2960685
0.87244767 -0.12635823 2.7759197 2960685
0.8709299 -0.075271428 2.7735276 2960685
0.87144107 -0.025290305 2.774986 2960685
0.87182409 0.025305128 2.776206 3618615
-1.1653693 0.098465756 2.7961719 2894892
-1.1257719 0.098548889 2.7985325 2894892
-0.97223109 0.099161059 2.7511833 2894892
-0.92528021 0.099259913 2.7539256 2894892
-0.87487388 0.099366046 2.7568705 2894892
-0.82548273 0.099470027 2.7597558 2894892
-0.77486151 0.09957663 2.762713 2894892
-0.72413272 0.099683426 2.7656763 2894892
-0.67442542 0.099788092 2.7685797 2894892
-0.6246137 0.099892966 2.7714899 2894892
