# .PCD v0.7 - Point Cloud Data file format
VERSION 0.7
FIELDS x y z rgb
SIZE 4 4 4 4
TYPE F F F U
COUNT 1 1 1 1
WIDTH 1163
HEIGHT 1
VIEWPOINT 0 0 0 1 0 0 0
POINTS 1163
DATA ascii
-0.40065846 -0.32498291 0.90130752 2894892
-0.3904683 -0.32499969 0.92585468 2894892
-0.4006511 -0.27494228 0.90129149 2894892
-0.39046398 -0.2750133 0.92583084 2894892
-0.40064597 -0.2250281 0.90126991 2894892
-0.39045441 -0.22499898 0.92581975 2894892
-0.40063679 -0.17511553 0.90125811 2894892
-0.39045149 -0.17499314 0.92578715 2894892
-0.40062946 -0.12508029 0.90124184 2894892
-0.39043841 -0.12499724 0.92579097 2894892
-0.40062231 -0.075046837 0.90122575 2894892
-0.39043948 -0.075010441 0.92575592 2894892
-0.40061483 -0.025015214 0.90120882 2894892
-0.39042857 -0.025018269 0.92575073 2894892
-0.40060768 0.025014592 0.90119231 2894892
-0.39042303 0.025017673 0.92573202 2894892
-0.40060034 0.075042583 0.90117598 8947848
-0.39042225 0.075020663 0.9257009 8684676
-0.40059578 0.10677586 0.90116578 10197915
-0.38410503 0.1088522 0.92474455 10197915
-0.3248238 0.11333094 0.92417967 10197915
-0.27495405 0.11325186 0.92352521 10197915
-0.22500987 0.11317258 0.92289442 10197915
-0.17503969 0.11309328 0.92224419 10197915
-0.12477243 0.11300458 0.92436033 10197915
-0.075417176 0.11292373 0.9245047 10197915
-0.024998054 0.11283546 0.92639059 10197915
0.025022497 0.11275603 0.92575669 10197915
0.075019188 0.11267704 0.92501146 10197915
0.12499374 0.11259726 0.92451876 10197915
0.17499349 0.11251823 0.9237811 10197915
0.22501834 0.11243889 0.92313612 10197915
0.27506745 0.11235949 0.92249018 10197915
0.32565004 0.11227649 0.92267823 10197915
0.37503231 0.11219078 0.92430913 10197915
0.42503336 0.11210167 0.92667288 10197915
0.47498941 0.11202249 0.92600542 10197915
0.5250178 0.11194313 0.92535633 10197915
0.57502246 0.11186387 0.92470056 10197915
0.62495667 0.11178465 0.9240464 10197915
0.67491561 0.11170536 0.92341614 10197915
0.71854234 0.11162161 0.92732525 10197915
0.75046974 0.11151402 0.94445705 10197915
-0.36919191 -0.41861451 0.9771772 2894892
-0.37025222 -0.37499723 0.97458982 2894892
-0.37024239 -0.32499042 0.97457629 2894892
-0.37023786 -0.27499411 0.97455627 2894892
-0.37022907 -0.22499914 0.97454453 2894892
-0.37022683 -0.17499845 0.97451311 2894892
-0.37021661 -0.12499882 0.97450793 2894892
-0.37021819 -0.075001299 0.97447264 2894892
-0.37019899 -0.024997856 0.97448623 2894892
-0.37019175 0.024997225 0.9744699 2894892
-0.37019631 0.075005189 0.97442555 8289918
-0.36850393 0.10785989 0.97340137 10197915
-0.32418111 0.11316616 0.97462487 10197915
-0.27499214 0.11308528 0.97487456 10197915
-0.22500612 0.11300629 0.97414404 10197915
-0.17503957 0.11292689 0.97351664 10197915
-0.12534495 0.11283842 0.97587013 10197915
-0.075001389 0.11275744 0.97552633 10197915
-0.024985384 0.11267817 0.97485715 10197915
0.025019608 0.11259887 0.97418797 10197915
0.07501024 0.11252008 0.97337741 10197915
0.12498879 0.11244052 0.97284931 10197915
0.17579472 0.11235419 0.97391331 10197915
0.22499368 0.11227108 0.97485018 10197915
0.27502882 0.11219195 0.97414291 10197915
0.32446933 0.11211145 0.97414225 10197915
0.3750608 0.11202231 0.9762153 10197915
0.42502362 0.11194339 0.97544771 10197915
0.47503072 0.11186395 0.97483552 10197915
0.52496624 0.11178513 0.9740842 10197915
0.57500291 0.11170574 0.97342676 10197915
0.62502563 0.11162673 0.97268772 10197915
0.6757257 0.11154233 0.97325784 10197915
0.72502345 0.11145697 0.97481209 10197915
0.76552337 0.11136764 0.98203713 10197915
-0.3525607 -0.45256117 1.0172673 2894892
-0.34391153 -0.45723176 1.0381076 2894892
-0.35492265 -0.4248285 1.0115595 2894892
-0.34470439 -0.42498004 1.0361736 2894892
-0.35493124 -0.37498987 1.0115024 2894892
-0.34470591 -0.37499148 1.0361372 2894892
-0.35492656 -0.32499722 1.0114781 2894892
-0.34469172 -0.325023 1.0361392 2894892
-0.3549194 -0.27500671 1.0114635 2894892
-0.34469193 -0.27501848 1.0361048 2894892
-0.35492137 -0.22499804 1.0114284 2894892
-0.34467381 -0.22499752 1.0361158 2894892
-0.35490552 -0.17499048 1.0114332 2894892
-0.34468016 -0.17501572 1.0360638 2894892
-0.35490727 -0.12498537 1.0113945 2894892
-0.34466302 -0.12501687 1.0360715 2894892
-0.35489419 -0.07496202 1.0113869 2894892
-0.34455836 -0.074769035 1.0362908 2894892
-0.35489058 -0.024980729 1.0113602 2894892
-0.34441856 -0.025033982 1.0365942 2894892
-0.35488501 0.024980143 1.0113448 2894892
-0.34441257 0.025033383 1.0365747 2894892
-0.35487697 0.074957743 1.0113345 7895160
-0.34440771 0.075025439 1.0365492 7697781
-0.35477236 0.10698546 1.0109335 10197915
-0.33472633 0.10967564 1.0300908 10197915
-0.27502424 0.1129236 1.0247312 10197915
-0.22491406 0.11284444 1.02397 10197915
-0.17405103 0.11275934 1.0246729 10197915
-0.12494666 0.11267427 1.0262492 10197915
-0.074965104 0.11259493 1.0256016 10197915
-0.024993585 0.11251584 1.0248828 10197915
0.025030749 0.11243667 1.0241802 10197915
0.075043432 0.11235802 1.0233146 10197915
0.12498664 0.1122786 1.0227404 10197915
0.1740251 0.11219517 1.023832 10197915
0.22506292 0.11210833 1.024987 10197915
0.2750484 0.1120291 1.0243179 10197915
0.32489288 0.11195026 1.0235966 10197915
0.375653 0.11186174 1.0254053 10197915
0.42495522 0.1117796 1.025978 10197915
0.47501266 0.11170095 1.0250883 10197915
0.52506131 0.11162154 1.0244538 10197915
0.57503778 0.11154245 1.0237448 10197915
0.62494397 0.11146359 1.0230042 10197915
0.67415684 0.11138202 1.0234404 10197915
0.72503024 0.11129291 1.0253791 10197915
0.77488774 0.11121433 1.0245672 10197915
0.81074518 0.11112826 1.0331045 10197915
-0.33660662 -0.46120009 1.0557088 2960685
-0.33669493 -0.42506844 1.0554717 2894892
-0.33669198 -0.37503767 1.0554444 2894892
-0.33668125 -0.32496563 1.0554365 2894892
-0.33656374 -0.2743513 1.0556848 2894892
-0.33642444 -0.22498564 1.0559883 2894892
-0.33642 -0.17499021 1.0559651 2894892
-0.33641124 -0.12499658 1.0559517 2894892
-0.33630612 -0.075569332 1.0561717 2894892
-0.33614758 -0.024949154 1.0565181 2894892
-0.33614179 0.024948537 1.0565003 2894892
-0.33594435 0.07538458 1.056941 7566195
-0.32551616 0.11037759 1.0668758 10197915
-0.27497515 0.11277116 1.0716846 10197915
-0.22474104 0.1126908 1.0712391 10197915
-0.17586991 0.11259742 1.0754985 10197915
-0.12501109 0.11250771 1.077617 10197915
-0.074955575 0.1124283 1.0769579 10197915
-0.024969956 0.11234955 1.0761274 10197915
0.024946593 0.11227072 1.0753722 10197915
0.075013973 0.11219171 1.0745803 10197915
0.12508585 0.11211243 1.073895 10197915
0.17501274 0.11203358 1.0731523 10197915
0.22501703 0.11195485 1.0723113 10197915
0.27495116 0.11187571 1.0716398 10197915
0.32488772 0.11179689 1.0708623 10197915
0.37454832 0.11169836 1.0763081 10197915
0.42501494 0.11161198 1.0776162 10197915
0.47490558 0.11153289 1.0769439 10197915
0.52494586 0.11145421 1.0760823 10197915
0.57498986 0.11137508 1.0753579 10197915
0.62496185 0.11129627 1.0745568 10197915
0.67493749 0.11121721 1.0738459 10197915
0.72498959 0.11113851 1.0729846 10197915
0.77489525 0.11105943 1.07231 10197915
0.82328838 0.11097846 1.0729791 10197915
0.85725367 0.11087801 1.08688 10197915
-0.35341075 0.11267791 1.1397849 10197915
-0.3244206 0.11268066 1.1243912 10197915
-0.27507713 0.11260441 1.1231208 10197915
-0.22535077 0.11252515 1.122601 10197915
-0.1750419 0.11243198 1.1260604 10197915
-0.12494311 0.11235285 1.1253009 10197915
-0.075007722 0.11227391 1.1245464 10197915
-0.02504961 0.11219534 1.1236899 10197915
0.025026107 0.11211637 1.1228989 10197915
0.075988375 0.11202535 1.1253769 10197915
0.12507842 0.11194392 1.1258402 10197915
0.17501926 0.11186516 1.1250474 10197915
0.22496709 0.11178643 1.1242434 10197915
0.27499869 0.11170731 1.1235191 10197915
0.32503697 0.11162837 1.1227262 10197915
0.37455335 0.11153793 1.1257557 10197915
0.42511553 0.1114558 1.1256943 10197915
0.47505075 0.11137728 1.1248318 10197915
0.52500904 0.1112985 1.1240373 10197915
0.57498837 0.11121961 1.1232755 10197915
0.62489742 0.11114092 1.1224813 10197915
0.67506218 0.11104776 1.1260077 10197915
0.72494334 0.11096818 1.1254957 10197915
0.77482712 0.11088978 1.1246281 10197915
0.82487124 0.11081078 1.1238592 10197915
0.87138867 0.11072639 1.1265221 10197915
0.90483731 0.11061682 1.1435038 10197915
-0.35966569 0.11255912 1.1795474 10197915
-0.32488289 0.11251491 1.1757087 10197915
-0.27500999 0.11243663 1.1748109 10197915
-0.22500989 0.1123575 1.1741049 10197915
-0.17498294 0.11227883 1.1732416 10197915
-0.12502611 0.11219995 1.1724579 10197915
-0.075041138 0.11212166 1.1714826 10197915
-0.025031505 0.11204243 1.1708121 10197915
0.026069755 0.11195493 1.1721362 10197915
0.073912382 0.11186066 1.1771779 10197915
0.12494954 0.11177456 1.1780941 10197915
0.17500331 0.11169562 1.177305 10197915
0.22508271 0.11161676 1.1764717 10197915
0.27499434 0.11153793 1.1757219 10197915
0.32512578 0.11145911 1.1748519 10197915
0.37509221 0.11138057 1.1739819 10197915
0.42488873 0.11130215 1.1731591 10197915
0.47500324 0.11122312 1.1723646 10197915
0.52504492 0.11114434 1.1715337 10197915
0.57501626 0.11106564 1.1707051 10197915
0.62567353 0.11098231 1.1709569 10197915
0.67483622 0.11087689 1.1787827 10197915
0.72510862 0.11079741 1.1780471 10197915
0.77483267 0.11071865 1.1773705 10197915
0.82477909 0.11064027 1.176459 10197915
0.87494063 0.11056107 1.1756974 10197915
0.91894656 0.11047725 1.1794345 10197915
-0.36705923 0.11240935 1.2294068 10197915
-0.32494816 0.11234843 1.2270458 10197915
-0.274937 0.1122698 1.2261877 10197915
-0.22489189 0.11219092 1.2253714 10197915
-0.17491871 0.11211237 1.2245136 10197915
-0.12501447 0.11203381 1.2236546 10197915
-0.075078733 0.11195539 1.2227539 10197915
-0.025011605 0.11187637 1.2219821 10197915
0.023686176 0.11179379 1.2229984 10197915
0.075014263 0.1117021 1.2254888 10197915
0.12506615 0.11162314 1.224708 10197915
0.17504613 0.11154445 1.2238729 10197915
0.22520176 0.11146515 1.2231442 10197915
0.27501458 0.11136986 1.2275152 10197915
0.32492843 0.1112918 1.2265192 10197915
0.37497082 0.11121228 1.2259141 10197915
0.42504734 0.11113382 1.224959 10197915
0.47505003 0.11105591 1.2238756 10197915
0.52498335 0.11097671 1.2232276 10197915
0.5749467 0.11089843 1.2222763 10197915
0.62408948 0.11081816 1.2223545 10197915
0.67487901 0.11072392 1.2259051 10197915
0.72489929 0.11064495 1.2251425 10197915
0.77472442 0.11056673 1.2242482 10197915
0.82485598 0.11048792 1.2233775 10197915
0.87635106 0.11040088 1.2243599 10197915
0.92499912 0.11031268 1.2271171 10197915
0.96548784 0.11022552 1.233673 10197915
-0.4024215 0.11225924 1.2934296 10197915
-0.37449253 0.11226372 1.2780293 10197915
-0.32491603 0.11218549 1.2772611 10197915
-0.27498165 0.11210649 1.2765535 10197915
-0.22498509 0.11202866 1.2754439 10197915
-0.17492448 0.1119496 1.2746725 10197915
-0.12480281 0.11187091 1.2737446 10197915
-0.074882492 0.11179273 1.272789 10197915
-0.025033819 0.11171423 1.2719609 10197915
0.025010349 0.11163562 1.2710662 10197915
0.075837389 0.11154003 1.2750245 10197915
0.12497983 0.11146026 1.2749377 10197915
0.17503941 0.11138104 1.2742355 10197915
0.22492702 0.11130239 1.2734365 10197915
0.27496624 0.11120569 1.2781327 10197915
0.32477859 0.11112706 1.2773591 10197915
0.37491867 0.11104866 1.2763636 10197915
0.42511603 0.11096963 1.2755178 10197915
0.47498238 0.11089138 1.2746179 10197915
0.52503884 0.11081296 1.2736551 10197915
0.57515579 0.11073401 1.2728411 10197915
0.62494004 0.11065599 1.271912 10197915
0.67491424 0.1105774 1.2710427 10197915
0.72643524 0.11048488 1.2737049 10197915
0.77513152 0.11040082 1.2751622 10197915
0.82504237 0.11032315 1.2740619 10197915
0.87384474 0.11024122 1.274814 10197915
0.92499197 0.11014715 1.2781432 10197915
0.97500199 0.11006834 1.2773246 10197915
1.0112337 0.10998279 1.2855139 10197915
-0.40857825 0.11214715 1.3310578 10197915
-0.37506899 0.11210743 1.3264939 10197915
-0.32496792 0.11202871 1.3255987 10197915
-0.27507859 0.11195096 1.3245333 10197915
-0.22511803 0.11187226 1.3237115 10197915
-0.17509173 0.11179346 1.3228507 10197915
-0.12513559 0.11171532 1.3218545 10197915
-0.074974328 0.11163688 1.3208573 10197915
-0.024885358 0.11155812 1.3199944 10197915
0.02499924 0.11147978 1.319103 10197915
0.075393453 0.11137453 1.3262508 10197915
0.124915 0.11128238 1.3298063 10197915
0.17506066 0.11120386 1.3288321 10197915
0.22499923 0.11112577 1.3278283 10197915
0.27500337 0.11104707 1.3269947 10197915
0.32493776 0.1109689 1.3260244 10197915
0.37493974 0.11089076 1.3250208 10197915
0.4248684 0.11081226 1.3241525 10197915
0.47486547 0.11073378 1.323253 10197915
0.52506167 0.1106552 1.3222759 10197915
0.57505161 0.11057706 1.3212726 10197915
0.62510586 0.11049822 1.3204385 10197915
0.67509085 0.11042046 1.3193303 10197915
0.72310984 0.1103343 1.3217866 10197915
0.7763567 0.11022406 1.3290282 10197915
0.82524765 0.11014351 1.3293242 10197915
0.87501776 0.11006576 1.3283151 10197915
0.92512619 0.10998686 1.327473 10197915
0.97516125 0.10990857 1.3264894 10197915
1.0238725 0.10982849 1.3267285 10197915
1.0581503 0.10972912 1.3401513 10197915
-0.41415894 0.11200316 1.3782293 10197915
-0.3749398 0.11193828 1.3785532 10197915
-0.32502449 0.11186013 1.3775905 10197915
-0.27489489 0.11178186 1.3765486 10197915
-0.22483361 0.11170324 1.3756586 10197915
-0.17498656 0.11162494 1.3747349 10197915
-0.12492345 0.1115469 1.3736558 10197915
-0.074931622 0.11146802 1.3728837 10197915
-0.025010008 0.11139048 1.3717295 10197915
0.024986587 0.1113122 1.3707654 10197915
0.073322639 0.11122666 1.3728611 10197915
0.12518908 0.11113323 1.3756316 10197915
0.17502764 0.11105487 1.3747697 10197915
0.22517435 0.11097669 1.373696 10197915
0.27602232 0.11089316 1.3739183 10197915
0.32496622 0.11079859 1.3785081 10197915
0.37496245 0.11072035 1.3775342 10197915
0.42516765 0.11064149 1.3766356 10197915
0.47516361 0.11056313 1.3756979 10197915
0.52494514 0.11048517 1.3747307 10197915
0.57493907 0.11040746 1.3736017 10197915
0.62500376 0.1103287 1.372744 10197915
0.67499638 0.11025033 1.3718085 10197915
0.72492063 0.11017227 1.3707982 10197915
0.77376354 0.11008045 1.3746015 10197915
0.82523292 0.10999294 1.3757356 10197915
0.87495452 0.10991546 1.37466 10197915
0.92498022 0.10983719 1.3736809 10197915
0.97512406 0.10975871 1.3726996 10197915
1.0256892 0.10965906 1.378033 10197915
1.0720348 0.10957549 1.3805321 10197915
1.1056808 0.10946815 1.3967212 10197915
1.0483135 -0.62427872 1.4492704 2960685
1.0744312 -0.6217652 1.4383901 2960685
1.1132095 -0.61817551 1.4222356 2960685
1.0486127 -0.57682908 1.449332 2960685
1.0754368 -0.57498902 1.4381559 2960685
1.1136276 -0.57499462 1.4222305 2894892
1.0490006 -0.52480018 1.4493737 2960685
1.0755675 -0.52501726 1.4382962 2894892
1.1137304 -0.52500576 1.4223837 2894892
1.048767 -0.47681677 1.4496601 2894892
1.0749781 -0.47505537 1.4387385 2894892
1.1135341 -0.47486287 1.4226635 2894892
1.0491147 -0.42758659 1.4497083 2894892
1.0748622 -0.42500228 1.4389817 2894892
1.1135163 -0.4250119 1.4228665 2894892
1.0493281 -0.37480247 1.4498262 2894892
1.074977 -0.3749969 1.4391313 2894892
1.1136415 -0.37502128 1.4230108 2894892
1.0494183 -0.33338687 1.4499511 2894892
1.0750961 -0.32499257 1.4392776 2894892
1.1137635 -0.32502016 1.4231563 2894892
1.0751796 -0.27497649 1.4394394 2894892
1.1138411 -0.27498996 1.4233183 2894892
1.0753292 -0.2250161 1.4395729 2894892
1.113991 -0.22498803 1.4234533 2894892
1.0757818 -0.17508522 1.4395806 2894892
1.1141173 -0.1749935 1.423596 2894892
1.0760031 -0.12495508 1.4396843 2894892
1.114203 -0.12506562 1.4237574 2894892
1.0758651 -0.075177602 1.4399366 2894892
1.1139445 -0.074803509 1.4240608 2894892
1.0761584 -0.025055898 1.4400114 2894892
1.1140181 -0.02485629 1.4242262 2894892
1.0762715 0.025059393 1.4401621 2894892
1.1141332 0.024859697 1.4243727 2894892
1.0767937 0.074932776 1.4401386 4408131
1.1142269 0.074914664 1.4245309 4605510
-0.45099115 0.11185059 1.4437575 10197915
-0.42409745 0.11186606 1.4254823 10197915
-0.37496802 0.11177894 1.4276671 10197915
-0.32486075 0.11170099 1.426553 10197915
-0.27502531 0.11162306 1.4255551 10197915
-0.22505891 0.1115449 1.4245595 10197915
-0.17496794 0.11146612 1.4236718 10197915
-0.12514411 0.11138858 1.4225633 10197915
-0.074994318 0.11131018 1.421562 10197915
-0.023160502 0.1112167 1.4243631 10197915
0.025120255 0.11113 1.4268415 10197915
0.07501597 0.11105227 1.4257517 10197915
0.12484353 0.11097405 1.4248401 10197915
0.17489417 0.11089557 1.423921 10197915
0.2248742 0.11081772 1.4228321 10197915
0.27413166 0.11073863 1.4224942 10197915
0.32500643 0.11063764 1.4280857 10197915
0.37503266 0.11055945 1.4270762 10197915
0.42498508 0.11048138 1.4260688 10197915
0.47506559 0.11040311 1.4250584 10197915
0.52507341 0.11032458 1.4241649 10197915
0.57500887 0.11024688 1.4230418 10197915
0.62507194 0.110169 1.4219203 10197915
0.675255 0.11008984 1.421134 10197915
0.72660267 0.1099916 1.4256376 10197915
0.77527595 0.10991033 1.4262706 10197915
0.82521462 0.10983198 1.4253412 10197915
0.87507939 0.10975433 1.4242465 10197915
0.92502123 0.10967595 1.4233613 10197915
0.97489035 0.10959809 1.42231 10197915
1.0240967 0.10950128 1.4274559 10197915
1.0761195 0.10563293 1.4368612 10197915
1.113911 0.10522536 1.4237663 10197915
0.93738192 -0.65951246 1.4953849 2960685
0.97159582 -0.65632099 1.4811324 2960685
1.0128232 -0.65249848 1.4639573 2960685
0.93822491 -0.62523597 1.4951686 2960685
0.97482741 -0.62496662 1.479908 2960685
1.0231994 -0.62498164 1.4597393 2960685
0.93850398 -0.5750525 1.4952483 2960685
0.97494757 -0.57497621 1.4800529 2960685
1.0235589 -0.57489532 1.4597862 2960685
0.93859947 -0.5251171 1.495405 2960685
0.97504568 -0.52495092 1.4802094 2960685
1.0239156 -0.5250178 1.4598331 2960685
0.93917358 -0.47505128 1.4953617 2960685
0.97515559 -0.4749634 1.4803596 2960685
1.0240276 -0.47498751 1.459982 2894892
0.93927282 -0.42499927 1.4955176 2894892
0.97522807 -0.42499986 1.4805259 2894892
1.0245289 -0.42493808 1.4599696 2894892
0.93956667 -0.37528366 1.4955894 2894892
0.97534424 -0.37500256 1.4806728 2894892
1.0247048 -0.37499073 1.4600928 2894892
0.93995321 -0.32503295 1.4956244 2894892
0.97544026 -0.32500696 1.4808294 2894892
1.0249734 -0.32487574 1.4601758 2894892
0.94005394 -0.27499166 1.4957796 2894892
0.97554481 -0.27501267 1.4809821 2894892
1.0253614 -0.27500963 1.460211 2894892
0.94050777 -0.22519583 1.4957863 2894892
0.97525656 -0.22508742 1.4812983 2894892
1.0251309 -0.22490872 1.4605031 2894892
0.94029605 -0.17498313 1.4960707 2894892
0.97478759 -0.17501634 1.48169 2894892
1.0250942 -0.17496644 1.4607147 2894892
1.0506977 -0.17000973 1.4500591 2894892
0.94037962 -0.12529799 1.4962312 2894892
0.97487277 -0.12501313 1.4818507 2894892
1.0252345 -0.12498783 1.4608529 2894892
1.0507962 -0.12496559 1.4501944 2894892
0.94094449 -0.074968256 1.4961936 2894892
0.97502047 -0.075105049 1.4819849 2894892
1.0251858 -0.075008847 1.4610691 2894892
1.0508465 -0.068856671 1.4503936 2894892
0.94103181 -0.024796436 1.496354 2894892
0.97509444 -0.025105322 1.4821495 2894892
1.0249959 -0.024914414 1.4613445 2894892
1.0510136 -0.025238315 1.4504949 2894892
0.94135386 0.024444545 1.496412 2894892
0.97520655 0.025097096 1.4823011 2894892
1.0250939 0.024906322 1.4614991 2894892
1.0511241 0.025241848 1.4506474 2894892
0.94173962 0.074944325 1.4964501 3881787
0.97531551 0.075105622 1.482451 4013373
1.0252105 0.074893847 1.4616461 4210752
1.0515788 0.076572351 1.4506594 4408131
-0.45644951 0.11174843 1.4779683 10197915
-0.42487442 0.11171123 1.4735906 10197915
-0.37496263 0.11163373 1.4724345 10197915
-0.32511914 0.11155582 1.4714078 10197915
-0.27494076 0.11147751 1.4703773 10197915
-0.22482903 0.11139913 1.4693409 10197915
-0.17373012 0.11129951 1.4743913 10197915
-0.12497 0.11121829 1.4749526 10197915
-0.074961662 0.11113953 1.4741547 10197915
-0.026807206 0.1110554 1.4759119 10197915
0.024927933 0.11095875 1.4797055 10197915
0.075141743 0.11088033 1.478663 10197915
0.1252882 0.11080212 1.4776164 10197915
0.17515762 0.11072385 1.476707 10197915
0.22516169 0.11064673 1.4754119 10197915
0.27509317 0.11056789 1.4746265 10197915
0.32515863 0.11049021 1.4734586 10197915
0.37515637 0.11041164 1.4725435 10197915
0.42487413 0.1103349 1.4712551 10197915
0.47493279 0.11025642 1.4703416 10197915
0.52511746 0.11017805 1.4692966 10197915
0.57680935 0.11008366 1.4724439 10197915
0.62514377 0.1099965 1.4750609 10197915
0.67508119 0.10991885 1.473918 10197915
0.72323751 0.10982677 1.4781199 10197915
0.77510297 0.10973705 1.4797672 10197915
0.8251968 0.10965845 1.4788408 10197915
0.87480998 0.10958192 1.4775392 10197915
0.93307137 0.10714172 1.4864482 10197915
0.97467405 0.10552368 1.4802129 10197915
1.0245858 0.1049968 1.4616292 10197915
1.0517585 0.1045749 1.4506941 10197915
0.82774174 -0.66972929 1.5410601 2960685
0.87411791 -0.66544735 1.5217364 2960685
0.91265959 -0.66184068 1.5056835 2960685
0.82861006 -0.62499064 1.5408725 2960685
0.87544888 -0.62501287 1.5213437 2960685
0.91352326 -0.62480468 1.5054691 2960685
0.82896906 -0.5751527 1.5409185 2960685
0.8755427 -0.57498479 1.5215013 2960685
0.91378736 -0.5749917 1.5055549 2960685
0.82882762 -0.52504605 1.5411741 2960685
0.87517452 -0.52495372 1.5218512 2960685
0.91387963 -0.52496403 1.5057118 2960685
0.82886106 -0.47496518 1.5413569 2960685
0.87512869 -0.47507352 1.5220661 2960685
0.91436338 -0.47489998 1.5057069 2960685
0.82937145 -0.42509845 1.5413398 2960685
0.87479585 -0.4249841 1.5223993 2960685
0.91405421 -0.42502496 1.5060318 2960685
0.8295778 -0.37501025 1.5414497 2960685
0.87490445 -0.37499055 1.5225518 2894892
0.91436392 -0.37482685 1.5060991 2894892
0.8296392 -0.32505056 1.5416206 2894892
0.87497622 -0.32498649 1.5227166 2894892
0.9147495 -0.32500657 1.506134 2894892
0.83024436 -0.27503976 1.5415639 2894892
0.87507945 -0.27497306 1.5228711 2894892
0.91483688 -0.27501348 1.5062943 2894892
0.83035129 -0.22499633 1.5417175 2894892
0.87517983 -0.22498694 1.5230253 2894892
0.91531038 -0.22491817 1.5062928 2894892
0.83055764 -0.1751374 1.5418266 2894892
0.87520385 -0.17497793 1.5232109 2894892
0.9155311 -0.17506477 1.5063957 2894892
0.83103061 -0.12497196 1.5418253 2894892
0.87535661 -0.12499729 1.5233446 2894892
0.91572583 -0.12486095 1.5065123 2894892
0.83116454 -0.07488168 1.5419669 2894892
0.87535936 -0.075069599 1.5235384 2894892
0.91619384 -0.074895218 1.5065129 2894892
0.83148551 -0.025077419 1.5420288 2894892
0.8756023 -0.025057733 1.5236344 2894892
0.91628945 -0.024967361 1.5066694 2894892
0.83168477 0.024815192 1.5421407 2894892
0.87560612 0.025120487 1.523828 2894892
0.91662431 0.025160052 1.506726 2894892
0.83140868 0.074877113 1.5424517 3355443
0.87488055 0.074927635 1.5243272 3552822
0.91676062 0.075096987 1.5068659 3750201
-0.46383038 0.11160997 1.5243534 10197915
-0.42500991 0.11155669 1.5212965 10197915
-0.37495816 0.11147863 1.5202321 10197915
-0.32497281 0.11140067 1.5191697 10197915
-0.27506095 0.11132284 1.5181074 10197915
-0.22500558 0.11124419 1.5171801 10197915
-0.17587045 0.11112484 1.5293133 10197915
-0.12499713 0.11103448 1.5316291 10197915
-0.07503026 0.11095705 1.5304132 10197915
-0.0249252 0.11087895 1.5293359 10197915
0.02490193 0.11080127 1.5282649 10197915
0.074866377 0.11072341 1.527191 10197915
0.12497465 0.11064529 1.5261135 10197915
0.1750094 0.11056688 1.5251796 10197915
0.22497332 0.11048944 1.5239642 10197915
0.27487007 0.11041169 1.5228914 10197915
0.32511145 0.11033337 1.5218147 10197915
0.37528533 0.11025515 1.5207325 10197915
0.42517838 0.11017694 1.5197998 10197915
0.47520524 0.11009991 1.5184478 10197915
0.52516699 0.11002113 1.5176501 10197915
0.57385266 0.10993055 1.5211228 10197915
0.62501216 0.10981108 1.5322679 10197915
0.67509985 0.10973351 1.5310365 10197915
0.72490984 0.10965593 1.5299537 10197915
0.77506351 0.10957775 1.528867 10197915
0.82924759 0.10601827 1.5374727 10197915
0.87445658 0.10534681 1.5230905 10197915
0.91667187 0.10483511 1.5069488 10197915
0.69266814 -0.70742768 1.5972302 2960685
0.72048301 -0.70470798 1.5856446 2960685
0.75674558 -0.70130038 1.5705378 2960685
0.69340843 -0.67503828 1.5970492 2960685
0.72509581 -0.67499411 1.583837 2960685
0.77461171 -0.67424738 1.5631952 2960685
0.80330008 -0.67200428 1.551242 2960685
0.69347692 -0.62509376 1.5972164 2960685
0.72511941 -0.62500048 1.584024 2960685
0.77516645 -0.62498385 1.563156 2960685
0.80340594 -0.625045 1.5513818 2960685
0.69367653 -0.57543868 1.5973285 2960685
0.72523475 -0.57501101 1.5841719 2960685
0.77525365 -0.57498711 1.5633154 2960685
0.80378848 -0.5740993 1.551422 2960685
0.69418061 -0.5249474 1.5973165 2960685
0.72530031 -0.52502614 1.5843406 2960685
0.77535808 -0.52499199 1.5634688 2960685
0.80410618 -0.52504492 1.551482 2960685
0.6942634 -0.47494432 1.5974774 2960685
0.72536588 -0.47504535 1.5845091 2960685
0.77538848 -0.47500092 1.5636519 2960685
0.80417806 -0.47505048 1.5516484 2960685
0.69452959 -0.42555356 1.5975606 2960685
0.72544974 -0.42502451 1.5846711 2960685
0.77504158 -0.42507714 1.5639935 2960685
0.80425006 -0.42415345 1.5518185 2960685
0.69477141 -0.3755576 1.5976559 2960685
0.72533035 -0.37489218 1.5849158 2960685
0.775024 -0.37500882 1.5641972 2960685
0.80434459 -0.3748472 1.5519723 2960685
0.69445884 -0.32497993 1.5979846 2960685
0.72502542 -0.32500148 1.5852394 2960685
0.77510607 -0.3250041 1.564357 2960685
0.80444646 -0.32467014 1.5521263 2960685
0.69489604 -0.27581891 1.5979954 2960685
0.72514647 -0.27496061 1.5853864 2894892
0.77522302 -0.27501681 1.5645061 2894892
0.80503333 -0.2748839 1.5520768 2894892
0.6951673 -0.22510192 1.5980814 2894892
0.72516739 -0.2249669 1.5855727 2894892
0.77526641 -0.22501902 1.5646844 2894892
0.8051182 -0.22494568 1.5522377 2894892
0.69523978 -0.1748033 1.5982482 2894892
0.72528064 -0.17503317 1.5857227 2894892
0.77537876 -0.17495491 1.564833 2894892
0.80540884 -0.17459013 1.5523142 2894892
0.69573027 -0.125379 1.5982381 2894892
0.72503024 -0.1251605 1.5860234 2894892
0.77510983 -0.12484214 1.5651426 2894892
0.80584121 -0.1252915 1.5523272 2894892
0.69597006 -0.075207427 1.5983344 2894892
0.7248652 -0.074977525 1.586287 2894892
0.77483201 -0.075034067 1.5654539 2894892
0.80590266 -0.075251758 1.5524982 2894892
0.69601703 -0.025164837 1.5985111 2894892
0.72489047 -0.02497533 1.5864726 2894892
0.7751658 -0.025034694 1.5655109 2894892
0.80632335 -0.024573712 1.5525217 2894892
0.69665068 0.025164662 1.5984447 2894892
0.72496343 0.024978785 1.5866374 2894892
0.77524942 0.025024403 1.5656726 2894892
0.80659884 0.025086192 1.5526012 2894892
0.69674522 0.075173631 1.5986016 2960685
0.72506887 0.074972488 1.5867918 2960685
0.7750597 0.075030759 1.565948 3158064
0.80668306 0.075265534 1.5527637 3355443
-0.47151238 0.11145834 1.5749342 10197915
-0.42493761 0.11139098 1.5723315 10197915
-0.37517124 0.11131345 1.5712417 10197915
-0.32503453 0.11123537 1.5701398 10197915
-0.27496967 0.11115687 1.5691899 10197915
-0.22497801 0.1110795 1.5679393 10197915
-0.17583834 0.11097737 1.5747463 10197915
-0.124925 0.11089525 1.5745007 10197915
-0.07410793 0.11081246 1.5745153 10197915
-0.025115862 0.11071088 1.5812316 10197915
0.02509224 0.11063275 1.5801153 10197915
0.07501027 0.11055457 1.5791602 10197915
0.1248551 0.11047799 1.5777408 10197915
0.17485027 0.11039967 1.5767868 10197915
0.22499353 0.11032165 1.5756724 10197915
0.27506217 0.11024372 1.5745593 10197915
0.32527682 0.11016506 1.5735971 10197915
0.37542453 0.11008754 1.5723282 10197915
0.42528096 0.11000992 1.5712203 10197915
0.47507095 0.10993244 1.5701134 10197915
0.52478689 0.10985509 1.5690087 10197915
0.57372922 0.10977531 1.5690289 10197915
0.6250515 0.10967027 1.5756452 10197915
0.68302512 0.10789715 1.5834635 10000536
0.72508067 0.10555334 1.5841912 10197915
0.77510917 0.10506287 1.5656329 10197915
0.80689234 0.10493312 1.5527922 10197915
0.58275807 -0.71753353 1.6430194 2960685
0.62407666 -0.71370864 1.6258043 2960685
0.66708815 -0.70966673 1.6078877 2960685
0.5833261 -0.67495102 1.6429472 2960685
0.62555146 -0.67498779 1.6253394 2960685
0.66859722 -0.67504019 1.6073945 2960685
0.58391577 -0.62500173 1.6429 2960685
0.62561858 -0.62499058 1.6255105 2960685
0.66867399 -0.62501502 1.6075585 2960685
0.58398163 -0.57505172 1.6430668 2960685
0.62560922 -0.57495725 1.6257166 2960685
0.66885906 -0.57483 1.6076781 2960685
0.58350164 -0.524948 1.6434641 2960685
0.62511802 -0.5250439 1.6261097 2960685
0.66931581 -0.52494347 1.6076832 2960685
0.5841437 -0.47498679 1.6433928 2960685
0.62463492 -0.47496325 1.6265086 2960685
0.66886669 -0.47498327 1.6080663 2960685
0.58423096 -0.42504203 1.6435496 2960685
0.62472063 -0.42497087 1.6266733 2960685
0.66918486 -0.42478991 1.6081314 2960685
0.58432055 -0.3751021 1.6437109 2960685
0.62477714 -0.3749679 1.6268429 2960685
0.66955954 -0.37499923 1.6081699 2960685
0.58495241 -0.3250283 1.6436437 2960685
0.62483048 -0.32498571 1.6270162 2960685
0.66965485 -0.32500795 1.6083263 2960685
0.58498192 -0.27502126 1.6438285 2960685
0.62493062 -0.27499378 1.6271738 2960685
0.67009592 -0.27484751 1.6083405 2960685
0.58519655 -0.22515076 1.6439348 2960685
0.62498343 -0.22499099 1.6273482 2894892
0.67031866 -0.22502291 1.6084418 2894892
0.58574432 -0.17491786 1.6439011 2894892
0.62504917 -0.1750564 1.6275142 2894892
0.67040777 -0.17500997 1.6086012 2894892
0.58566523 -0.12487134 1.6441321 2894892
0.62512475 -0.12503308 1.6276741 2894892
0.67105663 -0.12487332 1.6085283 2894892
0.58607447 -0.075378388 1.6441547 2894892
0.62518507 -0.074937582 1.6278502 2894892
0.67094964 -0.074983761 1.6087679 2894892
0.58646727 -0.025202766 1.6441884 2894892
0.62518102 -0.024955342 1.6280458 2894892
0.67129928 -0.02500635 1.6088179 2894892
0.58652866 0.025206286 1.6443611 2894892
0.62524658 0.024958793 1.6282128 2894892
0.67193782 0.025014669 1.6087484 2894892
0.58688587 0.074866004 1.6444057 2960685
0.62536764 0.074946165 1.6283612 2960685
0.6717211 0.075005576 1.6090351 2894892
-0.50635898 0.11131483 1.6366547 10197915
-0.47529987 0.11129213 1.6280614 10197915
-0.42508677 0.11121406 1.6269234 10197915
-0.3749477 0.11113612 1.6257793 10197915
-0.32509944 0.11105807 1.6248171 10197915
-0.27510247 0.11098135 1.6233395 10197915
-0.22516915 0.1109026 1.6225423 10197915
-0.1750838 0.11082529 1.6212351 10197915
-0.12506819 0.11074809 1.619928 10197915
-0.075752258 0.11066864 1.6196563 10197915
-0.024947459 0.1105611 1.6273156 10197915
0.024924142 0.11048357 1.6261737 10197915
0.075058781 0.11040607 1.6249003 10197915
0.12512559 0.11032784 1.6238819 10197915
0.17512015 0.11025056 1.6226116 10197915
0.2268028 0.11016176 1.6240398 10197915
0.2750459 0.11006433 1.6298617 10197915
0.32478368 0.10998704 1.6287128 10197915
0.374679 0.1099095 1.6275687 10197915
0.42494678 0.10983142 1.6264127 10197915
0.47492415 0.10975375 1.6252632 10197915
0.52504963 0.10967587 1.6241097 10197915
0.58184487 0.10665189 1.6352413 8355711
0.62514174 0.1056449 1.6252784 8421504
0.67194742 0.10519399 1.6082855 9276813
0.44764555 -0.7551555 1.6992059 2960685
0.46778232 -0.75321835 1.6908171 2960685
0.44832718 -0.72541738 1.699038 2960685
0.47548243 -0.72498798 1.6877182 2960685
0.52465963 -0.72297704 1.6672205 2960685
0.55810893 -0.71985674 1.6532867 2960685
0.44842032 -0.67509419 1.6991967 2960685
0.47549561 -0.67503017 1.6879077 2960685
0.52559447 -0.67501503 1.66702 2960685
0.55827916 -0.67502493 1.653391 2960685
0.44846681 -0.6251784 1.6993735 2960685
0.47555244 -0.62500942 1.6880801 2960685
0.52560562 -0.62501752 1.6672113 2960685
0.55886328 -0.62492675 1.6533446 2960685
0.44909441 -0.57581472 1.6993053 2960685
0.47561601 -0.57497853 1.6882499 2960685
0.52569103 -0.57502711 1.6673702 2960685
0.55899322 -0.57502723 1.6534859 2960685
0.44919455 -0.52523327 1.6994617 2960685
0.47565061 -0.52498853 1.6884317 2960685
0.52532411 -0.52518505 1.6677204 2960685
0.55861622 -0.52463704 1.6538416 2960685
0.44923252 -0.47493836 1.6996434 2960685
0.47570357 -0.47500563 1.6886057 2960685
0.52517396 -0.47502673 1.6679794 2960685
0.55911154 -0.47507629 1.6538289 2960685
0.44988725 -0.42590928 1.6995628 2960685
0.47511604 -0.42496255 1.6890478 2960685
0.52461606 -0.42503744 1.6684082 2960685
0.55914438 -0.42501637 1.6540112 2960685
0.44996884 -0.37532571 1.6997272 2960685
0.47519788 -0.37499681 1.6892095 2960685
0.52467459 -0.37503973 1.6685795 2960685
0.55927563 -0.37483969 1.6541541 2960685
0.44999588 -0.34647563 1.6998291 2960685
0.47468415 -0.32492098 1.6896204 2960685
0.52473354 -0.32501584 1.6687523 2960685
0.55988759 -0.32498047 1.6540941 2960685
0.47527871 -0.27503267 1.6895671 2960685
0.52477342 -0.27501479 1.6689306 2960685
0.55989552 -0.27494425 1.654287 2960685
0.47527477 -0.22501776 1.689766 2960685
0.5248751 -0.22498633 1.6690849 2960685
0.5601784 -0.22480357 1.6543659 2960685
0.47542194 -0.17502777 1.6899018 2894892
0.52484047 -0.17498136 1.6692951 2894892
0.56056446 -0.17503776 1.6544006 2894892
0.4759396 -0.12505434 1.6898803 2894892
0.5249328 -0.12499898 1.6694535 2894892
0.56076342 -0.1250212 1.6545146 2894892
0.47621641 -0.075193658 1.6899613 2894892
0.52508622 -0.074890465 1.6695853 2894892
0.56087369 -0.074671246 1.6546649 2894892
0.47610509 -0.025207885 1.6902032 2894892
0.52500546 -0.02490378 1.6698152 2894892
0.56148195 -0.024933452 1.6546067 2894892
0.47676581 0.025189124 1.6901257 2894892
0.52505934 0.024907257 1.669989 2894892
0.5615353 0.024900572 1.6547797 2894892
0.47698709 0.07519491 1.6902301 2960685
0.52524126 0.074897707 1.6701095 2960685
0.56169623 0.075249396 1.6549103 2960685
-0.51307517 0.11118955 1.6786466 10197915
-0.47510275 0.11113421 1.6766467 10197915
-0.42514148 0.11105708 1.6753358 10197915
-0.37525287 0.11097918 1.6743081 10197915
-0.32508194 0.11090128 1.6731325 10197915
-0.27498129 0.11082338 1.6719574 10197915
-0.22495651 0.11074661 1.670509 10197915
-0.17271732 0.11064406 1.6758933 10197915
-0.12516445 0.110558 1.6785506 10197915
-0.075044304 0.11048145 1.6769973 10197915
-0.025002254 0.11040258 1.6761907 10197915
0.024978839 0.11032501 1.6750125 10197915
0.074880414 0.11024877 1.6734655 10197915
0.1249505 0.11017048 1.6724741 10197915
0.17494555 0.11009227 1.6714789 10197915
0.22372095 0.11001279 1.6714897 10197915
0.27510729 0.10990495 1.6789415 10197915
0.32461411 0.10982768 1.6779112 10197915
0.3747462 0.10975035 1.6765839 10197915
0.4248029 0.10967223 1.6755358 10197915
0.4758217 0.10576186 1.6869061 5855577
0.52460086 0.10522987 1.6696447 6316128
0.56215972 0.10489341 1.6548338 6842472
0.33799583 -0.76538581 1.7448841 2960685
0.37385225 -0.76201189 1.7299477 2960685
0.42075098 -0.7576071 1.7104098 2960685
0.33832163 -0.72502327 1.7449064 2960685
0.37541771 -0.72500432 1.7294365 2960685
0.42343634 -0.72494447 1.7094173 2960685
0.33833531 -0.67497212 1.7450968 2960685
0.37545902 -0.67497778 1.7296188 2960685
0.4235352 -0.67498696 1.7095734 2960685
0.33880967 -0.62531161 1.7450941 2960685
0.37550262 -0.62497777 1.7297959 2960685
0.42357537 -0.624982 1.7097508 2960685
0.33909279 -0.57495868 1.7451736 2960685
0.37557003 -0.57500625 1.7299653 2960685
0.42425743 -0.57496274 1.7096648 2960685
0.33913493 -0.52495563 1.7453524 2960685
0.37558818 -0.52498531 1.730154 2960685
0.4242847 -0.52497518 1.7098496 2960685
0.33951822 -0.47541597 1.7453868 2960685
0.3756353 -0.47499147 1.7303286 2960685
0.42437497 -0.47496027 1.7100074 2960685
0.33986315 -0.4250561 1.7454404 2960685
0.37567264 -0.42498794 1.7305101 2960685
0.42499942 -0.42496705 1.709944 2960685
0.33991453 -0.37497288 1.7456157 2960685
0.37574279 -0.37495527 1.7306775 2960685
0.42512903 -0.37500668 1.7100859 2960685
0.34022322 -0.3253684 1.7456825 2960685
0.37571931 -0.32494962 1.7308853 2960685
0.42509601 -0.32501847 1.7102963 2960685
0.34066719 -0.27501819 1.7456943 2960685
0.37578154 -0.27495283 1.7310549 2960685
0.42519414 -0.27501962 1.7104516 2960685
0.45006374 -0.27398202 1.7000854 2960685
0.34001371 -0.22493069 1.7461632 2960685
0.37454924 -0.22501633 1.7317641 2960685
0.42453709 -0.22500037 1.7109208 2960685
0.45010987 -0.22470231 1.7002597 2960685
0.34027991 -0.17549966 1.7462462 2960685
0.37449622 -0.1750391 1.7319815 2960685
0.42465258 -0.17496614 1.7110687 2960685
0.45015663 -0.17470819 1.7004362 2960685
0.34075692 -0.12510191 1.746245 2894892
0.37457058 -0.12503228 1.7321471 2894892
0.42458048 -0.12495711 1.7112951 2894892
0.45082885 -0.12433773 1.7003539 2894892
0.34074149 -0.075132683 1.7464474 2894892
0.37472647 -0.075149626 1.7322773 2894892
0.42483237 -0.074830964 1.7113875 2894892
0.45088449 -0.074677311 1.7005253 2894892
0.34104279 -0.025645709 1.7465161 2894892
0.37461731 -0.025121244 1.7325201 2894892
0.42470172 -0.024818458 1.7116374 2894892
0.45093137 -0.024659896 1.7007021 2894892
0.3415477 0.025207011 1.7465054 2894892
0.37465638 0.025124738 1.7327003 2894892
0.42474523 0.02482185 1.7118151 2894892
0.4515999 0.024889771 1.7006179 2894892
0.34151846 0.075135499 1.746713 2960685
0.37485123 0.075155139 1.7328146 2960685
0.42496619 0.074818738 1.7119184 2960685
0.45165876 0.074689761 1.7007884 2960685
-0.51917994 0.11106719 1.7194204 6250335
-0.4737933 0.11096896 1.7269194 5460819
-0.42496246 0.11088909 1.7270339 5395026
-0.37509796 0.11081246 1.7256241 5855577
-0.32506037 0.11073411 1.7246192 5921370
-0.27486223 0.11065756 1.7230034 5987163
-0.22472738 0.11057854 1.722196 6381921
-0.17732592 0.11049061 1.7255069 5789784
-0.12472919 0.11038939 1.7303009 4737096
-0.074856773 0.1103126 1.7289348 5460819
-0.025057342 0.11023494 1.7278802 5658198
0.025033822 0.11015731 1.7266636 5658198
0.075054482 0.1100798 1.7254485 6184542
0.12499876 0.11000339 1.7239307 6645093
0.17487614 0.10992514 1.7230238 6579300
0.22468624 0.10984795 1.7218138 7039851
0.27478042 0.1097708 1.7204475 7500402
0.33394909 0.10709701 1.7343419 5000268
0.37412667 0.10574411 1.7297434 4079166
0.42405078 0.10522152 1.711677 4342338
0.45168719 0.10499445 1.7008955 4473924
0.2153089 -0.8017745 1.7958958 2960685
0.22757742 -0.77477568 1.7908857 2960685
0.27418247 -0.77129751 1.7714684 2960685
0.31309837 -0.76768237 1.7552563 2960685
0.22780019 -0.72501653 1.7909883 2960685
0.2751793 -0.72499532 1.7712352 2960685
0.31341842 -0.72505128 1.7552893 2960685
0.22829114 -0.67523384 1.7909795 2960685
0.27522495 -0.67498928 1.77141 2960685
0.31346953 -0.6750598 1.7554651 2960685
0.22853804 -0.62502718 1.7910722 2960685
0.27521273 -0.62501115 1.7716129 2960685
0.3139244 -0.62473524 1.7554731 2960685
0.22858682 -0.5749765 1.7912484 2960685
0.27527493 -0.57502341 1.7717816 2960685
0.31418735 -0.57500798 1.7555575 2960685
0.22895716 -0.52517927 1.7912902 2960685
0.27530247 -0.5250451 1.7719673 2960685
0.31423283 -0.52505922 1.7557359 2960685
0.22931315 -0.47496215 1.7913392 2960685
0.27503094 -0.47520623 1.772276 2960685
0.31437767 -0.47446501 1.7558734 2960685
0.22931387 -0.42497656 1.7915345 2960685
0.27463785 -0.42502108 1.7726358 2960685
0.31427369 -0.42497754 1.7561108 2960685
0.2296308 -0.37522641 1.7915984 2960685
0.27470008 -0.37499961 1.7728065 2960685
0.31435922 -0.37498239 1.7562715 2960685
0.23007873 -0.32504722 1.7916077 2960685
0.27472535 -0.32496876 1.7729928 2960685
0.31468004 -0.32473329 1.7563341 2960685
0.23014995 -0.27505463 1.7917738 2960685
0.27471429 -0.27498773 1.773194 2960685
0.31508568 -0.27498519 1.756361 2960685
0.23026299 -0.22514619 1.7919238 2960685
0.2747784 -0.22503726 1.7733628 2960685
0.31506234 -0.22495943 1.7565662 2960685
0.23096819 -0.17494674 1.7918261 2960685
0.27485397 -0.1750562 1.7735271 2960685
0.31550342 -0.17468685 1.7565795 2960685
0.23076943 -0.12489136 1.7921056 2894892
0.27488738 -0.12500463 1.7737097 2894892
0.31577122 -0.12508143 1.7566628 2894892
0.2309892 -0.075159408 1.7922088 2894892
0.27480933 -0.074961573 1.7739385 2894892
0.3159073 -0.074876271 1.7568032 2894892
0.23162103 -0.025243314 1.7921405 2894892
0.27483776 -0.024989495 1.7741225 2894892
0.31611398 -0.024525324 1.7569145 2894892
0.23164514 0.025246819 1.7923291 2894892
0.2748664 0.024992952 1.7743065 2894892
0.31659737 0.024747826 1.7569066 2894892
0.23175485 0.075149119 1.7924795 2960685
0.27489507 0.074985825 1.7744913 2960685
0.31669554 0.074863166 1.757062 2960685
-0.5552603 0.1109013 1.788651 2960685
-0.52490139 0.1109019 1.7732327 2960685
-0.47677791 0.1108001 1.7804544 2960685
-0.42513683 0.11071216 1.7816403 2960685
-0.37505689 0.1106352 1.7802244 2960685
-0.32504052 0.11055709 1.7791445 2960685
-0.27509901 0.11048035 1.7777328 2960685
-0.22522447 0.11040262 1.7766587 2960685
-0.17504992 0.11032496 1.7754095 2960685
-0.12494895 0.11024849 1.773831 2960685
-0.074921705 0.11017001 1.7729156 2960685
-0.024958314 0.11009268 1.7716712 2960685
0.024934975 0.11001545 1.7704287 2960685
0.075120457 0.10993834 1.7690167 2960685
0.12523842 0.10986024 1.7679306 2960685
0.1752838 0.10978331 1.766522 2960685
0.22943641 0.10623213 1.7853243 2960685
0.27500471 0.10565593 1.7716968 2960685
0.31639522 0.10534161 1.7566446 2960685
0.09249907 -0.8131569 1.8470559 2960685
0.12269689 -0.81038988 1.8344758 2960685
0.17145704 -0.80586892 1.8141636 2960685
0.20295241 -0.80285823 1.8010433 2960685
0.092582688 -0.77503574 1.8471713 2960685
0.12458577 -0.77494824 1.8338274 2960685
0.17496626 -0.77499443 1.8128222 2960685
0.20294292 -0.7749204 1.8011571 2960685
0.092612714 -0.72511566 1.8473552 2960685
0.12460463 -0.72494912 1.8340169 2960685
0.17500062 -0.72496516 1.8130033 2960685
0.20300649 -0.72500432 1.8013265 2960685
0.093186699 -0.67550844 1.8473098 2960685
0.12461957 -0.67498213 1.8342077 2960685
0.17502984 -0.6749481 1.8131883 2960685
0.20351046 -0.67395258 1.8013161 2960685
0.093395151 -0.62492228 1.8474216 2960685
0.12464263 -0.62500679 1.8343908 2960685
0.17504445 -0.62496245 1.8133765 2960685
0.20376535 -0.62510502 1.801402 2960685
0.093367599 -0.57494658 1.8476298 2960685
0.12464416 -0.57502043 1.8345891 2960685
0.17506744 -0.57501012 1.8135647 2960685
0.20373565 -0.57500976 1.8016114 2960685
0.093748122 -0.52591205 1.8476628 2960685
0.12465043 -0.52495664 1.8347813 2960685
0.1750856 -0.52498263 1.8137518 2960685
0.2042217 -0.52389413 1.8016087 2960685
0.094184391 -0.4751434 1.8476795 2960685
0.12470323 -0.47497126 1.8349572 2960685
0.17509417 -0.47496638 1.8139464 2960685
0.20448771 -0.47496566 1.8016903 2960685
0.094161458 -0.42488396 1.8478876 2960685
0.12468847 -0.42502108 1.8351554 2960685
0.1751273 -0.42500326 1.8141267 2960685
0.20456567 -0.42500389 1.8018535 2960685
0.094315715 -0.37559211 1.8480166 2960685
0.12469196 -0.37497097 1.8353528 2960685
0.1751194 -0.37503043 1.8143289 2960685
0.20481168 -0.37414965 1.8019502 2960685
0.094961837 -0.32512155 1.8479445 2960685
0.12469657 -0.32493222 1.8355455 2960685
0.1751623 -0.32502571 1.8145045 2960685
0.20532843 -0.32505971 1.8019276 2960685
0.094941132 -0.27487388 1.8481505 2960685
0.12474211 -0.27497286 1.835724 2960685
0.17515805 -0.27501082 1.8147036 2960685
0.20528312 -0.27495924 1.8021424 2960685
0.094950974 -0.22512884 1.8483421 2960685
0.12472762 -0.22500359 1.8359262 2960685
0.17517912 -0.22500618 1.8148903 2960685
0.20553073 -0.22438583 1.8022377 2960685
0.095710889 -0.17534383 1.84822 2894892
0.12470874 -0.17500022 1.8361291 2894892
0.17521922 -0.17499284 1.8150703 2960685
0.20603661 -0.17489547 1.802222 2960685
0.095720969 -0.12482102 1.8484135 2894892
0.12477674 -0.12505449 1.8362982 2894892
0.17514227 -0.12498835 1.8152997 2894892
0.20612171 -0.12489007 1.8023825 2894892
0.095730834 -0.075053357 1.8486058 2894892
0.12485524 -0.075167589 1.8364613 2894892
0.17538394 -0.074826926 1.8153932 2894892
0.20607935 -0.074861333 1.802596 2894892
0.096276246 -0.026367182 1.8485692 2894892
0.12474255 -0.025110094 1.836705 2894892
0.17521334 -0.024822421 1.8156632 2894892
0.20688726 -0.024895495 1.8024559 2894892
0.096500881 0.025274651 1.8486773 2960685
0.12475551 0.02511359 1.8368956 2894892
0.17523137 0.024825815 1.8158488 2894892
0.20689929 0.02481495 1.8026453 2894892
0.096510865 0.075064905 1.8488692 2960685
0.12490685 0.075169608 1.8370296 2960685
0.17543501 0.074808046 1.8159608 2960685
0.20685466 0.074852727 1.8028609 2960685
-0.56213087 0.11076734 1.8333923 2960685
-0.52514845 0.11071699 1.8303435 2960685
-0.47514641 0.11063911 1.8292488 2960685
-0.42483038 0.11056137 1.827963 2960685
-0.37497091 0.11048484 1.8265053 2960685
-0.32517454 0.11040722 1.825415 2960685
-0.27506918 0.11032977 1.824134 2960685
-0.22504042 0.11025361 1.8224971 2960685
-0.17507875 0.11017524 1.8215799 2960685
-0.12518363 0.11009813 1.8203051 2960685
-0.074981987 0.11002112 1.8188447 2960685
-0.024854144 0.10994307 1.8177407 2960685
0.024831008 0.10986628 1.8164707 2960685
0.081213623 0.10836133 1.8250283 2960685
0.12421235 0.10600536 1.8319049 2960685
0.17435041 0.10551506 1.8145152 2960685
0.20676498 0.10512768 1.8026288 2960685
-0.017663358 -0.82346827 1.8929487 2960685
0.02387739 -0.81958151 1.8756428 2960685
0.067054391 -0.81555814 1.8576561 2960685
-0.017245928 -0.77503639 1.8929641 2960685
0.024863938 -0.77501583 1.8754065 2960685
0.067722403 -0.7750383 1.8575355 2960685
-0.016527671 -0.72513407 1.8928612 2960685
0.024865648 -0.72500217 1.8756025 2960685
0.067720659 -0.72505981 1.857734 2960685
-0.016477775 -0.67506117 1.8930367 2960685
0.024885565 -0.67497796 1.8757905 2960685
0.068357565 -0.67487413 1.8576643 2960685
-0.016474783 -0.62504572 1.8932314 2960685
0.024840269 -0.62501574 1.8760059 2960685
0.068490006 -0.62499839 1.857805 2960685
-0.016013004 -0.5753296 1.8932333 2960685
0.024890017 -0.57501799 1.8761805 2960685
0.068514153 -0.5749678 1.8579913 2960685
-0.015678382 -0.52505726 1.8932922 2960685
0.024878295 -0.52501148 1.8763816 2960685
0.068911232 -0.52479869 1.8580234 2960685
-0.015701041 -0.47502393 1.8934973 2960685
0.024861531 -0.4750177 1.8765846 2960685
0.069271199 -0.47503889 1.8580681 2960685
-0.015522602 -0.42519829 1.8936191 2960685
0.024906674 -0.42499018 1.876763 2960685
0.069284953 -0.42501855 1.8582575 2960685
-0.014903218 -0.37502164 1.8935575 2960685
0.02487044 -0.37497553 1.8769739 2960685
0.069511719 -0.37482032 1.8583614 2960685
-0.014891704 -0.32509705 1.893749 2960685
0.024879016 -0.32499939 1.8771667 2960685
0.070040263 -0.32494754 1.8583359 2960685
-0.014934942 -0.27507862 1.8939627 2960685
0.024900237 -0.27498901 1.8773533 2960685
0.070085719 -0.27501959 1.8585134 2960685
-0.01425191 -0.22515462 1.8938732 2960685
0.024879633 -0.22496836 1.8775581 2960685
0.070123225 -0.22499427 1.8586932 2960685
-0.014134685 -0.17502379 1.894021 2894892
0.024854589 -0.17498453 1.8777649 2894892
0.070745811 -0.17495294 1.8586309 2894892
-0.014033602 -0.12525716 1.8941742 2894892
0.024935089 -0.12491871 1.8779283 2894892
0.070969194 -0.12505513 1.8587334 2894892
-0.013733849 -0.075695872 1.8942441 2894892
0.024954826 -0.074819542 1.8781164 2894892
0.070671193 -0.074976183 1.859054 2894892
-0.013354294 -0.025112508 1.8942842 2894892
0.024856124 -0.024901321 1.8783534 2894892
0.071562648 -0.024771245 1.8588797 2894892
-0.013355692 0.025116004 1.8944819 2894892
0.024858747 0.024904765 1.8785478 2894892
0.071750484 0.024942394 1.8589964 2894892
-0.013192606 0.075095668 1.8946097 2894892
0.024945404 0.07481917 1.8787074 2894892
0.071439676 0.075004809 1.8593222 2960685
-0.56969076 0.11062329 1.8815726 2960685
-0.52476436 0.11055721 1.8793895 2960685
-0.47460073 0.11047983 1.8780735 2960685
-0.42489934 0.11040375 1.8765707 2960685
-0.37527019 0.11032639 1.875466 2960685
-0.32531568 0.1102493 1.874155 2960685
-0.2750459 0.11017233 1.8726437 2960685
-0.22484347 0.11009423 1.8715191 2960685
-0.17471327 0.11001748 1.8700117 2960685
-0.12465341 0.10993955 1.8688905 2960685
-0.075048536 0.10986309 1.8675891 2960685
-0.017641166 0.10703427 1.8830101 2960685
0.024579151 0.10574901 1.8751609 2960685
0.07167051 0.10544392 1.8582504 2960685
-0.15265404 -0.86103243 1.9490857 2960685
-0.12746666 -0.85869002 1.938593 2960685
-0.080506854 -0.85430521 1.9190303 2960685
-0.045129679 -0.85093498 1.9042927 2960685
-0.15257022 -0.82527411 1.9491909 2960685
-0.12523207 -0.82501596 1.9377931 2960685
-0.075465269 -0.82499969 1.9170444 2960685
-0.042587575 -0.82503635 1.9033346 2960685
-0.15180586 -0.77437019 1.9490718 2960685
-0.12523559 -0.774975 1.9379915 2960685
-0.075431481 -0.77499437 1.917226 2960685
-0.042569466 -0.77504539 1.9035228 2960685
-0.15182163 -0.72438192 1.9492748 2960685
-0.12527052 -0.72497696 1.9382015 2960685
-0.075494118 -0.72500342 1.9174491 2960685
