# .PCD v0.7 - Point Cloud Data file format
VERSION 0.7
FIELDS x y z rgb
SIZE 4 4 4 4
TYPE F F F U
COUNT 1 1 1 1
WIDTH 1166
HEIGHT 1
VIEWPOINT 0 0 0 1 0 0 0
POINTS 1166
DATA ascii
-1.5840887 0.11054487 2.4867017 10197915
-1.4706426 0.110677 2.4823222 10197915
-1.4252412 0.11073844 2.475188 6782099
-1.3751591 0.11079247 2.4759283 3559016
-1.3280798 0.11084764 2.4738939 9540244
-1.2752243 0.11093352 2.4565964 10197915
-1.2249286 0.11098705 2.457783 10197915
-1.1886878 0.1110257 2.4586384 10197915
-1.0747596 0.11114707 2.4613254 7439254
-1.0252805 0.11119978 2.4624927 1850208
-0.97474319 0.11125363 2.4636858 10066330
-0.92516899 0.11130642 2.4648545 10132122
-0.87554759 0.11135928 2.4660256 10000536
-0.84514606 0.11139169 2.4667428 10132122
-0.76398277 0.11147817 2.468658 10132122
-0.73859352 0.11150518 2.4692562 10000536
-0.62367916 0.11162763 2.4719677 1720170
-0.57478976 0.1116797 2.4731207 8882829
-0.52483523 0.11173291 2.4742992 10000536
-0.47687501 0.11178401 2.4754307 10000536
-0.27229685 0.11200196 2.480257 10132122
-0.22513035 0.11205219 2.4813697 10000536
-0.17484194 0.11210576 2.4825561 10066329
-0.12553307 0.11215831 2.4837196 10197915
-0.075149059 0.11221199 2.4849081 10197915
-0.024717124 0.1122657 2.4860976 10197915
0.024732582 0.11231839 2.4872644 10197915
0.074228719 0.11237112 2.4884322 10197915
0.12480416 0.11242498 2.4896255 10197915
0.17542775 0.11247892 2.4908192 10197915
0.22506554 0.11253181 2.4919903 10197915
0.27895179 0.11260483 2.4834561 10197915
0.32470271 0.11267255 2.4726222 10197915
0.37456322 0.11272641 2.4733446 10197915
0.42445847 0.11277887 2.4749551 10197915
0.4749268 0.11283264 2.476135 10197915
0.52544302 0.11288647 2.4773166 10197915
0.5713684 0.11295493 2.4661443 10197915
0.62521714 0.11302752 2.4578693 10197915
0.67440659 0.11307994 2.4590094 10197915
0.72466797 0.11313352 2.4601743 10197915
0.77497697 0.11318716 2.4613407 10197915
0.82430559 0.11323974 2.4624846 10197915
0.87470907 0.11329345 2.4636526 10197915
0.9179492 0.11333954 2.4646549 10197915
-0.036646422 -0.61345488 2.5258455 6513507
-2.0012872 -0.56997508 2.5225446 1389131
-1.9959865 -0.56998277 2.5384166 1454924
-1.5509787 -0.59864187 2.5484824 6447714
-1.5199294 -0.59857744 2.5295479 6447714
-1.4750301 -0.59852135 2.5256011 6447714
-1.4251931 -0.59846592 2.5254624 5131083
-1.3751931 -0.59841019 2.5251634 6172463
-1.3250275 -0.59835452 2.525084 5184540
-1.2750441 -0.59829873 2.5248494 4329231
-1.2292309 -0.59824318 2.5218585 4329231
-1.1994687 -0.59817928 2.5023794 4329231
-0.66438323 -0.59762764 2.5281222 6447714
-0.62542641 -0.59758103 2.5259821 5258300
-0.57555014 -0.59752584 2.5259745 6566193
-0.52526969 -0.59746975 2.5257375 6566193
-0.48121697 -0.59741908 2.5245402 6566193
-0.35144353 -0.59729362 2.5360556 3228245
-0.32466868 -0.59724617 2.5247915 5321272
-0.27485311 -0.59719032 2.524406 6566193
-0.22505134 -0.59713519 2.5243225 6566193
-0.17483671 -0.59707916 2.524086 6237228
-0.12484124 -0.59702331 2.5237761 6566193
-0.074711889 -0.57598752 2.52231 6505027
-0.039393727 -0.57566649 2.5234962 6512993
-2.0013387 -0.52505106 2.5226099 1454668
-1.9960411 -0.52503979 2.5384724 1323595
-0.074185438 -0.52507061 2.5233855 4219268
-0.039697461 -0.52493787 2.5231135 5921886
-2.0013964 -0.47490069 2.5226815 1455181
-1.9961042 -0.47501129 2.5385287 1389132
-0.074190803 -0.47513005 2.5234487 4351367
-0.039699879 -0.4747946 2.5232775 5856351
-2.0014541 -0.4247472 2.5227554 1389132
-1.9961565 -0.42506871 2.5386145 1389131
-0.074269652 -0.42514077 2.5235362 4153990
-0.03976199 -0.42485467 2.5233133 5856351
-2.0015066 -0.37479857 2.5228434 1191241
-1.9962183 -0.37512383 2.5386746 1323082
-0.074267715 -0.37505814 2.5235968 3759748
-0.039709117 -0.37501362 2.5236163 5856351
-2.0015686 -0.3250584 2.5229006 1257032
-1.9962672 -0.32499877 2.538774 1257289
-0.22576547 -0.30897248 2.5230086 6447714
-0.074269481 -0.32501838 2.5236585 3365506
-0.039736792 -0.3250601 2.5237057 5921887
-2.0016315 -0.2753163 2.5229564 1323082
-1.9963409 -0.27495906 2.5387986 1191753
-1.5109891 -0.27033478 2.5291026 2039583
-1.4904602 -0.27458075 2.5331028 2039841
-1.4261405 -0.28918666 2.5183802 3890817
-1.3759421 -0.28913984 2.5101433 2305851
-1.3242227 -0.28909075 2.5010803 2039583
-0.65586257 -0.28858584 2.5257125 7048363
-0.62518591 -0.28854665 2.5235403 3362667
-0.57488334 -0.28848651 2.5230148 6513507
-0.52460188 -0.28842643 2.5224895 6513507
-0.47964364 -0.28837591 2.524359 6513507
-0.30086535 -0.28819734 2.5481496 1581873
-0.27418113 -0.28814036 2.5294664 2039583
-0.22980797 -0.29173771 2.5264447 3223857
-0.074255988 -0.275022 2.5237129 2905214
-0.0397477 -0.27510074 2.5238438 5922144
-2.001694 -0.22557238 2.5230131 1125704
-1.9964043 -0.22491893 2.5388544 1060168
-1.51133 -0.22440861 2.5297611 2039583
-1.4961549 -0.22490552 2.5378461 2039583
-0.074207775 -0.22511494 2.5237579 2444922
-0.039711956 -0.22503118 2.5240986 5922144
-2.0017405 -0.17560969 2.5231168 993862
-1.9964175 -0.17478418 2.5390594 993862
-1.5113627 -0.17489415 2.5298326 2039583
-1.4961606 -0.17491896 2.5380058 2039583
-0.074065819 -0.17539035 2.523771 2379899
-0.039727185 -0.17495364 2.5242493 5922144
-2.0017984 -0.12543912 2.5231893 927557
-1.9964796 -0.12490958 2.5391159 993349
-1.5104647 -0.12483473 2.5296342 2039583
-1.4959801 -0.12556691 2.5387228 2039583
-0.07426516 -0.12547442 2.5238976 2248570
-0.039767895 -0.12507938 2.5243213 5922144
-2.0017142 -0.07415019 2.5236928 1125704
-1.9964678 -0.07583981 2.5393946 1125704
-1.5101548 -0.075454943 2.5296106 2039583
-1.4959157 -0.075326651 2.5390918 2039583
-0.07426697 -0.075286418 2.5239606 2116984
-0.03975736 -0.075200886 2.5245006 5922143
-2.0016038 -0.025098415 2.5242631 1125704
-1.9962981 -0.025256345 2.5401487 1125960
-1.5101999 -0.025152322 2.5296862 2039583
-1.4959142 -0.025247654 2.5392723 2039583
-0.074268766 -0.025096014 2.5240214 1853557
-0.039721608 -0.025103163 2.5247571 5922143
-2.0016615 0.025099386 2.5243373 1059398
-1.9963557 0.025257329 2.5402215 1059654
-1.510245 0.025153318 2.5297618 2039583
-1.4959527 0.025248511 2.5393369 2039583
-0.074270591 0.02509685 2.5240836 1721457
-0.039724037 0.025105361 2.5249231 6053472
-2.0017192 0.075300083 2.5244093 927813
-1.9964503 0.075302355 2.5401864 993349
-1.5102897 0.075461961 2.5298371 5526612
-1.4960288 0.075332567 2.5392852 5526612
-0.074272349 0.075292192 2.5241458 2969206
-0.039794561 0.075111963 2.5249274 8750728
-2.0017552 0.10563099 2.5244551 993349
-1.9920766 0.10615549 2.5378799 1058885
-1.8210695 0.11020891 2.5335233 662588
-1.7746321 0.11025832 2.5346596 662330
-1.7250533 0.11031107 2.5358727 728121
-1.6754265 0.11036387 2.5370862 5134182
-1.6288592 0.11041342 2.5382252 10197915
-1.5103168 0.1058581 2.5298822 10197915
-1.488765 0.10699256 2.5402384 9541017
-1.4245018 0.11063085 2.5432239 2245736
-1.3745872 0.11068395 2.5444443 8554123
-1.3211315 0.11075547 2.5365636 10000536
-1.2750337 0.11082724 2.5234337 10132122
-1.2288432 0.11088528 2.5189719 10197915
-1.19964 0.11094337 2.5027368 10197915
-1.1093566 0.11103947 2.5049045 10197915
-1.0754586 0.11107556 2.5057189 4482959
-1.0250866 0.11112919 2.5069282 4412261
-0.97466666 0.11118287 2.5081398 10197915
-0.92522806 0.11123552 2.5093277 10197915
-0.87780553 0.11128597 2.5104656 10066329
-0.77043068 0.11140033 2.5130448 10000536
-0.74458754 0.11142781 2.513665 10000536
-0.65455019 0.11152368 2.5158281 2579597
-0.62553769 0.11155457 2.516525 2112866
-0.57576782 0.11160756 2.5177202 10000536
-0.52595073 0.11166059 2.5189164 10000536
-0.48128343 0.11170815 2.5199895 10000536
-0.2740666 0.11192876 2.5249662 10197915
-0.22500673 0.111981 2.5261443 10066329
-0.17590068 0.11203327 2.5273235 10000536
-0.12570272 0.11208671 2.5285294 10132122
-0.074453443 0.10670239 2.5241697 10197915
-0.034895375 0.10752922 2.5263832 10197915
0.025178974 0.11224733 2.5321529 10197915
0.075569034 0.11230099 2.5333633 10197915
0.12495584 0.11235357 2.534549 10197915
0.17438918 0.1124062 2.5357366 10197915
0.22492205 0.11246001 2.5369503 10197915
0.27550328 0.11251386 2.5381651 10197915
0.32507744 0.11256663 2.5393555 10197915
0.37469855 0.11261949 2.5405476 10197915
0.42542338 0.11267347 2.5417659 10197915
0.47513834 0.1127264 2.5429597 10197915
0.52490044 0.11277937 2.5441549 10197915
0.57832366 0.1128668 2.526264 10197915
0.62525201 0.11292218 2.5239983 10197915
0.6752497 0.11297464 2.5256689 10197915
0.7247355 0.11302889 2.5258861 10197915
0.77017832 0.11309289 2.5171752 10197915
0.82437992 0.11317027 2.5061295 10197915
0.87462991 0.11322381 2.5073149 10197915
0.92492747 0.11327738 2.5085011 10197915
0.95114076 0.11330529 2.5091193 10197915
-0.024408963 -0.61349297 2.5620089 6513507
-1.9899909 -0.56993079 2.5563676 1454667
-1.5610648 -0.59870511 2.5812964 6447714
-1.5249212 -0.59865659 2.5758677 6447714
-1.4748398 -0.59860039 2.5754695 6316128
-1.4247724 -0.59854496 2.5754671 4927279
-1.3747123 -0.59848899 2.5750682 6237228
-1.3248733 -0.59843361 2.574908 4329231
-1.2750496 -0.59837753 2.5744324 4329231
-1.2403286 -0.59833199 2.5698817 4329231
-0.67104012 -0.59771401 2.5778112 6381921
-0.6254108 -0.5976609 2.5762067 5255216
-0.5751943 -0.59760499 2.5759652 6566193
-0.52480853 -0.59754843 2.5755575 6566193
-0.48568755 -0.59750235 2.5737967 6566193
-0.35459766 -0.59736556 2.5791273 2505553
-0.32497528 -0.5973258 2.5746973 5845300
-0.27481484 -0.59726965 2.5743237 6566193
-0.22502238 -0.59721446 2.5742817 6566193
-0.17506033 -0.59715837 2.5738769 6237228
-0.12542339 -0.59710228 2.5731978 6566193
-0.025143631 -0.5733673 2.5600331 6513507
-1.9900539 -0.5250082 2.5563986 1257546
-0.025441576 -0.52485567 2.5593882 6513507
-1.990088 -0.47509527 2.5565412 1323082
-0.025454616 -0.47480199 2.5595932 6513507
-1.9901682 -0.42502484 2.5565462 1389131
-0.025468092 -0.4247351 2.5597968 6513507
-1.9902143 -0.37495279 2.5566537 1388874
-0.025426589 -0.37492293 2.5601616 6513507
-1.9902632 -0.32502794 2.5567503 1257289
-1.1113118 -0.30933231 2.5966315 6259366
-1.0739768 -0.30945987 2.5842848 2705510
-1.0466644 -0.30947095 2.5911348 5659230
-0.20896681 -0.30904633 2.573133 6447714
-0.026211226 -0.32647133 2.5580783 6513507
-1.9903474 -0.27510518 2.5567439 1257033
-1.4887819 -0.27126202 2.5572734 2039584
-1.110356 -0.29421341 2.5963826 6259367
-1.0703881 -0.2761507 2.5831761 2572894
-1.0468639 -0.2759091 2.5907049 4146248
-0.66181087 -0.28865793 2.573452 5339297
-0.62514883 -0.28861097 2.5707333 3886174
-0.57497323 -0.28855097 2.570199 6052956
-0.52481848 -0.28849101 2.5696645 4868682
-0.48669624 -0.28844544 2.5692539 3881787
-0.30277309 -0.28824139 2.5788007 1712426
-0.27539751 -0.28820595 2.5765758 2039583
-0.21748394 -0.29157701 2.5745788 3158064
-0.026514351 -0.27512908 2.5574327 6513507
-1.9903671 -0.22486581 2.556932 1125448
-1.4896208 -0.22496085 2.5574489 2039583
-1.0691513 -0.22513278 2.5827901 2243929
-1.0472434 -0.2247896 2.5898213 2046807
-0.02645888 -0.22499478 2.5578403 6513507
-1.9904624 -0.17509392 2.5568898 993862
-1.4897016 -0.17517883 2.5573819 2039583
-1.068747 -0.1748593 2.5827208 1915223
-1.0472569 -0.17490144 2.5900257 2313073
-0.026519604 -0.17521393 2.5579028 6513507
-1.9904997 -0.12500241 2.5570219 993093
-1.4897172 -0.12502643 2.5575132 2039583
-1.0689888 -0.12519498 2.5828495 1652309
-1.0472834 -0.12536478 2.5901864 2049646
-0.026492696 -0.12506098 2.5582247 6513507
-1.9905568 -0.075215422 2.5570946 1060168
-1.4897547 -0.07522963 2.5575759 2039583
-1.0690145 -0.074904747 2.5829127 1520980
-1.0473632 -0.074942812 2.5901952 1786476
-0.026495136 -0.075255349 2.558461 6513507
-1.9906138 -0.025425574 2.557168 1125704
-1.4897922 -0.025430292 2.5576408 2039583
-1.0690407 -0.024612105 2.5829747 1455443
-1.0473915 -0.024682375 2.5903575 1786988
-0.02649756 -0.025440486 2.5586956 6513507
-1.9906727 0.025426561 2.5572429 1124934
-1.4898301 0.025431164 2.5577066 2039583
-1.0690659 0.024612883 2.5830371 1323857
-1.0474354 0.024683757 2.590466 1589096
-0.026500048 0.025443673 2.5589349 6513507
-1.9907293 0.075222149 2.5573161 927557
-1.4898674 0.075235516 2.5577705 5592405
-1.0690917 0.074910417 2.5830991 1125966
-1.0474977 0.074952774 2.5905271 4544883
-0.026502481 0.075276956 2.5591707 9276813
-1.9907632 0.10488886 2.5573597 927556
-1.8629587 0.1100888 2.5799038 728380
-1.8251464 0.11012902 2.5808463 597050
-1.7757392 0.11018153 2.582077 728122
-1.7252332 0.11023524 2.5833359 1582656
-1.6746777 0.11028901 2.5845957 10197915
-1.6430569 0.1103226 2.5853827 10197915
-1.5005178 0.11047415 2.5889344 10197915
-1.4834865 0.10733482 2.5715911 7570068
-1.4253936 0.11055404 2.5908067 4280675
-1.3745452 0.1106081 2.5920739 10197915
-1.3247082 0.11066108 2.5933154 10066329
-1.2748226 0.11071412 2.594558 10066329
-1.2461458 0.11074463 2.5952733 10197915
-1.1546924 0.11084187 2.5975518 10197915
-1.1222506 0.11091076 2.5767605 7044756
-1.0709275 0.10716271 2.5768464 1389141
-1.0376914 0.10813487 2.5743077 7962245
-0.97563559 0.11110841 2.5542018 10197915
-0.92528909 0.11116198 2.5554338 10197915
-0.88539827 0.11120442 2.5564091 10197915
-0.80236775 0.11129277 2.55844 10000536
-0.77606291 0.11132074 2.559083 10000536
-0.660173 0.11144404 2.5619178 2051974
-0.62429839 0.1114822 2.5627949 4083815
-0.57466906 0.11153503 2.5640092 10000536
-0.52499229 0.11158787 2.5652239 10000536
-0.48479524 0.11163064 2.5662072 10000536
-0.30245903 0.11182465 2.570667 10132122
-0.27483922 0.11185401 2.5713422 10197915
-0.22487827 0.11190719 2.5725646 10132122
-0.17486936 0.11196037 2.573787 10000536
-0.1248133 0.11201364 2.5750115 10066329
-0.020906484 0.10834492 2.5663183 10197915
0.024573041 0.11217257 2.5786653 10197915
0.074819446 0.11222605 2.5798945 10197915
0.12511341 0.11227954 2.5811248 10197915
0.17438392 0.11233197 2.5823293 10197915
0.22477324 0.11238559 2.5835621 10197915
0.27521035 0.11243925 2.5847957 10197915
0.32462111 0.11249182 2.5860038 10197915
0.37515399 0.11254559 2.5872402 10197915
0.42573491 0.1125994 2.5884774 10197915
0.47528645 0.11265212 2.5896893 10197915
0.52488464 0.11270488 2.5909023 10197915
0.57452929 0.11275771 2.5921168 10197915
0.62422037 0.11281057 2.5933316 10197915
0.67504019 0.11286464 2.5945749 10197915
0.72590834 0.11291877 2.5958192 10197915
0.77941817 0.11300516 2.5786295 10197915
0.82557166 0.11306212 2.5748162 10197915
0.87398875 0.11311539 2.5749245 10000536
0.92468596 0.11320502 2.5537567 10197915
0.95991582 0.11324251 2.5546024 10197915
-1.603726 -0.59884483 2.6393492 6447714
-1.5728126 -0.59878701 2.6245763 6447714
-1.5249736 -0.59873146 2.6229475 6447714
-1.4748496 -0.59867567 2.6227026 4867397
-1.4249549 -0.5986197 2.6222899 6369328
-1.3750685 -0.59856421 2.622215 5184540
-1.3249727 -0.59850842 2.6219704 4329231
-1.2778219 -0.59845293 2.6199188 4329231
-1.2485385 -0.59839284 2.6025016 4329231
-0.70395154 -0.59784639 2.6381853 6447714
-0.67488939 -0.59779871 2.6284025 5592405
-0.62540597 -0.59774315 2.6279018 6106927
-0.5756917 -0.59768778 2.6277497 6566193
-0.52535164 -0.59763193 2.6276689 6566193
-0.49054888 -0.59759039 2.6257441 6566193
-0.35791743 -0.5974474 2.6281853 2307917
-0.32493028 -0.59740824 2.6266859 6435121
-0.27484727 -0.5973525 2.6264405 6566193
-0.22682129 -0.59728926 2.6201112 6566193
-0.17909677 -0.59722364 2.6120732 6368814
-0.14146422 -0.59717321 2.6065905 6566193
-1.2701671 -0.3062892 2.6498733 2039583
-1.1592237 -0.30972713 2.6126883 2039583
-1.1364505 -0.30974293 2.605056 2240575
-1.0352824 -0.30960307 2.6250954 6447714
-0.19144651 -0.30912274 2.6254108 6447714
-1.2701731 -0.29531249 2.6498857 2039583
-1.1600935 -0.29299599 2.6181858 2766919
-1.132375 -0.29228503 2.6130402 3692665
-1.0385506 -0.28189999 2.6164293 5066061
-0.65906388 -0.28871635 2.6187224 2707832
-0.62368178 -0.2886878 2.6284187 2304561
-0.57508415 -0.28863063 2.6285405 2039583
-0.52524137 -0.2885718 2.6285865 2039583
-0.49045622 -0.28852707 2.6258883 2039583
-0.30588973 -0.2883133 2.628875 1843236
-0.2752195 -0.28827298 2.625865 2039583
-0.22513093 -0.28821313 2.6253197 2039583
-0.19186099 -0.29303843 2.6272297 3618615
-1.0418135 -0.22542132 2.6060212 2635074
-1.0418668 -0.17511883 2.6061068 2965588
-1.0419453 -0.12460569 2.6061187 2308433
-1.0419648 -0.07450337 2.6063054 1717326
-1.042009 -0.024835385 2.6064169 1388876
-1.0420533 0.02483679 2.6065257 1125704
-1.0420977 0.074513197 2.6066375 5332589
-1.9064074 0.10996411 2.628011 794430
-1.8753933 0.10999704 2.6287982 662587
-1.8250928 0.11005049 2.6300755 728123
-1.7747436 0.11010399 2.6313541 727607
-1.724345 0.11015753 2.6326337 7764609
-1.683563 0.11020086 2.6336691 10197915
-1.5147221 0.11038024 2.6379561 5994132
-1.4748505 0.11042262 2.6389687 1850464
-1.4252391 0.11047532 2.6402285 8882830
-1.3755801 0.11052807 2.641489 10197915
-1.325874 0.1105809 2.6427515 10132122
-1.2836955 0.11062571 2.6438224 10000536
-1.1656276 0.11075114 2.6468201 10197915
-1.1319996 0.11078689 2.6476741 2315145
-1.0516398 0.11087227 2.6497149 10197915
-1.0343733 0.10792014 2.6075518 10132122
-0.97557318 0.1110323 2.6020141 10197915
-0.92535239 0.11108571 2.6032655 10197915
-0.89327365 0.11111981 2.6040652 10197915
-0.80977094 0.1112086 2.6061459 10000536
-0.78297842 0.11123707 2.6068132 10000536
-0.66707981 0.1113603 2.6097014 1787771
-0.62516302 0.11140487 2.6107457 5858417
-0.57460505 0.11145861 2.6120052 10000536
-0.52507544 0.11151129 2.6132395 10000536
-0.48951596 0.11154906 2.6141248 10000536
-0.30485877 0.11174542 2.6187263 10000536
-0.2745586 0.11177764 2.6194813 10132122
-0.22474496 0.1118306 2.6207228 10197915
-0.17488404 0.11188359 2.6219645 10066329
-0.12606148 0.1119355 2.6231809 10000536
-0.011966784 0.11205683 2.6260242 10197915
0.025033157 0.11209617 2.6269455 10197915
0.075131208 0.11214943 2.6281943 10197915
0.12527688 0.11220274 2.6294436 10197915
0.17547025 0.1122561 2.6306939 10197915
0.22571144 0.11230953 2.6319463 10197915
0.27490649 0.11236182 2.6331716 10197915
0.32414773 0.1124142 2.6343987 10197915
0.37453055 0.11246776 2.635654 10197915
0.42496139 0.11252136 2.6369107 10197915
0.47544023 0.11257502 2.6381681 10197915
0.52486837 0.1126276 2.6394002 10197915
0.57434279 0.1126802 2.6406324 10197915
0.62496436 0.112734 2.6418936 10197915
0.67563432 0.11278788 2.6431565 10197915
0.72524941 0.11284065 2.6443925 10197915
0.77491128 0.11289345 2.6456301 10197915
0.82461953 0.1129463 2.6468682 10197915
0.87629282 0.11300744 2.6442623 8421504
0.92540252 0.11309221 2.6250384 7566195
0.96901524 0.11317741 2.6017656 7500402
-1.6149552 -0.59891635 2.6765609 6447714
-1.5749804 -0.59886456 2.6718516 6447714
-1.5252496 -0.59880954 2.6717811 6118749
-1.4753027 -0.59875369 2.6715329 5058094
-1.4251446 -0.59869742 2.6711068 6237228
-1.3749928 -0.59864205 2.6711214 4329231
-1.3248569 -0.59858572 2.6706955 4329231
-1.2882808 -0.59853733 2.6657367 4329231
-0.70988733 -0.59792084 2.6807921 6447714
-0.67508346 -0.59787661 2.6772547 5195848
-0.62487364 -0.59782141 2.6775346 6566193
-0.57493031 -0.59776479 2.6767519 6566193
-0.52496016 -0.59770906 2.6765044 6566193
-0.49467677 -0.59767067 2.6734376 6566193
-0.36139077 -0.59751457 2.6681223 3159624
-0.32832089 -0.59746873 2.6622577 6566193
-0.28825501 -0.59741384 2.6556635 6566193
-1.9457746 -0.3221783 2.6899734 1059397
-1.4099314 -0.30500016 2.6967149 2039583
-1.3751366 -0.30583236 2.6850526 2039583
-1.3256488 -0.30569646 2.6684673 2039583
-1.2857621 -0.30520353 2.6551003 2039583
-1.0190063 -0.30965173 2.6736608 4934475
-0.17412545 -0.30906674 2.6770942 5329233
-1.9458504 -0.2749351 2.6899812 1125446
-1.4093791 -0.29436433 2.6970856 2039583
-1.3746264 -0.29367989 2.6877437 2434341
-1.3246266 -0.29312184 2.6750002 3158064
-1.2866215 -0.29319671 2.6599557 2829099
-1.2025652 -0.28946507 2.6977019 6513507
-1.1727867 -0.289404 2.6786914 4812178
-1.137544 -0.28935206 2.6711202 5142176
-1.0585471 -0.28927487 2.6829331 6447714
-1.0242075 -0.29274672 2.6751983 4079166
-0.6543619 -0.28875363 2.6501431 3162966
-0.62556517 -0.28875691 2.6775281 1974823
-0.57518232 -0.28870118 2.6802752 2039583
-0.52510518 -0.2886413 2.6797187 2039583
-0.49486727 -0.28860155 2.6767733 2039583
-0.30894822 -0.28838384 2.6780152 1908770
-0.27503496 -0.28834233 2.6769438 2039583
-0.22508201 -0.28828266 2.6763887 2039583
-0.17851478 -0.29216146 2.6771829 3026478
-1.9458709 -0.22501315 2.6901615 1059653
-1.9459493 -0.17486839 2.6901736 993348
-1.946008 -0.12494332 2.6902411 993091
-1.9460357 -0.07478486 2.6904025 1059654
-1.9461198 -0.02463665 2.6903963 1059910
-1.9464588 0.02424337 2.6896238 993860
-1.9465574 0.074774124 2.6895766 861248
-1.9381353 0.10668384 2.6854372 794943
-1.8752277 0.10991579 2.6799238 728123
-1.8250399 0.10996906 2.6812229 727608
-1.7748035 0.11002238 2.682523 4410461
-1.7245185 0.11007577 2.683825 10066329
-1.5547214 0.11025602 2.6882195 10197915
-1.525085 0.11028752 2.6889875 2904702
-1.4745568 0.11034115 2.6902947 5069674
-1.4250802 0.1103937 2.6915758 10197915
-1.375556 0.11044626 2.6928582 10000536
-1.3248824 0.11050005 2.694169 10000536
-1.2951186 0.11053167 2.6949403 10000536
-1.2024041 0.11063012 2.6973407 10197915
-1.1747761 0.11065941 2.6980553 6716563
-1.1427144 0.11069348 2.6988852 1985668
-1.0201119 0.11090576 2.6505153 10197915
-0.97441858 0.11095431 2.6516757 10197915
-0.92650688 0.11100518 2.6528916 10197915
-0.81854576 0.11111993 2.6556337 10000536
-0.79124767 0.11114889 2.6563258 10000536
-0.67315334 0.11127439 2.6593254 1523564
-0.6249643 0.11132558 2.6605484 7962244
-0.57453805 0.11137915 2.661829 10000536
-0.52516103 0.11143162 2.6630831 10000536
-0.49441561 0.11146425 2.6638629 10000536
-0.30845189 0.11166187 2.6685855 10197915
-0.27536976 0.11169701 2.669425 10197915
-0.22460631 0.11175095 2.6707146 10197915
-0.17489904 0.11180375 2.6719763 10197915
-0.1273571 0.11185427 2.6731834 10197915
-0.012195007 0.11197662 2.6761076 10197915
0.025510799 0.11201668 2.6770649 10197915
0.075454786 0.11206975 2.6783333 10197915
0.12544644 0.11212287 2.6796024 10197915
0.17548515 0.11217603 2.6808732 10197915
0.22445802 0.11222807 2.682117 10197915
0.27459103 0.11228132 2.6833894 10197915
0.32477131 0.11233464 2.6846638 10197915
0.37499967 0.11238801 2.6859391 10197915
0.42527533 0.11244139 2.6872156 10197915
0.47448015 0.11249369 2.6884649 10197915
0.52485102 0.11254722 2.6897445 10197915
0.57526922 0.11260078 2.6910243 10197915
0.6246137 0.11265321 2.692277 10197915
0.67512739 0.11270688 2.6935601 10197915
0.72568876 0.11276057 2.6948435 10197915
0.7751736 0.11281318 2.6960995 10197915
0.82470459 0.11286581 2.6973588 10197915
0.87428147 0.11291844 2.698617 9474192
0.91374975 0.11296042 2.6996193 6579300
0.97513205 0.11310633 2.6506188 6513507
1.0028442 0.11313576 2.6513088 6513507
-0.15582255 -0.76417553 2.7355134 6447714
-0.1492057 -0.76311314 2.7492342 6447714
-0.20619935 -0.61202562 2.7480636 6566193
-0.1745739 -0.6124683 2.7386396 6237228
-0.14923972 -0.61404729 2.749861 6566193
-1.6530755 -0.59903866 2.7269449 6447714
-1.6248926 -0.59900177 2.7233534 6447714
-1.5753053 -0.59894556 2.7225349 6447714
-1.5250821 -0.59888995 2.7225578 4734526
-1.4748691 -0.5988335 2.7221177 6500400
-1.4248869 -0.59877807 2.7219574 5052954
-1.3749211 -0.59872186 2.7215188 4329231
-1.3271707 -0.59866643 2.7197917 4329231
-1.2974508 -0.59860724 2.7032921 4329231
-0.71648055 -0.59800732 2.7305951 6447714
-0.67504579 -0.59795803 2.7285068 5192507
-0.62458307 -0.59790123 2.7279744 6566193
-0.57453716 -0.59784538 2.7276089 6566193
-0.52626538 -0.59778047 2.7205405 6566193
-0.49817404 -0.59773326 2.7103336 6566193
-0.20606731 -0.57516283 2.7480543 6442060
-0.17474389 -0.57503051 2.7386568 6047302
-0.14924517 -0.59014499 2.7499614 6501685
-0.20604961 -0.52530956 2.7480967 6447714
-0.17474569 -0.52507055 2.7387245 5921370
-0.20603186 -0.47568235 2.7481389 6447714
-0.17474514 -0.47505632 2.7387936 5855577
-0.20607845 -0.42581686 2.7482033 6447714
-0.17474481 -0.42503962 2.7388637 5855577
-0.20608214 -0.37572742 2.7482531 6447714
-0.17472287 -0.37496907 2.7389233 5855577
-1.9340307 -0.32226208 2.7251406 1124676
-1.4643495 -0.30538595 2.7149525 2039583
-1.4357547 -0.30597886 2.7053683 2039583
-1.0053875 -0.3097049 2.7142982 4144959
-0.99674809 -0.30972487 2.7400758 4144959
-0.20581767 -0.34263715 2.7481961 6447714
-0.16909629 -0.33105111 2.7356367 5921370
-1.9340528 -0.27504584 2.7252998 1125446
-1.4644045 -0.27468193 2.7149999 1844010
-1.4348258 -0.27474165 2.7199445 2039583
-1.3750142 -0.28971505 2.731715 5789784
-1.3286077 -0.2896575 2.7297311 6513507
-1.2101121 -0.28952208 2.7330322 5335426
-1.175995 -0.28947625 2.728956 5142432
-1.1475774 -0.28942823 2.7183502 3499670
-1.0677892 -0.2893489 2.7292945 6119782
-1.0150238 -0.29214519 2.720928 2171426
-0.9967643 -0.29441357 2.7403054 2039583
-0.61668909 -0.28880709 2.7220533 2039583
-0.57526302 -0.28875902 2.7227011 2039583
-0.52552342 -0.28869954 2.7221398 2039583
-0.49868414 -0.28865278 2.7110667 2039583
-0.31157979 -0.28844452 2.7202947 1908770
-0.27543625 -0.2884002 2.7190814 2039583
-0.22527036 -0.28834054 2.7187548 2039583
-0.1735108 -0.27220246 2.7218451 4148055
-1.9341301 -0.22498274 2.7253175 993861
-1.4645352 -0.22496593 2.7150924 1844526
-1.4365935 -0.22484168 2.7219665 2039583
-0.17475542 -0.22520886 2.7222109 4808823
-1.9341495 -0.17496328 2.7255054 927555
-1.4645665 -0.17547712 2.7151501 1778990
-1.4366357 -0.17504087 2.7220542 2039583
-0.17493396 -0.17529497 2.7223034 4546167
-1.934232 -0.12494157 2.7255025 993091
-1.4646947 -0.12507974 2.7152414 1712941
-1.4366962 -0.12504953 2.7220812 2039583
-0.17482412 -0.12475459 2.7222512 4020083
-1.9343226 -0.074774936 2.7254777 1059653
-1.4645324 -0.074475445 2.7152362 1712940
-1.4368409 -0.074813329 2.7220168 2039583
-0.17480704 -0.074440502 2.7224724 3691632
-1.9343139 -0.024843251 2.7257452 1190725
-1.4646621 -0.024748335 2.7153289 1713197
-1.4367865 -0.024811786 2.7222955 2039583
-0.17481261 -0.024814216 2.7225618 3560303
-1.9346658 0.024989799 2.7249353 1058883
-1.4646943 0.024749044 2.7153866 1647404
-1.4368318 0.024812847 2.7223823 2039583
-0.17481807 0.024815325 2.7226539 3362668
-1.9348572 0.074788749 2.7246075 926785
-1.4646695 0.074364923 2.7154267 3949389
-1.4369783 0.074820727 2.722276 5592405
-0.17482363 0.074448153 2.722743 4808826
-1.9325728 0.10546017 2.7255142 728637
-1.8750553 0.10983127 2.7330768 728122
-1.8249848 0.10988437 2.7343988 1582655
-1.7748666 0.10993756 2.7357221 10132122
-1.7414279 0.109973 2.7366037 10066329
-1.5694306 0.11015549 2.7411449 5140113
-1.5246619 0.11020296 2.742327 1323090
-1.4673023 0.10513534 2.7176433 9934743
-1.4333885 0.10593168 2.7263825 10000536
-1.3744078 0.11036237 2.7462931 10000536
-1.3328441 0.11040648 2.747391 10000536
-1.061914 0.11077928 2.7009771 10197915
-1.025345 0.11081806 2.7019224 10197915
-0.97543913 0.11087105 2.7032151 10197915
-0.93548161 0.11091347 2.7042489 10197915
-0.85102415 0.11100315 2.7064357 8555929
-0.82543558 0.11103033 2.7070978 8883862
-0.79872483 0.11105865 2.7077889 10000536
-0.70512366 0.11115804 2.7102122 2250892
-0.67500001 0.11119001 2.7109923 1652831
-0.62475872 0.11124337 2.7122927 10000536
-0.57558721 0.11129556 2.7135649 10000536
-0.52525026 0.11134901 2.7148685 10000536
-0.4983862 0.11137751 2.7155631 10000536
-0.31106111 0.11157642 2.7204127 10066329
-0.27508858 0.11161456 2.7213433 10197915
-0.22558826 0.11166716 2.722625 10197915
-0.17480236 0.10601654 2.722368 10132122
-0.12757578 0.11177118 2.725162 10197915
-0.01243212 0.11189347 2.7281427 10197915
0.024875961 0.11193304 2.7291086 10197915
0.074659236 0.11198592 2.7303975 10197915
0.12448952 0.11203882 2.7316866 10197915
0.17436694 0.11209176 2.7329776 10197915
0.22429152 0.11214478 2.7342706 10197915
0.27426326 0.11219782 2.7355635 10197915
0.32428244 0.11225092 2.7368588 10197915
0.37434894 0.1123041 2.7381546 10197915
0.4244628 0.11235727 2.7394514 10197915
0.47462434 0.11241055 2.7407503 10197915
0.52483326 0.11246385 2.7420499 10197915
0.57508987 0.11251721 2.7433503 10197915
0.62539434 0.11257061 2.7446532 10197915
0.67574638 0.11262407 2.7459564 10197915
0.7250002 0.11267636 2.7472315 10197915
0.77430022 0.11272871 2.7485075 10197915
0.8156082 0.11277255 2.7495763 10197915
0.93970215 0.11298796 2.7002773 6513507
0.97583354 0.11302636 2.701195 6513507
1.0131161 0.11306596 2.7021418 6513507
-0.35580373 -0.61233985 2.7982023 6566193
-0.32461172 -0.61227059 2.7877479 6566193
-0.27421531 -0.61229956 2.7708604 6566193
-0.23062085 -0.61219281 2.7562475 6566193
-1.6206943 -0.59907699 2.7736969 6447714
-1.5747207 -0.59902865 2.7752676 5592405
-1.5246807 -0.59897268 2.7750111 5516589
-1.4748772 -0.59891742 2.7748504 6039849
-1.4250836 -0.59886163 2.7744961 4329231
-1.3750715 -0.59880608 2.774236 4329231
-1.3381342 -0.59875661 2.7688951 4329231
-0.72299409 -0.59808809 2.7769918 6447714
-0.67675292 -0.59803063 2.7730026 4927279
-0.62786883 -0.59796196 2.7638683 6566193
-0.59219933 -0.59791553 2.7595341 6566193
-0.35590357 -0.57500786 2.7982707 6442317
-0.32456222 -0.57499164 2.7877688 6442317
-0.27440527 -0.57502335 2.7709563 6442060
-0.23062474 -0.574947 2.7562857 6442060
-0.14925064 -0.56624085 2.7500622 6513507
-0.35590991 -0.52516782 2.7983217 6447714
-0.32454678 -0.52506685 2.7878115 6447714
-0.27434289 -0.52490377 2.7709861 6447714
-0.23060194 -0.5249989 2.756326 6447714
-0.35548428 -0.47664502 2.7982254 6447714
-0.32449514 -0.47496974 2.7878413 6447714
-0.27431631 -0.47489238 2.7710247 6447714
-0.23063654 -0.47497723 2.7563872 6447714
-0.35475418 -0.42512271 2.7980313 6447714
-0.32454747 -0.42498413 2.7879081 6447714
-0.27446127 -0.4249911 2.7711217 6447714
-0.23074086 -0.42488176 2.7564702 6447714
-0.35459855 -0.39154184 2.7980111 6447714
-0.32202134 -0.38640246 2.7870982 6447714
-0.27283219 -0.37833557 2.7706208 6447714
-0.23073858 -0.37478438 2.7565174 6447714
-1.9174531 -0.32229179 2.7747741 1124676
-0.98516268 -0.30967861 2.7746458 4079166
-0.2252074 -0.34532982 2.7546918 6447714
-1.9175069 -0.2749604 2.7748451 1190981
-1.4225074 -0.28983372 2.7776265 3552822
-1.3746982 -0.28977427 2.775388 6447714
-1.3387601 -0.28972819 2.7727559 6513507
-1.2195787 -0.28959072 2.7751818 5337490
-1.1831179 -0.28954315 2.7718585 5011104
-1.1036588 -0.28946534 2.7836876 2039583
-1.0744052 -0.28941551 2.772464 2969718
-1.0248007 -0.28935546 2.7713773 1974822
-0.98620993 -0.29387844 2.7748775 2039583
-0.61034179 -0.28885689 2.7641118 2039583
-0.5739401 -0.28882009 2.7686286 2039583
-0.52910095 -0.28877655 2.7755432 2039583
-0.31464282 -0.28852484 2.7765555 1974049
-0.27763435 -0.28846744 2.76652 2039583
-0.2298682 -0.28840262 2.7603133 2039583
-1.9175445 -0.22501045 2.7749784 1059140
-1.917631 -0.17506145 2.7749639 993090
-1.9176285 -0.12505272 2.7752147 1059139
-1.9177986 -0.075311325 2.7749486 1125188
-1.9177579 -0.025295043 2.7753162 1190724
-1.9178145 0.025296021 2.7753952 1124419
-1.9179657 0.075318061 2.7751911 992577
-1.9171947 0.10518392 2.7765291 794173
-1.8760109 0.10974216 2.7883508 661814
-1.8260636 0.10979509 2.7896965 8093573
-1.784026 0.10983965 2.7908285 10197915
-1.6109691 0.11002307 2.7954888 7307153
-1.5756021 0.11006059 2.7964423 1917807
-1.5356451 0.11010292 2.7975175 3623004
-1.4533501 0.11019015 2.7997341 10000536
-1.4464864 0.11019743 2.7999191 10000536
-1.2135832 0.110533 2.7505388 10000536
-1.1786526 0.11057004 2.7514613 2905992
-1.0725924 0.11068257 2.754261 10197915
-1.0251336 0.11073291 2.7555139 10197915
-0.97536904 0.1107857 2.7568274 10197915
-0.94481009 0.11081813 2.7576344 10197915
-0.85982496 0.11090829 2.7598779 4156056
-0.83146471 0.11093837 2.7606263 3164518
-0.71218896 0.11106491 2.7637753 1986695
-0.67578226 0.11110353 2.7647362 3492450
-0.62568402 0.11115668 2.7660589 10000536
-0.57553774 0.11120987 2.7673824 10000536
-0.52876776 0.11125948 2.7686174 10000536
-0.31377363 0.11148758 2.7742932 10000536
-0.27479616 0.1115289 2.7753212 10132122
-0.22775717 0.11157881 2.7765634 10197915
-0.1507992 0.11166048 2.7785957 10197915
-0.12895294 0.11168361 2.7791717 10197915
-0.012678639 0.11180698 2.7822416 10197915
0.025369465 0.11184733 2.7832458 10197915
0.074986376 0.11189999 2.7845562 10197915
0.12465035 0.11195266 2.785866 10197915
0.17551757 0.11200663 2.7872093 10197915
0.22527595 0.11205944 2.7885227 10197915
0.27508152 0.11211223 2.7898376 10197915
0.32493386 0.11216515 2.7911537 10197915
0.37483355 0.11221807 2.7924709 10197915
0.42477995 0.11227105 2.7937896 10197915
0.474774 0.1123241 2.7951097 10197915
0.5248149 0.11237718 2.7964301 10197915
0.57490349 0.11243031 2.7977526 10197915
0.62503922 0.11248352 2.7990766 10197915
0.65537483 0.11251565 2.799876 10197915
0.84086835 0.11279938 2.7502306 10197915
0.87533563 0.11283597 2.751123 10197915
0.92477506 0.11288847 2.7524028 6908265
0.97426057 0.11294097 2.7536833 6513507
1.0226395 0.11299235 2.7549357 6513507
-0.37638935 -0.6122551 2.8051012 3814466
-1.6128966 -0.59914619 2.8225756 6447714
-1.5749966 -0.59910727 2.8244948 4601655
-1.5248331 -0.59905112 2.8241639 6566193
-1.4749663 -0.59899533 2.8237712 4921368
-1.4251175 -0.59894013 2.82377 4329231
-1.3768511 -0.59888452 2.8223944 4329231
-1.3476518 -0.59882712 2.806673 4329231
-0.75266933 -0.59817487 2.8109033 6447714
-0.73392421 -0.59814346 2.8041518 6447714
-0.37664625 -0.57497525 2.8052232 3751758
-0.37640378 -0.52491909 2.8051898 3688021
-0.37617099 -0.47445783 2.8051603 3688021
-0.3751964 -0.42495599 2.8048818 3753813
-0.37574497 -0.39133689 2.8050985 3622228
-1.9045274 -0.32218426 2.8134801 1124419
-1.8959886 -0.32227135 2.8390439 1124675
-0.97099954 -0.3096194 2.8169062 4079166
-1.9045944 -0.2749846 2.8135092 1125188
-1.8960577 -0.27487934 2.8390713 1124932
-1.4216496 -0.28989092 2.8203516 5658198
-1.3760347 -0.28983673 2.8201473 6250335
-1.3476906 -0.28978837 2.8091779 6579300
-1.2559695 -0.28970212 2.825397 2504003
-1.2252065 -0.28965747 2.8192773 5141916
-1.1926717 -0.28961328 2.8150585 4616348
-1.1107154 -0.28952384 2.8205023 3165547
-1.0750352 -0.28947759 2.8175271 2704998
-1.0252154 -0.28941765 2.816679 1974047
-0.97600907 -0.29277796 2.8175116 2039583
-0.6044848 -0.28889963 2.8005621 2039583
-0.56427616 -0.27459413 2.8394325 3294552
-0.5398016 -0.28134733 2.839515 2568508
-1.9046518 -0.22506484 2.8135786 1058883
-1.8961246 -0.2248995 2.8391144 1058883
-0.56009817 -0.22521682 2.8461995 5339555
-0.54892325 -0.22547153 2.8494191 4419227
-1.9046863 -0.17494635 2.8137226 992833
-1.8961498 -0.17526579 2.8392839 992320
-0.56011057 -0.17569649 2.8462617 4682657
-0.54895282 -0.17590082 2.8495727 4091292
-1.9047922 -0.12502633 2.8136508 1059138
-1.8961581 -0.12526858 2.8395023 1124673
-0.56012303 -0.12499496 2.8463254 3696794
-0.54898322 -0.1251443 2.8497303 3433623
-1.9047664 -0.074891128 2.8139741 1190723
-1.896692 -0.074741594 2.8381495 1190979
-0.5601356 -0.074291095 2.84639 2974102
-0.5490135 -0.07438226 2.8498874 2776209
-1.9049021 -0.024780815 2.8138142 1190467
-1.8967061 -0.024693698 2.8383524 1190466
-0.56014806 -0.024764176 2.8464532 2645395
-0.54903185 -0.043686394 2.8499825 2579601
-1.9049567 0.024781764 2.8138933 1058625
-1.8967601 0.024694612 2.8384333 1124161
-0.56016022 0.02476491 2.8465147 2316430
-1.9049306 0.074897833 2.8142164 860221
-1.8968555 0.0747483 2.8383939 860220
-0.56017232 0.074296199 2.8465776 3432333
-1.9050034 0.10492801 2.8141451 662329
-1.8883682 0.10663042 2.8412609 2700619
-1.8260281 0.10970332 2.8473082 10197915
-1.4213098 0.11022415 2.8005977 10000536
-1.3743588 0.11027389 2.8018615 10000536
-1.3457122 0.11030427 2.802634 10000536
-1.2516329 0.11040401 2.8051679 10000536
-1.2252116 0.11043196 2.8058786 7044497
-1.1907345 0.11046855 2.8068078 1920389
-1.1090425 0.11055516 2.8090081 10197915
-1.0756364 0.11059055 2.809907 10197915
-1.0249139 0.11064432 2.8112738 10197915
-0.97875977 0.11069324 2.8125162 10197915
-0.86782289 0.11081085 2.8155048 2839424
-0.83889449 0.11084147 2.8162827 2834260
-0.71953899 0.11096802 2.8194983 1721977
-0.67543501 0.11101473 2.8206856 5858417
-0.6254847 0.1110677 2.8220317 10000536
-0.56520605 0.1069825 2.8389859 10066329
-0.53359169 0.11116511 2.824506 10000536
-0.31776479 0.11139391 2.8303192 9671829
-0.27566174 0.1114385 2.8314526 10066329
-0.23001368 0.11148691 2.8326824 10197915
-0.15267323 0.11156891 2.8347659 10197915
-0.13038576 0.11159249 2.8353653 10197915
-0.012935131 0.11171701 2.8385289 10197915
0.024706081 0.11175693 2.8395422 10197915
0.074149169 0.11180932 2.8408747 10197915
0.1248177 0.11186299 2.8422382 10197915
0.17553461 0.1119168 2.8436046 10197915
0.22511928 0.11196934 2.8449404 10197915
0.27475047 0.11202195 2.8462765 10197915
0.3244285 0.11207464 2.8476152 10197915
0.37415308 0.11212732 2.848954 10197915
0.40614197 0.11216126 2.8498163 10197915
0.68105996 0.11254293 2.8005545 10197915
0.72545314 0.11259004 2.8017268 10197915
0.77456176 0.11264213 2.8030233 10197915
0.82488668 0.11269551 2.8043516 10197915
0.87525928 0.11274895 2.8056819 10197915
0.92450649 0.1128012 2.8069816 8289918
0.97497374 0.11285473 2.8083138 6513507
1.0254891 0.11290832 2.8096478 6513507
1.0584062 0.11294322 2.8105159 6513507
-0.56593025 -0.61242139 2.8686228 6566193
-0.53658384 -0.61241651 2.8587883 6566193
-1.605751 -0.59920305 2.8633308 3947580
-1.5750427 -0.59918833 2.8754563 5778990
-1.5251089 -0.5991323 2.8749666 5974056
-1.4751818 -0.59907693 2.8749213 4329231
-1.4250251 -0.59902096 2.8746533 4329231
-1.3869573 -0.5989691 2.8685749 4329231
-0.5662055 -0.57452297 2.8687522 6508367
-0.53645021 -0.57485008 2.858779 6442574
-0.56696171 -0.52500242 2.8690531 6513507
-0.53648126 -0.52479345 2.8588386 6447714
-0.56641644 -0.47676256 2.8689177 6513507
-0.53654534 -0.47494864 2.8589079 6447714
-0.55300558 -0.44976187 2.8644485 6513507
-0.53402281 -0.44624338 2.8580902 6447714
-1.8840476 -0.32239056 2.8747973 1843494
-1.8841321 -0.27499717 2.8747795 1777959
-1.4149199 -0.28994626 2.8668203 2831164
-1.3865976 -0.28991091 2.8654494 2039583
-1.2658353 -0.28977317 2.8689911 4086648
-1.2280824 -0.28972253 2.864553 4945312
-1.1200818 -0.28959686 2.8659644 3824768
-1.0751054 -0.28954151 2.8643501 2043453
-1.0233111 -0.28949317 2.8736923 2039583
-0.9883942 -0.28944537 2.8688903 2039583
-0.58027989 -0.2694566 2.8526704 5000268
-0.54296196 -0.2707344 2.8653634 2177878
-1.8842162 -0.22498234 2.8747723 1777959
-0.58028919 -0.22573254 2.8527155 6513507
-0.54365844 -0.22493693 2.8651304 2708348
-1.8842853 -0.17496631 2.8748071 1777702
-0.5803495 -0.17507941 2.8527851 6513507
-0.54370004 -0.1746995 2.8652525 2511227
-1.8842931 -0.12500703 2.8750312 1777959
-0.58025926 -0.12427314 2.8528035 6513507
-0.5436998 -0.12464964 2.8654971 2182008
-1.8847281 -0.07501097 2.8739703 1778216
-0.58032107 -0.074460313 2.8528736 6513507
-0.54372931 -0.074793734 2.8656521 1984885
-1.8847826 -0.02500429 2.874054 1777960
-0.58033168 -0.024820508 2.8529236 6513507
-0.54435468 -0.024251807 2.8640335 2051191
-1.884836 0.025005234 2.874135 1777960
-0.58034217 0.024821101 2.8529754 6513507
-0.54454327 0.024914654 2.8637109 1853556
-1.88489 0.075017691 2.8742187 2238511
-0.58035266 0.074464515 2.8530273 9079434
-0.54457277 0.074747562 2.8638654 2706035
-1.8849237 0.10478819 2.8742681 7370109
-1.6518612 0.10988776 2.8520951 10000536
-1.625102 0.10991613 2.8528314 3562632
-1.5762048 0.10996791 2.8541753 2702419
-1.4677689 0.11008277 2.8571563 10000536
-1.4245639 0.11012851 2.8583438 10000536
-1.3848321 0.11017061 2.8594363 10000536
-1.2642785 0.11029828 2.8627501 7899030
-1.2279401 0.11033678 2.8637486 2708872
-1.1199497 0.11045116 2.8667176 10132122
-1.0752788 0.11049847 2.8679457 10197915
-1.025862 0.1105508 2.8693035 10197915
-0.98935902 0.11058946 2.8703074 10197915
-0.90211672 0.11068187 2.8727057 3366802
-0.87496912 0.11071061 2.8734515 2245995
-0.84781098 0.11073936 2.874198 6713209
-0.75204885 0.1108408 2.8768306 2316429
-0.72600716 0.11086839 2.8775468 1523306
-0.6750735 0.11092231 2.8789461 8290952
-0.62409067 0.11097632 2.880348 10000536
-0.58124787 0.10551091 2.8545742 10066329
-0.54324979 0.10628311 2.8663216 10066329
-0.32072723 0.11129762 2.8886876 9737621
-0.27417484 0.11134692 2.889967 10132122
-0.2311683 0.11139248 2.8911493 10197915
-0.15462458 0.11147356 2.893254 10197915
-0.13187775 0.11149762 2.8938782 10197915
-0.013202212 0.11162333 2.897141 10197915
0.025216457 0.11166399 2.8981967 10197915
0.070872612 0.11171239 2.8994522 10197915
0.43103758 0.11218761 2.8504858 10197915
0.47492978 0.11223417 2.8516686 10197915
0.52598381 0.11228825 2.8530431 10197915
0.57589835 0.11234117 2.8543878 10197915
0.62585986 0.11239414 2.8557332 10197915
0.67586833 0.11244714 2.8570797 10197915
0.72592437 0.11250023 2.8584285 10197915
0.77602738 0.1125533 2.8597775 10197915
0.824983 0.11260521 2.8610964 10197915
0.87398428 0.11265715 2.862416 10197915
0.92422712 0.11271039 2.8637688 9605778
0.974518 0.11276371 2.865124 6513507
1.024856 0.11281706 2.8664792 6513507
1.0692401 0.11286411 2.8676746 6513507
-1.5702914 -0.59926444 2.9266326 6500400
-1.5253327 -0.59921646 2.9278035 4723989
-1.4751587 -0.59916055 2.927604 4329231
-1.426612 -0.5991047 2.9263084 4329231
-1.396968 -0.59904498 2.9093812 4329231
-1.8689157 -0.32234699 2.9201078 2039583
-0.92702216 -0.31022871 2.9481256 4944543
-1.8690492 -0.27510709 2.9199395 2039583
-1.407173 -0.28999671 2.9105921 2039583
-1.3957283 -0.28997463 2.9042935 2039583
-1.3039356 -0.28989825 2.9278259 2039583
-1.2741443 -0.28984669 2.9157665 4549521
-1.2377278 -0.28979781 2.9114723 5010848
-1.155226 -0.28971177 2.9198735 2307142
-1.124874 -0.2896671 2.9133534 3890559
-1.072939 -0.2896122 2.918062 2040615
-1.0283092 -0.28957918 2.9325044 2039583
-0.99822003 -0.28953227 2.92413 2039583
-0.92704141 -0.294357 2.9481869 4944799
-1.8690668 -0.22508585 2.9201322 2039583
-1.8691945 -0.17499359 2.9199934 2039583
-1.869109 -0.12489499 2.920496 2039583
-1.8692868 -0.075301833 2.9202094 2039583
-1.8692764 -0.025408208 2.9204788 2039583
-1.8693311 0.025409186 2.9205639 2039583
-1.869436 0.075236507 2.9204981 2697513
-1.8684 0.1051373 2.9188595 9934743
-1.8449261 0.10958764 2.9068179 10000536
-1.6695176 0.10977326 2.9117415 5140111
-1.625572 0.10981978 2.9129753 1258071
-1.5922936 0.10985499 2.9139087 5726574
-1.5089996 0.10994314 2.9162471 10000536
-1.4756429 0.10997845 2.9171839 10000536
-1.42557 0.11003143 2.9185889 10000536
-1.3993244 0.11005922 2.9193263 10000536
-1.3025703 0.11016162 2.9220424 10000536
-1.2750615 0.11019067 2.9228134 3432334
-1.2403611 0.11022743 2.9237883 1920645
-1.1565012 0.11031618 2.9261417 10000536
-1.1241171 0.11035042 2.9270504 10000536
-1.0749061 0.11040251 2.928432 10197915
-1.0256479 0.1104546 2.9298139 10197915
-0.99919999 0.11048262 2.930557 10197915
-0.91133702 0.1105756 2.9330232 3169936
-0.88121212 0.11060746 2.9338682 2177623
-0.75933528 0.11073644 2.9372897 2118793
-0.72428632 0.11077352 2.9382732 2441054
-0.67469704 0.11082599 2.9396653 10000536
-0.62869447 0.11087468 2.9409559 10000536
-0.54506063 0.11096315 2.9433029 10066329
-0.32746926 0.11119343 2.9494119 9869208
0.096119769 0.11173914 2.900147 10197915
0.12499157 0.11176968 2.9009392 10197915
0.17434809 0.11182196 2.9022965 10197915
0.22495613 0.11187557 2.9036877 10197915
0.27561259 0.11192922 2.9050801 10197915
0.32510984 0.11198167 2.906441 10197915
0.37465364 0.1120341 2.9078021 10197915
0.42545396 0.11208791 2.9091992 10197915
0.47509161 0.11214049 2.9105639 10197915
0.52477616 0.11219309 2.9119291 10197915
0.57572091 0.11224707 2.9133306 10197915
0.62549955 0.11229978 2.9146981 10197915
0.67532539 0.11235254 2.9160678 10197915
0.72519779 0.11240538 2.917439 10197915
0.7751174 0.11245824 2.9188106 10197915
0.82508385 0.11251118 2.9201846 10197915
0.87509739 0.11256412 2.9215593 10197915
0.92515773 0.11261716 2.9229352 10197915
0.97526586 0.11267022 2.9243131 7303023
1.0254205 0.11272334 2.9256909 6513507
1.0743983 0.11277523 2.927038 6513507
1.1050297 0.11280763 2.9278789 6513507
-1.5619915 -0.59932989 2.9735632 5184540
-1.5250539 -0.59929401 2.9767594 4329231
-1.4749777 -0.59923768 2.9761755 4329231
-1.4366992 -0.59918863 2.9720283 4329231
-0.92393875 -0.36167699 2.9897568 2040098
-0.92131883 -0.32526836 2.9838188 4352658
-1.312844 -0.28996396 2.9682846 3691374
-1.2757288 -0.28991559 2.9649541 5076641
-1.2462906 -0.28986344 2.9521792 3368086
-1.1644779 -0.28978559 2.9660397 4349821
-1.1245648 -0.28973496 2.963428 2769756
-1.0785607 -0.28968358 2.9655654 2039583
-1.0316154 -0.28964096 2.9750185 2039583
-0.91973537 -0.27496976 2.9766779 4615830
-0.92027563 -0.22510396 2.9770947 4221589
-0.92010063 -0.17498115 2.9775534 3564176
-0.92013454 -0.12519979 2.9776173 2972556
-0.92035019 -0.074814595 2.9773953 2644363
-0.92025852 -0.024672559 2.9777236 2447497
-0.92028928 0.024673674 2.9778233 2184069
-0.92044276 0.074822456 2.9776955 1920128
-1.7121708 0.10962824 2.9732404 6847377
-1.6745913 0.10966799 2.9743187 1523306
-1.6333457 0.10971157 2.9755006 3491418
-1.5252206 0.10982589 2.978601 10000536
-1.4753344 0.10987864 2.9800317 10000536
-1.4388044 0.10991727 2.9810791 10000536
-1.3168441 0.11004619 2.984576 5271699
-1.2789779 0.11008624 2.9856617 2052231
-1.1688898 0.11020265 2.9888186 10000536
-1.124788 0.11024924 2.9900825 10132122
-1.0757436 0.11030109 2.9914892 10197915
-1.035248 0.11034392 2.9926503 10197915
-0.91876203 0.10592958 2.9800932 2182012
-0.89018548 0.11049725 2.996809 2834004
-0.78174043 0.11061194 2.9999192 2250893
-0.30310282 0.11121918 2.9500942 10066329
-0.27506381 0.11124889 2.9508822 10000536
-0.23359174 0.11129277 2.9520466 10197915
-0.15543604 0.1113755 2.9542408 10197915
-0.13221011 0.11140002 2.9548912 10197915
-0.013480556 0.11152568 2.9582245 10197915
0.024521869 0.1115659 2.959291 10197915
0.074823722 0.11161915 2.9607031 10197915
0.12517315 0.1116724 2.9621158 10197915
0.17434113 0.11172444 2.963496 10197915
0.22478603 0.11177782 2.9649119 10197915
0.27527884 0.11183123 2.9663291 10197915
0.32458684 0.11188342 2.9677138 10197915
0.37517536 0.11193696 2.9691331 10197915
0.42581216 0.11199055 2.9705551 10197915
0.47526065 0.11204287 2.9719424 10197915
0.52475548 0.11209525 2.9733319 10197915
0.57429659 0.11214769 2.9747229 10197915
0.62512434 0.11220145 2.9761491 10197915
0.67600095 0.11225529 2.9775772 10197915
0.72568345 0.11230785 2.9789717 10197915
0.7754128 0.11236049 2.9803674 10197915
0.82518876 0.11241317 2.981765 10197915
0.87501127 0.11246588 2.9831629 10197915
0.92488068 0.11251865 2.9845631 10197915
0.97479647 0.11257146 2.9859633 8816262
1.0247598 0.11262436 2.9873664 6513507
1.0747697 0.11267726 2.98877 6513507
1.1173141 0.11272228 2.989964 6513507
-1.8307885 -0.57028049 3.0330584 6447714
-1.5538269 -0.5790661 3.0219421 3086103
-1.5250006 -0.57617068 3.0138831 3216918
-1.4889055 -0.57930756 3.0269401 3544084
-1.4456533 -0.59925842 3.0097418 4329231
-1.8308381 -0.52496177 3.0331283 6447714
-1.5534215 -0.52555931 3.023947 2039583
-1.5247313 -0.52514172 3.0142388 2039583
-1.4927138 -0.52495968 3.0278177 2039840
-1.8309511 -0.48678881 3.03298 6447714
-1.5534977 -0.47607169 3.0240328 2039583
-1.5247589 -0.47505626 3.0143092 2039583
-1.4927657 -0.47497842 3.0279059 2039841
-1.5534463 -0.43908477 3.0240602 2039583
-1.523508 -0.43586668 3.0139337 2039583
-1.4928573 -0.43368399 3.0278375 2039841
-1.1062273 -0.37569454 3.0483689 4671303
-1.0754309 -0.37038508 3.0380521 4605510
-1.0395288 -0.36661395 3.0260236 4276545
-0.90901643 -0.36310905 3.0015938 1974048
-1.5536265 -0.30571356 3.0242832 2039583
-1.5279433 -0.30400357 3.015594 3624809
-1.492855 -0.3022691 3.0284829 1715781
-1.0588437 -0.34750265 3.032516 6447714
-1.0381413 -0.34644601 3.0255787 6447714
-0.90904534 -0.32581359 3.0016894 1782862
-1.5536494 -0.27564734 3.0243278 2039583
-1.5249513 -0.27476233 3.0146172 3956095
-1.4929448 -0.27493414 3.0283506 2307916
-1.3512655 -0.29009512 3.03128 2039583
-1.3228189 -0.2900441 3.0184631 4351627
-1.2844813 -0.28999418 3.0150535 5010848
-1.2023381 -0.2899166 3.0294147 2039583
-1.1732785 -0.28986484 3.0165594 4022403
-1.124244 -0.28980511 3.0152535 2239284
-1.0746754 -0.28974527 3.0142982 2039583
-1.0378966 -0.2896989 3.0120971 2039583
-0.90908396 -0.27608281 3.0018172 1848912
-1.5536871 -0.22553508 3.0244009 2039583
-1.5249883 -0.22481097 3.0146897 3890560
-1.4930084 -0.22493614 3.0284069 2242381
-0.90912366 -0.22510426 3.0019481 1717583
-1.5537248 -0.17542042 3.0244746 2039583
-1.5250258 -0.17485718 3.0147643 3430526
-1.4930716 -0.17511629 3.0284607 1979467
