# .PCD v0.7 - Point Cloud Data file format
VERSION 0.7
FIELDS x y z rgb
SIZE 4 4 4 4
TYPE F F F U
COUNT 1 1 1 1
WIDTH 1167
HEIGHT 1
VIEWPOINT 0 0 0 1 0 0 0
POINTS 1167
DATA ascii
0.12363039 0.10803653 1.3291759 10197915
0.17512821 0.10818999 1.3189338 10197915
0.22503197 0.10827611 1.3199823 10197915
0.27501255 0.10836178 1.3211013 10197915
0.32507434 0.10844836 1.322085 10197915
0.37507945 0.10853442 1.3231701 10197915
0.42502236 0.10862128 1.3240806 10197915
0.47504833 0.10870679 1.3252711 10197915
0.52501291 0.10879306 1.3262836 10132122
0.57505661 0.10887919 1.3273731 10132122
0.62518114 0.10896616 1.3283204 10132122
0.67496616 0.10905158 1.329434 10132122
0.7254923 0.10915401 1.327799 10132122
0.77490419 0.10929541 1.3190082 10132122
0.82487464 0.10938091 1.3201529 10132122
0.8749221 0.10946742 1.3211581 10132122
0.92504883 0.10955364 1.322238 10132122
0.97511792 0.10964099 1.3231406 10132122
1.0236741 0.10971737 1.3254191 10132122
1.0578551 0.10969843 1.3397762 10132122
-1.1032128 0.10542451 1.3905549 10197915
-1.0705793 0.10557731 1.3743217 10197915
-1.02496 0.10567696 1.371588 10197915
-0.97489983 0.10576373 1.3725488 10197915
-0.92490137 0.10585079 1.3734704 10197915
-0.87496191 0.10593513 1.3748137 10197915
-0.82508081 0.10602107 1.3758861 10197915
-0.77497721 0.10610692 1.3770022 10197915
-0.7250765 0.1061931 1.3780336 10197915
-0.67663658 0.10630101 1.3747612 10197915
-0.62495351 0.10640385 1.3734394 10197915
-0.57515323 0.10648879 1.3746457 10197915
-0.52508354 0.10657536 1.3756528 10197915
-0.47296599 0.10668319 1.3736031 10197915
-0.42486933 0.10678665 1.370994 10197915
-0.37490258 0.10687202 1.3721746 10197915
-0.32485226 0.10695846 1.3731993 10197915
-0.27500793 0.10704286 1.3745309 10197915
-0.22508301 0.10713039 1.3753225 10197915
-0.17507659 0.10721575 1.3765024 10197915
-0.12499256 0.10730045 1.3778394 10197915
-0.075733975 0.10739087 1.3779112 10197915
-0.025027536 0.10751151 1.3731593 10197915
0.024863506 0.10759781 1.3741505 10197915
0.075020693 0.10768399 1.3752534 10197915
0.12652797 0.10778435 1.374305 10197915
0.17490576 0.10789455 1.3706336 10197915
0.22505635 0.10797937 1.3719586 10197915
0.27514696 0.10806703 1.3727838 10197915
0.32517096 0.10815211 1.3740288 10197915
0.37513518 0.10823824 1.3750813 10197915
0.42503405 0.1083236 1.3762487 10197915
0.47500992 0.10840998 1.3772629 10197915
0.52492267 0.10849644 1.3782337 10132122
0.57297009 0.10859614 1.3762875 10132122
0.62473071 0.10870597 1.3737648 10132122
0.67477822 0.10879204 1.3748523 10132122
0.72570896 0.10888512 1.3749902 10132122
0.77508485 0.10900328 1.370252 10132122
0.82512915 0.10908844 1.3714851 10132122
0.87510663 0.10917465 1.3725276 10132122
0.92501938 0.10926092 1.3735275 10132122
0.97486454 0.10934553 1.3747991 10132122
1.0247889 0.10943259 1.3756849 10132122
1.0718668 0.10949691 1.3796152 10132122
1.1056188 0.10946198 1.3966424 10197915
-1.1193789 -0.42244714 1.4387574 11711154
-1.1197479 -0.37514201 1.4388345 5987163
-1.1201341 -0.32499164 1.4389184 2960685
-1.1203355 -0.27503908 1.4391284 2960685
-1.1208832 -0.22500806 1.4391015 2960685
-1.121033 -0.17501365 1.4393462 2960685
-1.1215239 -0.12508318 1.4393575 2960685
-1.1218103 -0.075021498 1.4395105 2960685
-1.1220636 -0.025199855 1.4396831 2960685
-1.1224959 0.025052195 1.4397365 2960685
-1.1227367 0.075025491 1.4399197 3684408
-1.1199104 0.10340279 1.4350647 10197915
-1.0767614 0.10528637 1.4233056 10197915
-1.0250821 0.105393 1.4213141 10197915
-0.97504097 0.10547929 1.4223559 10197915
-0.92511421 0.1055648 1.4235058 10197915
-0.87510347 0.1056504 1.4246629 10197915
-0.82501453 0.10573616 1.4258162 10197915
-0.77503508 0.10582105 1.4270864 10197915
-0.72478503 0.10590833 1.4280163 10197915
-0.67345226 0.10602809 1.4236159 10197915
-0.62507534 0.10612012 1.4231229 10197915
-0.57498491 0.10620664 1.4241464 10197915
-0.5249607 0.10629179 1.4253788 10197915
-0.47514716 0.10637756 1.4264379 10197915
-0.42680833 0.10648152 1.4238412 10197915
-0.37492964 0.10659079 1.4214575 10197915
-0.32493621 0.10667643 1.4225996 10197915
-0.27506125 0.10676185 1.4237387 10197915
-0.22510308 0.10684747 1.4248806 10197915
-0.17506813 0.10693317 1.4260236 10197915
-0.1251462 0.10701871 1.4271641 10197915
-0.074165598 0.1071128 1.4271415 10197915
-0.025037777 0.10723169 1.4221792 10197915
0.025064494 0.10731757 1.4233181 10197915
0.074949011 0.10740358 1.4243631 10197915
0.12491532 0.10748874 1.4255877 10197915
0.17510819 0.1075745 1.4267718 10197915
0.2231466 0.10767704 1.4243193 10197915
0.27487132 0.10778734 1.4217042 10197915
0.32519495 0.10787363 1.4228421 10197915
0.37500894 0.10795904 1.4239659 10197915
0.4248988 0.10804458 1.425097 10197915
0.47506925 0.10812996 1.4263452 10132122
0.52511847 0.10821709 1.4272472 10132122
0.57698619 0.10832986 1.4242417 10132122
0.62523967 0.10842971 1.4223396 10132122
0.67497456 0.10851452 1.4235425 10132122
0.72479153 0.10860045 1.4245796 10132122
0.7748329 0.10868503 1.4259206 10132122
0.82495427 0.10877224 1.4268335 10132122
0.87319714 0.10887368 1.4246428 10132122
0.92489582 0.10898371 1.422063 10132122
0.974953 0.10907023 1.4230691 10132122
1.0246872 0.10915559 1.4241824 10132122
1.0747025 0.10924074 1.4254172 10197915
1.1186621 0.10929922 1.4293714 10197915
-1.1013666 -0.42248237 1.4511396 11711154
-1.0752224 -0.42237997 1.4691118 3750201
-1.0402607 -0.42273578 1.4931409 2960685
-1.1017621 -0.37361401 1.4512081 5592405
-1.0751308 -0.37497881 1.4695047 3223857
-1.0401869 -0.37513936 1.493523 2960685
-1.1020975 -0.32491857 1.4513174 2960685
-1.0753124 -0.32501054 1.4697282 2960685
-1.0407358 -0.32500717 1.4934956 2960685
-1.1023511 -0.27453837 1.4514942 2960685
-1.0754662 -0.27500695 1.4699706 2960685
-1.0408669 -0.27498862 1.4937547 2960685
-1.1024648 -0.22485664 1.4517629 2960685
-1.0752397 -0.22502375 1.4704759 2960685
-1.0413315 -0.22523671 1.4937826 2960685
-1.1026301 -0.17504892 1.4519963 2960685
-1.0753094 -0.17492215 1.4707779 2960685
-1.0415188 -0.17523207 1.4940022 2960685
-1.1031072 -0.12449254 1.4520212 2960685
-1.0751207 -0.12499756 1.4712552 2960685
-1.0414689 -0.12530875 1.4943848 2960685
-1.1033641 -0.075125538 1.452189 2960685
-1.0754684 -0.075000547 1.4713655 2960685
-1.0419446 -0.074943908 1.4944085 2960685
-1.1035391 -0.02384348 1.4524268 2960685
-1.0752478 -0.025097551 1.4718642 2960685
-1.0421364 -0.024834005 1.4946266 2960685
-1.10374 0.025098801 1.4526291 2960685
-1.0751809 0.02500819 1.4722601 2960685
-1.0426117 0.024566328 1.4946446 2960685
-1.1038749 0.075055927 1.4528852 3684408
-1.0754464 0.075086042 1.4724269 3684408
-1.0427555 0.074606307 1.4948945 3684408
-1.1043841 0.10231397 1.4527254 10197915
-1.0731322 0.10303126 1.4706174 10197915
-1.0294577 0.10436706 1.4797243 10197915
-0.97662604 0.10519673 1.4713578 10197915
-0.9250083 0.105304 1.4692372 10197915
-0.8749913 0.10538942 1.4704286 10197915
-0.82509661 0.10547462 1.4716172 10197915
-0.77511811 0.10555992 1.4728078 10197915
-0.72506195 0.10564541 1.4740003 10197915
-0.67512316 0.10573069 1.4751899 10197915
-0.62510598 0.10581536 1.4765077 10197915
-0.57500839 0.10590164 1.4775754 10197915
-0.525029 0.10598771 1.4786357 10197915
-0.47517607 0.10607139 1.4800816 10197915
-0.42338362 0.10619028 1.4759785 10197915
-0.37505993 0.10628849 1.4743811 10197915
-0.32601425 0.10637748 1.4746301 10197915
-0.27487853 0.10650391 1.4689951 10197915
-0.22474785 0.10658886 1.470302 10197915
-0.17494285 0.10667545 1.4712225 10197915
-0.12505898 0.10675927 1.472652 10197915
-0.074889623 0.10684571 1.4737091 10197915
-0.024846356 0.10693124 1.4748859 10197915
0.024872685 0.10701624 1.4760579 10197915
0.075076051 0.107102 1.4772445 10197915
0.12515856 0.10718764 1.478422 10197915
0.17490812 0.10727263 1.4795949 10197915
0.2268797 0.10738847 1.4760907 10197915
0.27513796 0.10748836 1.4741794 10197915
0.32516861 0.1075744 1.47526 10197915
0.37369013 0.10768512 1.4715371 10197915
0.42486423 0.10778872 1.4699125 10132122
0.47477156 0.10787339 1.4712044 10132122
0.52496111 0.10795996 1.4722483 10132122
0.57481855 0.10804527 1.4734108 10132122
0.62475824 0.10813068 1.4745761 10132122
0.67477351 0.10821623 1.4757426 10132122
0.72487152 0.10830192 1.4769112 10132122
0.77504539 0.1083877 1.4780815 10132122
0.82488781 0.1084723 1.4793715 10132122
0.87665939 0.10858823 1.4757764 10132122
0.92507643 0.10868882 1.4737883 10132122
0.97514921 0.10877369 1.4750948 10132122
1.0242622 0.10886497 1.4749681 10132122
1.0752823 0.10898849 1.469802 10197915
1.1248659 0.10907488 1.470692 10197915
1.1626565 0.10910387 1.4778082 10197915
-1.0154316 -0.4226048 1.5102094 2960685
-0.97920585 -0.42271683 1.5351084 2960685
-1.0152359 -0.3749631 1.5106759 2960685
-0.97905695 -0.37503535 1.5355426 2960685
-1.0157499 -0.32498538 1.5106689 2960685
-0.97923487 -0.3250809 1.5357685 2960685
-1.0159099 -0.27499434 1.5109094 2960685
-0.97980034 -0.27501872 1.5357286 2960685
-1.0163735 -0.22489239 1.5109404 2960685
-0.97996914 -0.22498538 1.5359619 2960685
-1.016652 -0.17500627 1.5110958 2960685
-0.98034495 -0.17511958 1.5360518 2960685
-1.0167398 -0.12465642 1.5113894 2960685
-0.98049486 -0.12513542 1.5362965 2960685
-1.0170159 -0.075006053 1.5115428 2960685
-0.9804433 -0.074946836 1.5366848 2960685
-1.0171028 -0.025052702 1.5118327 2960685
-0.98102939 -0.024932148 1.5366306 2960685
-1.0175964 0.025160519 1.5118451 2960685
-0.98117566 0.024922458 1.5368791 2960685
-1.0179317 0.075016417 1.5119616 3684408
-0.98156977 0.074774258 1.5369498 3684408
-1.0174161 0.10251766 1.5122595 10197915
-0.97758216 0.10338167 1.5297099 10197915
-0.92489541 0.10502587 1.5180047 10197915
-0.8746649 0.10511142 1.5192406 10197915
-0.82497764 0.10519607 1.520461 10197915
-0.77520633 0.10528078 1.5216887 10197915
-0.72514862 0.10536526 1.5230598 10197915
-0.67501259 0.10545224 1.5240145 10197915
-0.625 0.10553581 1.5255263 10197915
-0.57511657 0.10562237 1.5264708 10197915
-0.52494502 0.10570621 1.5279882 10197915
-0.47490099 0.10579224 1.5290779 10197915
-0.42498395 0.10587729 1.5303063 10197915
-0.37520012 0.10596205 1.5315313 10197915
-0.3261151 0.1060731 1.5279315 10197915
-0.27510121 0.10622833 1.5172089 10197915
-0.22520427 0.10631261 1.5185642 10197915
-0.17501931 0.10639975 1.5195088 10197915
-0.12475441 0.10648382 1.5210103 10197915
-0.07482595 0.10656973 1.5220846 10197915
-0.025030907 0.10665462 1.5232978 10197915
0.025057616 0.10673999 1.5245172 10197915
0.075011857 0.10682516 1.5257326 10197915
0.12504953 0.10691047 1.5269514 10197915
0.17516346 0.1069959 1.5281719 10197915
0.22493535 0.10707993 1.5295246 10197915
0.27478766 0.10716569 1.5305974 10197915
0.3251414 0.10725153 1.5318224 10197915
0.37505043 0.10739455 1.5228852 10197915
0.42524958 0.10751699 1.5176528 10132122
0.47508854 0.10760123 1.5189919 10132122
0.52500463 0.10768721 1.5200557 10132122
0.57521033 0.10777286 1.5212642 10132122
0.62507582 0.10785875 1.5223227 10132122
0.67480081 0.10794199 1.5238016 10132122
0.72482371 0.10802812 1.5248682 10132122
0.77492321 0.10811282 1.5262128 10132122
0.82488602 0.10819965 1.5271341 10132122
0.87493008 0.10828344 1.5286217 10132122
0.92483771 0.1083694 1.5296808 10132122
0.97504151 0.10845506 1.5308934 10132122
1.0266122 0.108555 1.5300379 10197915
1.0733029 0.10869344 1.5208628 10197915
1.1249442 0.10880458 1.5180711 10197915
1.1745343 0.10888603 1.5198168 10197915
1.2094625 0.10888228 1.5317611 10197915
-0.90729147 -0.62273502 1.5846565 2960685
-0.89150453 -0.62269574 1.5939988 2960685
-0.90747851 -0.57497877 1.5849773 2960685
-0.89163536 -0.57501525 1.5942409 2960685
-0.90768296 -0.52495551 1.5853229 2960685
-0.89217687 -0.52520752 1.5942163 2960685
-0.90759248 -0.47454432 1.5858046 2960685
-0.89215469 -0.47537798 1.5945793 2960685
-0.95374972 -0.42211246 1.552611 2960685
-0.92451113 -0.42327067 1.5727092 2960685
-0.89216202 -0.42522633 1.594924 2960685
-0.95401073 -0.37496749 1.5527605 2960685
-0.9251551 -0.37499192 1.5725946 2960685
-0.89268172 -0.37495583 1.5949174 2960685
-0.95420259 -0.3246679 1.5529799 2960685
-0.92527848 -0.32499713 1.5728598 2960685
-0.89281094 -0.32496575 1.5951775 2960685
-0.95474559 -0.27490994 1.5529534 2960685
-0.92543423 -0.27502331 1.5731016 2960685
-0.89326888 -0.27539298 1.5952082 2960685
-0.95489872 -0.22489111 1.5531975 2960685
-0.92558283 -0.22502176 1.5733466 2960685
-0.89355999 -0.22499968 1.5953598 2960685
-0.95488566 -0.17440367 1.5535585 2960685
-0.92527205 -0.17500794 1.5739095 2960685
-0.89370805 -0.17498466 1.5956061 2960685
-0.95523769 -0.12524895 1.5536594 2960685
-0.92503428 -0.12490772 1.5744225 2960685
-0.89394075 -0.12536111 1.5957928 2960685
-0.95537907 -0.075218916 1.553911 2960685
-0.92502707 -0.074939594 1.5747753 2960685
-0.89401942 -0.075272709 1.5960882 2960685
-0.955957 -0.025105478 1.5538626 2960685
-0.92527801 -0.024976945 1.574952 2960685
-0.89431721 -0.025647249 1.5962291 2960685
-0.95610827 0.025110759 1.5541092 2960685
-0.92541742 0.024970097 1.5752032 2960685
-0.89475977 0.025130806 1.5962789 2960685
-0.95653248 0.075702094 1.5541708 3750201
-0.92547423 0.074939929 1.5755136 3684408
-0.89492887 0.075224914 1.5965126 3750201
-0.95663822 0.10276886 1.553754 10197915
-0.92465514 0.10298038 1.571617 10197915
-0.87975925 0.1042263 1.5775001 10197915
-0.8252784 0.10489761 1.5726492 10197915
-0.77508551 0.10498285 1.5739309 10197915
-0.72481531 0.10506824 1.5752069 10197915
-0.67488998 0.10515304 1.5764784 10197915
-0.62510353 0.10523757 1.5777457 10197915
-0.57501864 0.10532175 1.5791774 10197915
-0.52485222 0.10540786 1.5802984 10197915
-0.47717911 0.10550553 1.5785794 10197915
-0.4247939 0.10562941 1.5737942 10197915
-0.37521464 0.10571299 1.5751656 10197915
-0.32276994 0.1058292 1.5717494 10197915
-0.27490813 0.10593563 1.5685601 10197915
-0.2248268 0.10601991 1.5699706 10197915
-0.17488548 0.1061048 1.5712276 10197915
-0.12507951 0.10618858 1.5726354 10197915
-0.075191863 0.10627428 1.5737371 10197915
-0.025010623 0.10635957 1.5750003 10197915
0.025037302 0.10644466 1.5762602 10197915
0.074945681 0.10652862 1.5776709 10197915
0.12493079 0.10661536 1.5786177 10197915
0.17499928 0.10669871 1.5801899 10197915
0.22471887 0.10678595 1.580966 10197915
0.27512932 0.10692021 1.5737234 10197915
0.32526022 0.10700611 1.5748632 10197915
0.37756929 0.10712644 1.5706761 10132122
0.42478836 0.10722554 1.5685755 10132122
0.47499037 0.10731094 1.5698251 10132122
0.52505046 0.10739526 1.5712237 10132122
0.57497275 0.10748196 1.5721579 10132122
0.62497145 0.10756525 1.5737112 10132122
0.67483187 0.107651 1.5747957 10132122
0.72499299 0.10773633 1.5760485 10132122
0.77522957 0.10782184 1.5772951 10132122
0.82510829 0.1079067 1.5785363 10132122
0.87506193 0.1079908 1.5799381 10132122
0.92509478 0.10807686 1.5810252 10132122
0.97254521 0.1081855 1.5773163 10197915
1.0249076 0.10829654 1.5747751 10197915
1.0773848 0.10841992 1.5701052 10197915
1.1250286 0.10851629 1.568608 10197915
1.174897 0.10860214 1.5696818 10197915
1.2228734 0.10867431 1.5725294 10197915
1.2569481 0.10864139 1.5893111 10197915
-0.95495325 -0.62279367 1.6429414 2960685
-0.93763316 -0.62282401 1.6177434 2960685
-0.86643523 -0.62269211 1.6112318 2960685
-0.83004248 -0.62290001 1.6362451 2960685
-0.9554922 -0.57547218 1.6438687 2960685
-0.93809056 -0.57512105 1.6185535 2960685
-0.86655521 -0.57497346 1.6114817 2960685
-0.83043027 -0.57501948 1.6363125 2960685
-0.95606261 -0.52538896 1.6448498 2960685
-0.93865204 -0.52491558 1.6195217 2960685
-0.86712605 -0.52490741 1.6114366 2960685
-0.83057964 -0.52500647 1.6365585 2960685
-0.95654863 -0.4827047 1.645686 2960685
-0.93871355 -0.47830591 1.619753 2960685
-0.86733943 -0.47501051 1.6116389 2960685
-0.83107781 -0.47509709 1.6365645 2763306
-0.86755317 -0.42486537 1.6118426 2960685
-0.83132225 -0.42496109 1.6367456 2302755
-0.86807495 -0.37498346 1.6118306 2894892
-0.83147508 -0.37501824 1.6369907 2631720
-0.8678183 -0.32493195 1.6123571 2960685
-0.83166951 -0.32509717 1.6372033 2960685
-0.86819321 -0.27483955 1.6124482 2960685
-0.83171844 -0.2750169 1.6375184 2960685
-0.86849272 -0.22503513 1.6125897 2960685
-0.83205718 -0.22515032 1.6376343 2960685
-0.86862534 -0.17506279 1.6128478 2960685
-0.8324815 -0.17496878 1.6376927 2960685
-0.86927038 -0.12497729 1.612753 2960685
-0.83258796 -0.12497435 1.6379688 2960685
-0.86931986 -0.074928649 1.6130683 2960685
-0.8331452 -0.075256571 1.6379313 2960685
-0.86979628 -0.024817554 1.6130906 2960685
-0.83334404 -0.025109911 1.638145 2960685
-0.86998397 0.025116891 1.6133103 2960685
-0.83323622 0.024931805 1.6385682 2960685
-0.86973679 0.074928693 1.6138265 3750201
-0.83371061 0.075122677 1.6385912 3750201
-0.86917835 0.10260567 1.6132373 10197915
-0.82829881 0.10332938 1.632117 10197915
-0.7760219 0.10466501 1.6293219 10197915
-0.72521842 0.10480309 1.6215352 10197915
-0.67504251 0.10488736 1.6229779 10197915
-0.62478691 0.10497323 1.6241673 10197915
-0.57511646 0.10505662 1.625597 10197915
-0.52536529 0.10514165 1.6267731 10197915
-0.47229928 0.10525892 1.6233643 10197915
-0.42459318 0.10536651 1.6199235 10197915
-0.37456197 0.10545129 1.6212274 10197915
-0.32466871 0.1055349 1.6226966 10197915
-0.27514747 0.10562081 1.6236441 10197915
-0.22509433 0.10570465 1.6251223 10197915
-0.17496508 0.10578866 1.6265978 10197915
-0.12497889 0.10587434 1.627731 10197915
-0.074908346 0.10596018 1.6288613 10197915
-0.026652282 0.10604964 1.6287708 10197915
0.02486963 0.10618208 1.6222126 10197915
0.074995115 0.10626779 1.623385 10197915
0.12520346 0.10635224 1.6248116 10197915
0.17515522 0.10643692 1.6261059 10197915
0.22549273 0.10652726 1.6265372 10197915
0.27503842 0.1066596 1.6193553 10197915
0.32538691 0.106746 1.620487 10132122
0.37536719 0.10683081 1.6217699 10132122
0.42497444 0.10691395 1.6232203 10132122
0.47488245 0.10700061 1.624166 10132122
0.52487296 0.10708448 1.6256212 10132122
0.57494229 0.10716844 1.6270825 10132122
0.62509239 0.10725451 1.6282026 10132122
0.67486376 0.10733896 1.6294839 10132122
0.72245282 0.10743693 1.6276894 10132122
0.77478462 0.10756235 1.6226183 10132122
0.824848 0.10764661 1.6240281 10132122
0.87498921 0.10773245 1.6251842 10132122
0.92520976 0.10781696 1.6265982 10132122
0.97736305 0.10794497 1.6210135 10197915
1.0249256 0.1080399 1.6197492 10197915
1.0749835 0.1081249 1.6210235 10197915
1.1248884 0.10820967 1.6222938 10197915
1.1748756 0.10829455 1.6235671 10197915
1.2249368 0.10837957 1.6248412 10197915
1.2711841 0.1084393 1.6293209 10197915
1.3042896 0.10840672 1.6457225 10197915
-0.97745574 -0.62304205 1.6756774 2960685
-0.80517846 -0.62218142 1.6533414 2960685
-0.77528238 -0.62277681 1.6738861 2960685
-0.74346179 -0.62321842 1.6957569 2960685
-0.97805268 -0.57494932 1.6766914 2960685
-0.80555463 -0.57504922 1.6534108 2960685
-0.77542841 -0.5749709 1.6741197 2894892
-0.74398607 -0.57504797 1.695733 2960685
-0.9785735 -0.52490669 1.6776005 2960685
-0.80533355 -0.52444386 1.6539162 2829099
-0.77519417 -0.5251112 1.6746289 2697513
-0.74407607 -0.52499628 1.6960193 2960685
-0.9772504 -0.48673084 1.6757911 2960685
-0.80570108 -0.47461575 1.6540105 2039583
-0.77515131 -0.47499487 1.6750079 2631720
-0.74446988 -0.47561806 1.6960931 2960685
-0.80593443 -0.42500851 1.6541973 2039583
-0.77523291 -0.42502427 1.6752976 2631720
-0.74485815 -0.42506537 1.6961796 2960685
-0.80607736 -0.37487569 1.6544487 2631720
-0.77540398 -0.37503794 1.6755289 2829099
-0.74500352 -0.37495098 1.6964282 2960685
-0.80670297 -0.32497707 1.6543663 2960685
-0.77542502 -0.32496658 1.6758652 2960685
-0.74539912 -0.3257283 1.6965002 2960685
-0.80681336 -0.2749351 1.6546391 2960685
-0.77509302 -0.2750037 1.6764439 2960685
-0.7452457 -0.27515191 1.6969585 2960685
-0.80717999 -0.22457938 1.6547393 2960685
-0.77524936 -0.22499019 1.6766902 2960685
-0.74533474 -0.22500713 1.6972471 2960685
-0.8075549 -0.17501308 1.6548264 2960685
-0.7753014 -0.17500389 1.6769956 2960685
-0.74595731 -0.17526327 1.6971658 2960685
-0.80752391 -0.12462392 1.6551995 2960685
-0.77523685 -0.12512764 1.6773874 2960685
-0.74611056 -0.1251719 1.6974099 2960685
-0.80763113 -0.074613743 1.6554748 2960685
-0.77514583 -0.075014167 1.6778001 2960685
-0.74629462 -0.075693376 1.6976292 2960685
-0.80801618 -0.024908831 1.6555569 2960685
-0.77509564 -0.025028396 1.6781834 2960685
-0.74688607 -0.025317553 1.6975731 2960685
-0.80813628 0.024870778 1.6558207 2960685
-0.77521759 0.02503366 1.6784458 2960685
-0.7470054 0.025322959 1.697844 2960685
-0.80868506 0.074969336 1.6557932 3750201
-0.77551806 0.075006448 1.678588 3750201
-0.7473135 0.074213348 1.697973 3684408
-0.8088038 0.10221702 1.655901 10197915
-0.77372909 0.10263599 1.6771955 10197915
-0.72769254 0.10421911 1.6740488 10197915
-0.6749773 0.10460686 1.6721482 10197915
-0.62513721 0.10469105 1.6734943 10197915
-0.57499182 0.10477576 1.6748488 10197915
-0.52476138 0.10486065 1.6762054 10197915
-0.47514337 0.10494451 1.6775398 10197915
-0.42641813 0.10503359 1.6776695 10197915
-0.37467283 0.10517237 1.6700665 10197915
-0.32476702 0.10525593 1.6715442 10197915
-0.27478409 0.1053412 1.6727477 10197915
-0.22471911 0.10542504 1.6742299 10197915
-0.17491847 0.10550924 1.6755669 10197915
-0.12504081 0.10559516 1.6766248 10197915
-0.075086653 0.10567799 1.6782466 10197915
-0.022947349 0.10578509 1.6763219 10197915
0.025154101 0.10590544 1.6707753 10197915
0.075049549 0.10598985 1.672101 10197915
0.12479698 0.10607292 1.6736172 10197915
0.17485249 0.10615975 1.6745806 10197915
0.22498855 0.10624238 1.6762908 10197915
0.27497402 0.10632802 1.677436 10132122
0.32503974 0.10641374 1.6785882 10132122
0.37412867 0.10654394 1.6716403 10132122
0.42517328 0.10663875 1.671509 10132122
0.4750638 0.10672396 1.6726921 10132122
0.52502561 0.10680773 1.674158 10132122
0.57507581 0.10689326 1.6753448 10132122
0.62484413 0.10697588 1.6769463 10132122
0.67469698 0.1070618 1.677987 10132122
0.72741038 0.10717931 1.6744277 10132122
0.77524614 0.10728955 1.6705668 10132122
0.82527626 0.10737327 1.6720663 10132122
0.87514579 0.10745768 1.6733818 10132122
0.9248603 0.1075408 1.6748785 10197915
0.97465575 0.10762611 1.6760052 10197915
1.0247607 0.10771099 1.677326 10197915
1.0749488 0.10779595 1.67865 10197915
1.1228219 0.10790548 1.674926 10197915
1.1750869 0.10802147 1.6714739 10197915
1.2248607 0.10810661 1.6726397 10197915
1.2747097 0.10819028 1.6740855 10197915
1.3170977 0.10824887 1.6775061 10197915
-1.0104066 -0.62316918 1.7236154 2960685
-0.7189362 -0.6227048 1.7126192 2960685
-0.6824677 -0.62285012 1.7376859 2960685
-1.0110844 -0.57518035 1.7247467 2960685
-0.71904981 -0.57488304 1.7128743 2960685
-0.68267816 -0.57521707 1.7378733 2960685
-1.011595 -0.5252341 1.7256403 2960685
-0.71899801 -0.5250333 1.7132584 2960685
-0.68267936 -0.52497095 1.7382227 2960685
-1.0097325 -0.49359158 1.7230264 2960685
-0.71942705 -0.474852 1.7133126 2960685
-0.6828174 -0.47499561 1.7384763 2960685
-0.71975935 -0.42503977 1.7134317 2960685
-0.68346143 -0.42496228 1.7383829 2960685
-0.71991104 -0.37505493 1.7136773 2960685
-0.68358451 -0.37495521 1.7386475 2960685
-0.72039688 -0.32489151 1.7136917 2960685
-0.68376762 -0.32509583 1.7388686 2960685
-0.72068679 -0.27500987 1.7138393 2960685
-0.68437535 -0.27497515 1.7388005 2960685
-0.72076917 -0.22499812 1.7141327 2960685
-0.68444306 -0.22497077 1.7391028 2960685
-0.72145671 -0.17492753 1.7140092 2960685
-0.68476057 -0.17521371 1.7392317 2960685
-0.72151256 -0.12497696 1.7143202 2960685
-0.6851927 -0.12502828 1.7392855 2960685
-0.72152919 -0.074641362 1.7146596 2960685
-0.68506962 -0.075420864 1.7397155 2960685
-0.72173178 -0.024865039 1.7148679 2960685
-0.68515062 -0.025450695 1.740008 2960685
-0.72184521 0.024870243 1.7151358 2960685
-0.68555784 0.025203804 1.7400824 2960685
-0.72232437 0.075036213 1.7151564 3750201
-0.68571663 0.07515952 1.7403195 3750201
-0.72134364 0.10246337 1.7148308 10197915
-0.67995077 0.10310581 1.7327194 10197915
-0.62527496 0.10439228 1.7257974 10197915
-0.57533002 0.10447557 1.7273409 10197915
-0.52530372 0.10456067 1.728582 10197915
-0.47519854 0.10464424 1.7301298 10197915
-0.42339489 0.10474654 1.7289393 10197915
-0.37479016 0.10487544 1.7220571 10197915
-0.32486922 0.10495842 1.7236406 10197915
-0.27511179 0.10504462 1.7246091 10197915
-0.225269 0.10512631 1.7263973 10197915
-0.17557785 0.10521363 1.7271523 10197915
-0.12528634 0.10535651 1.7183651 10197915
-0.075158365 0.10544189 1.7195941 10197915
-0.024953136 0.1055257 1.7211251 10197915
0.024979696 0.10560995 1.7224984 10197915
0.074992284 0.10569427 1.7238746 10197915
0.12507869 0.10578054 1.7249476 10197915
0.17524865 0.1058634 1.7266324 10197915
0.22514586 0.10594845 1.7278498 10197915
0.27511117 0.10603179 1.7293792 10132122
0.32480335 0.10611565 1.7307464 10132122
0.37553439 0.10625777 1.7222271 10132122
0.42490894 0.10634579 1.7227534 10132122
0.47501153 0.10642919 1.7243276 10132122
0.52519149 0.10651506 1.7254958 10132122
0.57496792 0.10659908 1.726856 10132122
0.62283117 0.10669436 1.7256173 10132122
0.67479593 0.10682812 1.7189676 10132122
0.72486866 0.10691179 1.7204801 10132122
0.77501607 0.10699735 1.7216901 10132122
0.8248868 0.10708155 1.7230456 10132122
0.87482959 0.10716413 1.7247077 10197915
0.92485207 0.10725033 1.7257615 10197915
0.9749589 0.10733495 1.7271225 10197915
1.0247754 0.10741821 1.7286291 10197915
1.0746753 0.10750332 1.7298319 10197915
1.127062 0.10763293 1.724044 10197915
1.1748303 0.10773216 1.7220943 10197915
1.2250202 0.10781696 1.7234491 10197915
1.2748032 0.10789989 1.7249967 10197915
1.3249128 0.10798571 1.7261474 10197915
1.3662258 0.10799813 1.7373108 10197915
-1.055738 -0.62317061 1.7895644 2960685
-1.035243 -0.62332004 1.7597476 2960685
-1.0564283 -0.57493854 1.7907147 2960685
-1.0358423 -0.57480609 1.7607656 2960685
-0.66487688 -0.57279408 1.7501268 2960685
-1.0567337 -0.528808 1.7912984 2960685
-1.0363798 -0.5251447 1.7616981 2960685
-0.66497731 -0.52501953 1.750391 2960685
-1.0317156 -0.49877161 1.7549922 2960685
-0.66514707 -0.47375515 1.7506318 2960685
-0.66576242 -0.42498508 1.7505488 2960685
-0.66586745 -0.37500325 1.7508255 2960685
-0.6661374 -0.32316011 1.7510012 2960685
-0.66665256 -0.27493033 1.7509837 2960685
-0.666758 -0.22491243 1.7512602 2960685
-0.66710287 -0.17315325 1.751384 2960685
-0.66754323 -0.12480114 1.7514181 2960685
-0.66764897 -0.074747048 1.7516952 2960685
-0.66807652 -0.023304844 1.7517594 2960685
-0.66843307 0.024676822 1.7518492 2960685
-0.66853869 0.074766822 1.752126 3750201
-0.6634056 0.10349678 1.7651118 10197915
-0.62483209 0.10413922 1.7702855 10197915
-0.57506233 0.10422381 1.7715423 10197915
-0.52484006 0.10430823 1.7729766 10197915
-0.47490564 0.10439118 1.7745682 10197915
-0.4248876 0.10447618 1.7758321 10197915
-0.37479341 0.10455941 1.7774283 10197915
-0.32498044 0.10464314 1.7788516 10197915
-0.27508757 0.10472698 1.7802769 10197915
-0.22512043 0.1048129 1.7813679 10197915
-0.17437786 0.10490175 1.7821888 10197915
-0.12487617 0.10504368 1.7733041 10197915
-0.074981108 0.10513013 1.7742767 10197915
-0.025014995 0.10521163 1.7761389 10197915
0.022757387 0.10533415 1.7701002 10197915
0.075059086 0.10544588 1.7674215 10197915
0.12532046 0.10552952 1.7690011 10197915
0.17492534 0.10561397 1.7702329 10197915
0.22460915 0.10569659 1.7718019 10132122
0.27474272 0.10578094 1.7732164 10132122
0.32458118 0.10586578 1.7744539 10132122
0.3745054 0.10594882 1.7760301 10132122
0.42487869 0.10603356 1.777451 10132122
0.47495231 0.10611877 1.7786952 10132122
0.52474451 0.10620259 1.7800996 10132122
0.57498389 0.10628617 1.7816851 10132122
0.6276179 0.10640238 1.7783216 10132122
0.67486578 0.10651899 1.7731572 10132122
0.72465724 0.10660283 1.7745531 10132122
0.7747733 0.1066859 1.7761819 10132122
0.82237691 0.10679738 1.7720294 10197915
0.8747611 0.10691945 1.7675663 10197915
0.92492259 0.10700299 1.7691284 10197915
0.97516572 0.10708859 1.7703625 10197915
1.0247382 0.10717115 1.7719084 10197915
1.0747663 0.10725545 1.773302 10197915
1.1252437 0.10734141 1.7745421 10197915
1.1750538 0.10742438 1.7760949 10197915
1.2249417 0.10750937 1.7773186 10197915
1.2749057 0.10759259 1.7788764 10197915
1.3249522 0.10767785 1.7801039 10197915
1.3750706 0.10776134 1.7816662 10197915
1.4113036 0.10779052 1.7882544 10197915
-1.0825834 -0.62345093 1.8286191 2960685
-1.0830959 -0.57504827 1.8295109 2960685
-1.0824953 -0.53458399 1.8287594 2960685
-0.66968369 0.10378987 1.8170092 10197915
-0.62511593 0.10387348 1.8167571 10197915
-0.57514465 0.10395724 1.8182223 10197915
-0.5251013 0.10403908 1.8200473 10197915
-0.47497293 0.10412513 1.821159 10197915
-0.42475924 0.10420933 1.822631 10197915
-0.3748461 0.10429198 1.8242741 10197915
-0.32522416 0.10437513 1.8257288 10197915
-0.27514973 0.10446008 1.8270177 10197915
-0.2249925 0.10454316 1.828668 10197915
-0.17513107 0.10462674 1.83013 10197915
-0.12481836 0.10471209 1.8314252 10197915
-0.074795365 0.10479598 1.832886 10197915
-0.025077436 0.10487825 1.8345298 10197915
0.027019922 0.10502152 1.8262582 10197915
0.073646888 0.10512369 1.8234159 10197915
0.1248196 0.10526601 1.8150057 10197915
0.17496058 0.10535119 1.8162804 10197915
0.22518189 0.10543448 1.8179101 10132122
0.27510747 0.10551827 1.8193548 10132122
0.3247273 0.1056026 1.8206087 10132122
0.37481323 0.10568664 1.8220633 10132122
0.42535174 0.10577045 1.8237028 10132122
0.47521749 0.10585519 1.8249635 10132122
0.52515298 0.105938 1.8265918 10132122
0.57517856 0.10602304 1.8278569 10132122
0.62488884 0.10610439 1.8296617 10132122
0.67468357 0.10619006 1.8307365 10132122
0.72494364 0.10627337 1.8323745 10132122
0.77527821 0.10635888 1.8336473 10132122
0.82749146 0.10649147 1.8272837 10197915
0.87492394 0.10659344 1.8247318 10197915
0.92275 0.10670455 1.8207182 10197915
0.97538263 0.10682953 1.8158216 10197915
1.0254643 0.10691268 1.8174317 10197915
1.0752459 0.10699634 1.8188537 10197915
1.1247187 0.10708047 1.8200873 10197915
1.1750391 0.10716403 1.8217045 10197915
1.225439 0.10724977 1.822964 10197915
1.2751451 0.10733227 1.8245643 10197915
1.3249329 0.10741697 1.8258063 10197915
1.3747922 0.10749973 1.8274109 10197915
1.4236038 0.10757957 1.8291845 10197915
1.4571699 0.10757116 1.841511 10197915
-1.1162271 -0.62380236 1.8775635 2960685
-1.1167601 -0.57487637 1.8784866 2960685
-1.1150177 -0.54140276 1.8760536 2960685
-0.70484859 0.10341524 1.8712864 10197915
-0.67473519 0.10350989 1.8644322 10197915
-0.62502915 0.10359076 1.8663179 10197915
-0.57524449 0.1036762 1.8674282 10197915
-0.52537251 0.10375956 1.8689296 10197915
-0.47504064 0.1038426 1.8706406 10197915
-0.42500886 0.10392624 1.8721482 10197915
-0.37528729 0.10401047 1.87345 10197915
-0.32509318 0.10409439 1.8749605 10197915
-0.27521303 0.10417666 1.8766581 10197915
-0.22524326 0.10426129 1.8779672 10197915
-0.17520447 0.10434385 1.8796699 10197915
-0.125466 0.10442698 1.8811679 10197915
-0.075259373 0.10451201 1.8824836 10197915
-0.024975846 0.10459498 1.8841941 10197915
0.025002446 0.10467855 1.885699 10197915
0.073690414 0.10480848 1.8786585 10197915
0.12468138 0.10499026 1.8632878 10197915
0.17499788 0.10507229 1.8651649 10132122
0.2253947 0.10515885 1.8662798 10132122
0.27510205 0.10524211 1.8677504 10132122
0.32449344 0.10532365 1.8694167 10132122
0.37474707 0.10540886 1.8707157 10132122
0.42507431 0.10549204 1.8724039 10132122
0.47509679 0.10557576 1.8738908 10132122
0.52480435 0.10566012 1.875169 10132122
0.57459086 0.10574233 1.8768474 10132122
0.62485093 0.10582649 1.8783408 10132122
0.67479157 0.10591121 1.8796253 10132122
0.72481847 0.10599382 1.8813111 10132122
0.77491897 0.10607881 1.8826002 10197915
0.82510251 0.10616169 1.8842906 10197915
0.87536359 0.10624698 1.8855838 10197915
0.92498583 0.1063977 1.875201 10197915
0.97482711 0.10655545 1.8636596 10197915
1.025443 0.10663922 1.8653325 10197915
1.0753597 0.10672399 1.8666009 10197915
1.1253459 0.1068067 1.8682619 10197915
1.1750233 0.10688997 1.8697178 10197915
1.2247783 0.10697336 1.8711778 10197915
1.2749999 0.10705867 1.8724542 10197915
1.3249128 0.10714234 1.8739167 10197915
1.3749005 0.10722391 1.875775 10197915
1.4249587 0.10731004 1.8768508 10197915
1.4718202 0.10737548 1.8805232 10197915
1.5023683 0.10736799 1.8916982 10197915
-1.1577852 -0.62383997 1.9380233 2960685
-1.1396019 -0.62404674 1.9115694 2960685
-1.1582419 -0.57596344 1.9388319 2960685
-1.140265 -0.57528055 1.9126812 2960685
-1.1526715 -0.54953873 1.9308083 2960685
-1.1406502 -0.54694134 1.9133273 2960685
-0.71378136 0.1031342 1.9176499 7895160
-0.67485058 0.10321251 1.9165045 10066329
-0.62493902 0.10329691 1.9178375 10197915
-0.57494611 0.10337904 1.9195968 10197915
-0.524872 0.10346371 1.920935 10197915
-0.47471896 0.10354611 1.9226987 10197915
-0.42487708 0.10362922 1.9242414 10197915
-0.37535694 0.10371295 1.9255617 10197915
-0.32495782 0.10379574 1.9273348 10197915
-0.27448151 0.10388113 1.928684 10197915
-0.22471736 0.10396286 1.9304376 10197915
-0.1748746 0.10404717 1.9317666 10197915
-0.12495285 0.10412916 1.9335251 10197915
-0.074948765 0.10421374 1.9348593 10197915
-0.029074378 0.10431804 1.9314036 10197915
0.024721757 0.10445563 1.9246782 10197915
0.078965589 0.1045939 1.9179661 10197915
0.12492317 0.10469887 1.9144152 10132122
0.17503656 0.10478254 1.9159446 10132122
0.22482711 0.10486446 1.9176733 10132122
0.27469835 0.10494893 1.9189866 10132122
0.32464537 0.10503111 1.9207203 10132122
0.37467715 0.10511582 1.9220384 10132122
0.42478135 0.10519827 1.9237773 10132122
0.47456983 0.10528138 1.9252976 10132122
0.52483684 0.10536651 1.9266224 10132122
0.57518417 0.10544937 1.9283693 10132122
0.62521082 0.10553288 1.9298967 10132122
0.67490542 0.10561709 1.9311965 10132122
0.72468638 0.10569896 1.9329334 10197915
0.77495009 0.10578285 1.9344677 10197915
0.82447392 0.10586807 1.9355371 10197915
0.87450957 0.10602491 1.9242165 10197915
0.9289465 0.10615712 1.918641 10197915
0.97504705 0.10626801 1.9141051 10197915
1.0254211 0.10635105 1.9158278 10197915
1.0750741 0.10643525 1.9171101 10197915
1.1247956 0.10651716 1.9188201 10197915
1.1750075 0.1066011 1.9203328 10197915
1.2248909 0.10668571 1.9216214 10197915
1.27485 0.106768 1.9233392 10197915
1.3248925 0.1068529 1.9246325 10197915
1.3750062 0.10693544 1.9263555 10197915
1.4252075 0.10702059 1.9276532 10197915
1.4750702 0.1071015 1.929583 10197915
1.5196166 0.10715685 1.9342747 10197915
-1.1826793 -0.62368464 1.9742403 2960685
-1.1829597 -0.58135331 1.974776 2960685
-0.75088918 0.10269272 1.9830208 2960685
-0.7231496 0.10281345 1.9708232 2960685
-0.67537391 0.10289858 1.971338 4408131
-0.62524432 0.1029819 1.9729342 8684676
-0.57503831 0.10306792 1.9740767 10197915
-0.52475244 0.10314889 1.9761337 10197915
-0.47477937 0.10323325 1.9774927 10197915
-0.42515016 0.1033131 1.9795371 10197915
-0.3754302 0.10339837 1.9806556 10197915
-0.32522181 0.1034805 1.9824864 10197915
-0.27493688 0.10356538 1.9838545 10197915
-0.2286724 0.1036646 1.9814159 10197915
-0.17492308 0.10381139 1.9730532 10197915
-0.1251604 0.10389415 1.9746264 10197915
-0.075318739 0.10397705 1.9762022 10197915
-0.021267006 0.10412296 1.9680971 10197915
0.024839908 0.10422406 1.9652777 10197915
0.074971877 0.1043062 1.9670784 10132122
0.12519336 0.10439111 1.9684273 10132122
0.17507811 0.10447153 1.9704489 10132122
0.2250416 0.1045573 1.9715612 10132122
0.27509269 0.1046406 1.9731323 10132122
0.32480577 0.10472205 1.9749205 10132122
0.37460309 0.10480624 1.9762555 10132122
0.42488953 0.10488733 1.9782912 10132122
0.47524774 0.10497376 1.9794149 10132122
0.52528781 0.10505573 1.9812138 10132122
0.57539386 0.10514053 1.9825587 10132122
0.6251747 0.10522343 1.9841135 10132122
0.67072326 0.10532001 1.981905 10197915
0.72437495 0.10546722 1.9734462 10197915
0.77486461 0.1055513 1.9750201 10197915
0.82619679 0.10564184 1.9757389 10197915
0.87527055 0.10579779 1.9642614 10197915
0.92523396 0.1058798 1.966032 10197915
0.97486514 0.10596253 1.9675682 10197915
1.0249827 0.10604733 1.9688951 10197915
1.0751855 0.10612975 1.9706734 10197915
1.1250517 0.10621288 1.972217 10197915
1.1749901 0.10629872 1.9733052 10197915
1.2250069 0.1063795 1.9753106 10197915
1.2751083 0.10646302 1.9768614 10197915
1.3252876 0.10654666 1.9784144 10197915
1.3751222 0.10663106 1.9797238 10197915
1.4250389 0.10671294 1.9815021 10197915
1.4750319 0.10679761 1.9828156 10197915
1.5251024 0.10687973 1.9845994 10197915
1.561633 0.10692851 1.9878554 10197915
-1.2154288 -0.62456161 2.0218825 2960685
-1.2137834 -0.58810019 2.0195982 2960685
-0.76021498 0.1024006 2.0311816 2960685
-0.72495198 0.10248494 2.027796 2960685
-0.67509872 0.10257038 2.0289307 2960685
-0.62516028 0.10265028 2.0310662 7697781
-0.57513726 0.10273311 2.0327055 10197915
-0.52624828 0.10281861 2.0335188 10197915
-0.47556344 0.10298366 2.0209744 10197915
-0.4256691 0.10306636 2.0225976 10197915
-0.37569466 0.10314923 2.0242238 10197915
-0.32563972 0.10323222 2.025852 10197915
-0.27550417 0.10331534 2.0274835 10197915
-0.22106516 0.10345607 2.0204113 10197915
-0.17497307 0.10356691 2.0158815 10197915
-0.12454413 0.10364923 2.0177498 10197915
-0.074866802 0.10373306 2.0191064 10197915
-0.025114449 0.10381419 2.020961 10197915
0.025141345 0.10389757 2.0225856 10197915
0.07505285 0.10398184 2.0239484 10132122
0.12504847 0.10406336 2.0258114 10132122
0.17512141 0.10414786 2.02718 10132122
0.22527494 0.10422967 2.0290499 10132122
0.27551007 0.10431442 2.0304227 10132122
0.32497564 0.10439509 2.0322697 10132122
0.37494811 0.10447801 2.033884 10132122
0.42140085 0.1046005 2.0274286 10132122
0.47505167 0.10472851 2.0223322 10132122
0.52489835 0.10481129 2.0239308 10132122
0.57482314 0.10489416 2.0255311 10132122
0.62482756 0.1049772 2.0271344 10197915
0.67916942 0.10511836 2.0199537 10197915
0.72489685 0.10522569 2.0159214 10197915
0.77519995 0.10531071 2.0172777 10197915
0.82516658 0.10539373 2.0188684 10197915
0.87520325 0.10547408 2.020951 10197915
0.92531979 0.10556018 2.0220573 10197915
0.97509837 0.10564149 2.0238872 10197915
1.0249459 0.10572571 2.0252287 10197915
1.0748782 0.10580733 2.0270643 10197915
1.1248846 0.10589188 2.0284102 10197915
1.1749717 0.10597367 2.030251 10197915
1.2251378 0.10605842 2.0316017 10197915
1.2753805 0.10614054 2.0334477 10197915
1.3226283 0.10623047 2.0329533 10197915
1.3746797 0.10638872 2.0220392 10197915
1.4243723 0.10647137 2.0236099 10197915
1.4750012 0.10655557 2.0252101 10197915
1.5257097 0.10663991 2.0268133 10197915
1.57752 0.10676447 2.0217202 10197915
1.6075246 0.10677595 2.0293982 10197915
-1.256592 -0.62441266 2.0817678 2960685
-1.2425759 -0.62427449 2.0613775 2960685
-1.2570026 -0.59701145 2.0824485 2960685
-1.2430284 -0.59374875 2.0621281 2960685
-0.76828849 0.10215255 2.0720479 2960685
-0.72501403 0.10222403 2.0734987 2960685
-0.67487836 0.1023069 2.0751786 2960685
-0.62551272 0.10238846 2.076833 9737364
-0.57521492 0.10247156 2.0785191 10197915
-0.52269065 0.10257487 2.0773842 10197915
-0.47510424 0.1027251 2.0664268 10197915
-0.42536303 0.10280886 2.0678194 10197915
-0.37511566 0.10288896 2.0700152 10197915
-0.32480019 0.10297517 2.0711644 10197915
-0.27481139 0.10305633 2.0730898 10197915
-0.22475974 0.10314056 2.0744917 10197915
-0.17504391 0.10322286 2.0761364 10197915
-0.12524828 0.10330521 2.0778017 10197915
-0.074956812 0.10338686 2.0797384 10197915
-0.025003349 0.1034694 2.0813997 10197915
0.025030009 0.10355221 2.0830646 10132122
0.070721127 0.10367455 2.0763814 10132122
0.12439831 0.10380547 2.0707736 10132122
0.1742949 0.10388809 2.0724208 10132122
0.22427088 0.10397079 2.0740709 10132122
0.27432656 0.10405367 2.0757239 10132122
0.32446203 0.10413666 2.0773797 10132122
0.3746776 0.10421974 2.079037 10132122
0.4283534 0.10437949 2.0683899 10132122
0.47527406 0.10447318 2.0671351 10132122
0.52492583 0.10455694 2.0684946 10132122
0.57465684 0.10463785 2.0703931 10132122
0.62490273 0.10472109 2.0720403 10197915
0.67478633 0.10480525 2.0734074 10197915
0.72475761 0.10488652 2.0753129 10197915
0.77480137 0.10497094 2.0766852 10197915
0.82492882 0.10505244 2.0785964 10197915
0.87513351 0.10513715 2.0799735 10197915
0.92498553 0.10521975 2.0816071 10197915
0.97490144 0.10529935 2.0837812 10197915
1.0217723 0.10544043 2.0742075 10197915
1.0752903 0.10555493 2.0714333 10197915
1.1250852 0.10563748 2.0730534 10197915
1.1749582 0.10572015 2.074676 10197915
1.2249089 0.10580298 2.0763013 10197915
1.2749387 0.10588592 2.0779295 10197915
1.3289503 0.10600967 2.0736897 10197915
1.3750948 0.10613601 2.066453 10197915
1.4249864 0.10622182 2.0675385 10197915
1.4749694 0.10630474 2.0691528 10197915
1.5250306 0.10638779 2.0707698 10197915
1.5751553 0.10646793 2.072916 10197915
1.6227012 0.10653798 2.0759945 10197915
1.6566695 0.10651873 2.0903473 10197915
-1.3002728 -0.63013792 2.1452987 2960685
-1.2778854 -0.62660003 2.11274 2960685
-0.80495244 0.10172478 2.1351411 2960685
-0.77455634 0.10186807 2.1198571 2960685
-0.72507668 0.10194962 2.1215534 2960685
-0.67464811 0.10203273 2.1232829 4737096
-0.62457681 0.10211683 2.1247129 10197915
-0.57485509 0.10219881 2.1264176 10197915
-0.52506495 0.1022776 2.1287 10197915
-0.4751893 0.10236304 2.1298351 10197915
-0.42522761 0.10244535 2.1315475 10197915
-0.37890556 0.10254994 2.1281927 10197915
-0.32478455 0.10270315 2.1188276 10197915
-0.27496922 0.10278533 2.1205225 10197915
-0.22507466 0.10286763 2.1222205 10197915
-0.17509963 0.10295005 2.1239207 10197915
-0.12504491 0.10303263 2.1256242 10197915
-0.074909359 0.10311531 2.1273301 10197915
-0.024693746 0.10319813 2.1290388 10132122
0.024719743 0.10327965 2.1307201 10132122
0.078095779 0.10344028 2.1198208 10132122
0.12503299 0.10353846 2.1177793 10132122
0.17519186 0.10362127 2.1194727 10132122
0.22498463 0.10370187 2.1214368 10132122
0.2748585 0.1037858 2.122838 10132122
0.32480744 0.10386664 2.1248081 10132122
0.37484214 0.10395086 2.126214 10132122
0.42494795 0.10403197 2.1281896 10132122
0.47469649 0.1041141 2.1298697 10132122
0.52496576 0.1041987 2.1312835 10132122
0.57329369 0.10428594 2.1316121 10132122
0.62497562 0.10445462 2.1187434 10132122
0.67466038 0.10453672 2.1204088 10197915
0.72442347 0.10461895 2.1220765 10197915
0.77426517 0.1047013 2.1237469 10197915
0.82418501 0.10478379 2.1254201 10197915
0.87418377 0.10486641 2.1270957 10197915
0.92426127 0.10494914 2.1287742 10197915
0.97441804 0.10503203 2.130455 10197915
1.0268586 0.10520014 2.117943 10197915
1.0748293 0.10528831 2.1179883 10197915
1.12485 0.10537104 2.1196525 10197915
1.1749429 0.1054571 2.1207526 10197915
1.2251142 0.10553684 2.122988 10197915
1.2753712 0.10561995 2.1246598 10197915
1.3252583 0.1057041 2.1260304 10197915
1.3752158 0.10578508 2.1279809 10197915
1.4252622 0.1058695 2.1293561 10197915
1.474924 0.10594831 2.131588 10197915
1.5246642 0.10603386 2.1326632 10197915
1.5719918 0.1061788 2.1225593 10197915
1.6250889 0.10628939 2.1203234 10197915
1.6692783 0.10636252 2.1217828 10197915
1.4402446 -0.96646529 2.1962295 2039583
1.4404504 -0.92509717 2.1963661 2039583
1.4406055 -0.87485135 2.1966443 2039583
1.4401565 -0.82561123 2.1967015 2039583
1.4500494 -0.82208961 2.1999371 2039583
1.4402328 -0.77565455 2.1964633 2039583
1.4406112 -0.72505045 2.196677 2039583
1.4408212 -0.67496479 2.196954 2039583
-1.3220886 -0.63607913 2.1770184 2960685
1.4401591 -0.62573844 2.1969643 2039583
1.4399613 -0.57495993 2.1970613 2039583
1.4401612 -0.52495587 2.1973662 2039583
1.4401391 -0.47558275 2.1975477 2039583
1.4393457 -0.42515755 2.1975117 2039583
1.4395416 -0.37513635 2.1978102 2039583
1.4397384 -0.32510158 2.1981103 2039583
1.4393141 -0.276436 2.1981795 2039583
1.4388957 -0.22494103 2.1982145 2039583
1.4390439 -0.17487074 2.198441 2039583
1.4392595 -0.12479592 2.1987693 2039583
1.4383192 -0.074693732 2.1987245 2039583
1.4384911 -0.024596898 2.1989875 2039583
1.4386599 0.024600741 2.1992459 2039583
1.4384918 0.071540125 2.1993864 10132122
-0.81127864 0.10152224 2.1686041 2960685
-0.7748965 0.10158201 2.1698811 2960685
-0.72513831 0.10166377 2.1716275 2960685
-0.67529976 0.10174568 2.1733773 6842472
-0.62538093 0.1018277 2.1751292 10197915
-0.5753814 0.10190986 2.1768842 10197915
-0.52530128 0.10199215 2.1786423 10197915
-0.47514024 0.10207457 2.180403 10197915
-0.42489794 0.10215713 2.1821671 10197915
-0.37028563 0.1023114 2.172775 10197915
-0.32477057 0.10242028 2.1683993 10197915
-0.27513343 0.10250015 2.1704364 10197915
-0.22495995 0.10258267 2.172184 10197915
-0.17515805 0.10266637 2.1736093 10197915
-0.12527695 0.10274666 2.1756558 10197915
-0.074861825 0.10282957 2.177412 10132122
-0.024824802 0.10291366 2.1788445 10132122
0.024851078 0.10299534 2.1805747 10132122
0.071788996 0.10308947 2.1792474 10132122
0.12480761 0.10325553 2.1672704 10132122
0.17432846 0.10333705 2.1689813 10132122
0.22482987 0.10342021 2.1707265 10132122
0.27541262 0.10350347 2.1724746 10132122
0.3251712 0.10358538 2.1741941 10132122
0.37500912 0.10366746 2.1759162 10132122
0.4249256 0.10374964 2.1776416 10132122
0.47492173 0.10383195 2.1793687 10132122
0.5249967 0.10391439 2.1810994 10132122
0.57830095 0.10403106 2.1778829 10132122
0.6255098 0.10417704 2.1675663 10132122
0.67497939 0.10425683 2.1695666 10132122
0.72498769 0.10433923 2.1712813 10132122
0.7755245 0.10442425 2.1727102 10132122
0.82523412 0.10450443 2.1747189 10132122
0.87501961 0.1045882 2.1761215 10197915
0.92488277 0.10466862 2.1781359 10197915
0.97482771 0.1047527 2.1795433 10197915
1.0248451 0.10483336 2.1815641 10197915
1.0708985 0.10494769 2.1764131 10197915
1.1255115 0.10509537 2.1681798 10197915
1.1749276 0.10517687 2.1698611 10197915
1.2244203 0.10525849 2.1715453 10197915
1.274909 0.10534178 2.1732631 10197915
1.325477 0.10542517 2.1749842 10197915
1.3752038 0.10550719 2.1766763 10197915
1.4263345 0.10532331 2.1803987 10197915
1.47489 0.10567163 2.1800683 10197915
1.5248497 0.10575403 2.1817684 10197915
1.5767666 0.10592797 2.1680555 10197915
1.6252524 0.10601347 2.1687253 10197915
1.6750685 0.10609569 2.1704075 10197915
1.7171329 0.10612125 2.1795208 10197915
1.4041053 -1.0021152 2.2451925 2105376
1.5179232 -1.0022779 2.2451766 2039583
1.4167514 -0.97254086 2.226819 2039583
1.4771053 -0.97098213 2.2174339 2039583
1.5131009 -0.97504306 2.242063 2039583
1.4179287 -0.92503321 2.2252455 2039583
1.4759327 -0.92489743 2.2169507 2039583
1.5130972 -0.92557353 2.2424052 2039583
1.4184135 -0.87499225 2.2246878 2039583
1.4746838 -0.87489933 2.2164445 2039583
1.5105597 -0.87497133 2.2410192 2039583
1.4184712 -0.82501465 2.2247534 2039583
1.4746554 -0.82458526 2.2167752 2039583
1.5109949 -0.82507437 2.2416649 2039583
1.4189236 -0.77491516 2.2242441 2039583
1.4738513 -0.77492839 2.2165709 2039583
1.5113956 -0.77501625 2.2422891 2039583
1.4190197 -0.72506332 2.2242548 2039583
1.4743257 -0.7249974 2.2172432 2039583
1.5108346 -0.72590905 2.2422471 2039583
1.4190985 -0.67502022 2.2242942 2039583
1.4747105 -0.67497742 2.2178555 2039583
1.5105747 -0.6750766 2.2424221 2039583
-1.3627328 -0.64477348 2.2361228 2960685
-1.3466309 -0.6407724 2.2127097 2960685
1.4197819 -0.62482226 2.2238357 2039583
1.4751763 -0.62492806 2.218524 2039583
1.5110101 -0.62509048 2.2430704 2039583
1.4199978 -0.57496029 2.2238073 2039583
1.4755703 -0.57497132 2.2191415 2039583
1.5114461 -0.57507515 2.243717 2039583
1.4200698 -0.52500921 2.2239022 2039583
1.4758837 -0.52521056 2.2197025 2039583
1.5100811 -0.52492279 2.2431324 2039583
1.4202638 -0.47492748 2.2238495 2039583
1.4746906 -0.4750759 2.2192361 2039583
1.5088676 -0.47507751 2.2426476 2039583
1.4204482 -0.42517698 2.2237513 2039583
1.4741352 -0.4246074 2.219207 2039583
1.5092485 -0.42518529 2.2432563 2039583
1.42012 -0.37499344 2.2241559 2039583
1.4738773 -0.37495837 2.219377 2039583
1.5093385 -0.37608415 2.2436597 2039583
1.4202373 -0.32497597 2.2241869 2039583
1.4743611 -0.32497269 2.2200556 2039583
1.5084449 -0.32510719 2.2434039 2039583
1.4206405 -0.27481279 2.2239392 2039583
1.4747934 -0.27501723 2.2206998 2039583
1.5088801 -0.27499801 2.244051 2039583
1.4209827 -0.22500864 2.223763 2039583
1.4751202 -0.22497316 2.2212729 2039583
1.5093143 -0.2250458 2.2446966 2039583
1.4211298 -0.17502743 2.2237914 2039583
1.4756837 -0.17496119 2.2220073 2039583
1.5087007 -0.17674115 2.2446132 2039583
1.4210937 -0.12506297 2.2240162 2039583
1.4757526 -0.12523066 2.2224011 2039583
1.5080789 -0.12463097 2.2445502 2039583
1.4218562 -0.074921787 2.223357 2039583
1.4746519 -0.074831657 2.2219982 2039583
