# .PCD v0.7 - Point Cloud Data file format
VERSION 0.7
FIELDS x y z rgb
SIZE 4 4 4 4
TYPE F F F U
COUNT 1 1 1 1
WIDTH 1193
HEIGHT 1
VIEWPOINT 0 0 0 1 0 0 0
POINTS 1193
DATA ascii
0.5397954 -0.17474 3.6902239 2039583
0.56015402 -0.17494367 3.6652281 2039583
0.5396859 -0.12536858 3.690393 2039583
0.56039959 -0.12485725 3.6649637 2039583
0.54010361 -0.075800918 3.6899126 2039583
0.56016266 -0.074726492 3.6652865 2039583
0.54099232 -0.024451943 3.6888554 2039583
0.56040865 -0.024646521 3.6650214 2039583
0.54099661 0.024452193 3.6888828 2039583
0.5604127 0.024646776 3.66505 2039583
0.54100084 0.074885376 3.6889129 2039583
0.56017578 0.074728332 3.6653717 2039583
-0.71999753 0.10436972 3.6510944 10197915
-0.67508382 0.10444168 3.6536117 10197915
-0.62560749 0.10452094 3.6563842 10197915
-0.57455367 0.10460272 3.6592453 10197915
-0.52492529 0.10468223 3.6620266 10197915
-0.47522068 0.10476185 3.6648116 10197915
-0.42544115 0.1048416 3.6676011 5460819
-0.37558508 0.10492148 3.6703956 2039583
-0.3256537 0.10500146 3.6731939 2039583
-0.27564538 0.10508157 3.6759963 2039583
-0.22556148 0.10516182 3.6788032 2039583
-0.17540021 0.10524216 3.6816137 2039583
-0.12516302 0.10532264 3.6844289 2039583
-0.074848175 0.10540324 3.6872494 2039583
-0.024457036 0.10548398 3.6900733 2039583
0.024481252 0.10556237 3.6928158 2039583
0.075025499 0.10564335 3.6956482 2039583
0.12564656 0.10572444 3.6984849 2039583
0.15175152 0.10576621 3.6999464 2039583
0.54100317 0.10392299 3.6889298 2039583
0.56029701 0.10325575 3.6652441 2039583
1.6464174 0.10843751 3.6865387 1454668
1.6746106 0.10848279 3.6880782 1388874
1.7247844 0.10856338 3.6908178 1192009
1.7750332 0.10864408 3.6935613 1192266
1.8253562 0.10872489 3.6963089 1126218
1.8710253 0.10879825 3.6988027 1191496
-1.9197222 -1.6582681 3.72417 2039583
-1.8941936 -1.6628377 3.7449121 2039583
0.49475116 -1.6624762 3.74459 2894892
0.51175493 -1.6580975 3.7236862 2697513
-1.9248557 -1.6252079 3.7201364 2039583
-1.8943319 -1.6250249 3.7449627 2039583
0.49486086 -1.6247207 3.7444811 2894892
0.51470786 -1.6251566 3.7200768 2631720
-1.9250718 -1.5750163 3.7201755 2039583
-1.8944364 -1.574819 3.7450938 2039583
0.49486461 -1.5750915 3.7445107 2894892
0.51472479 -1.5750805 3.7200909 2631720
-1.9250759 -1.5249547 3.7203865 2039583
-1.8945131 -1.5249212 3.7452435 2039583
0.49486873 -1.5249447 3.7445393 2894892
0.51474309 -1.5250056 3.7201028 2631720
-1.9251536 -1.4750226 3.7205374 2039583
-1.8946164 -1.4750179 3.745373 2039583
0.49487254 -1.4747971 3.7445688 2894892
0.51479411 -1.4750556 3.7200758 2631720
-1.9253018 -1.424953 3.7206321 2039583
-1.894666 -1.425113 3.7455471 2039583
0.49487641 -1.4251657 3.7445982 2894892
0.51475728 -1.4249786 3.7201531 2631720
-1.9252803 -1.3750125 3.7208626 2039583
-1.8947963 -1.3752017 3.7456548 2039583
0.49493483 -1.3750132 3.7445614 2894892
0.51476872 -1.3750297 3.7201738 2631720
-1.9253939 -1.325 3.7209849 2039583
-1.8947656 -1.3249792 3.7458944 2039583
0.49488416 -1.3248671 3.7446575 2894892
0.51477927 -1.3250766 3.7201958 2631720
-1.9513762 -1.2738361 3.7000721 2039583
-1.9254365 -1.2749178 3.7211642 2039583
-1.8948965 -1.2750601 3.7460017 2039583
0.4948881 -1.2752334 3.7446868 2894892
0.51485097 -1.2749971 3.7201431 2631720
-1.9514532 -1.2248319 3.7002189 2039583
-1.9256359 -1.2249668 3.7212152 2039583
-1.8949453 -1.2251369 3.7461758 2039583
0.49483755 -1.2250824 3.7447839 2894892
0.5146997 -1.2247896 3.7203617 2631720
-1.9515334 -1.1742926 3.7003701 2039583
-1.9255983 -1.1750096 3.7214603 2039583
-1.8950497 -1.1749007 3.7463055 2039583
0.49489591 -1.1749287 3.7447455 2894892
0.51475763 -1.1749629 3.7203262 2631720
-1.9515817 -1.1436607 3.7004621 2039583
-1.9257149 -1.1442699 3.7214973 2039583
-1.895219 -1.1442029 3.7463002 2039583
0.49489984 -1.1252927 3.7447751 2894892
0.51476163 -1.1251366 3.7203529 2631720
0.49490365 -1.0751384 3.7448051 2894892
0.51486713 -1.074927 3.7202609 2631720
0.49490753 -1.0249838 3.7448337 2894892
0.51476973 -1.0249704 3.7204115 2631720
0.49496579 -0.97483242 3.7447965 2894892
0.51484174 -0.97514153 3.7203598 2631720
0.49491525 -0.92467302 3.7448933 2894892
0.51483852 -0.92518538 3.7203958 2631720
0.49491921 -0.87503284 3.7449224 2894892
0.51472104 -0.87509865 3.720576 2631720
0.494923 -0.82539183 3.7449512 2894892
0.51476562 -0.82500994 3.7205544 2631720
0.49487245 -0.7752254 3.7450473 2894892
0.51493168 -0.77492434 3.720386 2631720
0.49493089 -0.7250728 3.7450106 2894892
0.51476687 -0.72496432 3.7206206 2631720
0.49493483 -0.67491257 3.7450397 2894892
0.51484549 -0.67500108 3.7205598 2631720
0.49493858 -0.62475145 3.7450697 2894892
0.51484293 -0.62503958 3.7205949 2631720
0.49499699 -0.57460105 3.7450318 2894892
0.51488048 -0.57507747 3.7205851 2631720
0.49494645 -0.52442795 3.7451289 2894892
0.51475567 -0.52511299 3.7207723 2631720
0.49495038 -0.47478163 3.7451582 2894892
0.51483446 -0.4751479 3.7207103 2631720
0.49495423 -0.42513454 3.7451868 2894892
0.51487178 -0.42493027 3.7206969 2631720
0.49495804 -0.37548661 3.7452164 2894892
0.51479548 -0.37483349 3.7208254 2631720
0.49496186 -0.32583815 3.7452452 2894892
0.51485366 -0.32499376 3.720788 2631720
0.49491131 -0.275655 3.7453418 2894892
0.51504534 -0.27490115 3.7205863 2631720
0.4949697 -0.22498612 3.7453043 2894892
0.51483434 -0.22506128 3.7208815 2631720
0.49502814 -0.17431925 3.7452676 2894892
0.5147025 -0.17547077 3.721076 2631720
0.49497756 -0.12413272 3.745364 2894892
0.51476318 -0.12511432 3.7210376 2631720
0.49498141 -0.074480213 3.745393 2894892
0.51556176 -0.074038833 3.7200882 2631720
0.49498531 -0.024826912 3.7454224 2894892
0.51616281 -0.024654306 3.7193847 2565927
0.49498919 0.024827166 3.7454512 2894892
0.51616693 0.024654564 3.7194116 2565927
0.494993 0.074482009 3.7454808 2894892
0.51641762 0.074570931 3.7191391 2565927
-1.4095293 0.10298638 3.7102451 2039583
-1.3749114 0.10304169 3.7122374 2039583
-1.3251801 0.10312115 3.7151003 2039583
-1.275373 0.10320072 3.717967 2039583
-1.2254879 0.10328041 3.7208383 2039583
-1.1755269 0.10336024 3.7237139 2039583
-1.1254874 0.1034402 3.726594 2039583
-1.0753714 0.10352024 3.7294784 2039583
-1.0251771 0.10360045 3.7323678 2368548
-0.97490561 0.10368075 3.735261 2960685
-0.9245553 0.1037612 3.7381594 3750201
-0.87412769 0.10384177 3.7410619 10197915
-0.82515281 0.10392002 3.7438805 10197915
-0.77456987 0.10400083 3.7467923 10197915
-0.73312777 0.10406704 3.7491772 10197915
0.17634542 0.10580565 3.7013266 2039583
0.22404335 0.10588206 3.7039995 2039583
0.27489433 0.10596353 3.7068493 2368548
0.32582283 0.10604511 3.7097032 2894892
0.37528333 0.10612435 3.7124748 2894892
0.42481786 0.1062037 3.715251 2894892
0.48003608 0.10522771 3.725522 2894892
0.51486784 0.1036113 3.719419 2631720
1.896247 0.10883874 3.7001793 1191752
1.9262278 0.1088869 3.7018166 1257547
1.9751953 0.10896555 3.7044904 1192010
2.0242341 0.10904431 3.7071679 1192266
2.0749288 0.10912572 3.7099357 1192266
2.1256995 0.10920727 3.712708 1388875
2.1749556 0.10928638 3.7153971 1323595
2.2242837 0.1093656 3.718091 1192522
2.2752781 0.10944749 3.7208748 1323851
2.3247507 0.10952696 3.7235763 1389131
2.3742964 0.10960653 3.7262809 1258059
2.4239137 0.10968623 3.7289908 1389131
-1.8687381 -1.6672674 3.7655973 2039583
-1.8382475 -1.6728606 3.7903726 2039583
0.4687078 -1.6698402 3.7766063 2894892
-1.8699514 -1.6247323 3.7647929 2039583
-1.8386604 -1.624884 3.7902424 2039583
0.47060654 -1.6249194 3.774303 2894892
-1.8689857 -1.57502 3.76579 2039583
-1.8377169 -1.5747514 3.7912238 2039583
0.47069025 -1.5750002 3.7742348 2894892
-1.8691198 -1.525071 3.7658954 2039583
-1.8376852 -1.5250247 3.7914624 2039583
0.47069317 -1.5250804 3.7742648 2894892
-1.8691642 -1.475032 3.7660744 2039583
-1.8378869 -1.4751354 3.7915127 2039583
0.47061777 -1.4750551 3.7743914 2894892
-1.8692789 -1.4249892 3.7661955 2039583
-1.8382242 -1.4256029 3.7914503 2039583
0.47069976 -1.4249256 3.7743239 2894892
-1.8692849 -1.3749429 3.7664044 2039583
-1.839116 -1.3749244 3.7909415 2039583
0.47065908 -1.3748981 3.7744091 2894892
-1.8693998 -1.324891 3.766526 2039583
-1.8391751 -1.3248948 3.7911081 2039583
0.47062874 -1.3249744 3.7744794 2894892
-1.8694407 -1.2749219 3.7667079 2039583
-1.8392807 -1.2748604 3.7912359 2039583
0.47075701 -1.2749468 3.7743576 2894892
-1.8695582 -1.2249489 3.7668254 2039583
-1.8392767 -1.2249993 3.7914526 2039583
0.47063625 -1.2249171 3.7745397 2894892
-1.869591 -1.1749716 3.7670114 2039583
-1.8394459 -1.1751319 3.7915294 2039583
0.47064003 -1.1748863 3.7745702 2894892
-1.8697208 -1.1442202 3.7670379 2039583
-1.839512 -1.1444575 3.7916064 2039583
0.47072336 -1.1249598 3.7745016 2894892
0.47069263 -1.0751382 3.7745733 2894892
0.47071823 -1.0251051 3.7745759 2894892
0.47065455 -0.9749679 3.7746882 2894892
0.47066954 -0.92503744 3.7747037 2894892
0.47083065 -0.87500381 3.7745399 2894892
0.47066587 -0.82486433 3.7747767 2894892
0.47073776 -0.77493179 3.7747228 2894892
0.4706735 -0.72499967 3.7748349 2894892
0.47075644 -0.67506605 3.7747674 2894892
0.47068074 -0.62513137 3.7748947 2894892
0.47075173 -0.57509249 3.7748411 2894892
0.47068816 -0.52505153 3.7749546 2894892
0.47069147 -0.47500986 3.7749836 2894892
0.47078577 -0.42496884 3.7749026 2894892
0.47081172 -0.37492594 3.7749054 2894892
0.47070286 -0.32488364 3.7750733 2894892
0.47091043 -0.27494481 3.7748516 2894892
0.47079018 -0.22511022 3.7750342 2894892
0.47071365 -0.17516845 3.7751641 2894892
0.47071749 -0.12512131 3.775193 2894892
0.47072113 -0.075073391 3.7752218 2894892
0.47072491 -0.025024636 3.7752509 2894892
0.4707284 0.025024896 3.7752812 2894892
0.4707323 0.075075224 3.7753112 2894892
-0.70854408 0.10410633 3.7505932 10197915
-0.67470735 0.10416037 3.7525399 10197915
-0.62543142 0.10423911 3.7553763 10197915
-0.57608104 0.10431794 3.7582169 10197915
-0.52510977 0.10439938 3.7611508 10197915
-0.47405961 0.10448094 3.7640893 10197915
-0.42447987 0.10456015 3.7669427 3421236
-0.37482491 0.10463949 3.7698011 2039583
-0.32509446 0.10471892 3.7726631 2039583
-0.27528843 0.1047985 3.7755299 2039583
-0.22540674 0.10487821 3.7784009 2039583
-0.17544903 0.10495801 3.7812765 2039583
-0.12541528 0.10503794 3.7841563 2039583
-0.075305261 0.10511802 3.7870405 2039583
-0.025118776 0.10519819 3.7899294 2039583
0.025144322 0.1052785 3.7928226 2039583
0.075484216 0.10535892 3.7957196 2039583
0.12590107 0.10543948 3.7986212 2039583
0.47073442 0.10322883 3.7753272 2894892
1.6941448 0.10823701 3.7863812 1388875
1.7247322 0.10828602 3.7880952 1323338
1.7746937 0.10836606 3.7908952 1192009
1.8247281 0.10844623 3.7936995 1192266
1.8748375 0.10852647 3.7965071 1192010
1.9185395 0.1085965 3.7989569 1191753
-1.8078979 -1.7032795 3.8149254 2039583
-1.7794491 -1.7086848 3.8380401 2039583
0.44604692 -1.7006525 3.8044486 2894892
-1.812642 -1.6749899 3.8111885 2039583
-1.7816553 -1.6751887 3.8363888 2039583
0.44742504 -1.6746951 3.8027718 2894892
-1.8126978 -1.625186 3.8113558 2039583
-1.7817662 -1.6252432 3.8365135 2039583
0.4474729 -1.6250834 3.8027468 2894892
-1.8127533 -1.575117 3.8115261 2039583
-1.7817992 -1.5751857 3.8367016 2039583
0.44743201 -1.5754672 3.8028305 2894892
-1.8128814 -1.5250449 3.8116355 2039583
-1.7826147 -1.5254476 3.8362494 2039583
0.44743559 -1.5250643 3.8028605 2894892
-1.8129301 -1.4750972 3.8118091 2039583
-1.7831106 -1.4750351 3.8360629 2039583
0.4474391 -1.4746609 3.8028905 2894892
-1.8133337 -1.424479 3.811697 2039583
-1.7831459 -1.4250315 3.8362482 2039583
0.44744268 -1.4242562 3.8029211 2894892
-1.8141727 -1.3748895 3.8112283 2039583
-1.7833073 -1.3750243 3.8363323 2039583
0.44740176 -1.3746325 3.8030055 2894892
-1.8143117 -1.3249034 3.8113296 2039583
-1.7833633 -1.325014 3.8364992 2039583
0.44744959 -1.3250192 3.8029809 2894892
-1.814364 -1.2750359 3.8115008 2039583
-1.7834263 -1.2748839 3.8366635 2039583
0.44749752 -1.2754076 3.8029552 2894892
-1.8143928 -1.2251616 3.811692 2039583
-1.7834191 -1.2248638 3.8368824 2039583
0.44745657 -1.225781 3.8030396 2894892
-1.8145105 -1.1750408 3.81181 2039583
-1.7835603 -1.1750697 3.8369818 2039583
0.44746006 -1.1753726 3.8030696 2894892
-1.8148073 -1.144085 3.8117001 2039583
-1.7834886 -1.1443305 3.8371713 2039583
0.44746369 -1.1249634 3.8031001 2894892
0.44746715 -1.0745531 3.8031297 2894892
0.44747078 -1.0241423 3.8031597 2894892
0.44742987 -0.97450668 3.8032444 2894892
0.44747773 -0.92489302 3.8032196 2894892
0.44752568 -0.87528074 3.8031948 2894892
0.4474847 -0.82564199 3.8032787 2894892
0.44748828 -0.77522737 3.8033087 2894892
0.44658437 -0.72260028 3.804456 2894892
0.44611719 -0.67469597 3.805064 2894892
0.44612074 -0.62425625 3.8050938 2894892
0.44606555 -0.57432938 3.8051953 2894892
0.4461275 -0.52494997 3.8051527 2894892
0.44618976 -0.47557279 3.8051105 2894892
0.44613454 -0.42564252 3.8052123 2894892
0.44613814 -0.37519893 3.8052425 2894892
0.44614163 -0.32475457 3.8052728 2894892
0.44614518 -0.27430943 3.8053033 2894892
0.44614878 -0.22386354 3.8053331 2894892
0.44615221 -0.17499326 3.805362 2894892
0.44615552 -0.12612222 3.8053913 2894892
0.44615912 -0.07567393 3.8054216 2894892
0.44616258 -0.025224814 3.8054516 2894892
0.44616628 0.025225075 3.8054819 2894892
0.4461697 0.075675778 3.8055112 2894892
-1.4540631 0.1026212 3.8108451 2039583
-1.4247121 0.10266796 3.8125815 2039583
-1.3752232 0.10274681 3.8155098 2039583
-1.325658 0.10282575 3.8184416 2039583
-1.2760167 0.10290485 3.8213785 2039583
-1.226299 0.10298405 3.8243198 2039583
-1.1749471 0.10306585 3.827358 2039583
-1.1235142 0.1031478 3.8304007 2039583
-1.0735613 0.10322736 3.8333554 2039583
-1.0235314 0.10330707 3.8363152 2894892
-0.97499162 0.10338441 3.8391871 2960685
-0.92637819 0.10346185 3.8420627 6974058
-0.87612063 0.10354191 3.8450358 10197915
-0.82578522 0.1036221 3.8480139 10197915
-0.79586476 0.10366976 3.8497841 10197915
0.1748156 0.10551763 3.8014369 2039583
0.22380345 0.10559589 3.8042572 2039583
0.27444747 0.1056768 3.8071721 2236962
0.32516912 0.10575783 3.8100913 2894892
0.37596858 0.10583899 3.8130145 2894892
0.42968243 0.10532591 3.8124666 2894892
1.9428425 0.10863542 3.8003182 1191753
1.9752783 0.10868738 3.8021359 1257547
2.0256102 0.10876801 3.8049569 1192266
2.0743897 0.10884617 3.8076897 1192266
2.1248696 0.10892703 3.810519 1257803
2.1754234 0.10900802 3.8133521 1323339
2.2244186 0.10908649 3.8160977 1389131
2.2751219 0.10916772 3.818939 1192522
2.3259001 0.10924906 3.8217847 1192523
2.3751116 0.10932789 3.8245428 1389131
2.4243953 0.10940684 3.8273048 1257803
2.4737496 0.1094859 3.8300703 1323595
2.50669 0.10953869 3.8319163 1454667
-1.7570256 -1.7125627 3.8562603 2039583
-1.724848 -1.7184877 3.8824046 2039583
-1.7573342 -1.6750548 3.8561704 2039583
-1.7268704 -1.6748904 3.8809478 2039583
-1.757405 -1.6250577 3.8563268 2039583
-1.7268535 -1.624874 3.8811746 2039583
-1.7574399 -1.5747944 3.8565137 2039583
-1.727003 -1.5750123 3.881268 2039583
-1.7583393 -1.5241182 3.8559995 2039583
-1.7270193 -1.5250641 3.8814681 2039583
-1.7587281 -1.4751126 3.8558936 2039583
-1.7272463 -1.47517 3.8814967 2039583
-1.7589058 -1.4251987 3.8559604 2039583
-1.7284405 -1.4249935 3.8807418 2039583
-1.7588918 -1.3752761 3.8561876 2039583
-1.728415 -1.3749554 3.8809774 2039583
-1.7590055 -1.3248886 3.8563106 2039583
-1.728461 -1.3249118 3.8811538 2039583
-1.7590563 -1.2749594 3.8564825 2039583
-1.7286266 -1.2748655 3.8812325 2039583
-1.7591056 -1.2252531 3.8566561 2039583
-1.7285779 -1.2248977 3.8814862 2039583
-1.7592613 -1.1750813 3.8567443 2039583
-1.7286869 -1.1749283 3.8816116 2039583
-1.7590562 -1.1443065 3.8570433 2039583
-1.7289233 -1.1441408 3.8815517 2039583
-0.77064252 0.10370994 3.8512762 10197915
-0.7248801 0.10378285 3.8539839 10197915
-0.67430997 0.10386343 3.8569748 10197915
-0.62524575 0.10394157 3.8598781 10197915
-0.57610667 0.10401987 3.8627846 10197915
-0.52530527 0.10410079 3.8657901 10197915
-0.47442481 0.10418186 3.8688004 9539985
-0.42505914 0.10426049 3.8717206 2039583
-0.37561801 0.10433926 3.8746457 2039583
-0.32450408 0.10442068 3.8776696 2039583
-0.27491161 0.10449968 3.8806033 2039583
-0.22524336 0.10457882 3.8835418 2039583
-0.17550057 0.10465807 3.8864846 2039583
-0.12568158 0.10473744 3.8894317 2039583
-0.074176587 0.10481948 3.8924789 2039583
-0.02420453 0.10489909 3.8954351 2039583
0.024228247 0.10497626 3.8983002 2039583
0.050085258 0.10501748 3.8998313 2039583
1.7428744 0.10802273 3.8916869 1323082
1.7759919 0.10807563 3.8935933 1323338
1.8257252 0.10815509 3.896456 1257802
1.8688858 0.10822406 3.8989403 1257802
-1.6629518 -1.7547663 3.9325914 2039583
-1.6462808 -1.7574509 3.9461389 2039583
-1.7018374 -1.7228478 3.9011023 2039583
-1.6752063 -1.7248256 3.9227531 2039583
-1.6463245 -1.7247994 3.946243 2039583
-1.7019044 -1.6744279 3.9012551 2039583
-1.6755517 -1.6749731 3.9226861 2039583
-1.6463376 -1.6752696 3.9464447 2039583
-1.7019731 -1.6243901 3.9014134 2039583
-1.6756274 -1.6248896 3.9228377 2039583
-1.6464572 -1.6252027 3.946563 2039583
-1.7020423 -1.5743483 3.9015715 2039583
-1.6755525 -1.5749607 3.9231164 2039583
-1.6465775 -1.5751325 3.9466789 2039583
-1.7021114 -1.5243028 3.9017293 2039583
-1.6757251 -1.5251031 3.9231837 2039583
-1.6465378 -1.5250387 3.9469259 2039583
-1.7024485 -1.4720198 3.9016795 2039583
-1.675822 -1.4750111 3.9233227 2039583
-1.6466576 -1.474961 3.9470403 2039583
-1.7034795 -1.424667 3.9010434 2039583
-1.6758316 -1.424911 3.9235289 2039583
-1.6467776 -1.4248805 3.9471598 2039583
-1.7035094 -1.3754144 3.9012301 2039583
-1.6759732 -1.3748896 3.9236288 2039583
-1.6467906 -1.3753246 3.947361 2039583
-1.7029389 -1.3229321 3.9019189 2039583
-1.6754113 -1.3251493 3.9242957 2039583
-1.6468058 -1.3252183 3.9475636 2039583
-1.7024024 -1.2750798 3.9025598 2039583
-1.6748846 -1.2749178 3.9249411 2039583
-1.6469781 -1.2745916 3.9476395 2039583
-1.702574 -1.2250293 3.9026346 2039583
-1.6748502 -1.2250471 3.9251864 2039583
-1.6469911 -1.2250221 3.9478421 2039583
-1.7025405 -1.1749345 3.9028771 2039583
-1.675004 -1.1750128 3.9252737 2039583
-1.6474296 -1.1781751 3.9476848 2039583
-1.7028515 -1.1442991 3.902755 2039583
-1.6750225 -1.1442143 3.9253898 2039583
-1.64832 -1.144667 3.9471049 2039583
-1.474103 0.10227831 3.9186869 2039583
-1.4248645 0.10235652 3.9216835 2039583
-1.37555 0.10243483 3.9246843 2039583
-1.3245661 0.10251581 3.9277868 2039583
-1.2750986 0.10259438 3.9307971 2039583
-1.2255545 0.10267306 3.9338124 2039583
-1.1743327 0.10275443 3.936929 2039583
-1.1246349 0.10283337 3.9399531 2039583
-1.0748595 0.10291242 3.9429822 2500134
-1.0250086 0.10299159 3.9460154 2960685
-0.97991616 0.10306322 3.9487598 2960685
0.075968474 0.10505868 3.9013612 2039583
0.12454877 0.10513606 3.9042354 2039583
0.17482409 0.10521617 3.9072101 2039583
0.22517522 0.10529637 3.9101877 2039583
0.2739757 0.10537413 3.9130757 2105376
0.32447904 0.10545457 3.9160633 2894892
0.37505865 0.10553516 3.9190557 2894892
0.42408088 0.10561326 3.9219556 2894892
0.45188928 0.10565756 3.9236007 2894892
1.89381 0.10826387 3.9003747 1323339
1.9254116 0.10831434 3.9021933 1192011
1.9753654 0.10839415 3.9050691 1257289
2.0253921 0.10847408 3.9079478 1323083
2.0754931 0.10855414 3.9108322 1257803
2.1256678 0.10863429 3.9137194 1192266
2.1759171 0.10871457 3.9166119 1257803
2.2262404 0.10879496 3.9195082 1323339
2.2749565 0.10887279 3.9223118 1389131
2.3237429 0.10895073 3.9251201 1258059
2.3742857 0.10903148 3.9280295 1192522
2.4249029 0.10911234 3.9309428 1323595
2.4755952 0.10919334 3.9338603 1323339
2.5246685 0.10927173 3.9366844 1258059
2.56703 0.10933942 3.9391234 1389131
-1.6195333 -1.7626458 3.96787 2039583
-1.590315 -1.7678931 3.991612 2039583
-1.6218048 -1.7250161 3.9661841 2039583
-1.5907891 -1.7249137 3.9914095 2039583
-1.6218518 -1.6751134 3.9663603 2039583
-1.5907916 -1.6749578 3.9916224 2039583
-1.6218884 -1.625206 3.9665427 2039583
-1.5909384 -1.6250035 3.9917171 2039583
-1.6220682 -1.5750999 3.9666128 2039583
-1.591013 -1.5748342 3.9918711 2039583
-1.6220205 -1.5250893 3.9668655 2039583
-1.5910163 -1.524868 3.9920831 2039583
-1.6220961 -1.4750727 3.9670188 2039583
-1.5910909 -1.4751034 3.9922352 2039583
-1.622152 -1.4249556 3.9671881 2039583
-1.5910728 -1.4251294 3.9924636 2039583
-1.6222563 -1.3749328 3.9673176 2039583
-1.59124 -1.3751523 3.9925413 2039583
-1.621573 -1.3246061 3.9680872 2039583
-1.5905771 -1.3256773 3.9932923 2039583
-1.6210756 -1.2749557 3.9687045 2039583
-1.5907933 -1.2757416 3.9933312 2039583
-1.6213212 -1.2249508 3.9687207 2039583
-1.5913643 -1.2249891 3.9930835 2039583
-1.6218172 -1.1745759 3.9685333 2039583
-1.591457 -1.1748559 3.9932237 2039583
-1.6225144 -1.1441702 3.9680958 2039583
-1.5917598 -1.1442763 3.993108 2039583
-0.95412254 0.10310417 3.9503288 7763574
-0.92507517 0.10315032 3.9520965 10197915
-0.87499231 0.10322984 3.9551442 10197915
-0.82483333 0.10330952 3.9581969 10197915
-0.77459574 0.1033893 3.9612544 10197915
-0.72428143 0.10346923 3.9643159 10197915
-0.67551559 0.10354666 3.9672828 10197915
-0.62504715 0.10362682 3.9703538 10197915
-0.5745014 0.10370711 3.9734309 10197915
-0.52551103 0.10378491 3.9764109 10197915
-0.47480994 0.10386544 3.9794967 7500402
-0.42403099 0.1039461 3.9825869 2039583
-0.37481448 0.10402425 3.9855814 2039583
-0.32552394 0.10410254 3.9885814 2039583
-0.27615911 0.10418095 3.9915848 2039583
-0.22507021 0.1042621 3.9946942 2039583
-0.1739025 0.10434338 3.9978075 2039583
-0.14415838 0.10439062 3.9996183 2039583
-1.5286891 -1.8041059 4.0415783 2039583
-1.5649933 -1.7726223 4.0121865 2039583
-1.53458 -1.7755375 4.0369096 2039583
-1.5655965 -1.7250797 4.011899 2039583
-1.5351796 -1.7250041 4.0366373 2039583
-1.5657783 -1.6748707 4.0119658 2039583
-1.5352415 -1.6749023 4.0368023 2039583
-1.5657725 -1.6247962 4.0121851 2039583
-1.5353044 -1.6247959 4.0369673 2039583
-1.5658361 -1.5749925 4.0123463 2039583
-1.5354162 -1.5748242 4.0370884 2039583
-1.5659757 -1.5250485 4.0124483 2039583
-1.5354214 -1.5249896 4.0372982 2039583
-1.5659839 -1.4749625 4.0126562 2039583
-1.53549 -1.4750112 4.037456 2039583
-1.566026 -1.4250096 4.012835 2039583
-1.5355529 -1.4248886 4.0376196 2039583
-1.5660547 -1.375052 4.0130262 2039583
-1.535679 -1.3749018 4.0377312 2039583
-1.5661879 -1.3249532 4.0131326 2039583
-1.535677 -1.3249117 4.0379472 2039583
-1.5669965 -1.2744848 4.0126901 2039583
-1.5358177 -1.2749161 4.0380459 2039583
-1.5675775 -1.2249929 4.0124297 2039583
-1.5358082 -1.2250575 4.038269 2039583
-1.5676025 -1.1750437 4.0126243 2039583
-1.5358634 -1.1750541 4.038435 2039583
-1.5679702 -1.1442453 4.0124559 2039583
-1.5341897 -1.12684 4.0400052 2039583
-1.5334501 -1.0749604 4.0408278 2039583
-1.5335013 -1.0249895 4.0410013 2039583
-1.533564 -0.97480482 4.0411644 2039583
-1.5336587 -0.92482477 4.0413017 2039583
-1.5336877 -0.87484205 4.0414925 2039583
-1.5338035 -0.82485449 4.0416117 2039583
-1.5338875 -0.77507377 4.0417581 2039583
-1.533874 -0.72507775 4.0419822 2039583
-1.5339369 -0.674869 4.0421467 2039583
-1.5339987 -0.62465596 4.0423112 2039583
-1.5340612 -0.57443875 4.0424752 2039583
-1.5341233 -0.52461493 4.0426388 2039583
-1.5354176 -0.47458217 4.0417995 2039583
-1.5355285 -0.42460924 4.0419245 2039583
-1.5355654 -0.37486422 4.0421066 2039583
-1.5356767 -0.32536301 4.0422277 2039583
-1.5358379 -0.27586621 4.0423093 2039583
-1.5357757 -0.22609644 4.0425735 2039583
-1.535838 -0.17585994 4.042738 2039583
-1.5359001 -0.12561925 4.042902 2039583
-1.5359625 -0.075374573 4.0430651 2039583
-1.5360249 -0.025125764 4.043232 2039583
-1.5360875 0.025127122 4.0433965 2039583
-1.53615 0.075384103 4.04356 2039583
-1.5214316 0.10187428 4.0311813 2039583
-1.4757165 0.10194667 4.0340452 2039583
-1.4250281 0.1020269 4.0372205 2039583
-1.3742603 0.10210728 4.040401 2039583
-1.3250539 0.10218516 4.0434833 2039583
-1.2757722 0.1022632 4.0465708 2039583
-1.2362945 0.1023257 4.0490437 2039583
-0.11934659 0.10443 4.0011272 2039583
-0.074640468 0.10450102 4.0038481 2039583
-0.024896884 0.10458003 4.006875 2039583
0.024921972 0.10465916 4.0099063 2039583
0.074816272 0.10473839 4.0129423 2039583
0.12478619 0.10481776 4.0159831 2039583
0.1748319 0.10489724 4.0190287 2039583
0.22495352 0.10497685 4.022079 2039583
0.27515131 0.10505657 4.0251336 2039583
0.32542545 0.10513642 4.028193 2829099
0.37577602 0.10521641 4.0312572 2894892
0.42620325 0.10529649 4.0343256 2894892
0.45986122 0.10534996 4.0363741 2894892
1.7926884 0.10779344 4.0029173 1257289
1.8250725 0.10784502 4.0048327 1323338
1.8745577 0.10792387 4.0077605 1323594
1.9258251 0.10800555 4.0107937 1323594
1.9754571 0.1080846 4.0137296 1257803
2.0251622 0.1081638 4.0166702 1257546
2.0749393 0.10824309 4.0196147 1323339
2.1247909 0.10832251 4.0225635 1257803
2.1747146 0.10840203 4.025517 1192266
2.2247124 0.10848169 4.0284753 1257803
2.2747827 0.10856146 4.0314369 1323339
2.3249278 0.10864134 4.0344033 1388875
2.3751462 0.10872134 4.037374 1323339
2.4254386 0.10880146 4.0403504 1192523
2.475805 0.1088817 4.0433297 1192523
2.5245054 0.10895928 4.0462103 1388875
2.5680459 0.10902864 4.0487866 1258059
-1.5074159 -1.8079586 4.0588636 2039583
-1.4762468 -1.8136903 4.0841889 2039583
-1.5090522 -1.7740997 4.0576777 2039583
-1.478313 -1.7750282 4.0826755 2039583
-1.5094452 -1.7251042 4.0575686 2039583
-1.4784396 -1.7249902 4.082787 2039583
-1.5095718 -1.675161 4.0576787 2039583
-1.4783164 -1.675055 4.0830989 2039583
-1.5096332 -1.6247963 4.0578442 2039583
-1.478421 -1.6252195 4.0832281 2039583
-1.5096723 -1.5748465 4.0580268 2039583
-1.4786015 -1.5751677 4.0832973 2039583
-1.5098097 -1.5251027 4.0581279 2039583
-1.4786075 -1.5251161 4.0835056 2039583
-1.5097841 -1.4751469 4.0583634 2039583
-1.4786175 -1.4751624 4.0837116 2039583
-1.5099536 -1.4251862 4.0584388 2039583
-1.478749 -1.424993 4.0838199 2039583
-1.5099277 -1.3752205 4.0586739 2039583
-1.4796599 -1.3752238 4.0832915 2039583
-1.5100002 -1.32504 4.0588293 2039583
-1.4800426 -1.3248515 4.0831952 2039583
-1.5100724 -1.2748548 4.0589862 2039583
-1.4801375 -1.2748307 4.0833316 2039583
-1.5101546 -1.2248757 4.0591331 2039583
-1.4803038 -1.2249199 4.0834107 2039583
-1.5101078 -1.1748947 4.0593863 2039583
-1.4803635 -1.1751201 4.0835752 2039583
-1.5113574 -1.124537 4.0585847 2039583
-1.480352 -1.125087 4.0837984 2039583
-1.5116336 -1.0751827 4.0585718 2039583
-1.4804361 -1.0748255 4.0839472 2039583
-1.5116364 -1.0253398 4.0587831 2039583
-1.4805081 -1.0248971 4.0841017 2039583
-1.5117171 -0.97511995 4.0589328 2039583
-1.4805566 -0.97508246 4.0842757 2039583
-1.5117787 -0.92489725 4.0590978 2039583
-1.4805926 -0.92503339 4.0844607 2039583
-1.5118595 -0.87485731 4.0592456 2039583
-1.4806174 -0.87498164 4.0846548 2039583
-1.5119399 -0.82481319 4.0593948 2039583
-1.4809021 -0.82503963 4.0846357 2039583
-1.5120983 -0.77495211 4.0594802 2039583
-1.4807605 -0.77498037 4.0849671 2039583
-1.5119464 -0.72508842 4.0598168 2039583
-1.4817384 -0.72512788 4.0843844 2039583
-1.5120268 -0.6750313 4.0599647 2039583
-1.4822476 -0.67500085 4.0841851 2039583
-1.5121076 -0.62497014 4.0601144 2039583
-1.4822681 -0.62523586 4.0843806 2039583
-1.5121881 -0.57490611 4.0602632 2039583
-1.4822966 -0.57509744 4.0845733 2039583
-1.5123836 -0.5248518 4.0603185 2039583
-1.4824392 -0.52495646 4.0846725 2039583
-1.5137227 -0.47528261 4.0594425 2039583
-1.4826963 -0.47505596 4.0846772 2039583
-1.513757 -0.42535082 4.0596271 2039583
-1.4823518 -0.42502886 4.0851712 2039583
-1.5137402 -0.37507465 4.0598569 2039583
-1.4824295 -0.37487423 4.0853233 2039583
-1.5138024 -0.32462952 4.0600228 2039583
-1.4826539 -0.32508355 4.0853539 2039583
-1.5138643 -0.27418017 4.0601902 2039583
-1.4829359 -0.27541694 4.0853386 2039583
-1.5137411 -0.22421457 4.0605021 2039583
-1.4827423 -0.2251237 4.0857096 2039583
-1.5140926 -0.1752962 4.0604253 2039583
-1.4828035 -0.1743511 4.0858784 2039583
-1.5141237 -0.12601113 4.0606093 2039583
-1.4825701 -0.1246411 4.0862827 2039583
-1.5141075 -0.075705931 4.0608406 2039583
-1.4842854 -0.075859524 4.0850935 2039583
-1.5141693 -0.025236228 4.0610061 2039583
-1.484292 -0.025387224 4.0853057 2039583
-1.5135117 0.025839275 4.0617614 2039583
-1.4836832 0.024886711 4.0860176 2039583
-1.5129994 0.075735159 4.0623913 2039583
-1.4833471 0.07564491 4.0865054 2039583
-1.4726732 0.10010121 4.0952926 2039583
-1.2099487 0.10236742 4.0506949 2039583
-1.1736846 0.10242482 4.0529666 2039583
-1.1241714 0.10250321 4.0560679 2171169
-1.0745823 0.10258171 4.0591741 2960685
-1.0249174 0.10266034 4.0622859 2960685
-0.97517598 0.10273909 4.0654016 7763574
-0.92535847 0.10281797 4.0685229 10197915
-0.87546426 0.10289695 4.0716486 10197915
-0.8254934 0.10297605 4.074779 10197915
-0.7754457 0.10305529 4.0779142 10197915
-0.72532064 0.10313465 4.0810537 10197915
-0.67511863 0.10321414 4.0841994 10197915
-0.62483913 0.10329372 4.0873489 10197915
-0.57448196 0.10337345 4.0905032 10197915
-0.52404708 0.1034533 4.0936632 10197915
-0.47521952 0.10353059 4.0967221 5329233
-0.43644378 0.10359199 4.0991511 2039583
2.5941951 0.10907029 4.050333 1192523
2.6256061 0.10912033 4.0521913 1323595
2.6552932 0.10916766 4.0539484 1454667
-1.4052967 -1.8514239 4.1417327 2039583
-1.3981134 -1.8528872 4.1475687 2039583
-1.4532099 -1.8176023 4.1029091 2039583
-1.4240618 -1.8228023 4.1265926 2039583
-1.39864 -1.8255733 4.1472564 2039583
-1.4533429 -1.7746087 4.1029859 2039583
-1.4248223 -1.7746402 4.1261802 2039583
-1.3981557 -1.7794839 4.1478486 2039583
-1.4534615 -1.7248226 4.1031022 2039583
-1.4242072 -1.7250227 4.1268935 2039583
-1.3973585 -1.7256432 4.1487274 2039583
-1.4534 -1.6750157 4.1033645 2039583
-1.4241391 -1.6750569 4.1271625 2039583
-1.3974149 -1.6758664 4.1488953 2039583
-1.4535186 -1.6252217 4.1034818 2039583
-1.4244373 -1.6250923 4.1271348 2039583
-1.3974731 -1.6243689 4.1490674 2039583
-1.4536374 -1.5754249 4.1035981 2039583
-1.4244273 -1.575027 4.1273565 2039583
-1.3975296 -1.574584 4.1492357 2039583
-1.4536365 -1.5250446 4.1038141 2039583
-1.4244088 -1.5250503 4.1275859 2039583
-1.3975857 -1.5247954 4.1494026 2039583
-1.4536359 -1.4746579 4.1040306 2039583
-1.4244083 -1.4751624 4.1277995 2039583
-1.3976423 -1.4750025 4.14957 2039583
-1.4537547 -1.4248502 4.1041479 2039583
-1.4245908 -1.4250864 4.1278658 2039583
-1.3976988 -1.4252053 4.1497378 2039583
-1.4548414 -1.3733058 4.1034856 2039583
-1.4245628 -1.3750083 4.1281028 2039583
-1.397755 -1.3754047 4.1499043 2039583
-1.4551245 -1.3247153 4.1034622 2039583
-1.4246683 -1.3249266 4.128232 2039583
-1.3977842 -1.3496441 4.1499915 2039583
-1.4552503 -1.275045 4.1035728 2039583
-1.4247558 -1.2749302 4.1283755 2039583
-1.4553759 -1.2253733 4.103683 2039583
-1.4247642 -1.2249275 4.128581 2039583
-1.4553682 -1.1748375 4.1039066 2039583
-1.4248616 -1.1750144 4.1287165 2039583
-1.4553363 -1.1247176 4.1041465 2039583
-1.4248604 -1.1251868 4.1289325 2039583
-1.4555765 -1.0754721 4.1041622 2039583
-1.4249951 -1.0750818 4.1290364 2039583
-1.4555446 -1.025344 4.1044035 2039583
-1.424957 -1.0250661 4.129281 2039583
-1.4555371 -0.97478795 4.1046252 2039583
-1.4250237 -0.97513521 4.1294408 2039583
-1.4556623 -0.92509466 4.1047368 2039583
-1.4252058 -0.92502248 4.1295075 2039583
-1.4557885 -0.87539929 4.1048465 2039583
-1.4251398 -0.87489879 4.1297765 2039583
-1.4557811 -0.82483035 4.1050696 2039583
-1.4252555 -0.82505012 4.1298957 2039583
-1.4557493 -0.77467585 4.10531 2039583
-1.4252547 -0.77510107 4.1301107 2039583
-1.4570273 -0.7243138 4.1044869 2039583
-1.4254874 -0.72505939 4.1301346 2039583
-1.4572765 -0.67507571 4.1044946 2039583
-1.426443 -0.67524463 4.1295714 2039583
-1.4572272 -0.62475306 4.1047497 2039583
-1.4269465 -0.62510884 4.1293759 2039583
-1.4575038 -0.57549149 4.1047368 2039583
-1.4268508 -0.57494599 4.1296701 2039583
-1.4574527 -0.5255003 4.1049919 2039583
-1.4268788 -0.52497005 4.1298594 2039583
-1.457513 -0.47450048 4.1051617 2039583
-1.4269007 -0.47509268 4.1300559 2039583
-1.4574972 -0.42484337 4.1053872 2039583
-1.4271802 -0.42491484 4.1300454 2039583
-1.457701 -0.37556145 4.1054325 2039583
-1.4269564 -0.37493122 4.1304407 2039583
-1.4576894 -0.32487661 4.10566 2039583
-1.4270786 -0.3250342 4.1305542 2039583
-1.4576403 -0.2745178 4.1059146 2039583
-1.4275374 -0.27495256 4.1303954 2039583
-1.4579172 -0.22524346 4.1059003 2039583
-1.4268402 -0.22484191 4.1311774 2039583
-1.457866 -0.17521638 4.1061559 2039583
-1.427685 -0.17524433 4.130703 2039583
-1.4572506 -0.12304069 4.1068811 2039583
-1.4267424 -0.1253172 4.1316824 2039583
-1.4578176 -0.074433573 4.1066275 2039583
-1.4260708 -0.075328812 4.1324425 2039583
-1.4580402 -0.025519907 4.1066566 2039583
-1.4271874 -0.025930535 4.1317453 2039583
-1.4581002 0.025521301 4.1068268 2039583
-1.427528 0.025675833 4.1316915 2039583
-1.4581587 0.07486511 4.1069899 2039583
-1.4275855 0.075318433 4.1318574 2039583
-1.4581884 0.1003892 4.1070743 2039583
-1.427615 0.10099705 4.1319427 2039583
-0.41112998 0.10363207 4.1007371 2039583
-0.37565404 0.10368823 4.1029592 2039583
-0.32491139 0.10376856 4.1061382 2039583
-0.27408999 0.10384901 4.1093221 2039583
-0.22488816 0.1039269 4.1124048 2039583
-0.17561157 0.10400491 4.1154904 2039583
-0.12455833 0.10408576 4.1186891 2039583
-0.075131811 0.104164 4.1217856 2039583
-0.025630059 0.10424236 4.124887 2039583
0.025656648 0.10432357 4.1280999 2039583
0.075309381 0.10440218 4.1312103 2039583
0.12503783 0.1044809 4.1343255 2039583
0.17484049 0.10455974 4.1374459 2039583
0.22471926 0.10463871 4.1405697 2039583
0.27467257 0.10471779 4.1436996 2039583
0.32470223 0.104797 4.1468339 2697513
0.36270338 0.10485717 4.1492147 2894892
1.8436782 0.10754789 4.1205854 1191497
1.875284 0.10759811 4.122509 1323338
1.9245024 0.10767625 4.125504 1323595
1.9737928 0.10775454 4.1285033 1323338
2.0249193 0.10783575 4.1316147 1323339
2.0761218 0.10791708 4.1347308 1323082
2.1256328 0.1079957 4.1377435 1323339
2.175216 0.10807446 4.1407609 1323083
2.2248714 0.10815334 4.1437826 1126730
2.2745991 0.1082323 4.1468077 1192266
2.3137202 0.10829443 4.1491885 1323339
-1.3683715 -1.8582954 4.1717343 2039583
-1.3410059 -1.8634223 4.1939697 2039583
-1.3729115 -1.825079 4.1681852 2039583
-1.3413078 -1.8252087 4.1938882 2039583
-1.3728905 -1.7750709 4.1684165 2039583
-1.3413942 -1.7749034 4.1940336 2039583
-1.3729559 -1.7249607 4.1685786 2039583
-1.3414483 -1.7251567 4.1942029 2039583
-1.3730241 -1.6748422 4.1687384 2039583
-1.3420815 -1.6762835 4.1938972 2039583
-1.37299 -1.6248249 4.1689796 2039583
-1.3428831 -1.6247147 4.1934662 2039583
-1.3731903 -1.574901 4.1690292 2039583
-1.3430139 -1.575087 4.1935716 2039583
-1.3731563 -1.5250787 4.169271 2039583
-1.3429915 -1.5251166 4.1938047 2039583
-1.3732786 -1.4749458 4.1693869 2039583
-1.3431226 -1.4747881 4.193912 2039583
-1.3731798 -1.4249101 4.1696811 2039583
-1.3431392 -1.4248075 4.1941128 2039583
-1.3734008 -1.3749737 4.1697145 2039583
-1.3431548 -1.3748213 4.194315 2039583
-1.3747481 -1.3248734 4.1688352 2039583
-1.3433625 -1.3248303 4.1943593 2039583
-1.3748287 -1.2749325 4.168982 2039583
-1.3431872 -1.2748356 4.194716 2039583
-1.374838 -1.2249928 4.1691899 2039583
-1.3433948 -1.2248383 4.1947613 2039583
-1.3749706 -1.1750433 4.169292 2039583
-1.3434104 -1.1748347 4.194963 2039583
-1.3749387 -1.1249034 4.1695337 2039583
-1.3434266 -1.124827 4.1951637 2039583
-1.3751678 -1.0749481 4.1695633 2039583
-1.3436348 -1.074823 4.195209 2039583
-1.3749496 -1.0250849 4.169951 2039583
-1.3438194 -1.0263056 4.1952667 2039583
-1.3752251 -0.97502971 4.1699438 2039583
-1.3449378 -0.97529662 4.1945758 2039583
-1.3751296 -0.92505825 4.1702361 2039583
-1.3451349 -0.92495847 4.1946311 2039583
-1.375306 -0.87509334 4.1703067 2039583
-1.3450217 -0.87500817 4.1949363 2039583
-1.3753617 -0.82501739 4.170475 2039583
-1.3452667 -0.82467186 4.194953 2039583
-1.3753068 -0.77504319 4.170733 2039583
-1.3452255 -0.77515703 4.1951985 2039583
-1.3756019 -0.72496331 4.1707072 2039583
-1.3452098 -0.7252059 4.195426 2039583
-1.4012506 -0.67225623 4.1500735 2039583
-1.375297 -0.67497504 4.1711698 2039583
-1.3454074 -0.67485422 4.1954808 2039583
-1.4013051 -0.62413943 4.1502347 2039583
-1.3756613 -0.62498844 4.1710863 2039583
-1.3453161 -0.62531406 4.1957664 2039583
-1.4013617 -0.57430023 4.150403 2039583
-1.3754715 -0.57498711 4.1714554 2039583
-1.3455138 -0.57495737 4.1958213 2039583
-1.4014183 -0.52445704 4.1505704 2039583
-1.3757209 -0.52499539 4.1714683 2039583
-1.3454983 -0.52498835 4.1960478 2039583
-1.4014748 -0.47460976 4.1507373 2039583
-1.3757843 -0.47498691 4.1716304 2039583
-1.3454827 -0.47501343 4.1962752 2039583
-1.4015313 -0.42475843 4.1509056 2039583
-1.3756443 -0.42498335 4.1719589 2039583
-1.3456799 -0.42464834 4.1963301 2039583
-1.4015881 -0.37490317 4.1510725 2039583
-1.3758688 -0.37487465 4.1719899 2039583
-1.345661 -0.37553379 4.1965566 2039583
-1.4016443 -0.32504374 4.1512408 2039583
-1.375897 -0.3250525 4.1721802 2039583
-1.3470953 -0.32504123 4.1956058 2039583
-1.4017011 -0.27518043 4.1514077 2039583
-1.3758396 -0.27493578 4.172442 2039583
-1.34715 -0.27464491 4.1957769 2039583
-1.4017578 -0.22531301 4.1515756 2039583
-1.3762488 -0.22511414 4.1723228 2039583
-1.3471398 -0.22537877 4.1959958 2039583
-1.4018142 -0.17544162 4.1517429 2039583
-1.3747004 -0.17471671 4.1737971 2039583
-1.3464216 -0.1771851 4.1967869 2039583
-1.4018707 -0.12556615 4.1519108 2039583
-1.3749973 -0.12488092 4.1737704 2039583
-1.3459351 -0.12520315 4.1974053 2039583
-1.4019276 -0.075686738 4.1520786 2039583
-1.37446 -0.074707843 4.1744213 2039583
-1.3459903 -0.074777059 4.197577 2039583
-1.4031858 -0.023504792 4.151278 2039583
-1.3751084 -0.024592591 4.1741114 2039583
-1.3460451 -0.024346912 4.1977482 2039583
-1.4033912 0.025797823 4.1513219 2039583
-1.3751631 0.024593892 4.1742764 2039583
-1.3460979 0.024348196 4.1979136 2039583
-1.4034482 0.075676307 4.1514897 2039583
-1.3746262 0.074717201 4.1749282 2039583
-1.3461529 0.074786492 4.1980848 2039583
-1.4034774 0.10147697 4.1515765 2039583
-1.3759788 0.10173342 4.1620679 2039583
-1.3238796 0.10183714 4.1663127 2039583
-1.2747933 0.1019146 4.1694813 2039583
-1.2256312 0.10199216 4.1726546 2039583
-1.1746957 0.10207253 4.1759424 2039583
-1.1253821 0.10215034 4.1791253 2763306
-1.0759923 0.10222825 4.182313 2960685
-1.0248206 0.10230899 4.1856165 4868682
-0.97527802 0.10238715 4.1888142 10197915
-0.92565894 0.10246544 4.1920166 10197915
-0.8742494 0.10254656 4.1953354 10197915
-0.8244766 0.10262507 4.1985483 10197915
0.38691035 0.10489549 4.1507316 2894892
0.42498818 0.10495577 4.1531157 2894892
0.46657261 0.1050216 4.1557217 2894892
2.3386395 0.10833401 4.1507049 1323340
2.3742735 0.10839061 4.1528735 1388875
2.4242198 0.10846994 4.1559129 1388875
2.4742396 0.10854938 4.158957 1258059
2.5243325 0.10862895 4.1620049 1192523
2.5744989 0.10870861 4.1650577 1323339
2.6247392 0.10878841 4.1681147 1323340
2.6750529 0.10886831 4.1711764 1323596
2.7200377 0.10893977 4.173914 1389131
-1.3154352 -1.8678862 4.2147474 2039583
-1.284997 -1.8734058 4.23948 2039583
-1.3163877 -1.8250213 4.2141566 2039583
-1.285557 -1.8249249 4.2392325 2039583
-1.3164085 -1.7750425 4.2143521 2039583
-1.2857176 -1.7749444 4.239315 2039583
-1.3165179 -1.724919 4.2144785 2039583
-1.2856511 -1.7251354 4.239583 2039583
-1.3172188 -1.6744139 4.2141256 2039583
-1.2869161 -1.6755582 4.2387671 2039583
-1.3180482 -1.6250988 4.2136602 2039583
-1.2872297 -1.6253343 4.2387276 2039583
-1.3179976 -1.5749437 4.2139187 2039583
-1.2872374 -1.5752546 4.2389345 2039583
-1.3180357 -1.5249147 4.2141013 2039583
-1.2872458 -1.525169 4.239141 2039583
-1.318223 -1.4750173 4.2141619 2039583
-1.2874078 -1.475078 4.2392249 2039583
-1.3182322 -1.4249816 4.2143707 2039583
-1.2874602 -1.424986 4.2393985 2039583
-1.3182411 -1.3750736 4.2145758 2039583
-1.2873584 -1.3750817 4.2396936 2039583
-1.3183379 -1.3248979 4.2147121 2039583
-1.287499 -1.3249801 4.2397952 2039583
-1.318378 -1.2748483 4.2148943 2039583
-1.2875732 -1.2748752 4.2399473 2039583
-1.3183259 -1.2250617 4.2151489 2039583
-1.2876687 -1.2249628 4.2400827 2039583
-1.3185579 -1.1750098 4.2151752 2039583
-1.2876773 -1.1750391 4.2402911 2039583
-1.3184779 -1.1249478 4.2154541 2039583
-1.287663 -1.1251155 4.2405171 2039583
-1.318651 -1.0750155 4.2155294 2039583
-1.2878467 -1.074996 4.240581 2039583
-1.3190385 -1.0246755 4.2154288 2039583
-1.2883946 -1.0255938 4.2403483 2039583
-1.3199724 -0.97509414 4.21488 2039583
-1.2892751 -0.97486585 4.2398491 2039583
-1.3201921 -0.92499155 4.2149172 2039583
-1.2893643 -0.9250614 4.2399893 2039583
-1.3202543 -0.87501168 4.2150798 2039583
-1.2894402 -0.87503463 4.2401428 2039583
-1.3200928 -0.82502347 4.2154274 2039583
-1.2893687 -0.82500416 4.2404137 2039583
-1.3204159 -0.77478975 4.2153773 2039583
-1.2894337 -0.77518696 4.2405753 2039583
-1.3203033 -0.72491997 4.2156854 2039583
-1.2896459 -0.72493058 4.2406173 2039583
-1.3203908 -0.67516637 4.2158251 2039583
-1.2896751 -0.67488831 4.2408075 2039583
-1.3204713 -0.62504756 4.2159729 2039583
-1.2895525 -0.62527424 4.2411208 2039583
-1.3204291 -0.57491595 4.2162232 2039583
-1.2895821 -0.57521987 4.2413101 2039583
-1.3207049 -0.52502853 4.2162132 2039583
-1.2898552 -0.52473611 4.2413044 2039583
-1.3205279 -0.47501734 4.2165713 2039583
-1.2898843 -0.47467679 4.2414961 2039583
-1.3205333 -0.42499802 4.2167821 2039583
-1.2898486 -0.42526656 4.2417364 2039583
-1.3209461 -0.3748574 4.2166605 2039583
-1.2898877 -0.37581354 4.2419162 2039583
-1.32231 -0.32510269 4.215764 2039583
-1.2914196 -0.32479334 4.2408891 2039583
-1.3218449 -0.27526239 4.2163563 2039583
-1.291502 -0.27435926 4.2410374 2039583
-1.3225908 -0.22464278 4.2159667 2039583
-1.2914686 -0.2249099 4.2412758 2039583
-1.3223003 -0.1746809 4.2164164 2039583
-1.2915198 -0.17571786 4.2414455 2039583
-1.3211462 -0.1254252 4.2175655 2039583
-1.2904829 -0.12546988 4.2425046 2039583
-1.3210987 -0.075034901 4.2178197 2039583
-1.2902189 -0.073827408 4.2429395 2039583
-1.3210657 -0.024464747 4.2180643 2039583
-1.2902704 -0.024610011 4.2431097 2039583
-1.3211172 0.024466038 4.2182331 2039583
-1.2903221 0.024611311 4.2432785 2039583
-1.3212596 0.075044408 4.2183313 2039583
-1.2903733 0.07383655 4.2434464 2039583
-1.3002527 0.10001944 4.2355242 2039583
-1.2904009 0.10020867 4.2435374 2039583
-0.77462643 0.10270373 4.2017655 10197915
-0.72470075 0.1027825 4.204988 10197915
-0.67469758 0.1028614 4.2082152 10197915
-0.62461841 0.1029404 4.2114482 10197915
-0.5744614 0.10301952 4.2146854 10197915
-0.52422816 0.1030988 4.2179284 10197915
-0.4756532 0.10317542 4.2210636 3026478
-0.42526686 0.10325493 4.2243156 2039583
-0.37480369 0.10333455 4.2275729 2039583
-0.3260062 0.10341154 4.2307229 2039583
-0.27538884 0.1034914 4.2339907 2039583
-0.22469416 0.10357136 4.2372622 2039583
-0.17567277 0.10364872 4.2404265 2039583
-0.12482285 0.10372894 4.2437086 2039583
-0.073895097 0.1038093 4.2469959 2039583
-0.038728688 0.10386478 4.2492652 2039583
1.8959477 0.10728461 4.2452688 1257546
1.9249133 0.10733045 4.2470832 1257546
1.9611489 0.10738784 4.2493534 1389131
-1.2577734 -1.9031923 4.2614937 2039583
-1.2273462 -1.9087888 4.2862163 2039583
-1.259975 -1.8748486 4.2598238 2039583
-1.2299954 -1.8749704 4.2842059 2039583
-1.2601264 -1.8250672 4.2599134 2039583
-1.2300761 -1.8249376 4.2843566 2039583
-1.260165 -1.7750602 4.2600965 2039583
-1.2301109 -1.7749008 4.2845421 2039583
-1.2602662 -1.7248305 4.2602315 2039583
-1.2302229 -1.7249974 4.2846651 2039583
-1.2614788 -1.6748141 4.259459 2039583
-1.2301321 -1.6748174 4.2849545 2039583
-1.2617131 -1.6252414 4.2594805 2039583
-1.2302285 -1.6247661 4.285089 2039583
-1.2617198 -1.5749156 4.2596903 2039583
-1.2303416 -1.5749859 4.2852101 2039583
-1.2618605 -1.5249749 4.2597899 2039583
-1.2303282 -1.5250665 4.2854342 2039583
-1.261889 -1.4750323 4.2599812 2039583
-1.2303935 -1.4750048 4.2855954 2039583
-1.2619847 -1.424891 4.2601151 2039583
-1.2304434 -1.4249396 4.2857709 2039583
-1.261969 -1.3749399 4.2603426 2039583
-1.2315772 -1.3754034 4.2850595 2039583
-1.2619532 -1.3249837 4.26057 2039583
-1.2319363 -1.3248922 4.2849832 2039583
-1.2620496 -1.2748288 4.2607059 2039583
-1.2320198 -1.2749407 4.28513 2039583
-1.2621897 -1.2248665 4.260807 2039583
-1.2320696 -1.2249869 4.2853036 2039583
-1.2622178 -1.1749022 4.2609959 2039583
-1.2321794 -1.1748806 4.2854295 2039583
-1.2622025 -1.1249306 4.2612247 2039583
-1.2321696 -1.1250669 4.2856483 2039583
-1.2622753 -1.0751494 4.2613769 2039583
-1.2322701 -1.0751005 4.2857819 2039583
-1.2630904 -1.0246891 4.260932 2039583
-1.2323629 -1.0249835 4.2859206 2039583
-1.2637873 -0.97521216 4.2605762 2039583
-1.2323109 -0.97501045 4.2861781 2039583
-1.2638488 -0.92494857 4.2607422 2039583
-1.2323778 -0.92503059 4.2863388 2039583
-1.2639402 -0.87485689 4.2608824 2039583
-1.2324187 -0.87519664 4.2865171 2039583
-1.2639207 -0.8249315 4.2611103 2039583
-1.2324945 -0.82535672 4.2866712 2039583
-1.2640027 -0.77500325 4.2612596 2039583
-1.232561 -0.77536607 4.286829 2039583
-1.2640843 -0.72507179 4.2614079 2039583
-1.2328184 -0.7256102 4.2868328 2039583
-1.2642248 -0.67513716 4.2615056 2039583
-1.2341346 -0.67523068 4.2859778 2039583
-1.2641557 -0.62502253 4.2617779 2039583
-1.2341105 -0.62505454 4.2862124 2039583
-1.2641363 -0.57507783 4.2620072 2039583
-1.2341607 -0.57503486 4.286387 2039583
-1.2641783 -0.52512884 4.2621861 2039583
-1.2341362 -0.52517092 4.2866201 2039583
-1.2643099 -0.47500241 4.2622957 2039583
-1.2342046 -0.47514224 4.2867785 2039583
-1.2645103 -0.42470109 4.2623453 2039583
-1.2342736 -0.42510951 4.2869387 2039583
-1.2647209 -0.37425095 4.2623901 2039583
-1.234342 -0.37507361 4.2870955 2039583
-1.2658827 -0.32486168 4.2616572 2039583
-1.2344292 -0.3248736 4.2872391 2039583
-1.2659334 -0.27543712 4.2618279 2039583
-1.234553 -0.27451172 4.2873535 2039583
-1.2658926 -0.22584149 4.262074 2039583
-1.2346772 -0.2241478 4.2874689 2039583
-1.2658767 -0.17527805 4.2623034 2039583
-1.2345613 -0.17408456 4.2877774 2039583
-1.2663409 -0.12427203 4.2621465 2039583
-1.2346113 -0.12435109 4.2879505 2039583
-1.2661396 -0.074168153 4.2625232 2039583
-1.2346609 -0.074613594 4.2881246 2039583
-1.2661905 -0.024723586 4.2626944 2039583
-1.2356049 -0.025420722 4.2875657 2039583
-1.2662412 0.024724908 4.2628636 2039583
-1.2362022 0.024866622 4.2872949 2039583
-1.266292 0.074177384 4.2630348 2039583
-1.236252 0.074602559 4.2874689 2039583
-1.2663189 0.10067124 4.2631259 2039583
-1.2362785 0.10124824 4.2875605 2039583
-0.014087642 0.10390366 4.2508564 2039583
0.024672681 0.10396481 4.2533584 2039583
0.074067391 0.10404275 4.2565475 2039583
0.12353621 0.10412079 4.2597399 2039583
0.17485052 0.10420176 4.263052 2039583
0.22624381 0.10428284 4.2663689 2039583
0.27594128 0.10436125 4.2695765 2039583
0.32571357 0.10443977 4.27279 2565927
0.37556079 0.10451841 4.2760072 2894892
0.42548317 0.10459717 4.2792292 2894892
0.47369352 0.10467325 4.282342 2894892
1.9865388 0.10742803 4.2509437 1257802
2.0246608 0.10748838 4.2533321 1323337
2.073736 0.10756607 4.2564063 1323338
2.1247027 0.10764676 4.2595992 1257546
2.1757469 0.10772758 4.2627969 1323338
2.2250395 0.10780559 4.2658844 1323082
2.274405 0.10788375 4.2689772 1192010
2.3256738 0.10796491 4.2721887 1126474
2.3751841 0.1080433 4.2752905 1257546
2.424767 0.10812179 4.2783961 1323083
2.4744222 0.10820042 4.2815075 1388875
2.5241492 0.10827912 4.2846217 1323339
2.5757947 0.10836089 4.2878575 1192523
2.6256692 0.10843984 4.2909818 1192523
2.6756172 0.10851892 4.2941108 1388875
2.7256372 0.10859811 4.2972441 1323596
2.7590222 0.10865095 4.299335 1323596
-1.2052366 -1.9128498 4.3041806 2039583
-1.1726872 -1.9188173 4.3306284 2631720
-1.2054236 -1.8750076 4.3041906 2039583
-1.1747104 -1.8749571 4.3291717 2631720
-1.2054726 -1.8251525 4.3043647 2039583
-1.1748705 -1.8250231 4.3292551 2631720
-1.2055213 -1.7752931 4.3045392 2039583
-1.1748054 -1.7750862 4.3295212 2631720
-1.2055449 -1.7249852 4.3047352 2039583
-1.1749146 -1.7250398 4.329648 2631720
-1.2056196 -1.6746722 4.3048892 2039583
-1.1749009 -1.6749882 4.3298717 2631720
-1.2056686 -1.6248007 4.3050637 2039583
-1.1749488 -1.6248274 4.330049 2631720
-1.2057171 -1.5749251 4.3052382 2039583
-1.1750959 -1.5748729 4.3301435 2631720
-1.2057655 -1.525046 4.3054113 2039583
-1.1750188 -1.5250212 4.3304195 2631720
-1.2058144 -1.4751626 4.3055854 2039583
-1.1751778 -1.47506 4.3305025 2631720
-1.2058631 -1.4252747 4.3057599 2039583
-1.1753387 -1.4251822 4.3305864 2631720
-1.2070181 -1.3739277 4.3050408 2039583
