# .PCD v0.7 - Point Cloud Data file format
VERSION 0.7
FIELDS x y z rgb
SIZE 4 4 4 4
TYPE F F F U
COUNT 1 1 1 1
WIDTH 1165
HEIGHT 1
VIEWPOINT 0 0 0 1 0 0 0
POINTS 1165
DATA ascii
1.0701094 -0.3749747 1.7049164 2571604
0.89310491 -0.32501689 1.748301 2637140
0.92509896 -0.32494053 1.7404984 2571604
0.97516865 -0.32503128 1.7282877 2505811
1.0252008 -0.32501209 1.7160856 2440275
1.0706354 -0.32482389 1.705007 2308946
0.89368767 -0.27527699 1.7483772 1980240
0.92522287 -0.27501556 1.7406876 2045776
0.97528112 -0.27501217 1.7284799 1980240
1.0253333 -0.27495703 1.7162749 1848398
1.0711324 -0.2748861 1.7051049 1782862
0.89411902 -0.22559963 1.7484894 1848655
0.925304 -0.22502171 1.7408874 1848911
0.97539729 -0.22500049 1.7286706 1783375
1.0253711 -0.22495994 1.7164844 1717583
1.0715449 -0.22497073 1.7052234 1585741
0.8946147 -0.17506298 1.7485902 1718096
0.92557216 -0.17501876 1.7410414 1783632
0.97525579 -0.17520927 1.7289245 1717840
1.0252168 -0.17483431 1.7167412 1652304
1.0722991 -0.17471938 1.7052598 1322314
0.89520127 -0.12576596 1.7486635 1652047
0.92544508 -0.124873 1.7412922 1586511
0.97510242 -0.1252037 1.7291813 1520718
1.025129 -0.12483118 1.7169826 1455182
1.0725356 -0.12501946 1.7054192 1388877
0.89519006 -0.076155774 1.748884 1323083
0.92533749 -0.074955389 1.7415363 1323083
0.97508502 -0.075229093 1.7294042 1257291
1.0251666 -0.074751161 1.7171928 1257291
1.0732299 -0.074894488 1.7054703 1257034
0.89562118 -0.02512324 1.749002 1125449
0.92507523 -0.025256043 1.741819 1125449
0.97519422 -0.025078824 1.7295972 1125705
1.024827 -0.025041921 1.7174921 1125705
1.0732464 -0.024424164 1.7056886 1125961
0.89597434 0.023822041 1.7491308 1125448
0.92461586 0.025196655 1.7421519 1125448
0.97474265 0.025148461 1.7299274 1125704
1.0247246 0.024907783 1.7177362 1125704
1.0734669 0.024735408 1.7058492 1125704
0.89641815 0.074928522 1.7492466 1848654
0.92464507 0.075071886 1.7423636 1782092
0.97478074 0.075261846 1.7301381 1914447
1.0248388 0.074730754 1.7179283 1848910
1.0741295 0.07497739 1.7059079 1914703
-1.3613991 0.11266453 1.725691 10197915
-1.3248218 0.11259858 1.7202432 10197915
-1.2727624 0.11246023 1.7247603 10197915
-1.2252523 0.11234029 1.7271284 10197915
-1.1749469 0.11222867 1.7254115 10197915
-1.1249894 0.11211706 1.7239082 10197915
-1.0748872 0.11200659 1.7219981 10197915
-1.0271784 0.11188054 1.7259303 10197915
-0.97455943 0.1117463 1.7289512 10197915
-0.92457074 0.11163484 1.7273872 10197915
-0.87468475 0.11152473 1.7255228 10197915
-0.8248955 0.11141372 1.7239652 10197915
-0.77520519 0.111304 1.7221078 10197915
-0.7248916 0.11119182 1.7205321 10197915
-0.67322266 0.11106989 1.7207659 10197915
-0.62479955 0.11093135 1.7276884 10197915
-0.57508719 0.11082184 1.7257689 10197915
-0.52498698 0.11071144 1.723841 10197915
-0.47474617 0.11059928 1.722304 10197915
-0.4274185 0.11047438 1.7261695 10197915
-0.37508965 0.11034017 1.7293665 10197915
-0.3249633 0.11022846 1.7277783 10197915
-0.27494195 0.11011813 1.7258862 10197915
-0.22501844 0.11000689 1.7243048 10197915
-0.17519645 0.10989698 1.7224202 10197915
-0.12547474 0.10978619 1.7208455 10197915
-0.075137839 0.1096751 1.7189476 10197915
-0.023264455 0.10952795 1.7260092 10197915
0.025027731 0.10941364 1.7263324 10197915
0.07500568 0.10930435 1.7241786 10197915
0.12489066 0.10919232 1.7228404 10197915
0.17235674 0.10907012 1.7258614 10197915
0.22502759 0.10893314 1.7296174 10197915
0.27491108 0.10882148 1.7281699 10197915
0.32469881 0.10871116 1.7264181 10197915
0.37474042 0.10860085 1.7245064 10197915
0.42467535 0.10848967 1.7229003 10197915
0.47486606 0.10837848 1.7211347 10197915
0.52530378 0.10826728 1.7192091 10197915
0.57741386 0.10813281 1.7226305 10197915
0.62491316 0.10800743 1.7265066 10197915
0.67500198 0.10789651 1.7247331 10197915
0.72499222 0.10778577 1.7229633 10197915
0.77234256 0.10766401 1.7259277 10197915
0.82471782 0.10752582 1.7302006 10197915
0.88058567 0.10644048 1.7339194 10197915
0.92486322 0.10431691 1.7382398 10197915
0.97486997 0.10442948 1.7278485 10197915
1.0248269 0.10380305 1.7171741 10197915
1.074265 0.10389593 1.7059995 10197915
0.68708891 -0.72061521 1.7968075 2039583
0.72501528 -0.72064865 1.7875593 2039583
0.77524787 -0.72068655 1.775308 2039583
0.82539672 -0.72073543 1.7630783 2039583
0.86447978 -0.72075826 1.753546 2039583
0.68745881 -0.6753667 1.7969166 2039583
0.72508842 -0.67500246 1.7877405 2039583
0.77527612 -0.67497844 1.775501 2039583
0.82546335 -0.6749993 1.7632625 2039583
0.86521786 -0.67493325 1.7535672 2039583
0.68791991 -0.6249544 1.7970248 2766662
0.72519469 -0.62500942 1.7879354 3029575
0.77537256 -0.62499213 1.7756987 3292489
0.82552278 -0.62499177 1.763467 3555658
0.86554426 -0.62476128 1.7537072 3752779
0.68848556 -0.57520878 1.7971046 3030868
0.72524464 -0.57498425 1.7881417 3425880
0.77526993 -0.57517076 1.7759414 3754587
0.82545769 -0.5748381 1.7637031 4148828
0.86610252 -0.57502478 1.7537898 4346204
0.68881834 -0.52513289 1.7972434 3031125
0.72532576 -0.52494848 1.7883406 3228503
0.77488679 -0.52506077 1.7762532 3556953
0.82508689 -0.52498281 1.7640119 3885914
0.86662751 -0.52481496 1.7538821 4083291
0.68951869 -0.47496063 1.7972924 2768211
0.72541988 -0.47498208 1.788537 3031125
0.77497023 -0.47503424 1.7764536 3293782
0.82471734 -0.4751384 1.7643206 3556696
0.86657363 -0.47466171 1.7541151 3754073
0.68983752 -0.4253889 1.7974315 2571604
0.72544426 -0.42500338 1.7887501 2834262
0.77504802 -0.42499596 1.7766533 2965590
0.82466757 -0.42496383 1.7645522 3294296
0.86702865 -0.42504305 1.7542219 3425881
0.69040161 -0.37503004 1.7975157 2374740
0.72558165 -0.37503412 1.7889354 2506068
0.77517337 -0.3749474 1.7768412 2702676
0.8246823 -0.37500653 1.764768 2834260
0.86743581 -0.37478301 1.7543429 2834261
0.69087285 -0.32525447 1.797619 2046033
0.72566354 -0.32507452 1.7891355 2243154
0.77520794 -0.32490703 1.7770532 2440275
0.82477349 -0.32507554 1.7649653 2505812
0.86783117 -0.32495341 1.7544643 2571603
0.69089228 -0.27574411 1.7978312 1651021
0.72528183 -0.2748661 1.7894475 1782862
0.77530313 -0.27493456 1.7772489 1913934
0.82494348 -0.27500048 1.7651435 1913934
0.86864537 -0.27494147 1.7544856 2045776
0.69124246 -0.22495231 1.7979683 1717584
0.72470957 -0.22514075 1.7898048 1783119
0.77489096 -0.2248645 1.7775688 1783118
0.8248927 -0.22497137 1.7653748 1848655
0.86874747 -0.22487605 1.7546802 1783119
0.69163394 -0.17559117 1.7980894 1586511
0.72458851 -0.17493843 1.7900548 1652047
0.77488017 -0.17509872 1.7777901 1783632
0.82500398 -0.1750263 1.7655666 1717840
0.86956537 -0.17490865 1.7547003 1783632
0.69207782 -0.12515509 1.7982022 1586510
0.72444397 -0.1248213 1.7903106 1652047
0.77491641 -0.12518445 1.7779993 1652303
0.82520503 -0.12489872 1.7657369 1652303
0.86996984 -0.12486788 1.7548208 1652303
0.69270182 -0.075604156 1.7982668 1322827
0.72483569 -0.075141393 1.790433 1323083
0.77496552 -0.075141951 1.778205 1322827
0.82533711 -0.074760564 1.7659249 1322827
0.87032902 -0.074822359 1.7549524 1388619
0.69302303 -0.025706602 1.7984077 1125449
0.72475874 -0.025222531 1.79067 1125705
0.77505189 -0.025049804 1.7784059 1125705
0.82531881 -0.024877144 1.7661476 1125705
0.87101668 -0.024720177 1.7550051 1125705
0.69367313 0.025333395 1.7984729 1125448
0.7248413 0.025226329 1.7908719 1190984
0.77513862 0.025053505 1.7786049 1191240
0.82541037 0.024880797 1.7663442 1191241
0.87140346 0.024910165 1.7551275 1125704
0.69408023 0.074534602 1.7985892 2045519
0.72505987 0.07512711 1.7910366 2045519
0.7752251 0.075168006 1.7788043 2111568
0.82557076 0.074727967 1.7665234 1979983
0.87185705 0.074899293 1.755236 2046032
-1.4129027 0.11254559 1.7917733 10197915
-1.3742638 0.11251245 1.7759482 10197915
-1.3248796 0.11240626 1.7733192 10197915
-1.2772686 0.11228351 1.7763951 10197915
-1.2251167 0.11214553 1.780777 10197915
-1.1752596 0.11203501 1.7790283 10197915
-1.1251328 0.11192332 1.7774299 10197915
-1.0750946 0.11181311 1.7755047 10197915
-1.0247929 0.1117004 1.7740643 10197915
-0.97458273 0.11159034 1.7719675 10197915
-0.92484546 0.11147955 1.770382 10197915
-0.87521029 0.1113702 1.7684715 10197915
-0.82289118 0.11123945 1.7707125 10197915
-0.77506155 0.111108 1.7760565 10197915
-0.72479165 0.11099587 1.7744981 10197915
-0.67574561 0.11088391 1.7736921 10197915
-0.62491947 0.11073531 1.7818351 10197915
-0.57487845 0.11062451 1.7800524 10197915
-0.52494365 0.11051276 1.7786076 10197915
-0.47510898 0.11040363 1.7764978 10197915
-0.42499566 0.11029208 1.7748806 10197915
-0.37499067 0.11018197 1.7729318 10197915
-0.32507998 0.11007088 1.7713201 10197915
-0.27527362 0.10996123 1.7693793 10197915
-0.22519416 0.10985032 1.7675997 10197915
-0.17258753 0.10970752 1.77299 10197915
-0.1250381 0.109587 1.7754958 10197915
-0.074945681 0.10947775 1.7732589 10197915
-0.027055841 0.10934241 1.7796352 10197915
0.025086597 0.10921425 1.7812873 10197915
0.074819997 0.10910483 1.7793233 10197915
0.12482556 0.10899422 1.7775245 10197915
0.17508864 0.10888242 1.7758746 10197915
0.22489007 0.10877226 1.7740778 10197915
0.27495453 0.10866208 1.7721077 10197915
0.3249152 0.10855096 1.7704687 10197915
0.37477767 0.10844124 1.7685063 10197915
0.42525965 0.10832895 1.7668478 10197915
0.47666764 0.10817891 1.7750155 10197915
0.52489495 0.1080687 1.7742499 10197915
0.57251 0.10795096 1.7759537 10197915
0.62504154 0.10780394 1.7825497 10197915
0.68233168 0.10618263 1.7870733 10197915
0.72435814 0.104507 1.7877603 10197915
0.77516156 0.10447491 1.7768204 10197915
0.82514471 0.10393626 1.7662169 10197915
0.87191373 0.10399254 1.7553496 10197915
0.48492822 -0.7203598 1.8461101 2039583
0.5256803 -0.72041154 1.8361714 2039583
0.57511103 -0.7205162 1.8241166 2039583
0.62460071 -0.7205357 1.8120466 2039583
0.66181481 -0.72060078 1.8029715 2039583
0.4847253 -0.67550915 1.8463565 2039583
0.52516937 -0.67486161 1.8364959 2039583
0.57517266 -0.67502594 1.8243015 2039583
0.62466764 -0.67502004 1.8122311 2039583
0.66217953 -0.67469198 1.8030831 2039583
0.48501182 -0.62503254 1.8465075 2109763
0.52503639 -0.62496454 1.8367469 2175299
0.5751971 -0.62501901 1.8245139 2438213
0.62469411 -0.62501544 1.8124439 2569541
0.66262275 -0.62499893 1.8031938 2700870
0.48558331 -0.57528859 1.8465868 2045776
0.52509809 -0.57495433 1.836951 2111312
0.57527477 -0.57504457 1.8247136 2439505
0.62481457 -0.57498038 1.8126342 2702419
0.66325617 -0.57480276 1.8032596 2899283
0.48587611 -0.52504486 1.8467357 2045777
0.52499473 -0.52508783 1.8371954 2243155
0.57516414 -0.5249238 1.8249612 2571604
0.62484241 -0.52499628 1.8128457 2768725
0.66352111 -0.52488214 1.8034132 2768212
0.48665366 -0.47495541 1.8467654 2046290
0.52454436 -0.474944 1.8375247 2177619
0.57473356 -0.47503743 1.8252844 2374740
0.62499434 -0.4750419 1.8130268 2571605
0.66424829 -0.47500989 1.803455 2571091
0.48681346 -0.42528701 1.8469446 1717327
0.52453083 -0.42494318 1.8377485 1783120
0.57476532 -0.42502961 1.8254952 2046290
0.62495869 -0.42503572 1.8132558 2308947
0.66458368 -0.42473772 1.8035932 2440276
0.48744103 -0.37503558 1.8470116 1849169
0.5246107 -0.37493107 1.837948 1849170
0.57481408 -0.37507242 1.8257039 1980498
0.62504947 -0.37501779 1.8134515 2111827
0.66507959 -0.37498325 1.8036906 2243412
0.48799834 -0.32539907 1.847093 1717840
0.52470481 -0.32495147 1.8381443 1717841
0.57488924 -0.32508311 1.8259041 1849169
0.62515169 -0.32496932 1.8136473 1914705
0.6656521 -0.32484144 1.8037711 2046034
0.4882136 -0.27483466 1.8472623 1454414
0.52477962 -0.27500537 1.8383436 1520463
0.57496351 -0.27506214 1.8261052 1520463
0.62519407 -0.27499086 1.8138556 1585999
0.66599774 -0.2748163 1.8039068 1585485
0.48899582 -0.22514729 1.8472892 1454926
0.52472669 -0.22500351 1.8385762 1520719
0.57506853 -0.2249884 1.8263001 1520463
0.62542683 -0.22498186 1.8140196 1586256
0.66670334 -0.2250811 1.8039522 1652048
0.48926631 -0.1755348 1.847441 1454926
0.52479559 -0.17496817 1.838779 1520463
0.57514066 -0.17488265 1.8265007 1454926
0.62526572 -0.17506561 1.8142773 1520719
0.66698748 -0.1747544 1.8041034 1520719
0.48985475 -0.12476066 1.8475198 1586510
0.5249598 -0.1251193 1.8389572 1586511
0.57512945 -0.12486984 1.8267237 1586511
0.62526399 -0.12511511 1.8144966 1586511
0.66753703 -0.12494663 1.8041875 1586510
0.49027768 -0.075467326 1.8476326 1388876
0.52507544 -0.075282171 1.8391474 1388876
0.57519358 -0.074930102 1.8269267 1388620
0.62564898 -0.074827142 1.8146229 1322827
0.66804063 -0.074718185 1.8042852 1322827
0.49068317 -0.025261113 1.8477547 1389132
0.52501237 -0.025146659 1.8393834 1389388
0.57525718 -0.02497915 1.8271306 1388876
0.62553316 -0.024811538 1.8148704 1059656
0.66849929 -0.024646029 1.8043933 1125449
0.49131802 0.024954082 1.8478194 1323082
0.52507132 0.025150422 1.8395889 1257546
0.57532197 0.024982844 1.827334 1191241
0.6256023 0.024815226 1.8150706 1059399
0.66912997 0.024783436 1.8044559 1125192
0.49159527 0.074802577 1.8479707 1979213
0.52528566 0.075243682 1.8397567 2110285
0.57538593 0.074956 1.8275368 2044493
0.62585783 0.07481125 1.8152277 2045263
0.66941702 0.075100452 1.8046063 2111056
-1.4596391 0.11245644 1.8465649 10197915
-1.4250364 0.11242234 1.833611 10197915
-1.3750658 0.1123118 1.8318081 10197915
-1.3248111 0.11220127 1.8298153 10197915
-1.2746468 0.11208965 1.8281847 10197915
-1.2245883 0.11197957 1.8261989 10197915
-1.1746243 0.11186837 1.8245758 10197915
-1.1247607 0.11175872 1.8225979 10197915
-1.0749959 0.11164798 1.8209811 10197915
-1.0253264 0.11153869 1.8190095 10197915
-0.9749912 0.1114267 1.817372 10197915
-0.92475015 0.11131618 1.8153806 10197915
-0.87494218 0.11116268 1.825531 10197915
-0.82703775 0.11104903 1.8259124 10197915
-0.77516431 0.11090041 1.8333757 10197915
-0.72468305 0.1107882 1.8317134 10197915
-0.67468369 0.11067769 1.829886 10197915
-0.62517184 0.1105689 1.8278948 10197915
-0.57498837 0.11045732 1.8262424 10197915
-0.52490771 0.11034727 1.8242304 10197915
-0.47492701 0.11023609 1.8225853 10197915
-0.42504463 0.11012649 1.8205813 10197915
-0.37526554 0.11001576 1.8189427 10197915
-0.32520267 0.10990519 1.817113 10197915
-0.27486652 0.10979448 1.815098 10197915
-0.22411092 0.10964204 1.824338 10197915
-0.17744294 0.10951627 1.828873 10197915
-0.12457171 0.1093757 1.833478 10197915
-0.074744053 0.10926624 1.8314486 10197915
-0.025020225 0.1091558 1.8297918 10197915
0.024986483 0.10904531 1.8279401 10197915
0.075265467 0.10893492 1.8259002 10197915
0.12544581 0.10882344 1.8242205 10197915
0.17514861 0.10871365 1.8223801 10197915
0.22511895 0.10860393 1.8203518 10197915
0.27499834 0.1084931 1.8186828 10197915
0.32476768 0.1083838 1.8166625 10197915
0.37481704 0.10827328 1.8148096 10197915
0.42626414 0.10812063 1.8236518 10197915
0.48162562 0.10597494 1.8391085 10197915
0.52434689 0.10476927 1.8372165 10197915
0.5753746 0.10436116 1.8263761 10197915
0.62456012 0.10412072 1.8155861 10197915
0.66986227 0.10392115 1.8046244 10197915
0.28182858 -0.72023606 1.8956398 2039583
0.3248955 -0.72018838 1.8851352 2039583
0.37556922 -0.72028548 1.87278 2039583
0.42557281 -0.72031379 1.8605855 2039583
0.45969117 -0.72038662 1.8522645 2039583
0.28195935 -0.67497414 1.8958063 2039583
0.3249256 -0.67498142 1.8853306 2039583
0.37553805 -0.67503357 1.8729854 2039583
0.425488 -0.67499369 1.8608055 2039583
0.46001267 -0.6745984 1.8523873 2039583
0.28269327 -0.62501198 1.8958485 1518656
0.32494056 -0.62499458 1.8855433 1649985
0.37559578 -0.6250304 1.8731912 1781570
0.42560947 -0.62497902 1.8609939 1978435
0.46051383 -0.62498993 1.8524821 2109763
0.28290901 -0.57517201 1.8960114 1190729
0.32498884 -0.57499462 1.8857521 1454156
0.37553504 -0.57508796 1.8734248 1651534
0.42549482 -0.57488179 1.8612413 1848655
0.46106562 -0.57471752 1.8525681 1914448
0.28359336 -0.52506381 1.8960627 1520462
0.32501763 -0.52498466 1.8859634 1652047
0.37491 -0.5249818 1.8737972 1783376
0.42493686 -0.52501321 1.8615974 1980497
0.46135625 -0.52496654 1.8527155 2046033
0.28390098 -0.47532371 1.8962101 1652047
0.32506526 -0.47500947 1.8861763 1652304
0.3750034 -0.47499925 1.8739941 1783633
0.42502242 -0.47500148 1.8617953 1980498
0.46212 -0.47498515 1.8527483 1980498
0.28438038 -0.42497945 1.8963144 1586512
0.32510847 -0.4250004 1.8863745 1520976
0.37506595 -0.42498294 1.8741969 1586512
0.42504835 -0.42502314 1.8620089 1652048
0.46231401 -0.42460766 1.8529221 1651792
0.28496167 -0.37531036 1.8963883 1124936
0.32516214 -0.37495667 1.8865887 1190730
0.37505355 -0.37502468 1.8744192 1388364
0.42508096 -0.37498966 1.8622189 1520462
0.46299475 -0.37503198 1.8529729 1783634
0.28528181 -0.32512203 1.8965317 1125193
0.32522717 -0.3249025 1.8867952 1191243
0.37514281 -0.32510328 1.8746166 1388621
0.42512226 -0.32498962 1.8624287 1388877
0.46335065 -0.3246789 1.8531073 1652048
0.28594702 -0.2750881 1.8965878 1191499
0.32521686 -0.27490562 1.8870065 1191499
0.37519392 -0.27505291 1.8748233 1191499
0.42528838 -0.27502057 1.8626069 1257292
0.46381584 -0.27511954 1.853211 1322828
0.2861647 -0.22495461 1.8967544 1125706
0.32530087 -0.22503601 1.8872052 1191243
0.37510771 -0.22503822 1.8750619 1323341
0.42456177 -0.2251493 1.8630027 1388878
0.46394697 -0.22463085 1.8533998 1454670
0.28673553 -0.17468096 1.896836 1059913
0.32528275 -0.17513201 1.8874334 1125707
0.37515289 -0.1750586 1.8752698 1323341
0.42471305 -0.17488463 1.8631862 1389134
0.46397549 -0.17478296 1.8536119 1389134
0.28724298 -0.12555048 1.8969277 993607
0.32471412 -0.12526214 1.8877925 1059656
0.37478375 -0.12470861 1.875582 1125706
0.42457217 -0.12506373 1.8634386 1454669
0.46464229 -0.12510447 1.8536671 1520718
0.287642 -0.075448364 1.8970499 927300
0.32458258 -0.07509011 1.8880377 927557
0.37463668 -0.074698381 1.8758384 1125192
0.42461935 -0.074891955 1.8636483 1389132
0.46498871 -0.074871875 1.8538027 1388876
0.28818497 -0.025503697 1.897137 1191753
0.32461897 -0.025032502 1.8882495 1125961
0.37459686 -0.024870971 1.8760654 1191754
0.42466718 -0.024709091 1.8638566 1257803
0.46548617 -0.025242962 1.853898 1323340
0.28846544 0.025153253 1.8972898 1059654
0.32465512 0.025036238 1.8884642 1125447
0.37463832 0.024874628 1.8762735 1191497
0.42471352 0.024712726 1.864062 1191240
0.46615034 0.02538117 1.853959 1257033
0.28920555 0.075355425 1.89733 2241871
0.32469133 0.075116068 1.8886719 2176335
0.37472361 0.074677773 1.8764715 2044749
0.42476088 0.074917883 1.8642697 2044493
0.46627516 0.075258128 1.8541477 2176335
-1.5041393 0.11237822 1.896897 10197915
-1.4726115 0.11234836 1.8847631 10197915
-1.4253316 0.11224961 1.8814465 10197915
-1.375262 0.1121383 1.8797877 10197915
-1.3248832 0.11202701 1.8779227 10197915
-1.2746042 0.11191596 1.8760607 10197915
-1.224828 0.11180674 1.874023 10197915
-1.1751446 0.11169627 1.8723781 10197915
-1.125162 0.11158588 1.8705273 10197915
-1.07489 0.1114755 1.8684713 10197915
-1.0251029 0.1113655 1.8666278 10197915
-0.9750275 0.11125419 1.8649676 10197915
-0.92243445 0.11111977 1.8680508 10197915
-0.87505883 0.11094382 1.8859611 10197915
-0.82501268 0.11083337 1.8840833 10197915
-0.77467161 0.11072297 1.8819965 10197915
-0.7252239 0.11061314 1.8803394 10197915
-0.67547578 0.11050333 1.8784727 10197915
-0.62543714 0.11039361 1.876398 10197915
-0.57549441 0.11028267 1.8747218 10197915
-0.52525854 0.1101718 1.8728368 10197915
-0.47512728 0.11006256 1.8705682 10197915
-0.42509976 0.10995074 1.8690794 10197915
-0.37516579 0.10984053 1.8672056 10197915
-0.32494214 0.10973038 1.865131 10197915
-0.27482635 0.10961907 1.8634411 10197915
-0.22476184 0.1094272 1.8840078 10197915
-0.17489469 0.10930786 1.8846982 10197915
-0.12519543 0.10919897 1.8826073 10197915
-0.075196326 0.1090887 1.8807127 10197915
-0.024914429 0.10897711 1.8789955 10197915
0.024880972 0.1088673 1.8771019 10197915
0.074959479 0.10875756 1.8750038 10197915
0.12494028 0.10864665 1.8732975 10197915
0.17481765 0.10853735 1.8712076 10197915
0.22498403 0.10842673 1.8693 10197915
0.28242069 0.10636252 1.8831613 10197915
0.32479292 0.10524128 1.8822119 10197915
0.3746182 0.10474475 1.8728691 10197915
0.4241935 0.10438202 1.8639855 10197915
0.46700829 0.10369737 1.8540934 10197915
0.060516812 -0.86097217 1.9491838 2697513
0.061388873 -0.82466215 1.949124 2894892
0.061456282 -0.77519357 1.9493147 2894892
0.062184405 -0.72441018 1.9493504 2894892
0.17513567 -0.7200405 1.9216617 2039583
0.22541295 -0.72008407 1.9093997 2039583
0.2575047 -0.71989626 1.9015741 2039583
0.062341709 -0.67614502 1.9495147 2894892
0.17518872 -0.67497891 1.9218448 2039583
0.22515026 -0.67520702 1.9096601 2039583
0.25725982 -0.67428434 1.9018325 2039583
0.062999301 -0.62433958 1.9495718 2894892
0.17517976 -0.62501067 1.9220665 1452864
0.22472148 -0.62501466 1.9099853 1518656
0.2576279 -0.62485582 1.9019612 1518657
0.063197874 -0.57798994 1.9497175 2894892
0.17521089 -0.57503372 1.9222785 1191754
0.22478154 -0.57498038 1.9101893 1257291
0.25789371 -0.57470447 1.9021158 1257034
0.063814312 -0.52424622 1.9497932 2894892
0.17518331 -0.52499545 1.9225049 1520461
0.22472699 -0.52501029 1.9104216 1520718
0.25845647 -0.52490979 1.9021975 1454669
0.063819364 -0.48712739 1.9499478 2894892
0.17530979 -0.4750205 1.9226921 1454926
0.22481795 -0.47502726 1.9106202 1455182
0.2588132 -0.47437194 1.9023317 1520719
0.17519283 -0.42503327 1.9229405 1389646
0.2248529 -0.42498535 1.9108299 1520975
0.2593354 -0.42505741 1.9024204 1520975
0.17530376 -0.37498784 1.923133 1059657
0.22482421 -0.3749795 1.911056 1059401
0.25990433 -0.37466577 1.9025034 1124680
0.17530584 -0.3250033 1.9233515 1125449
0.22484542 -0.32501498 1.9112705 1125193
0.26009634 -0.32481527 1.9026741 1125193
0.17599358 -0.27516177 1.9234024 1059400
0.22496307 -0.27501211 1.911461 1191499
0.26082525 -0.27484137 1.9027166 1191499
0.17598926 -0.22501332 1.9236228 1059656
0.22488394 -0.22494939 1.9117007 1125706
0.26117006 -0.22495185 1.9028512 1125706
0.17630628 -0.17493233 1.9237652 1059656
0.22492404 -0.17504887 1.9119092 1059913
0.26172972 -0.17501599 1.9029331 1059913
0.17613411 -0.12514441 1.9240261 1059655
0.22506753 -0.12501523 1.9120926 1059912
0.26205879 -0.12428468 1.9030755 1125705
0.17615378 -0.074935421 1.9242408 927299
0.22483955 -0.07508719 1.9123675 927300
0.26259345 -0.074998185 1.9031605 927044
0.17617337 -0.024715211 1.924456 1125960
0.22513206 -0.025184684 1.9125159 1191753
0.26311252 -0.024925411 1.9032531 1191753
0.17619276 0.024718828 1.9246689 927812
0.22517052 0.025163995 1.9127272 1059911
0.26337069 0.025234394 1.9034114 1125960
0.17621259 0.074961409 1.924884 2242384
0.22490168 0.075088181 1.9130113 2242897
0.26415941 0.07507778 1.903437 2177361
-1.5209285 0.11226443 1.939134 10197915
-1.4747005 0.11217509 1.9339085 10197915
-1.4248255 0.11206428 1.932225 10197915
-1.375049 0.11195531 1.9301198 10197915
-1.3253715 0.11184499 1.9284438 10197915
-1.2753786 0.11173474 1.9265429 10197915
-1.2250803 0.1116246 1.9244184 10197915
-1.1748772 0.11151315 1.922721 10197915
-1.1247758 0.11140339 1.9206055 10197915
-1.0747733 0.11129233 1.918915 10197915
-1.0248678 0.11118303 1.9168056 10197915
-0.97506553 0.11107245 1.9151232 10197915
-0.92816728 0.11096004 1.9158126 10197915
-0.87125903 0.11078144 1.9283043 10197915
-0.82505006 0.11064725 1.9354436 10197915
-0.77537078 0.11053778 1.9335287 10197915
-0.7253902 0.11042843 1.9313868 10197915
-0.67550117 0.11031773 1.9296799 10197915
-0.62490875 0.11020701 1.9275213 10197915
-0.57481474 0.11009667 1.9255843 10197915
-0.52523434 0.10998664 1.9238883 10197915
-0.47534212 0.10987671 1.9219654 10197915
-0.42514929 0.10976686 1.9198235 10197915
-0.37506086 0.10965575 1.9181008 10197915
-0.3250677 0.10954633 1.9159667 10197915
-0.2751821 0.10943568 1.9142511 10197915
-0.22741222 0.10929367 1.922544 10197915
-0.17044042 0.10912903 1.9311347 10197915
-0.125045 0.10900927 1.934836 10197915
-0.074871413 0.10889957 1.9326636 10197915
-0.024802808 0.10878857 1.9309192 10197915
0.0251697 0.10867932 1.9287549 10197915
0.07503438 0.1085688 1.9270183 10197915
0.124807 0.10845999 1.9248626 10197915
0.17572908 0.10516196 1.9226381 10197915
0.22496624 0.10457057 1.9122319 10197915
0.26394776 0.10417147 1.9036157 10197915
-0.11577416 -0.87064087 1.9921227 4079166
-0.076186471 -0.86847872 1.9824808 2039583
-0.026052665 -0.86574352 1.9702685 2039583
0.02427678 -0.86299348 1.9580108 2039583
0.065319367 -0.8655321 1.9682029 2565927
-0.11549819 -0.82495624 1.9922464 8816262
-0.0755025 -0.82499856 1.982495 2039583
-0.02526997 -0.8250221 1.9702487 2039583
0.025168939 -0.82494777 1.9579524 2039583
0.062980421 -0.82508695 1.9633158 2500134
-0.11559477 -0.77501172 1.992479 8882055
-0.075625688 -0.77500749 1.9827348 2039583
-0.025343483 -0.77505004 1.9704762 2039583
0.025108991 -0.77497399 1.9581767 2039583
0.062807068 -0.77473438 1.9628584 2500134
-0.11551777 -0.72518331 1.9926691 6447714
-0.075564004 -0.72500622 1.9829299 2039583
-0.025313424 -0.72501451 1.9706796 2039583
0.025150551 -0.72496349 1.9583769 2039583
0.06256894 -0.72509086 1.9619197 2500134
-0.11473691 -0.6749599 1.9926902 2039583
-0.07558658 -0.67501998 1.983145 2039583
-0.025295511 -0.6749953 1.9708852 2039583
0.025160123 -0.67496896 1.9585841 2039583
0.062518895 -0.67467475 1.96158 2500134
-0.11476523 -0.62495834 1.9929068 2039583
-0.075610034 -0.62499791 1.983361 2039583
-0.025298316 -0.6249634 1.9710959 2039583
0.025186609 -0.62504268 1.9587876 2039583
0.062808573 -0.62454045 1.9619039 2565927
-0.11475152 -0.57504368 1.9931135 2039583
-0.075561725 -0.57499135 1.9835585 2039583
-0.025335157 -0.57500213 1.9713145 2039583
0.025109589 -0.57505178 1.9590153 2039583
0.063400067 -0.57447225 1.9631974 2565927
-0.1148191 -0.52502292 1.9933394 2039583
-0.075660765 -0.52502871 1.9837925 2039583
-0.025344996 -0.52502906 1.971526 2039583
0.025151135 -0.52499825 1.9592153 2039583
0.063339815 -0.52487481 1.9625663 2631720
-0.11482479 -0.47498998 1.9935507 2039583
-0.075584456 -0.47497386 1.983984 2039583
-0.025266416 -0.4750202 1.9717174 2039583
0.025177632 -0.47498634 1.9594188 2039583
0.063361891 -0.47440597 1.9620924 2631720
-0.11473314 -0.42494747 1.9937379 2039583
-0.075625651 -0.4250176 1.9842042 2039583
-0.025343588 -0.42497215 1.9719461 2039583
0.02520759 -0.42504349 1.9596212 2039583
0.063372821 -0.42474848 1.9617113 2631720
-0.11483309 -0.37503895 1.9939718 2039583
-0.075617217 -0.37499514 1.9844118 2039583
-0.025316348 -0.37502035 1.972149 2039583
0.025133776 -0.37503669 1.9598491 2039583
0.063405097 -0.37481332 1.9618421 2631720
-0.11493304 -0.32511845 1.9942064 2039583
-0.075722963 -0.32493624 1.9846473 2039583
-0.025404166 -0.32505763 1.9723792 2039583
0.025171973 -0.32496643 1.9600493 2039583
0.063375264 -0.32487592 1.9616395 2631720
-0.11477041 -0.27485272 1.9943773 2039583
-0.074743979 -0.27489701 1.984619 2039583
-0.024452655 -0.27511287 1.9723576 2039583
0.025278563 -0.27499112 1.960234 2039583
0.063408218 -0.27499318 1.9616644 2631720
-0.11484364 -0.22481428 1.9946055 2039583
-0.075050443 -0.22501707 1.9849026 2039583
-0.024709493 -0.22497886 1.972631 2039583
0.025201144 -0.22492686 1.9604634 2039583
0.063444607 -0.22521766 1.9616865 2631720
-0.114882 -0.17520289 1.9948226 2039583
-0.074671984 -0.17487815 1.985021 2039583
-0.024400063 -0.17512228 1.9727651 2039583
0.025027724 -0.174797 1.9607162 2039583
0.063370027 -0.17528698 1.9616065 2631720
-0.11501057 -0.12518765 1.9950638 2039583
-0.074872278 -0.12501617 1.9852793 2039583
-0.024520993 -0.12503409 1.9730035 2039583
0.025090536 -0.12494586 1.9609089 2039583
0.063384853 -0.12520535 1.9616716 2631720
-0.11457766 -0.075078592 1.9951684 2039583
-0.07488028 -0.074852943 1.9854914 2039583
-0.024600241 -0.075151995 1.9732329 2039583
0.025354778 -0.075247794 1.9610533 2039583
0.063380063 -0.07512328 1.9616565 2697513
-0.11407956 -0.024797909 1.995258 2039583
-0.074888282 -0.024679163 1.9857039 2039583
-0.024502305 -0.025291011 1.9734185 2039583
0.025162784 -0.025188541 1.9613106 2039583
0.063363619 -0.025042249 1.9615927 2697513
-0.1140917 0.024801424 1.9954695 4276545
-0.074896239 0.02468263 1.9859135 2039583
-0.024482744 0.02526797 1.973626 2039583
0.025165511 0.025192132 1.9615207 2039583
0.063362792 0.025042295 1.9615936 2697513
-0.11400028 0.074726447 1.9956571 7303023
-0.074904218 0.074877821 1.9861255 3355443
-0.024630807 0.075149141 1.9738708 3289650
0.025371853 0.075220615 1.9616803 3289650
0.063377611 0.07512366 1.9616592 4079166
-1.5605338 0.1122258 1.9753895 10197915
-1.5249575 0.11214098 1.9757929 10197915
-1.475221 0.11203145 1.973863 10197915
-1.4231989 0.11187266 1.9840366 10197915
-1.3748318 0.11176065 1.9836713 10197915
-1.3250438 0.11165103 1.9817256 10197915
-1.275354 0.11154167 1.9797844 10197915
-1.2253467 0.1114324 1.9775985 10197915
-1.175433 0.11132168 1.9758799 10197915
-1.1251991 0.11121105 1.9739164 10197915
-1.0750679 0.11110234 1.971503 10197915
-1.0250415 0.11099056 1.9700028 10197915
-0.9751057 0.11088062 1.9680516 10197915
-0.92526907 0.11077091 1.966104 10197915
-0.87735653 0.11066096 1.9654646 10197915
-0.82507992 0.11050122 1.975745 10197915
-0.77519745 0.11039145 1.9737824 10197915
-0.72217041 0.11023442 1.9828224 10197915
-0.67511076 0.11012164 1.9835131 10197915
-0.62476689 0.11001007 1.981746 10197915
-0.57493252 0.10990047 1.9797715 10197915
-0.52478665 0.10979099 1.9775577 10197915
-0.47474083 0.10968011 1.9758016 10197915
-0.42479366 0.10957105 1.9735961 10197915
-0.37494996 0.10946063 1.9718482 10197915
-0.32520032 0.10935202 1.9696505 10197915
-0.27473819 0.10924021 1.9678773 10197915
-0.22478029 0.10913032 1.9658979 10197915
-0.17928863 0.1090178 1.9675341 10197915
-0.11737698 0.10559083 1.9907573 10197915
-0.074961118 0.1051943 1.984216 10197915
-0.024690075 0.10467554 1.9735258 10197915
0.024028482 0.10445784 1.9621304 10197915
0.070140921 0.10545409 1.9670495 10197915
0.12506521 0.1082611 1.9795463 10197915
0.15297388 0.10819168 1.9806632 10197915
0.085154548 -0.9054243 2.0349269 2894892
0.082211427 -0.87453163 2.0226703 2894892
0.082038693 -0.82493025 2.0216653 2894892
0.082114562 -0.77509797 2.021678 2894892
0.082054898 -0.72499633 2.0211339 2894892
0.08242847 -0.67407531 2.0223608 2894892
0.083384857 -0.62588477 2.0259964 2894892
0.084021956 -0.57505971 2.0283053 2894892
0.083995596 -0.52510661 2.0278976 2894892
0.084043249 -0.47503188 2.0277941 2894892
0.08396551 -0.42525929 2.0271769 2894892
0.083996467 -0.37535536 2.0270064 2894892
0.083935931 -0.32519519 2.0264571 2894892
0.083933122 -0.27505147 2.0261455 2894892
0.083923094 -0.22478689 2.025804 2894892
0.083925337 -0.17481738 2.0255134 2894892
0.083893247 -0.12486918 2.0250838 2894892
0.083855391 -0.075076088 2.0246301 2894892
0.083891861 -0.025162296 2.0244811 2894892
0.083876841 0.025156293 2.0241187 2894892
0.083816372 0.07517454 2.0235715 4408131
-1.6093651 0.1121244 2.0349143 10197915
-1.5735919 0.11209524 2.0198467 10197915
-1.524822 0.11199062 2.0171604 10197915
-1.4753362 0.11188089 2.0154476 10197915
-1.4285017 0.11174186 2.0235479 10197915
-1.3754095 0.11161008 2.0255797 10197915
-1.3254311 0.11150019 2.023586 10197915
-1.2717375 0.11136177 2.0270667 10197915
-1.2247647 0.11122731 2.0337746 10197915
-1.1747241 0.11111738 2.0317557 10197915
-1.1252253 0.11100767 2.0300195 10197915
-1.0753845 0.11089818 2.0280166 10197915
-1.0252138 0.11078882 2.0257564 10197915
-0.97514826 0.11067791 2.0239885 10197915
-0.92517459 0.11056898 2.0217369 10197915
-0.87530953 0.11045851 2.0199761 10197915
-0.82511073 0.1103482 2.0179591 10197915
-0.77458912 0.11023806 2.015686 10197915
-0.72907829 0.1101099 2.0216293 10197915
-0.67491245 0.10996637 2.0262182 10197915
-0.62475878 0.1098562 2.0241885 10197915
-0.57470608 0.10974626 2.0221627 10197915
-0.52252144 0.10958576 2.0327013 10197915
-0.47495526 0.10947403 2.0327754 10197915
-0.42484048 0.10936403 2.0307324 10197915
-0.37525716 0.10925606 2.0284638 10197915
-0.3249194 0.10914466 2.0266595 10197915
-0.27468902 0.10903528 2.0243645 10197915
-0.22497384 0.10892615 2.0223384 10197915
-0.17494965 0.10881545 2.0205467 10197915
-0.1392491 0.10873917 2.0185091 10197915
0.085979104 0.10513443 2.023596 10197915
0.12569679 0.10810292 2.0227642 10197915
0.15493917 0.10803875 2.0215638 10197915
0.095323786 -0.91452914 2.0766928 2894892
0.094462618 -0.87497294 2.0729241 2894892
0.094476603 -0.82515794 2.0726838 2894892
0.094429813 -0.77507317 2.0721912 2894892
0.094394304 -0.72501081 2.0717461 2894892
0.094746657 -0.67608857 2.0728993 2894892
0.095444418 -0.62492645 2.0754554 2894892
0.095427364 -0.57495284 2.0750864 2894892
0.095396198 -0.52499908 2.0746598 2894892
0.095378637 -0.47506395 2.0742886 2894892
0.095391266 -0.42531571 2.074043 2894892
0.095345415 -0.37523916 2.0735552 2894892
0.10178558 -0.36277443 2.0998969 2894892
0.095342726 -0.32501468 2.0732431 2894892
0.1017717 -0.32445246 2.0996108 2894892
0.095340274 -0.27497584 2.0729346 2894892
0.10175373 -0.27482274 2.0992401 2894892
0.095265217 -0.22495466 2.0723276 2894892
0.10173577 -0.22521071 2.0988698 2894892
0.095306382 -0.17495595 2.0721974 2894892
0.1017175 -0.17474622 2.0984926 2894892
0.095289484 -0.12514152 2.0718291 2894892
0.10169955 -0.1251694 2.0981224 2894892
0.095229372 -0.075004198 2.0712824 2894892
0.10168162 -0.075610161 2.0977523 2894892
0.095255464 -0.024883531 2.07109 2894892
0.10166337 -0.025199367 2.0973756 2894892
0.095238581 0.02487766 2.0707231 2894892
0.10164513 0.025193341 2.0969994 2894892
0.095178492 0.074962646 2.0701764 4408131
0.10162689 0.075567961 2.0966232 4539717
-1.6585634 0.11201813 2.0960236 10197915
-1.6231869 0.11199065 2.0807364 10197915
-1.5746235 0.11188914 2.0773406 10197915
-1.5244901 0.11177816 2.0755594 10197915
-1.4748991 0.11166926 2.0735381 10197915
-1.424974 0.11156063 2.0712411 10197915
-1.3746927 0.11145022 2.0691917 10197915
-1.3249565 0.11134012 2.067426 10197915
-1.2780267 0.11123061 2.0672984 10197915
-1.2251862 0.1110671 2.0782285 10197915
-1.1749423 0.11095686 2.0761657 10197915
-1.1247987 0.11084682 2.0741069 10197915
-1.0747536 0.11073702 2.0720518 10197915
-1.0212424 0.11059809 2.0757833 10197915
-0.97519332 0.11046334 2.0831983 10197915
-0.92507875 0.11035339 2.0811255 10197915
-0.87462932 0.11024375 2.0787721 10197915
-0.82515353 0.11013433 2.0769925 10197915
-0.77533704 0.110025 2.0749319 10197915
-0.725191 0.10991599 2.072592 10197915
-0.67513591 0.10980526 2.0707874 10197915
-0.62518764 0.10969664 2.0684566 10197915
-0.57533437 0.10958639 2.0666597 10197915
-0.52854913 0.10945032 2.0739503 10197915
-0.47512358 0.10931195 2.0775979 10197915
-0.42563975 0.10920347 2.0755363 10197915
-0.37538826 0.10909333 2.0734429 10197915
-0.32523811 0.10898338 2.0713534 10197915
-0.27103359 0.10883372 2.0776012 10197915
-0.22518557 0.10870799 2.0826395 10197915
-0.17496513 0.10859797 2.0805316 10197915
-0.14123729 0.10852967 2.0775733 10197915
0.095441021 0.10493307 2.0675116 10197915
0.12355772 0.10770071 2.0697753 10197915
0.15629795 0.1078685 2.0676494 10197915
0.11172804 -0.95466989 2.1442189 2894892
0.10769261 -0.92403024 2.1274836 2894892
0.10752218 -0.87501425 2.1264913 2894892
0.10741856 -0.82481045 2.125766 2894892
0.10742528 -0.77475744 2.1254938 2894892
0.1074126 -0.72487968 2.1251428 2894892
0.10739375 -0.67486852 2.1247671 2894892
0.10738109 -0.62502354 2.1244175 2894892
0.10734266 -0.57519561 2.1239614 2894892
0.10733035 -0.52509183 2.1236122 2894892
0.10732374 -0.47485793 2.1232841 2894892
0.10729185 -0.42493939 2.1228547 2894892
0.1077722 -0.37620866 2.1245334 2894892
0.10838913 -0.32511252 2.1267579 2894892
0.10835437 -0.27519387 2.1263165 2894892
0.1083349 -0.22529593 2.1259379 2894892
0.10833162 -0.17523667 2.1256249 2894892
0.10826516 -0.12502228 2.125052 2894892
0.10830829 -0.074998893 2.124929 2894892
0.1082266 -0.024999885 2.1242948 2894892
0.10820736 0.024993954 2.1239169 2894892
0.1082505 0.074957348 2.123795 4473924
-1.6710736 0.11193353 2.1274245 10197915
-1.6246465 0.11183177 2.1254897 10197915
-1.5746716 0.11172222 2.1234078 10197915
-1.524794 0.11161289 2.12133 10197915
-1.4741843 0.11149798 2.1203134 10197915
-1.4248462 0.11133746 2.1327076 10197915
-1.3748999 0.11122596 2.1311867 10197915
-1.3250477 0.11111881 2.1285191 10197915
-1.2748339 0.11100774 2.126698 10197915
-1.2247286 0.11089899 2.1243079 10197915
-1.1747167 0.11078835 2.1224957 10197915
-1.1248057 0.11068006 2.1201146 10197915
-1.0749936 0.11056988 2.1183097 10197915
-1.0274518 0.11045758 2.118557 10197915
-0.97500187 0.11029387 2.1298008 10197915
-0.92556334 0.11018563 2.1277106 10197915
-0.8753255 0.11007561 2.125586 10197915
-0.82518768 0.10996582 2.123466 10197915
-0.77514994 0.10985626 2.12135 10197915
-0.72521156 0.10974689 2.1192384 10197915
-0.67350364 0.10957991 2.1318846 10197915
-0.62503707 0.10946936 2.1310556 10197915
-0.57503003 0.10936199 2.1283526 10197915
-0.52511764 0.10925067 2.1267991 10197915
-0.47530064 0.10914165 2.1246765 10197915
-0.42514101 0.10903288 2.1222587 10197915
-0.37508625 0.10892231 2.1204069 10197915
-0.32512552 0.10881397 2.1179981 10197915
-0.27898812 0.10869787 2.1202083 10197915
-0.22501838 0.10853615 2.1299376 10197915
-0.17454313 0.10842574 2.1277711 10197915
-0.14271325 0.10835611 2.1264045 10197915
0.12264229 0.10644567 2.1271315 10197915
0.15884513 0.10763148 2.131376 10197915
0.12083428 -0.96310973 2.1816216 2894892
1.5800159 -0.9790166 2.1960559 2039583
1.613793 -0.97718447 2.1878293 2039583
0.12001272 -0.9250614 2.1780243 2894892
0.11997435 -0.87491995 2.1775665 2894892
0.11993597 -0.82478559 2.177109 2894892
0.1200166 -0.77504838 2.1771431 2894892
0.11991059 -0.72513258 2.1764085 2894892
0.11990626 -0.67506069 2.1760917 2894892
0.11986794 -0.62500596 2.1756349 2894892
0.11988043 -0.57496589 2.1753871 2894892
0.11982533 -0.52494895 2.1748619 2894892
0.11978688 -0.47512773 2.1744063 2894892
0.11981647 -0.42514229 2.1742287 2894892
0.11976141 -0.37481132 2.1737022 2894892
0.1197571 -0.32486612 2.1733851 2894892
0.11971886 -0.27493361 2.1729295 2894892
0.11973138 -0.22502178 2.1726809 2894892
0.11967637 -0.17512517 2.1721575 2894892
0.11968879 -0.12506762 2.1719089 2894892
0.11961678 -0.075208582 2.171315 2894892
0.12015884 -0.024081655 2.1732326 2894892
0.1207635 0.025086919 2.1754186 2894892
0.1207492 0.075089999 2.175061 4473924
-1.7189934 0.11183816 2.1846981 10197915
-1.6751806 0.11176891 2.1754909 10197915
-1.6253631 0.11165876 2.1736772 10197915
-1.5747285 0.11154902 2.1712227 10197915
-1.5246452 0.11143944 2.1690781 10197915
-1.4755911 0.11132983 2.1676044 10197915
-1.4252218 0.11116157 2.1814594 10197915
-1.3750606 0.11105184 2.1793063 10197915
-1.3249985 0.11094236 2.1771574 10197915
-1.2750345 0.11083303 2.1750126 10197915
-1.2251691 0.11072396 2.1728718 10197915
-1.1754019 0.1106151 2.1707354 10197915
-1.1248137 0.11050444 2.1685636 10197915
-1.0705734 0.11034071 2.1786578 10197915
-1.0245526 0.11022459 2.1809392 10197915
-0.97479862 0.11011581 2.1787865 10197915
-0.92469829 0.11000736 2.1763167 10197915
-0.87467527 0.10989694 2.1744556 10197915
-0.82477093 0.10978891 2.1719944 10197915
-0.77494878 0.10967889 2.1701415 10197915
-0.72523934 0.10957131 2.1676893 10197915
-0.67813385 0.10942265 2.1782422 10197915
-0.62504119 0.10929113 2.1802044 10197915
-0.57478499 0.10918131 2.1780136 10197915
-0.52463031 0.10907172 2.1758275 10197915
-0.47457558 0.10896238 2.1736457 10197915
-0.42462179 0.10885321 2.171468 10197915
-0.3747673 0.10874428 2.1692951 10197915
-0.3250131 0.10863555 2.1671264 10197915
-0.27478451 0.10846437 2.1818841 10197915
-0.22484185 0.10835534 2.1796899 10197915
-0.17545591 0.10824859 2.1772127 10197915
-0.14464532 0.1081849 2.1748667 10197915
0.12666146 0.10517031 2.1771975 10197915
0.16072638 0.10745243 2.1795502 10197915
0.13626742 -1.0022268 2.2451584 2894892
1.3758852 -1.0023934 2.2457242 2039583
1.4058635 -1.0006127 2.2384229 2039583
0.13227244 -0.97279638 2.2285957 2894892
1.3792636 -0.98753852 2.244962 2039583
1.4245777 -0.98710459 2.2339175 2039583
1.4742072 -0.98469549 2.2218277 2039583
1.5232044 -0.98208636 2.2098935 2039583
1.5567601 -0.98032427 2.2017205 2039583
0.13195054 -0.92497802 2.2269893 2894892
0.13189067 -0.87519032 2.2264459 2894892
0.13190387 -0.82541603 2.2262018 2894892
0.13184473 -0.77528948 2.2256591 2894892
0.13183889 -0.72500163 2.2253346 2894892
0.13183342 -0.67491198 2.2250125 2894892
0.13173789 -0.62502611 2.2243223 2894892
0.13178644 -0.57497597 2.2242224 2894892
0.13176319 -0.52493888 2.2238276 2894892
0.13168643 -0.47473946 2.223213 2894892
0.13171618 -0.42455438 2.2230337 2894892
0.1316929 -0.37475517 2.2226405 2894892
0.13163382 -0.32479134 2.2221003 2894892
0.13159178 -0.27484697 2.2216282 2894892
0.13162275 -0.2251036 2.221458 2894892
0.13156383 -0.17519186 2.2209179 2894892
0.13157578 -0.1251152 2.2206669 2894892
0.13149928 -0.074873246 2.220052 2894892
0.13232893 -0.025096806 2.2231576 2894892
0.13394615 0.024937866 2.2294924 2894892
0.13388641 0.074985191 2.2289472 4539717
-1.7616055 0.1117746 2.2297461 10197915
-1.7243245 0.11169314 2.2281206 10197915
-1.6746966 0.11158472 2.2259576 10197915
-1.6251652 0.11147647 2.2237988 10197915
-1.5747797 0.11136638 2.2216024 10197915
-1.5244939 0.11125651 2.2194109 10197915
-1.475253 0.11114892 2.2172644 10197915
-1.4212166 0.11098409 2.2278099 10197915
-1.3747516 0.1108665 2.2302051 10197915
-1.3249527 0.11075892 2.2276907 10197915
-1.2747658 0.11064933 2.2254865 10197915
-1.2251611 0.1105398 2.2236331 10197915
-1.175175 0.11043065 2.221437 10197915
-1.1248201 0.11032186 2.2189002 10197915
-1.0789136 0.11019412 2.2244563 10197915
-1.0245719 0.11003935 2.232023 10197915
-0.97459626 0.10993028 2.2298107 10197915
-0.92471951 0.10982152 2.2276044 10197915
-0.87494129 0.10971288 2.2254007 10197915
-0.82526076 0.10960444 2.2232015 10197915
-0.77567905 0.10949621 2.2210062 10197915
-0.72526205 0.10938618 2.2187746 10197915
-0.67494637 0.10927635 2.2165465 10197915
-0.62187028 0.10910778 2.2287409 10197915
-0.57499421 0.10899561 2.2293804 10197915
-0.52505958 0.10888547 2.227484 10197915
-0.47474837 0.10877574 2.2252388 10197915
-0.42500392 0.10866842 2.2226884 10197915
-0.3753638 0.10855892 2.2208045 10197915
-0.3253538 0.10844985 2.2185726 10197915
-0.27485937 0.10827628 2.233804 10197915
-0.22465841 0.10816684 2.2315462 10197915
-0.1745588 0.10805763 2.2292929 10197915
-0.14583948 0.107995 2.2280009 10197915
0.13621463 0.10505808 2.2239907 10197915
0.16494976 0.10726443 2.2286608 6844795
0.14571393 -1.011079 2.2839587 2894892
1.1759554 -1.01328 2.2944212 2039583
1.2244086 -1.0106635 2.2826176 2039583
1.2738457 -1.007962 2.2705772 2039583
1.3224818 -1.0052741 2.2587318 2039583
1.3540983 -1.003451 2.2510312 2039583
0.14440636 -0.97527117 2.2783797 2894892
1.176713 -0.98734778 2.2943447 2039583
1.2254163 -0.9873876 2.2824705 2039583
1.2754557 -0.98742378 2.2702713 2039583
1.3248701 -0.98745984 2.258224 2039583
1.3541331 -0.98762286 2.2510889 2039583
0.14440033 -0.92507726 2.2780561 2894892
0.14441255 -0.87489957 2.2778058 2894892
0.14431009 -0.82494003 2.2770855 2894892
0.14428447 -0.7749809 2.2766831 2894892
0.14433581 -0.72505087 2.2765951 2894892
0.1442333 -0.67513716 2.2758751 2894892
0.14426567 -0.62505007 2.275707 2894892
0.14420138 -0.57479221 2.2751436 2894892
0.14421394 -0.52493018 2.2748973 2894892
0.14413096 -0.47527713 2.2742591 2894892
0.14416292 -0.42488331 2.2740893 2894892
0.14413728 -0.37488386 2.273684 2894892
0.14405432 -0.32528219 2.2730484 2894892
0.14404784 -0.27513164 2.2727208 2894892
0.1440607 -0.22500071 2.2724738 2894892
0.14399654 -0.17488487 2.2719116 2894892
0.1439897 -0.12497613 2.271585 2894892
0.14400302 -0.07508447 2.2713416 2894892
0.14417911 -0.026057038 2.2717693 2894892
0.14514938 0.024987254 2.2754447 2894892
0.14521998 0.074931674 2.275435 4539717
-1.8018596 0.11173595 2.2664366 10197915
-1.7756004 0.11167865 2.2652743 10197915
-1.7245299 0.11150447 2.2802885 10197915
-1.6746852 0.11139315 2.2787848 10197915
-1.6244684 0.11128494 2.2761915 10197915
-1.5743544 0.11117433 2.2743075 10197915
-1.5243307 0.11106648 2.271724 10197915
-1.4744169 0.11095633 2.2698481 10197915
-1.4291703 0.11082985 2.2754941 10197915
-1.3754079 0.11067556 2.2833025 10197915
-1.3248994 0.11056543 2.2810304 10197915
-1.274491 0.11045554 2.2787633 10197915
-1.224183 0.11034586 2.2765007 10197915
-1.1749392 0.11023851 2.2742858 10197915
-1.1257913 0.11013135 2.2720754 10197915
-1.0757779 0.11002234 2.2698259 10197915
-1.0258634 0.10991351 2.2675812 10197915
-0.97509104 0.10980282 2.2652972 10197915
-0.92161179 0.10963385 2.2773497 10197915
-0.87521839 0.10951889 2.2790751 10197915
-0.82529992 0.10941012 2.2768118 10197915
-0.77500433 0.1093018 2.2741876 10197915
-0.72481239 0.10919121 2.2722557 10197915
-0.67519212 0.10908307 2.2700059 10197915
-0.62933469 0.1089483 2.2775493 10197915
-0.57522202 0.10879945 2.2836339 10197915
-0.52550232 0.10869119 2.2813616 10197915
-0.47492859 0.10858108 2.2790504 10197915
-0.42445648 0.10847117 2.2767437 10197915
-0.37503621 0.10836358 2.2744851 10197915
-0.3247667 0.1082541 2.2721875 10197915
-0.27459794 0.10814488 2.2698951 10197915
-0.22453105 0.10803586 2.2676065 10197915
-0.17456427 0.10792708 2.2653229 10197915
-0.1472628 0.10786762 2.264075 10197915
0.14499776 0.10451536 2.2690737 10197915
0.16209149 0.10709655 2.2768145 2505810
0.94906765 -1.0503016 2.3495796 2039583
0.95083988 -1.0501088 2.3491483 2039583
0.15655603 -1.0207591 2.3284879 2894892
0.94910681 -1.025035 2.3496761 2039583
0.97432113 -1.0242379 2.343533 2039583
1.0241637 -1.0215535 2.3313925 2039583
1.0744174 -1.0188017 2.3191521 2039583
1.1242071 -1.0160484 2.3070242 2039583
1.1512735 -1.0149884 2.3004308 2039583
0.15614645 -0.9746927 2.3265319 2894892
0.94916523 -0.98713171 2.3498211 2039583
0.97479534 -0.98714083 2.3435733 2039583
1.0248013 -0.98714721 2.3313808 2039583
1.0752043 -0.98718756 2.319093 2039583
1.1248667 -0.98722458 2.3069859 2039583
1.151325 -0.98739463 2.300534 2039583
0.15609281 -0.9248932 2.3260136 2894892
0.15610388 -0.8748678 2.3257606 2894892
0.15607609 -0.82461667 2.325345 2894892
0.15600954 -0.7746231 2.3247738 2632751
0.15600805 -0.72489673 2.3244691 2305076
0.15599313 -0.67494136 2.3241098 2305076
0.15596534 -0.62476152 2.3236959 2370612
0.15589887 -0.57484311 2.3231242 2305335
0.15591003 -0.52494115 2.3228707 2305592
0.15677497 -0.47355226 2.3261113 2042937
0.15715382 -0.42445791 2.3273721 1977402
0.15710367 -0.37462968 2.3268688 1845818
0.1571389 -0.32502547 2.3267167 1779513
0.15711074 -0.27485204 2.3263016 1845562
0.15704134 -0.22489272 2.3257177 1846075
0.15705493 -0.17494807 2.3254743 1714491
0.15696573 -0.12483214 2.3248081 1714234
0.15695754 -0.07492654 2.324476 1780282
0.15697116 -0.025036203 2.3242331 1846588
0.15694311 0.025030253 2.3238189 1649468
0.15687385 0.074885122 2.3232362 2109763
-1.8562557 0.11158879 2.3421803 10197915
-1.8217348 0.11156757 2.3257134 10197915
-1.7755268 0.11148171 2.31953 10197915
-1.7265874 0.11131163 2.3348246 10197915
-1.6756732 0.11119559 2.3339274 10197915
-1.6257359 0.11108687 2.331645 10197915
-1.5749011 0.11097618 2.3293216 10197915
-1.5241665 0.1108657 2.327003 10197915
-1.4745247 0.1107576 2.3247342 10197915
-1.4249786 0.11064963 2.3224683 10197915
-1.3755304 0.11054197 2.3202076 10197915
-1.3251922 0.11043236 2.3179071 10197915
-1.2749536 0.11032295 2.3156114 10197915
-1.2248145 0.11021379 2.3133197 10197915
-1.1737386 0.11003664 2.3291757 10197915
-1.1248367 0.10992872 2.3273423 10197915
-1.0750811 0.10981908 2.3254211 10197915
-1.0254204 0.10971235 2.3227613 10197915
-0.97488427 0.10960113 2.3208053 10197915
-0.9288522 0.10946567 2.3284121 10197915
-0.87550253 0.10931639 2.3350947 10197915
-0.82534087 0.10920732 2.3327646 10197915
-0.77527881 0.10909846 2.3304391 10197915
-0.72531676 0.1089898 2.3281181 10197915
-0.67447734 0.10887925 2.3257565 10197915
-0.62471533 0.10877102 2.3234446 10197915
-0.57505274 0.10866302 2.3211379 10197915
-0.52451748 0.10855313 2.3187904 10197915
-0.47505295 0.10844555 2.3164926 10197915
-0.42568702 0.10833821 2.3141992 10197915
-0.37139973 0.10818722 2.3207595 10197915
-0.32511777 0.10804958 2.328814 10197915
-0.27516031 0.10794239 2.3260963 10197915
-0.22529815 0.10783266 2.3241389 10197915
-0.17505185 0.10772347 2.3217845 10197915
-0.14873278 0.1077359 2.3013339 10197915
0.16232823 0.10479862 2.3234501 2965847
0.16867478 -1.056923 2.3784122 2894892
0.74546051 -1.0615363 2.3991704 2039583
0.77375501 -1.0602205 2.3922782 2039583
