# .PCD v0.7 - Point Cloud Data file format
VERSION 0.7
FIELDS x y z rgb
SIZE 4 4 4 4
TYPE F F F U
COUNT 1 1 1 1
WIDTH 1167
HEIGHT 1
VIEWPOINT 0 0 0 1 0 0 0
POINTS 1167
DATA ascii
0.97485644 0.11418492 1.3780954 10197915
1.0248351 0.11423504 1.3787405 10197915
1.0713758 0.11427829 1.380973 10197915
1.101625 0.1142979 1.3863816 10197915
-0.85234982 -0.61354065 1.4015445 11711154
-0.82377511 -0.61693388 1.4181603 11711154
-0.78445917 -0.61838931 1.4410332 11711154
-0.85244435 -0.57497561 1.4016495 11711154
-0.82513571 -0.57501334 1.4175421 11711154
-0.78456074 -0.57501853 1.441155 11711154
-0.85291654 -0.52455187 1.401585 11711154
-0.82519054 -0.52500868 1.4177166 11711154
-0.78508091 -0.52497542 1.4410607 11711154
-0.85306132 -0.47502011 1.4017062 11711154
-0.82530504 -0.47500256 1.4178612 11711154
-0.78516322 -0.47502279 1.4412203 11711154
-0.85315788 -0.42495966 1.4018577 9211020
-0.82538581 -0.4250063 1.41802 10461087
-0.78523338 -0.42504114 1.4413882 11645361
-0.85352743 -0.37413776 1.4018546 6513507
-0.82548368 -0.37499958 1.4181708 6513507
-0.7856521 -0.37520114 1.4413508 7105644
-0.85377693 -0.32488331 1.4019146 6513507
-0.82558465 -0.32501292 1.4183216 6513507
-0.78587186 -0.32500818 1.441432 6513507
-0.85365152 -0.27410713 1.4021982 6513507
-0.82545185 -0.27513483 1.418605 6513507
-0.78596556 -0.27495077 1.4415849 6513507
-0.85369974 -0.22422028 1.4023777 6513507
-0.82497329 -0.22493772 1.4190922 6513507
-0.78586203 -0.22532031 1.4418516 6513507
-0.8540498 -0.17487714 1.402379 6513507
-0.82495248 -0.17500719 1.4193118 6513507
-0.78610688 -0.17502734 1.4419187 6513507
-0.85414332 -0.12492575 1.4025316 6513507
-0.82504189 -0.12499947 1.4194671 6513507
-0.78620464 -0.12500136 1.4420688 6513507
-0.85429132 -0.074708506 1.4026544 6513507
-0.82511413 -0.075001486 1.4196341 6513507
-0.78634727 -0.075105689 1.4421937 6513507
-0.85475868 -0.024985811 1.4025893 6513507
-0.82529819 -0.025004273 1.419735 6513507
-0.78679746 -0.025132315 1.4421401 6513507
-0.85485232 0.02498945 1.4027426 6513507
-0.82538766 0.024997573 1.4198891 6513507
-0.78690565 0.025096348 1.4422855 6513507
-0.85494542 0.074975625 1.4028962 7829367
-0.82538462 0.074996077 1.4200997 8026746
-0.78705943 0.07511127 1.4424042 8289918
-1.119396 0.11192079 1.4273549 10197915
-1.0907805 0.11199509 1.4063674 10197915
-0.85523421 0.10644821 1.4028368 10197915
-0.82479227 0.10677017 1.4192001 10197915
-0.78232777 0.1082088 1.4361782 10197915
-0.7251054 0.11232789 1.4270412 10197915
-0.67684668 0.11238197 1.4250182 10197915
-0.62501293 0.11244372 1.4211186 10197915
-0.57503456 0.11249414 1.4216396 10197915
-0.52520347 0.11254413 1.4222714 10197915
-0.47513357 0.11259463 1.4227954 10197915
-0.42521751 0.11264427 1.4236524 10197915
-0.37545046 0.11269449 1.42417 10197915
-0.32524481 0.11274461 1.4249207 10197915
-0.27499789 0.11279532 1.4254442 10197915
-0.22490269 0.1128456 1.4260802 10197915
-0.17495687 0.11289597 1.426598 10197915
-0.12516364 0.1129457 1.4273449 10197915
-0.07513272 0.11299569 1.4280939 10197915
-0.023407742 0.11305854 1.4236331 10197915
0.025040362 0.11311189 1.4220303 10197915
0.075001985 0.11316196 1.4227029 10197915
0.12500671 0.11321245 1.4232056 10197915
0.17505723 0.11326241 1.4239661 10197915
0.22515154 0.11331281 1.424556 10197915
0.27514356 0.11336318 1.4250983 10197915
0.32517827 0.11341323 1.425819 10197915
0.37525997 0.1134637 1.4263619 10197915
0.42508715 0.11351315 1.4272498 10197915
0.47428688 0.11356473 1.4268435 10197915
0.52497232 0.11362927 1.4211025 10197915
0.57487744 0.11367919 1.4218421 10197915
0.62482744 0.11372958 1.4223577 10197915
0.67521459 0.11378019 1.4229894 10197915
0.7252537 0.11383043 1.4236158 10197915
0.77513576 0.1138805 1.4242445 10197915
0.82526267 0.11393059 1.4249867 10197915
0.87503594 0.11398084 1.4254977 10197915
0.92504996 0.11403104 1.4261262 10197915
0.9751116 0.11408128 1.4267533 10197915
1.0252136 0.11413158 1.4273843 10197915
1.0760036 0.11418493 1.4269249 10197915
1.117944 0.11422583 1.4280249 10197915
-0.7596398 -0.61827499 1.4554791 11711154
-0.72540694 -0.61844856 1.4754002 11711154
-0.69178903 -0.61843127 1.494965 11711154
-0.75936061 -0.57496107 1.455821 11711154
-0.72508919 -0.57499832 1.4757659 11711154
-0.69188201 -0.57498574 1.4950912 11711154
-0.7598899 -0.52501482 1.4557205 11711154
-0.72519279 -0.52501583 1.475912 11711154
-0.69193405 -0.52498108 1.4952689 11711154
-0.75999051 -0.47503766 1.45587 11711154
-0.72527438 -0.47500008 1.4760735 11711154
-0.69221026 -0.47532573 1.4953147 11711154
-0.76003432 -0.42499521 1.4560525 11711154
-0.7253257 -0.42499521 1.4762524 11711154
-0.69258285 -0.42500606 1.4953073 11711154
-0.76047063 -0.37472507 1.4560081 8158332
-0.72543043 -0.37501514 1.4763994 9803157
-0.69267803 -0.37502408 1.4954597 11250603
-0.7606954 -0.32498848 1.4560837 6513507
-0.7250399 -0.32501268 1.4768345 6513507
-0.69224471 -0.32499087 1.4959195 6513507
-0.76075441 -0.27500215 1.4562576 6513507
-0.72511458 -0.27499866 1.4769983 6513507
-0.69276661 -0.27512938 1.495823 6513507
-0.76102257 -0.22470567 1.4563099 6513507
-0.72516322 -0.22500896 1.4771782 6513507
-0.69288373 -0.2249717 1.4959635 6513507
-0.76138198 -0.17496444 1.4563079 6513507
-0.7252813 -0.17500763 1.4773183 6513507
-0.69299448 -0.17496845 1.4961065 6513507
-0.76152503 -0.12510341 1.4564317 6513507
-0.72536337 -0.12495033 1.4774764 6513507
-0.69322342 -0.12560891 1.4961787 6513507
-0.76149362 -0.075003035 1.4566575 6513507
-0.72543639 -0.074996442 1.4776421 6513507
-0.69361156 -0.07495375 1.4961637 6513507
-0.7617467 -0.02475114 1.45672 6513507
-0.72508085 -0.025115246 1.4780552 6513507
-0.69367683 -0.024796082 1.4963338 6513507
-0.76177418 0.024935462 1.4569105 6513507
-0.7250793 0.025051929 1.4782659 6513507
-0.69375199 0.024799684 1.4964963 6513507
-0.76175553 0.074992158 1.45713 8421504
-0.72520119 0.075018451 1.4784033 8684676
-0.69430125 0.074863724 1.4963851 8882055
-1.1633496 0.11176325 1.4799311 9934743
-1.1387755 0.11181679 1.4667172 10197915
-0.76176256 0.10620441 1.4572545 10197915
-0.72472489 0.10668249 1.4776154 10197915
-0.68253833 0.10954048 1.4854078 10197915
-0.62514722 0.1123317 1.4735262 10197915
-0.57519007 0.11238148 1.4743292 10197915
-0.5251888 0.11243173 1.4749347 10197915
-0.47514337 0.11248182 1.4756446 10197915
-0.42677534 0.11253851 1.4724382 10197915
-0.37472108 0.11259927 1.4691181 10197915
-0.32475212 0.1126494 1.4697689 10197915
-0.27494445 0.11269934 1.4704236 10197915
-0.22488715 0.11274926 1.4712029 10197915
-0.17498975 0.11279986 1.4716033 10197915
-0.12504841 0.11284941 1.4725097 10197915
-0.07505957 0.11290006 1.4729122 10197915
-0.02503214 0.11294971 1.4738187 10197915
0.024842344 0.11300002 1.4743435 10197915
0.074960634 0.11305027 1.4750025 10197915
0.12512679 0.11310058 1.4756556 10197915
0.17492644 0.11315025 1.4764361 10197915
0.22476995 0.11320052 1.4769597 10197915
0.27486601 0.11325103 1.4774903 10197915
0.32520536 0.11330097 1.4784013 10197915
0.37518543 0.11335138 1.4789279 10197915
0.42500067 0.11340135 1.4795791 10197915
0.47592402 0.11345498 1.4790462 10197915
0.52502364 0.11351846 1.473032 10197915
0.5751704 0.1135681 1.4740161 10197915
0.62521106 0.11361869 1.4744761 10197915
0.67529202 0.11366913 1.475037 10197915
0.72526813 0.11371897 1.4758266 10197915
0.77318662 0.11377343 1.4734615 10197915
0.82485241 0.11383517 1.4694839 10197915
0.87495273 0.11388572 1.4700067 10197915
0.92489314 0.11393606 1.4705287 10197915
0.97507924 0.11398589 1.4714285 10197915
1.0253134 0.11403656 1.4719534 10197915
1.0751818 0.11408658 1.472599 10197915
1.1250913 0.11413666 1.4732455 10197915
1.1635478 0.11416283 1.4795519 10197915
-0.66666871 -0.61841053 1.5095847 11711154
-0.62522757 -0.61842346 1.5337018 11711154
-0.5987615 -0.61823839 1.5491049 11711154
-0.6667518 -0.57501829 1.5097163 11711154
-0.62526858 -0.57499272 1.5338584 11711154
-0.59883046 -0.57486838 1.5492443 11711154
-0.66679913 -0.52498382 1.5098962 11711154
-0.62537724 -0.52500886 1.5340031 11711154
-0.59917754 -0.52736306 1.5492402 11711154
-0.66708648 -0.47479868 1.5099382 11711154
-0.62508756 -0.47490308 1.5343797 11711154
-0.59923333 -0.47894168 1.5494089 11711154
-0.66746229 -0.42499521 1.5099262 11711154
-0.62498498 -0.42500415 1.5346463 11711154
-0.59902811 -0.42439139 1.5497556 11711154
-0.66753334 -0.37499312 1.5100929 11645361
-0.62503839 -0.37499976 1.5348228 11711154
-0.59909219 -0.37563607 1.549921 11711154
-0.66760147 -0.32497936 1.5102609 7171437
-0.6251061 -0.32500941 1.5349921 9079434
-0.66813743 -0.27496922 1.5101572 6513507
-0.62520224 -0.27500957 1.5351448 6513507
-0.66823512 -0.22504298 1.5103074 6513507
-0.62524629 -0.22499776 1.5353261 6513507
-0.66831809 -0.17500578 1.5104674 6513507
-0.62552619 -0.17512509 1.5353699 6513507
-0.66865849 -0.12479825 1.5104783 6513507
-0.62591815 -0.12497638 1.5353527 6513507
-0.66897494 -0.07501018 1.510501 6513507
-0.62593937 -0.074932247 1.5355456 6513507
-0.66881579 -0.024882223 1.5108021 6513507
-0.6258952 -0.025080249 1.5357791 6513507
-0.6685673 0.025042575 1.5111547 6513507
-0.62605202 0.024871731 1.5358962 6513507
-0.66918349 0.075038895 1.5110039 9013641
-0.62616169 0.074924476 1.5360413 9276813
-1.2099218 0.11160041 1.5337151 6513507
-1.1831543 0.1116614 1.5180626 7895160
-0.66898072 0.1062582 1.5110955 10197915
-0.62542987 0.10698908 1.5341758 10197915
-0.5748325 0.11226107 1.5309047 10197915
-0.52496266 0.11231104 1.5315853 10197915
-0.4748362 0.11236094 1.5324123 10197915
-0.42475152 0.1124299 1.5242923 10197915
-0.37477937 0.11249702 1.5169833 10197915
-0.3248536 0.11254705 1.5176542 10197915
-0.27530509 0.11259669 1.5183241 10197915
-0.22529122 0.1126465 1.5191387 10197915
-0.17502488 0.11269747 1.5195428 10197915
-0.12492163 0.11274739 1.5203558 10197915
-0.074987695 0.11279711 1.5211711 10197915
-0.025006253 0.1128475 1.5217062 10197915
0.025021069 0.11289763 1.5223818 10197915
0.074878789 0.11294759 1.5230552 10197915
0.1247843 0.1129976 1.52373 10197915
0.17494188 0.11304758 1.5245483 10197915
0.22514383 0.11309813 1.5250859 10197915
0.27518249 0.11314829 1.5257617 10197915
0.32526204 0.11319847 1.5264387 10197915
0.37517902 0.11324822 1.5272533 10197915
0.42492357 0.11329834 1.5277853 10197915
0.47492436 0.11334874 1.5283185 10197915
0.52497119 0.11339859 1.529137 10197915
0.57484949 0.11344831 1.5299517 10197915
0.62477344 0.11349867 1.5304867 10197915
0.67516351 0.1135492 1.5311676 10197915
0.72517657 0.11359929 1.53184 10197915
0.77690637 0.11366034 1.5282322 10197915
0.82326049 0.11372346 1.5210432 10197915
0.87486422 0.11378445 1.5173855 10197915
0.92493308 0.11383466 1.5180545 10197915
0.97483814 0.11388468 1.5187212 10197915
1.0249953 0.11393495 1.5193921 10197915
1.0752006 0.11398529 1.5200632 10197915
1.1250236 0.11403491 1.5208672 10197915
1.174477 0.11408449 1.5215261 10197915
1.2097923 0.1140953 1.5335144 10197915
-0.57390499 -0.61842328 1.5635703 11711154
-0.53105152 -0.61843771 1.5885093 11711154
-0.57398272 -0.57501906 1.5637068 11711154
-0.53112829 -0.57498324 1.5886449 11711154
-0.57438028 -0.52489597 1.5636808 11711154
-0.53119957 -0.5249458 1.588812 11711154
-0.57463026 -0.47499561 1.5637437 11711154
-0.53143626 -0.47513941 1.5888803 11711154
-0.5746879 -0.42498589 1.5639184 11711154
-0.53185147 -0.42500889 1.5888468 11711154
-0.57473648 -0.37493002 1.5640972 11711154
-0.53185105 -0.37505275 1.5890553 8618883
-0.57482111 -0.32500467 1.5642563 11184810
-0.53141081 -0.32496721 1.5895197 5197647
-0.57486683 -0.27498311 1.5644368 6645093
-0.53183025 -0.27518204 1.5894828 4144959
-0.57495236 -0.22497819 1.5645983 6513507
-0.53207916 -0.22500992 1.5895463 3881787
-0.60042185 -0.16118264 1.5500383 6513507
-0.57501864 -0.17501712 1.5647653 6513507
-0.53215706 -0.17496037 1.5897092 3881787
-0.60046911 -0.12523106 1.5501605 6513507
-0.57506979 -0.12505925 1.5649424 6513507
-0.53224337 -0.12496206 1.5898666 3881787
-0.60053486 -0.075146683 1.55033 6513507
-0.575055 -0.075048909 1.5651605 6513507
-0.53276241 -0.075096741 1.5897717 3947580
-0.60060078 -0.025051337 1.5505003 6513507
-0.57528114 -0.025016103 1.5652353 6513507
-0.5328387 -0.025029801 1.5899353 3947580
-0.6011492 0.026816498 1.5503962 6513507
-0.57534564 0.025005976 1.565407 6513507
-0.53289706 0.025033476 1.5901096 3947580
-0.60125643 0.075157508 1.5505348 9474192
-0.57524639 0.075033247 1.5656697 9605778
-0.53309464 0.074925721 1.5902023 8487297
-1.2574685 0.111431 1.5901053 6513507
-1.2276697 0.11150086 1.5717649 6513507
-1.1981809 0.11156368 1.5565903 6579300
-0.60129708 0.10599792 1.5506397 10197915
-0.57476205 0.10639377 1.5657574 10197915
-0.53159213 0.10739531 1.5867162 10197915
-0.47518158 0.11226841 1.5755817 10197915
-0.42247549 0.11233217 1.5711703 10197915
-0.37462595 0.11238812 1.5680721 10197915
-0.32474574 0.11243803 1.5687683 10197915
-0.27482495 0.112488 1.5694655 10197915
-0.22485611 0.11253802 1.5701635 10197915
-0.1750626 0.11258755 1.5710106 10197915
-0.12522471 0.11263776 1.571555 10197915
-0.075122587 0.11268791 1.5722553 10197915
-0.024979645 0.11273813 1.5729554 10197915
0.024994433 0.11278816 1.5736527 10197915
0.075226702 0.11283842 1.5743551 10197915
0.12528923 0.11288825 1.5752071 10197915
0.17495811 0.11293861 1.5755907 10197915
0.22467092 0.11298771 1.5765952 10197915
0.27486637 0.11303826 1.5771434 10197915
0.3253215 0.11308878 1.5778476 10197915
0.37516966 0.1131387 1.5785403 9671571
0.4250581 0.11318864 1.5792409 9605778
0.47521275 0.11323853 1.5800953 9013641
0.52519023 0.11328922 1.5804821 9013641
0.57521254 0.11333863 1.5814925 8421504
0.62261945 0.11339477 1.5781294 9145227
0.67520559 0.11345807 1.5738572 10197915
0.72541142 0.1135081 1.5746685 10066329
0.77500081 0.11355801 1.57524 9276813
0.82722807 0.11362253 1.5702444 9408399
0.87498707 0.11367638 1.5680727 8947848
0.92519617 0.11372698 1.5686163 8882055
0.97501558 0.11377689 1.5693007 8355711
1.0248755 0.1138268 1.5699933 8224125
1.075002 0.11387668 1.5708368 7763574
1.1249478 0.11392734 1.5712205 7566195
1.1749424 0.11397676 1.5722172 7171437
1.2231553 0.11402218 1.5742207 6513507
1.2570096 0.11402441 1.5895245 3223857
-0.50604331 -0.61843288 1.6030627 11711154
-0.47541121 -0.61843061 1.6208885 11645361
-0.43764895 -0.61836082 1.6428668 2894892
-0.50610888 -0.57498711 1.6032051 11711154
-0.47548112 -0.5750345 1.6210297 11645361
-0.43771419 -0.57498211 1.6430086 2894892
-0.50607783 -0.52469075 1.6034324 11711154
-0.47544482 -0.52510965 1.6212579 11645361
-0.4383105 -0.52496111 1.6428699 2894892
-0.50587171 -0.47446024 1.6037611 11711154
-0.47499686 -0.47500443 1.6217269 11645361
-0.43835679 -0.47498748 1.6430494 2894892
-0.50626618 -0.42494217 1.603737 11711154
-0.47506389 -0.42498973 1.621896 11645361
-0.43843204 -0.42500356 1.6432142 2894892
-0.50633389 -0.37504318 1.6039056 6842472
-0.47509879 -0.3749947 1.6220829 5987163
-0.43857035 -0.37525702 1.6433402 2894892
-0.50638676 -0.32502064 1.6040821 2894892
-0.47516534 -0.32500553 1.6222539 2894892
-0.43911248 -0.3250517 1.6432335 2894892
-0.50682968 -0.27449134 1.6040342 2894892
-0.47523603 -0.27498895 1.6224203 2894892
-0.43914834 -0.27502722 1.6434213 2894892
-0.50701994 -0.22497909 1.60413 2894892
-0.47525454 -0.22500853 1.6226164 2894892
-0.43920514 -0.22495511 1.6435964 2894892
-0.50715804 -0.17510648 1.604257 2894892
-0.47534776 -0.17503245 1.6227689 2894892
-0.43948317 -0.17521505 1.6436409 2894892
-0.50716549 -0.12496483 1.604461 2894892
-0.47531837 -0.12503023 1.6229954 2894892
-0.43981495 -0.12491141 1.643657 2894892
-0.50773865 -0.074974492 1.6043351 2894892
-0.47550604 -0.074907765 1.623093 2894892
-0.43998539 -0.075177327 1.6437641 2894892
-0.5078364 -0.025258848 1.6044846 2894892
-0.47540006 -0.024883507 1.6233628 2894892
-0.4399645 -0.025199614 1.6439843 2894892
-0.50789279 0.025262589 1.6046618 2894892
-0.47504324 0.025010869 1.6237792 2894892
-0.43993306 0.024519321 1.6442097 2894892
-0.50806028 0.075392343 1.6047726 7960953
-0.47508258 0.074927486 1.6239635 7763574
-0.44011235 0.075108029 1.6443152 7697781
-1.3050776 0.11125922 1.6475781 6513507
-1.2742816 0.11133055 1.629038 6513507
-1.2440993 0.11140195 1.6101779 6579300
-0.50858283 0.1062661 1.6043764 10197915
-0.47453439 0.1069492 1.622236 10132122
-0.43333164 0.10863145 1.6345279 10132122
-0.37490845 0.11227114 1.622719 10197915
-0.32485306 0.11232085 1.6236103 10197915
-0.27520743 0.11237121 1.6239876 10197915
-0.22528709 0.11242077 1.6248816 10132122
-0.17510271 0.1124706 1.6257735 10132122
-0.12487315 0.11252119 1.6263331 10132122
-0.075044669 0.11257102 1.6270486 6447714
-0.02517589 0.11262087 1.627774 5000268
0.024967128 0.11267066 1.6286674 4737096
0.074922137 0.11272135 1.6290481 4342338
0.12492852 0.11277062 1.6301119 4144959
0.17309225 0.11282407 1.6283364 3815994
0.22511211 0.11289112 1.622045 3815994
0.27496105 0.11294098 1.622762 3158064
0.32518682 0.11299148 1.6233588 2960685
0.37512535 0.11304143 1.624073 2960685
0.42476463 0.11309083 1.6249149 2960685
0.47479007 0.11314087 1.625634 2960685
0.52485996 0.11319095 1.6263531 2960685
0.57497156 0.11324161 1.6268197 2960685
0.62752843 0.11330641 1.6219208 3289650
0.67525136 0.11336164 1.619089 2960685
0.72521067 0.11341164 1.6197984 2960685
0.7752102 0.11346163 1.6205171 2960685
0.82525766 0.11351172 1.6212277 2960685
0.87511986 0.11356125 1.6221105 2960685
0.92502922 0.11361188 1.6224859 2960685
0.97497749 0.11366113 1.6235372 2960685
1.0249736 0.11371151 1.6240811 2960685
1.0747892 0.11376134 1.6247933 2894892
1.1248727 0.1138111 1.6256793 2894892
1.1749985 0.11386193 1.6260573 2894892
1.2249432 0.11391158 1.6269387 2894892
1.2717295 0.1139515 1.6308208 2894892
1.3053252 0.11395154 1.6470292 2960685
-0.41267216 -0.61846775 1.6574012 2894892
-0.3750017 -0.61843193 1.679324 4342338
-0.34451649 -0.61835647 1.6970662 11316396
-0.4127548 -0.57493979 1.6575346 2894892
-0.37502187 -0.57502848 1.6794918 4342338
-0.34452853 -0.57499397 1.6972412 11382189
-0.41334537 -0.52499628 1.6573986 2894892
-0.37505752 -0.52500677 1.6796799 4342338
-0.34482622 -0.5258432 1.6972711 11316396
-0.41339272 -0.47501764 1.6575783 2894892
-0.37512854 -0.47498989 1.6798459 4342338
-0.34527254 -0.47502446 1.6972215 11316396
-0.41347072 -0.4249965 1.6577398 2894892
-0.37513077 -0.4249967 1.6800538 4342338
-0.34524971 -0.42504686 1.6974419 11250603
-0.41361728 -0.37480253 1.6578637 2894892
-0.3752138 -0.37497449 1.680214 5197647
-0.34533295 -0.37505949 1.6976023 10000536
-0.41414577 -0.32497227 1.6577631 2894892
-0.37525222 -0.32499358 1.6803997 5592405
-0.34563074 -0.32590452 1.6976342 6513507
-0.41415441 -0.27498609 1.6579676 2894892
-0.37524459 -0.27501768 1.6806098 4276545
-0.34603778 -0.2751092 1.6976073 4605510
-0.4142409 -0.22501914 1.6581243 2894892
-0.37533614 -0.22503084 1.6807659 2894892
-0.34606081 -0.22508094 1.6978036 2894892
-0.41452485 -0.17476225 1.6581681 2894892
-0.37536675 -0.1750173 1.6809562 2894892
-0.34608373 -0.17504089 1.6979976 2894892
-0.41491538 -0.12508199 1.6581471 2894892
-0.37540472 -0.12495795 1.6811414 2894892
-0.34645668 -0.12624918 1.6979822 2894892
-0.41491812 -0.074941777 1.6583546 2894892
-0.37550741 -0.075041369 1.6812868 2894892
-0.34680361 -0.07526955 1.6979934 2894892
-0.41504985 -0.024880506 1.6584857 2894892
-0.37540996 -0.025078831 1.6815573 2894892
-0.34684145 -0.025326787 1.6981772 2894892
-0.41541907 0.025150774 1.6584779 2894892
-0.37543437 0.025066242 1.6817474 2894892
-0.34689388 0.0251927 1.6983566 2894892
-0.41507134 0.074910343 1.6588877 7500402
-0.37502441 0.075060867 1.6821935 7368816
-0.34724158 0.07378716 1.6983572 6908265
-1.3181193 0.11117732 1.6796509 6513507
-1.292303 0.11122385 1.6703104 6513507
-0.41493019 0.10633852 1.6589838 10066329
-0.3744584 0.10690314 1.6803831 10066329
-0.33243939 0.11022535 1.6808243 10066329
-0.27477694 0.11226768 1.6726942 10066329
-0.22463311 0.11231748 1.6735779 10066329
-0.17478983 0.11236727 1.6743202 10066329
-0.12490504 0.11241773 1.6747843 10066329
-0.074978918 0.11246698 1.675806 4342338
-0.025002833 0.11251692 1.6765498 2960685
0.025017641 0.11256691 1.6772945 2894892
0.074731208 0.1126169 1.6778933 2960685
0.12449156 0.11266628 1.6787755 2960685
0.17723139 0.11272752 1.6755549 2960685
0.22511807 0.11278874 1.6700107 2894892
0.27505779 0.11283784 1.6711175 2960685
0.32527617 0.11288843 1.6716794 2960685
0.37530935 0.11293841 1.6724148 2960685
0.4251532 0.11298784 1.673339 2960685
0.47503778 0.1130385 1.6737065 2960685
0.52497047 0.11308757 1.6748163 2894892
0.57494432 0.11313793 1.6753688 2960685
0.62473416 0.1131878 1.6761075 2960685
0.67502946 0.1132381 1.6768574 2960685
0.72513962 0.11328816 1.6775937 2960685
0.77482337 0.11333784 1.6783292 2894892
0.82502139 0.11338758 1.6792597 2894892
0.87246472 0.11344608 1.6747704 2960685
0.9246822 0.11350862 1.6706991 2960685
0.97494847 0.11355886 1.6714383 2960685
1.0249051 0.11360908 1.6720341 2960685
1.0749106 0.11365876 1.6729089 2894892
1.1249567 0.11370908 1.6735059 2894892
1.1750491 0.11375884 1.6743821 2960685
1.2251849 0.11380927 1.6749802 2894892
1.2753639 0.11385911 1.6758579 2894892
1.318118 0.11389685 1.6788067 2894892
-0.31977823 -0.618442 1.7114635 11711154
-0.27693951 -0.61842644 1.7363937 11711154
-0.31980452 -0.57497048 1.7116271 11711154
-0.27698806 -0.57501012 1.7365462 11711154
-0.32011843 -0.52476174 1.7116547 11711154
-0.27699888 -0.52503663 1.7367473 11711154
-0.32052344 -0.47496855 1.7116244 11711154
-0.27757597 -0.47513252 1.7366183 11711154
-0.32052124 -0.42497897 1.7118347 11711154
-0.27772379 -0.42501763 1.7367404 11711154
-0.3206014 -0.37497827 1.7119948 11579568
-0.27776104 -0.37503189 1.7369275 11711154
-0.32091343 -0.32477355 1.7120235 7303023
-0.277785 -0.32501402 1.73712 10724259
-0.32133037 -0.27495757 1.7119882 4408131
-0.27831763 -0.27515736 1.7370191 4868682
-0.3212958 -0.22496834 1.7122153 2894892
-0.27849346 -0.22501525 1.737125 2894892
-0.32140639 -0.17494683 1.7123584 2894892
-0.27856693 -0.17505001 1.7372893 2894892
-0.32169059 -0.12474937 1.7124013 2894892
-0.2785143 -0.12505239 1.7375274 2894892
-0.32217592 -0.0748237 1.7123289 2894892
-0.27912736 -0.075335532 1.7373786 2894892
-0.32205844 -0.024832433 1.7126018 2894892
-0.27925986 -0.02517152 1.7375088 2894892
-0.32209349 0.02483603 1.7127903 2894892
-0.27929044 0.025175245 1.7377005 2894892
-0.32265925 0.075006299 1.7126672 7171437
-0.27943468 0.075171836 1.7378247 7039851
-1.3603464 0.11103977 1.723688 6513507
-1.3345912 0.11108367 1.7155545 6513507
-0.32222265 0.10663918 1.7120677 10066329
-0.27762833 0.10746482 1.7334443 10066329
-0.22512613 0.11220659 1.7252889 10066329
-0.1751758 0.11225735 1.7256501 10066329
-0.12518172 0.11230634 1.7268231 10066329
-0.074901767 0.11235697 1.727394 3947580
-0.026244463 0.11240889 1.7265753 2960685
0.024919033 0.11247907 1.7184181 2894892
0.075139269 0.11252951 1.7190357 2894892
0.12540714 0.11257937 1.7199508 2960685
0.17500435 0.11262917 1.7205544 2960685
0.2246455 0.11267835 1.7214642 2894892
0.27468994 0.11272838 1.7222273 2960685
0.32513171 0.11277901 1.7228481 2960685
0.37526664 0.1128291 1.7236084 2960685
0.42508116 0.11287849 1.7245212 2960685
0.47530353 0.11292868 1.7252871 2960685
0.52520931 0.11297876 1.7258952 2894892
0.57515913 0.11302833 1.7268102 2960685
0.62515455 0.11307866 1.7274206 2960685
0.67519182 0.11312832 1.7283388 2960685
0.72527725 0.11317866 1.728949 2960685
0.77504349 0.1132277 1.7300153 2960685
0.82484806 0.11327805 1.7304676 2894892
0.87720191 0.11334591 1.7239919 2894892
0.92503476 0.11340007 1.7217029 2894892
0.97515368 0.1134506 1.7222602 2894892
1.0248328 0.11350016 1.7230129 2960685
1.074801 0.11354962 1.7239736 2894892
1.125049 0.11360019 1.7245322 2894892
1.1748589 0.11364997 1.7252868 2894892
1.2247175 0.11369976 1.7260431 2894892
1.2746147 0.11374959 1.7267992 2894892
1.3245606 0.11379944 1.727556 2894892
1.3660378 0.11382055 1.7377055 2894892
-0.25171146 -0.61855978 1.7510748 11711154
-0.22538297 -0.61842752 1.766398 11711154
-0.18396357 -0.61843097 1.7905024 11711154
-0.25176591 -0.57509255 1.751224 11711154
-0.22516614 -0.57483613 1.7667046 11711154
-0.18444611 -0.57526493 1.790401 11711154
-0.25176752 -0.52508491 1.7514309 11711154
-0.22477081 -0.52500194 1.7671431 11711154
-0.18398403 -0.52495271 1.7908791 11711154
-0.25238666 -0.47396189 1.7512829 11711154
-0.22477137 -0.47499236 1.7673498 11711154
-0.18401818 -0.4749918 1.791067 11711154
-0.25249031 -0.42501265 1.7514257 11711154
-0.22482093 -0.42497337 1.7675285 11711154
-0.18403167 -0.425019 1.7912658 11711154
-0.25254712 -0.37499195 1.7516006 11711154
-0.2248134 -0.37498218 1.7677414 11711154
-0.18462104 -0.37522396 1.7911303 11711154
-0.25256017 -0.32513556 1.7518011 11711154
-0.22486681 -0.32498085 1.7679174 11711154
-0.18476525 -0.32500023 1.7912555 11711154
-0.25311244 -0.27401966 1.7516913 5000268
-0.22486168 -0.274968 1.7681274 4737096
-0.1848274 -0.2749927 1.7914273 4013373
-0.25328463 -0.2249814 1.7517953 2894892
-0.22494343 -0.22498372 1.7682893 2894892
-0.18480782 -0.22497316 1.7916468 2894892
-0.25331247 -0.17492396 1.7519864 2894892
-0.22494231 -0.1750291 1.768497 2894892
-0.1853272 -0.17521662 1.7915511 2894892
-0.25334024 -0.12485553 1.7521785 2894892
-0.22491688 -0.12506214 1.7687194 2894892
-0.18546323 -0.12488217 1.7916808 2894892
-0.25385255 -0.073802464 1.7520933 2894892
-0.22505398 -0.074947491 1.7688489 2894892
-0.18563983 -0.075162485 1.7917854 2894892
-0.25406465 -0.024680315 1.7521734 2894892
-0.22493367 -0.0249191 1.7691264 2894892
-0.18558146 -0.025241653 1.7920265 2894892
-0.25409219 0.024683863 1.7523627 2894892
-0.2249582 0.024922717 1.7693198 2894892
-0.18590267 0.024923282 1.7920482 2894892
-0.25411999 0.074784905 1.752555 6842472
-0.22511853 0.074953228 1.7694343 6776679
-0.1863907 0.075141571 1.7919729 6645093
-1.4115551 0.11084691 1.7892988 6513507
-1.3785608 0.1109274 1.7675245 6513507
-1.3478894 0.11099412 1.7510806 6513507
-0.25413737 0.1060124 1.7526747 10066329
-0.22449479 0.10643871 1.7694827 10066329
-0.18250912 0.10763434 1.7885392 10066329
-0.12473601 0.11218978 1.7816629 10066329
-0.074946746 0.11223982 1.7822821 3487029
-0.023245968 0.11229765 1.7801448 2894892
0.024974132 0.1123629 1.7728704 2894892
0.074941576 0.11241367 1.7732167 2894892
0.1249617 0.11246264 1.7744439 2960685
0.1750219 0.11251348 1.7747916 2894892
0.2251268 0.11256251 1.7760204 2894892
0.27503288 0.11261276 1.776582 2894892
0.3229714 0.11267534 1.7704175 2960685
0.37518162 0.11273663 1.7669222 2894892
0.42477816 0.11278573 1.7678641 2960685
0.47479165 0.11283564 1.7686459 2960685
0.52484936 0.11288556 1.7694288 2894892
0.57494849 0.11293624 1.7698841 2894892
0.62508869 0.11298554 1.7709959 2960685
0.67528009 0.11303574 1.7717818 2894892
0.72514671 0.11308581 1.7723955 2960685
0.77505088 0.11313526 1.7733417 2960685
0.82500726 0.11318541 1.7739564 2894892
0.87499774 0.11323493 1.7749052 2894892
0.92541033 0.11328522 1.7756933 2960685
0.97549623 0.11333553 1.7763093 2894892
1.0248796 0.11338443 1.7772477 2894892
1.0746818 0.11343411 1.7780265 2960685
1.1248964 0.11348455 1.7786455 2894892
1.1751571 0.11353434 1.7795974 2894892
1.2254628 0.11358486 1.7802175 2894892
1.2750648 0.11363399 1.7811596 2894892
1.3247132 0.11368388 1.7817692 2894892
1.3751475 0.11373383 1.7827246 2894892
1.4118134 0.11375844 1.7889005 2894892
-0.15853226 -0.61845899 1.8053026 11711154
-0.12549099 -0.61844689 1.8245306 11711154
-0.090940781 -0.61853987 1.8446388 3289650
-0.15926769 -0.57495201 1.8050559 11711154
-0.12547927 -0.57501554 1.8247194 11711154
-0.091364212 -0.5754481 1.8445708 3421236
-0.15929158 -0.52501839 1.8052495 11711154
-0.12552553 -0.52500284 1.824898 11711154
-0.091694348 -0.52499664 1.8445882 3487029
-0.15933198 -0.47496232 1.8054334 11711154
-0.12551157 -0.47499985 1.8251144 11711154
-0.09173654 -0.47505879 1.8447716 3487029
-0.15933962 -0.42501041 1.8056368 11711154
-0.1255548 -0.42500907 1.8252956 11711154
-0.091714397 -0.42498171 1.8449918 3487029
-0.15990029 -0.37470102 1.8055192 11711154
-0.12552424 -0.3750298 1.825524 11711154
-0.09194646 -0.37542209 1.8450629 3487029
-0.16008367 -0.32497311 1.8056202 11711154
-0.12555026 -0.32503861 1.8257183 11579568
-0.092470512 -0.32505494 1.8449676 3487029
-0.1601437 -0.27498969 1.8057921 3552822
-0.12559918 -0.27499264 1.8258965 3026478
-0.092476398 -0.27505437 1.8451718 2894892
-0.16005765 -0.22499707 1.8060502 2894892
-0.12554428 -0.22498007 1.8261341 2894892
-0.092540309 -0.22511427 1.8453424 2894892
-0.16060534 -0.17450616 1.8059411 2894892
-0.1255904 -0.17502296 1.8263197 2894892
-0.092529647 -0.17502344 1.8455565 2894892
-0.16088855 -0.12505056 1.8059822 2894892
-0.12571089 -0.1250336 1.8264554 2894892
-0.093227133 -0.12476369 1.8453598 2894892
-0.16084971 -0.074877128 1.8062127 2894892
-0.12562123 -0.074989542 1.8267123 2894892
-0.093310311 -0.075084411 1.8455185 2894892
-0.16090682 -0.024746738 1.8063884 2894892
-0.12557507 -0.024976682 1.8269504 2894892
-0.093283638 -0.025233589 1.8457409 2894892
-0.1612571 0.025183974 1.8063917 2894892
-0.1255887 0.024980305 1.827149 2894892
-0.093293935 0.025237303 1.8459445 2894892
-0.16159479 0.074928433 1.806403 6513507
-0.12564386 0.074992724 1.8273237 6381921
-0.093843117 0.074493662 1.8458292 3289650
-1.4579929 0.11068533 1.8425518 6513507
-1.4277773 0.11074565 1.8288817 6513507
-1.3996366 0.11079515 1.8192861 6513507
-0.16164273 0.10627471 1.8065044 10066329
-0.12537813 0.10671733 1.8262893 10066329
-0.084838256 0.10875467 1.8377542 3421236
-0.025014548 0.11218979 1.8298202 2894892
0.025029363 0.11223964 1.8306332 2894892
0.074733935 0.11228956 1.8312569 2894892
0.12448584 0.11233872 1.8322492 2960685
0.17504054 0.11238945 1.8328921 2894892
0.22526406 0.11243952 1.8337023 2894892
0.27514061 0.11248882 1.8346969 2894892
0.32736987 0.11256096 1.826121 2960685
0.37538397 0.11261435 1.8242981 2894892
0.42520297 0.11266348 1.8253443 2960685
0.47273365 0.11272047 1.8215834 2960685
0.52484107 0.11278816 1.8150498 2894892
0.57472324 0.11283787 1.8158498 2894892
0.62502706 0.11288839 1.8164818 2960685
0.6753726 0.11293828 1.8174654 2894892
0.72538751 0.11298812 1.8182676 2960685
0.77506346 0.11303801 1.8188841 2960685
0.82478577 0.11308717 1.8198615 2960685
0.87493283 0.11313717 1.8206662 2894892
0.92473668 0.11318718 1.8212841 2894892
0.97459352 0.11323651 1.8222644 2960685
1.0248731 0.11328658 1.8230711 2894892
1.0748053 0.11333677 1.8236907 2960685
1.1247972 0.11338619 1.8246738 2894892
1.174819 0.11343644 1.8252951 2894892
1.2248976 0.11348596 1.826279 2894892
1.2750092 0.1135363 1.8269014 2894892
1.324791 0.1135859 1.8276999 2894892
1.3749925 0.11363554 1.8286861 2894892
1.4241242 0.11368372 1.8298546 2894892
1.4574006 0.1136925 1.8418028 2894892
-0.065483712 -0.6184448 1.8594534 2894892
-0.024987418 -0.61846316 1.8830209 2894892
0.0023827988 -0.61860996 1.8989486 2894892
-0.065929286 -0.57471812 1.8593754 2894892
-0.024946123 -0.57502592 1.8832254 2894892
0.0019138897 -0.57773495 1.8988452 2894892
-0.066246778 -0.52501208 1.8593986 2894892
-0.024955431 -0.5250293 1.8834275 2894892
0.0015735435 -0.52549976 1.8988652 2894892
-0.066290975 -0.47502732 1.8595792 2894892
-0.024996558 -0.47497281 1.8836116 2894892
0.0015737168 -0.4752048 1.8990738 2894892
-0.066232815 -0.42499727 1.8598213 2894892
-0.024948336 -0.42497846 1.8838474 2894892
0.0015738901 -0.42489862 1.8992836 2894892
-0.066497341 -0.37471119 1.8598766 2894892
-0.024996463 -0.37502208 1.8840272 2894892
0.0014615757 -0.37726513 1.8994156 2894892
-0.067033067 -0.32497495 1.859771 2894892
-0.024992643 -0.32500586 1.8842375 2894892
0.00078683265 -0.32496142 1.8992407 2894892
-0.067036107 -0.27505797 1.8599775 2894892
-0.024960829 -0.274979 1.8844634 2894892
0.00078691798 -0.27542087 1.8994466 2894892
-0.067065425 -0.22499612 1.8601691 2894892
-0.024953146 -0.22498895 1.8846762 2894892
0.00078700477 -0.22508295 1.8996561 2894892
-0.067022897 -0.17495622 1.8604009 2894892
-0.025011174 -0.17501289 1.8848512 2894892
0.00078709156 -0.17473385 1.8998652 2894892
-0.067906216 -0.12510033 1.8600945 2894892
-0.025129955 -0.12500283 1.8849889 2894892
0.00078714173 -0.14562121 1.8999866 2894892
-0.067666292 -0.075013854 1.8604416 2894892
-0.024930319 -0.074981689 1.8853124 2894892
-0.06792105 -0.02492588 1.8605024 2894892
-0.024933012 -0.024996273 1.8855193 2894892
-0.067919821 0.024897132 1.8607099 2894892
-0.024935717 0.024999924 1.8857257 2894892
-0.068257771 0.075176135 1.8607221 2894892
-0.025273213 0.074802861 1.8857369 2894892
-1.5027817 0.11053324 1.8922189 6513507
-1.4733655 0.11058656 1.881417 6513507
-1.4430547 0.1106471 1.8676763 6513507
-0.068474919 0.10634028 1.8606257 2894892
-0.025518641 0.1069233 1.8833097 2894892
0.024921823 0.11213472 1.8797299 2894892
0.075180374 0.11218516 1.8803743 2894892
0.12548718 0.11223482 1.8814075 2960685
0.17505613 0.11228457 1.8820341 2894892
0.22466888 0.11233351 1.8830624 2894892
0.27471903 0.11238335 1.8838973 2894892
0.32519892 0.11243398 1.8845454 2960685
0.37533996 0.1124839 1.8853754 2894892
0.42512542 0.11253303 1.8864067 2960685
0.47536942 0.11260484 1.8770322 2960685
0.52522743 0.1126864 1.8629024 2960685
0.5752638 0.11273582 1.863916 2894892
0.62495869 0.11278529 1.8647343 2960685
0.67508066 0.11283567 1.8653704 2894892
0.72525316 0.11288526 1.866387 2894892
0.77507991 0.11293487 1.8672071 2960685
0.82494372 0.11298535 1.8676419 2894892
0.87485421 0.11303422 1.8688498 2894892
0.92481261 0.11308398 1.8696723 2894892
0.97481513 0.11313377 1.8704954 2960685
1.0252472 0.11318436 1.8711355 2894892
1.0753397 0.11323429 1.8719538 2894892
1.1250762 0.11328337 1.8729692 2960685
1.1752548 0.11333334 1.8737952 2894892
1.2250836 0.11338339 1.8744187 2894892
1.2749546 0.11343262 1.8754364 2894892
1.3248729 0.11348274 1.8760614 2894892
1.3748287 0.11353206 1.8770807 2894892
1.4252285 0.11358225 1.8779105 2894892
1.4720292 0.11362436 1.8807921 2894892
1.5022992 0.11363244 1.8916115 2894892
0.026989128 -0.61845326 1.9132688 2894892
0.069841377 -0.61845559 1.9382085 2894892
0.026400214 -0.57476157 1.9131093 2894892
0.069708571 -0.57512784 1.93831 2894892
0.026180703 -0.52494907 1.9131876 2894892
0.069072284 -0.5249936 1.9381485 2894892
0.026162591 -0.47498617 1.9133857 2894892
0.069056921 -0.4750286 1.9383478 2894892
0.026135497 -0.42503783 1.9135772 2894892
0.069055878 -0.425019 1.9385543 2894892
0.025981558 -0.37485832 1.9136963 2894892
0.069100566 -0.37499869 1.9387887 2894892
0.025365699 -0.3249782 1.9135442 2894892
0.068602242 -0.32527307 1.9387051 2894892
0.025360476 -0.2750378 1.9137491 2894892
0.068224519 -0.27497008 1.9386944 2894892
0.025422966 -0.22506008 1.913994 2894892
0.068316326 -0.22495243 1.9389563 2894892
0.025356412 -0.17501968 1.9141625 2894892
0.068307661 -0.17499307 1.939158 2894892
0.024597252 -0.12486661 1.9139289 2894892
0.068184189 -0.12501279 1.9392946 2894892
0.024815628 -0.075000197 1.914264 2894892
0.067445315 -0.074821778 1.9390736 2894892
0.02445329 -0.025023891 1.9142606 2894892
0.0675207 -0.02490617 1.9393247 2894892
0.024455925 0.025027551 1.9144695 2894892
0.067528099 0.024909778 1.9395366 2894892
-0.00078716723 0.089737169 1.9000484 2894892
0.024848392 0.075000063 1.9149063 2894892
0.06748762 0.074810386 1.9397202 2894892
-1.5200303 0.11042293 1.9355654 6513507
-1.4896913 0.1104811 1.9229598 6513507
-0.00078719575 0.10627145 1.900117 2894892
0.024649153 0.10629121 1.9146659 2894892
0.069814943 0.10728426 1.9370778 2894892
0.12494013 0.11212356 1.9332492 2960685
0.17507279 0.11217387 1.933897 2894892
0.2252501 0.11222331 1.9349691 2894892
0.27507278 0.11227284 1.9358233 2894892
0.32105476 0.11232972 1.93139 2894892
0.37546948 0.11240117 1.9241958 2894892
0.42508063 0.1124505 1.9250406 2894892
0.47933644 0.11251995 1.9187076 2960685
0.52483302 0.11257747 1.9137338 2894892
0.57503676 0.11262742 1.9145827 2894892
0.62528497 0.11267739 1.9154322 2894892
0.67517251 0.11272752 1.91607 2960685
0.72511137 0.11277681 1.9171227 2894892
0.77508855 0.11282695 1.9177606 2960685
0.8251133 0.11287629 1.9188136 2894892
0.87518048 0.11292653 1.9194528 2894892
0.92529178 0.11297593 1.9205072 2894892
0.97504836 0.11302543 1.921349 2894892
1.025245 0.11307582 1.9219904 2894892
1.0754919 0.11312537 1.9230473 2894892
1.1249743 0.11317504 1.9236698 2960685
1.174502 0.11322384 1.9247216 2894892
1.2248788 0.1132744 1.9253658 2894892
1.2752984 0.11332411 1.9264262 2894892
1.3253626 0.11337392 1.927273 2894892
1.375061 0.11342382 1.9278986 2894892
1.4248081 0.11347285 1.9289546 2894892
1.475004 0.11352277 1.9298031 2894892
1.5195057 0.1135594 1.9341344 2894892
0.095483057 -0.61846644 1.9531305 2894892
0.12488352 -0.6184907 1.9702408 2894892
0.16264406 -0.61850822 1.9922148 2894892
0.095325872 -0.57439333 1.9532229 2894892
0.12487897 -0.57502991 1.9704174 2894892
0.1625971 -0.57493085 1.9923702 2894892
0.094670698 -0.52488947 1.9530468 2894892
0.12490042 -0.5250386 1.9706388 2894892
0.16262592 -0.52496701 1.9925936 2894892
0.094657928 -0.47489133 1.9532468 2894892
0.12490624 -0.47500771 1.9708483 2894892
0.16257507 -0.47509992 1.9927715 2894892
0.094691448 -0.42488256 1.9534742 2894892
0.12498671 -0.42502221 1.9711043 2894892
0.16182856 -0.42500335 1.9925456 2894892
0.094724946 -0.37486178 1.9537016 2894892
0.12493169 -0.37502599 1.9712825 2894892
0.1618239 -0.37498441 1.9927516 2894892
0.094176635 -0.32411104 1.9535936 2894892
0.12497401 -0.32501826 1.9715126 2894892
0.16181917 -0.32495666 1.9929554 2894892
0.093900844 -0.27487946 1.9536378 2894892
0.1249955 -0.2750006 1.9717348 2894892
0.16186126 -0.27497435 1.9931879 2894892
0.093901038 -0.22502722 1.9538456 2894892
0.12493036 -0.22502762 1.9719042 2894892
0.16145651 -0.22534394 1.9931591 2894892
0.093884103 -0.17526697 1.9540428 2894892
0.125029 -0.17498681 1.9721687 2894892
0.16102818 -0.17505328 1.9931194 2894892
0.093808308 -0.12511949 1.9542068 2894892
0.12501465 -0.12490787 1.9723685 2894892
0.16113354 -0.12520202 1.9933873 2894892
0.093100131 -0.075284861 1.9540009 2894892
0.12517162 -0.075041369 1.9726676 2894892
0.16097635 -0.074843198 1.9935052 2894892
0.09311033 -0.0250974 1.9542166 2894892
0.12493566 -0.025086077 1.9727356 2894892
0.16108115 -0.024779458 1.9937731 2894892
0.09312053 0.025101079 1.9544314 2894892
0.12494949 0.025089733 1.972954 2894892
0.16044529 0.024414798 1.9936093 2894892
0.09313076 0.07531058 1.9546454 2894892
0.12523386 0.075038575 1.9733267 2894892
0.16016495 0.074823491 1.9936537 2894892
-1.5589703 0.1103045 1.9722279 6513507
-1.5331792 0.1103301 1.9726858 6513507
0.093137041 0.10608914 1.9547766 2894892
0.12550817 0.1063678 1.9731696 2894892
0.16425152 0.10768088 1.9891968 2894892
0.22509277 0.11213618 1.975708 2894892
0.27514383 0.1121859 1.9765841 2894892
0.32937571 0.11226051 1.9678158 2894892
0.37519971 0.1123146 1.9646118 2894892
0.42462233 0.1123642 1.9652455 2894892
0.47491029 0.11241367 1.966345 2960685
0.5252409 0.11246418 1.9669945 2894892
0.5747968 0.11251296 1.9680811 2894892
0.62480932 0.11256266 1.9689505 2894892
0.67526972 0.11261328 1.9696026 2960685
0.7249617 0.11266229 1.9706936 2894892
0.77469093 0.1127122 1.971332 2894892
0.82488233 0.11276206 1.9722043 2960685
0.87510985 0.11281102 1.9735292 2894892
0.92538255 0.11286194 1.9739513 2894892
0.97529513 0.11291107 1.9750448 2894892
1.0252427 0.11296117 1.9756869 2894892
1.0752411 0.11301039 1.9767823 2894892
1.1252788 0.11306059 1.9774255 2894892
1.1753632 0.11310987 1.9785227 2960685
1.2250787 0.1131593 1.9793869 2894892
1.2752451 0.1132096 1.980032 2894892
1.3254651 0.11325906 1.9811317 2894892
1.3748904 0.11330866 1.9817567 2894892
1.4247826 0.11335822 1.9826312 2894892
1.4751247 0.11340775 1.9837334 2894892
1.5251027 0.11345744 1.9846025 2894892
1.5668399 0.11348791 1.9904798 2894892
0.18790056 -0.61853284 2.0069139 2894892
0.22526003 -0.61847591 2.0286558 2894892
0.25603959 -0.61852306 2.0465686 2894892
0.18792574 -0.57505548 2.0071099 2894892
0.22524518 -0.57497746 2.0288289 2894892
0.25610048 -0.57505399 2.0467854 2894892
0.18793595 -0.52504385 2.007323 2894892
0.22529592 -0.52496314 2.0290668 2894892
0.25609747 -0.52508193 2.0469918 2894892
0.18792339 -0.47496578 2.007524 2894892
0.22529756 -0.47496951 2.0292754 2894892
0.25614101 -0.47495791 2.047225 2894892
0.18709551 -0.42499369 2.0072496 2894892
0.22536547 -0.4249928 2.0295208 2894892
0.25522852 -0.42502493 2.0469007 2894892
0.18714312 -0.37502894 2.0074844 2894892
0.22531886 -0.37500709 2.0297019 2894892
0.25530604 -0.37502968 2.0471539 2894892
0.18715955 -0.32510817 2.0077026 2894892
0.22543558 -0.32497901 2.0299795 2894892
0.25528431 -0.32503134 2.0473492 2894892
0.18716468 -0.27506599 2.0079136 2894892
0.22534752 -0.27497113 2.0301352 2894892
0.25536197 -0.27501261 2.0476022 2894892
0.18680777 -0.22458293 2.0079167 2894892
0.22550327 -0.2249815 2.0304329 2894892
0.25515416 -0.22593129 2.0476856 2894892
0.18630427 -0.17489146 2.0078292 2894892
0.22538324 -0.17504162 2.0305703 2894892
0.25447813 -0.17474045 2.0475049 2894892
0.18634103 -0.12484016 2.0080593 2894892
0.22560769 -0.12506029 2.0309098 2894892
0.25450602 -0.12470694 2.0477293 2894892
0.18638884 -0.074880689 2.0082946 2894892
0.22535783 -0.075250864 2.0309711 2894892
0.25453386 -0.074662462 2.0479541 2894892
0.18640916 -0.024962643 2.0085132 2894892
0.22538671 -0.025408329 2.0311978 2894892
0.25430235 -0.023544295 2.0480306 2894892
0.18574777 0.025226573 2.008338 2894892
0.22471298 0.025243225 2.0310137 2894892
0.25328347 0.023239959 2.0476329 2894892
0.18557265 0.074887037 2.0084412 2894892
0.22453825 0.075239435 2.0311205 2894892
0.25278819 0.074649006 2.0475578 2894892
-1.6074334 0.11013274 2.0292838 6513507
-1.5756471 0.11019629 2.0148714 6513507
-1.5444405 0.11025798 2.0010407 6513507
0.18551764 0.10647304 2.0078697 2894892
0.22551389 0.10712889 2.0278671 2894892
0.26808569 0.11016891 2.0283382 2894892
0.32555583 0.11214473 2.0202029 2894892
0.37552094 0.11219488 2.0208502 2894892
0.42510721 0.11224306 2.0222292 2894892
0.47472847 0.11229335 2.0226235 2960685
0.52483004 0.11234257 2.023766 2894892
0.57496172 0.11239284 2.0244164 2894892
0.62472731 0.11244226 2.0253065 2894892
0.67495137 0.11249156 2.0264511 2894892
0.72522688 0.1125421 2.0271049 2894892
0.77512032 0.1125906 2.0284915 2894892
0.82505006 0.11264122 2.0288901 2960685
0.87503541 0.11269083 2.0297835 2894892
0.9250654 0.11274052 2.0306783 2894892
0.97512591 0.11278915 2.0320683 2894892
1.0252408 0.11283995 2.0324695 2894892
1.0749757 0.11288881 2.0336063 2894892
1.1247498 0.11293873 2.0342491 2894892
1.1710477 0.11299553 2.0300055 2894892
1.225338 0.1130693 2.021662 2960685
1.2753129 0.11311891 2.0225494 2894892
1.3253316 0.11316857 2.0234373 2894892
1.3745456 0.11321748 2.0243113 2894892
1.4246519 0.11326721 2.0252006 2894892
1.4748017 0.11331701 2.0260911 2894892
1.5249959 0.11336686 2.0269821 2894892
1.5752339 0.11341674 2.0278742 2894892
1.6067605 0.11344805 2.0284338 2894892
0.2809014 -0.61848485 2.0610378 2894892
0.32410046 -0.61851329 2.0861783 2894892
0.28096995 -0.57503337 2.0612574 2894892
0.32414365 -0.57493877 2.0863848 2894892
0.28096187 -0.5249927 2.0614605 2894892
0.32383212 -0.52517861 2.086412 2894892
0.28103149 -0.47498071 2.0617104 2894892
0.32323897 -0.47501662 2.0862725 2894892
0.28005576 -0.42498422 2.0613499 2894892
0.32332218 -0.42504036 2.0865257 2894892
0.2801739 -0.37498865 2.0616264 2894892
0.32330605 -0.37501714 2.0867281 2894892
0.28014418 -0.32502007 2.0618162 2894892
0.32332867 -0.32501918 2.0869486 2894892
0.28021052 -0.27508023 2.062062 2894892
0.32292956 -0.27526304 2.0869222 2894892
0.28001994 -0.22488834 2.062161 2894892
0.32252187 -0.22493714 2.0868948 2894892
0.2793445 -0.17501023 2.0619745 2894892
0.32252875 -0.17496142 2.0871074 2894892
0.27947092 -0.12499303 2.0622571 2894892
0.32248315 -0.12512678 2.0872872 2894892
0.27926356 -0.074784458 2.0623448 2894892
0.32260162 -0.075205185 2.0875657 2894892
0.27947453 -0.024781249 2.062676 2894892
0.32208636 -0.025344588 2.0874701 2894892
0.27883151 0.024848344 2.0625081 2894892
0.32151398 0.025283853 2.0873461 2894892
0.27750024 0.074770696 2.0619402 2894892
0.32080758 0.075190991 2.0871449 2894892
-1.6562252 0.10995328 2.0897872 6513507
-1.6244068 0.11001594 2.075798 6513507
-1.5923645 0.11008309 2.0598166 6513507
0.27848375 0.10639149 2.0623043 2894892
0.32224411 0.10733818 2.084079 2894892
0.37542796 0.11206711 2.0806475 2894892
0.42517841 0.11211586 2.0818336 2894892
0.47541323 0.1121657 2.0827589 2960685
0.5252558 0.11221568 2.0834062 2960685
0.570894 0.11227184 2.0791359 2894892
0.62520087 0.11234714 2.0700858 2894892
0.67524058 0.11239678 2.0710006 2894892
0.72532469 0.1124465 2.0719168 2894892
0.77545339 0.11249629 2.0728338 2894892
0.82562584 0.11254605 2.0737505 2894892
0.87497669 0.11259501 2.0746529 2960685
0.92437053 0.11264398 2.0755553 2894892
0.97467482 0.11269388 2.0764747 2894892
1.0250241 0.11274381 2.077395 2894892
1.0754175 0.11279382 2.078316 2894892
1.1249858 0.11284296 2.079222 2894892
1.178687 0.11291815 2.0699363 2894892
1.2247487 0.11297407 2.0659814 2894892
1.2745119 0.11302401 2.0666201 2894892
1.3247632 0.11307386 2.0675404 2894892
1.3754834 0.11312361 2.0687165 2894892
1.4253899 0.11317372 2.0693572 2894892
1.475328 0.11322269 2.0705278 2894892
1.5253241 0.11327285 2.0711699 2894892
1.5749139 0.11332091 2.0725999 2894892
1.6219244 0.11336425 2.0750022 2894892
1.6555368 0.1133692 2.088918 2894892
0.34898102 -0.61876667 2.1006563 2894892
0.36253428 -0.61846703 2.1085453 2894892
0.34901419 -0.57530731 2.1008563 2894892
0.36253235 -0.57497948 2.1087253 2894892
0.34852642 -0.52050602 2.1008 2894892
0.36259842 -0.52503806 2.1089704 2894892
0.34814477 -0.47475308 2.1007683 2894892
0.36260676 -0.47501969 2.109184 2894892
-1.6723303 -0.42015409 2.138011 6513507
0.34814873 -0.42520207 2.1009762 2894892
0.362609 -0.42510363 2.1093929 2894892
-1.6724089 -0.37507761 2.1380887 6513507
0.34820375 -0.3751888 2.1012168 2894892
0.3617374 -0.3749947 2.1090934 2894892
-1.6724436 -0.3250725 2.1382077 6513507
0.34824219 -0.32473519 2.1014483 2894892
0.36179423 -0.32507873 2.109333 2894892
-1.6724962 -0.27506205 2.1383092 6513507
0.34770408 -0.2726621 2.1013517 2894892
0.36174342 -0.27500728 2.1095126 2894892
-1.6726371 -0.22496592 2.1383686 6513507
0.34735489 -0.22547512 2.1013453 2894892
0.36196366 -0.22492333 2.109849 2894892
-1.6725838 -0.17494686 2.1385334 6513507
0.34739327 -0.17500184 2.1015773 2894892
0.36182165 -0.17512456 2.1099734 2894892
-1.6727027 -0.12495061 2.138602 6513507
0.34743166 -0.12451745 2.101809 2894892
0.36195263 -0.12501797 2.1102583 2894892
-1.6729485 -0.074761935 2.1385999 6513507
0.34746936 -0.074892603 2.1020381 2894892
0.36199203 -0.075193629 2.1104884 2894892
-1.6728545 -0.024809863 2.1387868 6513507
0.34684813 -0.023611793 2.1018894 2894892
0.36203149 -0.02535845 2.1107187 2894892
-1.6729319 0.024811322 2.1388803 6513507
0.34658274 0.025253888 2.1019378 2894892
0.36207178 0.025362199 2.1109538 2894892
-1.6735306 0.074584275 2.1386669 6513507
0.34662029 0.074898019 2.1021659 2894892
0.36211118 0.075219288 2.1111827 2894892
-1.6723505 0.1054391 2.1371777 6513507
-1.6405901 0.1099002 2.1221988 6513507
0.34664336 0.10538622 2.1023061 2894892
0.36582422 0.10671543 2.1137459 2894892
0.42513019 0.11201517 2.1289759 2894892
0.47473097 0.1120643 2.1299098 2894892
0.52437514 0.11211348 2.1308446 2894892
0.57916832 0.11219091 2.1210406 2894892
0.62525845 0.11224736 2.1168463 2894892
0.67509753 0.11229736 2.1174986 2894892
0.72498906 0.11234624 2.1187103 2894892
0.77491874 0.1123964 2.1193659 2894892
0.82489592 0.11244533 2.1205792 2894892
0.87491548 0.1124955 2.1212347 2894892
0.92497844 0.11254451 2.1224499 2894892
0.9750886 0.11259476 2.1231067 2894892
1.0252376 0.11264388 2.1243236 2894892
1.0749924 0.11269317 2.1252534 2894892
1.1252309 0.11274354 2.1259122 2894892
1.1755171 0.11279278 2.1271317 2894892
1.2249554 0.11284241 2.1277654 2894892
1.2744352 0.11289082 2.1289804 2894892
1.3248551 0.11294138 2.1296422 2894892
1.3753128 0.11299078 2.1308658 2894892
1.4253744 0.11304039 2.1318014 2894892
1.4750289 0.1130902 2.1324384 2894892
1.5226959 0.11314019 2.1320491 2894892
1.574584 0.11322246 2.1185591 2894892
1.6244434 0.11327189 2.1194835 2894892
1.6681057 0.11331519 2.1202934 2894892
-1.6540886 0.084619582 2.1500301 6513507
