# .PCD v0.7 - Point Cloud Data file format
VERSION 0.7
FIELDS x y z rgb
SIZE 4 4 4 4
TYPE F F F U
COUNT 1 1 1 1
WIDTH 1174
HEIGHT 1
VIEWPOINT 0 0 0 1 0 0 0
POINTS 1174
DATA ascii
-0.92538851 -0.72485685 3.7173183 2039583
-0.88666856 -0.72519845 3.7222679 2039583
-1.0559961 -0.67397308 3.7484405 2039583
-1.0247049 -0.67541659 3.7410409 2039583
-0.97482336 -0.67485452 3.7292604 2039583
-0.92548221 -0.67480552 3.7176046 2039583
-0.88686436 -0.67489952 3.7221649 2039583
-1.0559132 -0.62502062 3.7486804 2039583
-1.0246599 -0.62525064 3.7412963 2039583
-0.97468209 -0.62464386 3.7294934 2039583
-0.92582279 -0.62525314 3.7179482 2039583
-0.88671082 -0.62460005 3.7227349 2039583
-1.0544907 -0.57461143 3.7486112 2039583
-1.0245879 -0.57497567 3.7415454 2039583
-0.975052 -0.57482505 3.7298441 2039583
-0.92607695 -0.57528251 3.718272 2039583
-0.8867746 -0.57499218 3.7227824 2039583
-1.0545697 -0.52495474 3.7488916 2039583
-1.0244486 -0.52459317 3.7417793 2039583
-0.97512478 -0.52541703 3.7301233 2039583
-0.9255898 -0.52471048 3.7184246 2039583
-0.88682097 -0.52537668 3.7229035 2039583
-1.0541699 -0.47749397 3.7490489 2039583
-1.0246743 -0.47450259 3.7420967 2039583
-0.9755348 -0.47547522 3.730484 2039583
-0.9258433 -0.47462332 3.7187498 2039583
-0.88701051 -0.47506505 3.7228434 2039583
-1.0530641 -0.42557421 3.7490623 2039583
-1.0248475 -0.42481804 3.7424002 2039583
-0.97523278 -0.42493179 3.7306795 2039583
-0.92600769 -0.42524874 3.7190487 2039583
-0.88688004 -0.42474517 3.7232966 2039583
-1.0531433 -0.37590039 3.7493441 2039583
-1.0249245 -0.3752324 3.7426822 2039583
-0.97505033 -0.37448192 3.7309029 2039583
-0.92641175 -0.37544578 3.7194097 2039583
-0.88692623 -0.3751176 3.723417 2039583
-1.0525647 -0.33045894 3.7494476 2039583
-1.0250013 -0.32563931 3.7429624 2039583
-0.97542077 -0.32462069 3.7312555 2039583
-0.92541426 -0.32433331 3.7194443 2039583
-0.88674784 -0.32582086 3.7237103 2039583
-1.0516402 -0.27494839 3.7495232 2039583
-1.025175 -0.27593079 3.7432663 2039583
-0.97549367 -0.27517527 3.7315342 2039583
-0.92458338 -0.27428856 3.7195117 2039583
-0.88582003 -0.27513644 3.7245827 2039583
-1.0517216 -0.22370411 3.7498138 2039583
-1.0254242 -0.22538345 3.7435925 2039583
-0.97556657 -0.22572239 3.7318137 2039583
-0.92465198 -0.22499509 3.7197895 2039583
-0.8857187 -0.22483945 3.7250268 2039583
-1.0517684 -0.19419652 3.7499809 2039583
-1.0248718 -0.17435232 3.7437322 2039583
-0.97601467 -0.17552084 3.7321849 2039583
-0.92472118 -0.17569418 3.7200668 2039583
-0.88597095 -0.17565814 3.7245162 2039583
-1.0253136 -0.12409063 3.7441025 2039583
-0.97534406 -0.12454667 3.7322955 2039583
-0.92479199 -0.12484476 3.7203526 2039583
-0.88674563 -0.12507917 3.7224538 2039583
-1.0252934 -0.074556902 3.7443595 2039583
-0.97579038 -0.074226901 3.7326684 2039583
-0.92486364 -0.07398767 3.7206395 2039583
-0.88685101 -0.074557506 3.7224548 2039583
-1.0238075 -0.024819011 3.7442729 2039583
-0.97586334 -0.024743937 3.7329471 2039583
-0.92493224 -0.024664193 3.7209167 2039583
-0.8868162 -0.024677031 3.7228365 2039583
-1.0238844 0.024821494 3.744554 2039583
-0.97593617 0.024746401 3.7332265 2039583
-0.9250012 0.024666645 3.7211933 2039583
-0.88685727 0.024678554 3.7230093 2039583
-2.9539959 0.097079694 3.7195072 10197915
-2.924437 0.097070329 3.7191491 10197915
-2.8746655 0.097054593 3.7185459 10197915
-2.8249097 0.097038865 3.7179434 10197915
-2.7751703 0.097023129 3.7173407 10197915
-2.7254467 0.097007409 3.7167385 10197915
-2.67574 0.09699171 3.7161365 10197915
-2.6260493 0.096976005 3.7155347 10197915
-2.5763714 0.096960187 3.7149291 10197915
-2.5251586 0.0969439 3.7143047 10197915
-2.4739649 0.096927717 3.7136846 10197915
-2.4243395 0.096912034 3.7130837 10197915
-2.3747301 0.096896343 3.7124827 10197915
-2.3251371 0.096880682 3.7118828 10197915
-2.2755594 0.096865013 3.7112818 10197915
-2.2259984 0.096849352 3.7106822 10197915
-2.1749053 0.096833207 3.7100637 10197915
-2.1238289 0.096817069 3.709445 10197915
-2.0743167 0.096801408 3.7088456 10197915
-2.0248203 0.096785761 3.708246 10197915
-1.9753402 0.096770138 3.7076471 10197915
-1.9258759 0.096754491 3.7070479 10197915
-1.8748832 0.096738413 3.7064316 10197915
-1.8239076 0.096722342 3.705816 10197915
-1.7744921 0.096706711 3.7052174 10197915
-1.7250926 0.096691094 3.7046187 10197915
-1.6757094 0.0966755 3.7040215 10197915
-1.6247991 0.096659392 3.7034047 10197915
-1.5739061 0.096643306 3.7027881 10197915
-1.5245713 0.096627705 3.7021902 10197915
-1.4752524 0.096612111 3.7015929 10197915
-1.4259493 0.096596532 3.7009957 10197915
-1.3751229 0.096580468 3.7003803 10197915
-1.3458657 0.096571237 3.7000265 10197915
-1.023645 0.072646126 3.7447498 2236962
-0.97600698 0.072697185 3.7334967 2236962
-0.9250679 0.072462887 3.7214618 2171169
-0.88689715 0.072496139 3.723176 2171169
-1.273766 -1.6738678 3.7945926 2039583
-1.2244538 -1.6713724 3.7829556 2039583
-1.1755055 -1.6687598 3.7714064 2039583
-1.1267569 -1.666062 3.7599034 2039583
-1.0927129 -1.6647141 3.7518704 2039583
-0.87037504 -1.6700224 3.7758851 2039583
-1.2725043 -1.6253759 3.7945495 2039583
-1.2240716 -1.625181 3.7831101 2039583
-1.1750078 -1.6249937 3.7715223 2039583
-1.1262609 -1.6249135 3.7600057 2039583
-1.09286 -1.6256331 3.7521117 2039583
-0.87088716 -1.6253693 3.7738783 2039583
-1.2717571 -1.5748601 3.7946413 2039583
-1.2241646 -1.5751472 3.7833974 2039583
-1.1750973 -1.5748914 3.7718053 2039583
-1.1263319 -1.5749768 3.7602878 2039583
-1.0918986 -1.5743018 3.7521558 2039583
-0.87088025 -1.5751559 3.7740879 2039583
-1.2719189 -1.525033 3.7949431 2039583
-1.2242571 -1.5251052 3.7836838 2039583
-1.1751035 -1.5248913 3.7720766 2039583
-1.1264031 -1.5250332 3.7605681 2039583
-1.0912755 -1.5249842 3.7522707 2039583
-0.87090123 -1.5251588 3.774178 2039583
-1.270647 -1.4754895 3.7949052 2039583
-1.2243497 -1.4750557 3.7839701 2039583
-1.1745094 -1.4744958 3.7721992 2039583
-1.1257702 -1.4754703 3.7606819 2039583
-1.0913073 -1.4745783 3.7525444 2039583
-0.87093651 -1.4749376 3.7742109 2039583
-1.2704645 -1.4251316 3.7951283 2039583
-1.224443 -1.4249995 3.7842581 2039583
-1.1735948 -1.4249647 3.7722476 2039583
-1.1249093 -1.4251519 3.7607434 2039583
-1.0900798 -1.4239372 3.7525227 2039583
-0.87094355 -1.4247112 3.7743623 2039583
-1.2704985 -1.3750534 3.7954023 2039583
-1.2245361 -1.3749346 3.7845442 2039583
-1.1737673 -1.3749537 3.7725518 2039583
-1.1249568 -1.3752874 3.7610192 2039583
-1.0897671 -1.3745906 3.7527099 2039583
-0.87096453 -1.3747078 3.7744517 2039583
-1.2690415 -1.3250488 3.7953222 2039583
-1.2246276 -1.3249669 3.784831 2039583
-1.1738151 -1.3248342 3.7728264 2039583
-1.1250268 -1.3253038 3.7612994 2039583
-1.0899374 -1.3247143 3.7530148 2039583
-0.87098551 -1.3247002 3.7745438 2039583
-1.2690016 -1.2749785 3.7955775 2039583
-1.2247212 -1.2749914 3.7851171 2039583
-1.1739453 -1.2747036 3.7731233 2039583
-1.1236295 -1.275146 3.7612379 2039583
-1.0867996 -1.2750037 3.7525358 2039583
-0.8710494 -1.2749151 3.774452 2039583
-1.26888 -1.225296 3.7958117 2039583
-1.2248141 -1.2249049 3.785404 2039583
-1.1740341 -1.2247758 3.7734096 2039583
-1.1234224 -1.2250612 3.7614524 2039583
-1.0867634 -1.225132 3.7527916 2039583
-0.87102735 -1.2251285 3.774725 2039583
-1.2674332 -1.1751519 3.7957354 2039583
-1.2248924 -1.1749136 3.785687 2039583
-1.1741227 -1.1748391 3.7736948 2039583
-1.1236466 -1.1748691 3.7617719 2039583
-1.0863866 -1.1747934 3.7529688 2039583
-0.87104833 -1.1751146 3.7748151 2039583
-1.2675073 -1.1252313 3.7960167 2039583
-1.2249991 -1.124916 3.7859771 2039583
-1.1742121 -1.1248955 3.7739809 2039583
-1.1237454 -1.1248753 3.7620592 2039583
-1.0853502 -1.1254824 3.7529848 2039583
-0.87106943 -1.125098 3.7749074 2039583
-1.2669744 -1.0759839 3.7961521 2039583
-1.2250633 -1.0749106 3.7862573 2039583
-1.1743008 -1.074944 3.7742651 2039583
-1.1239001 -1.0749787 3.7623601 2039583
-1.0854062 -1.0754216 3.7532635 2039583
-0.87116086 -1.0750802 3.7746999 2039583
-1.2660445 -1.0254127 3.7962003 2039583
-1.225142 -1.0250018 3.7865391 2039583
-1.1743896 -1.0249856 3.77455 2039583
-1.1239712 -1.0249695 3.7626412 2039583
-1.0847067 -1.0244561 3.7533677 2039583
-0.87111157 -1.025062 3.7750893 2039583
-1.2661407 -0.97516036 3.7964885 2039583
-1.2252202 -0.9750855 3.7868221 2039583
-1.1744783 -0.97501928 3.7748344 2039583
-1.1240422 -0.97495311 3.762923 2039583
-1.0838385 -0.97498339 3.7534242 2039583
-0.87113243 -0.97503823 3.7751808 2039583
-1.2654315 -0.92559338 3.7965829 2039583
-1.2253698 -0.92505771 3.787122 2039583
-1.1745673 -0.92504537 3.7751207 2039583
-1.1240855 -0.92503339 3.7631967 2039583
-1.0838524 -0.92477834 3.7536943 2039583
-0.87115347 -0.92501253 3.7752717 2039583
-1.2646247 -0.8745386 3.7966633 2039583
-1.225305 -0.87512767 3.7873716 2039583
-1.1746559 -0.87506396 3.7754073 2039583
-1.1241982 -0.87510604 3.7634854 2039583
-1.082687 -0.87398016 3.7536874 2039583
-0.87117434 -0.87498397 3.7753618 2039583
-1.2647208 -0.82426834 3.796952 2039583
-1.225455 -0.82529342 3.7876709 2039583
-1.1747445 -0.82507485 3.7756932 2039583
-1.1242695 -0.82506692 3.7637691 2039583
-1.0823243 -0.82440954 3.753865 2039583
-0.8711955 -0.82495302 3.7754533 2039583
-1.2637848 -0.77488917 3.7969916 2039583
-1.2256476 -0.7752412 3.7879815 2039583
-1.1747767 -0.77518344 3.7759652 2039583
-1.1243407 -0.77502072 3.7640493 2039583
-1.0824993 -0.77454263 3.7541687 2039583
-0.87121677 -0.77491981 3.7755449 2039583
-1.2632966 -0.72451705 3.7971432 2039583
-1.2257403 -0.72507858 3.7882688 2039583
-1.1749222 -0.72528291 3.7762625 2039583
-1.1244117 -0.72496706 3.7643313 2039583
-1.0810087 -0.72462291 3.754081 2039583
-0.87128031 -0.72511035 3.7754533 2039583
-1.2632672 -0.67513794 3.7973983 2039583
-1.2258337 -0.67490762 3.7885563 2039583
-1.175011 -0.67527103 3.7765486 2039583
-1.124483 -0.67490572 3.7646165 2039583
-1.0809945 -0.67503399 3.7543402 2039583
-0.87125856 -0.675295 3.7757266 2039583
-1.2617193 -0.62608963 3.7972918 2039583
-1.225927 -0.62472981 3.7888451 2039583
-1.1750289 -0.62535793 3.7768176 2039583
-1.1244988 -0.62473506 3.7648821 2039583
-1.0808513 -0.62505567 3.7545714 2039583
-0.87130749 -0.62503213 3.7756984 2039583
-1.2617799 -0.57582343 3.7975714 2039583
-1.2260197 -0.57454342 3.7891304 2039583
-1.1751037 -0.57554036 3.7770984 2039583
-1.1246117 -0.5745545 3.7651756 2039583
-1.0794891 -0.57551581 3.7545116 2039583
-0.87130082 -0.57476652 3.7759092 2039583
-1.2617849 -0.52576369 3.7978389 2039583
-1.2261124 -0.52434999 3.7894182 2039583
-1.1751777 -0.52571529 3.7773798 2039583
-1.1245865 -0.52437019 3.7654343 2039583
-1.0795708 -0.52578074 3.7547941 2039583
-0.87133563 -0.5249446 3.7759399 2039583
-1.25893 -0.4742955 3.7974362 2039583
-1.2250503 -0.4745506 3.7894313 2039583
-1.1753653 -0.47577518 3.7776878 2039583
-1.1248525 -0.47427335 3.7657626 2039583
-1.0791703 -0.47529399 3.754966 2039583
-0.8713426 -0.47512093 3.7760913 2039583
-1.258653 -0.42479444 3.7976329 2039583
-1.2247496 -0.42433676 3.7896259 2039583
-1.1754544 -0.42572585 3.7779729 2039583
-1.1249374 -0.42438182 3.7660491 2039583
-1.0781783 -0.42552099 3.7549953 2039583
-0.87136376 -0.42507079 3.7761824 2039583
-1.258278 -0.3754169 3.797806 2039583
-1.2247809 -0.37457597 3.7898972 2039583
-1.1755437 -0.37566882 3.7782602 2039583
-1.1250216 -0.37448269 3.7663348 2039583
-1.0781963 -0.37517327 3.7552667 2039583
-0.87142652 -0.37479797 3.7760959 2039583
-1.2571371 -0.32411724 3.7978082 2039583
-1.2248042 -0.32492045 3.7901649 2039583
-1.1756327 -0.32560426 3.778548 2039583
-1.1251069 -0.32457605 3.7666156 2039583
-1.0771304 -0.32421193 3.755285 2039583
-0.87143445 -0.32474044 3.7762446 2039583
-1.2572325 -0.2737897 3.7980969 2039583
-1.2246003 -0.27560607 3.7903779 2039583
-1.1757216 -0.27553207 3.7788322 2039583
-1.1251919 -0.27466208 3.7668991 2039583
-1.0764041 -0.27417105 3.7553782 2039583
-0.8714267 -0.27490962 3.7764554 2039583
-1.2566197 -0.22631384 3.7982025 2039583
-1.2248647 -0.22603762 3.7907028 2039583
-1.1758103 -0.22545239 3.7791188 2039583
-1.1252762 -0.22474027 3.7671835 2039583
-1.0767273 -0.22405647 3.7557201 2039583
-0.87149078 -0.22507568 3.7763655 2039583
-1.2557102 -0.17623964 3.7982531 2039583
-1.2250568 -0.17590368 3.7910144 2039583
-1.1759 -0.17536506 3.7794039 2039583
-1.1253613 -0.17481121 3.7674696 2039583
-1.0754374 -0.17400849 3.7556791 2039583
-0.87168616 -0.17455134 3.7757187 2039583
-1.2558059 -0.1258949 3.7985423 2039583
-1.2251498 -0.12565495 3.7913001 2039583
-1.1759886 -0.12527017 3.779691 2039583
-1.1254463 -0.12487455 3.7677538 2039583
-1.0752221 -0.12448129 3.7558906 2039583
-0.87227708 -0.12506172 3.7733958 2039583
-1.2549498 -0.077287152 3.7985973 2039583
-1.2252426 -0.075398587 3.79159 2039583
-1.1760771 -0.075167648 3.7799766 2039583
-1.1255314 -0.074930228 3.7680383 2039583
-1.0753033 -0.074694268 3.7561743 2039583
-1.048668 -0.051268216 3.7500052 2039583
-0.87229794 -0.075038806 3.7734864 2039583
-1.2542897 -0.025179893 3.7987177 2039583
-1.2253358 -0.025134552 3.791878 2039583
-1.1761665 -0.025057564 3.7802637 2039583
-1.1256162 -0.024978416 3.768322 2039583
-1.0753841 -0.02489976 3.7564569 2039583
-1.0487099 -0.024858 3.750155 2039583
-0.8723188 -0.025013465 3.7735775 2039583
-1.2543851 0.025182446 3.7990062 2039583
-1.2254289 0.0251371 3.7921662 2039583
-1.1762561 0.025060097 3.7805481 2039583
-1.1257018 0.024980929 3.7686069 2039583
-1.0754651 0.024902258 3.7567377 2039583
-1.0487887 0.024860485 3.7504363 2039583
-0.8723405 0.02501427 3.7736685 2039583
-1.2590895 0.079056092 3.7991676 3947580
-1.2240336 0.074021101 3.7920942 2434341
-1.1748892 0.073419712 3.7804828 2434341
-1.1257833 0.073386215 3.7688816 2302755
-1.0755435 0.07315512 3.7570109 2302755
-1.0483155 0.076137282 3.750596 2434341
-0.87173164 0.074376941 3.7745669 2236962
-0.82365638 0.095883586 3.7941287 3092271
-0.77480441 0.095868222 3.7935209 8487297
-0.72596902 0.095852956 3.7929168 10197915
-0.675574 0.095837146 3.7922909 10197915
-0.62519544 0.095821314 3.7916641 10197915
-0.57483357 0.095805474 3.7910378 10197915
-0.52448821 0.095789641 3.790411 10197915
-0.4741596 0.095773816 3.7897847 10197915
-0.42384756 0.095758006 3.7891593 10197915
-0.37512353 0.09574268 3.7885525 10197915
-0.33427003 0.095729828 3.788044 10197915
-1.5035801 -1.7108599 3.8486843 2039583
-1.4749899 -1.7094709 3.8419373 2039583
-1.4262832 -1.7067455 3.8304474 2039583
-1.3770428 -1.7044022 3.8188269 2039583
-1.33277 -1.7017345 3.8083825 2039583
-0.85636032 -1.70798 3.8350773 2039583
-1.5036632 -1.67428 3.8488986 2039583
-1.4737687 -1.6750833 3.8418319 2039583
-1.4250456 -1.6746931 3.8303239 2039583
-1.3747251 -1.6750525 3.8184354 2039583
-1.324708 -1.6750386 3.8066194 2039583
-1.2989776 -1.6752869 3.80054 2039583
-0.85881138 -1.6748681 3.8248212 2039583
-1.5030107 -1.6273026 3.8489923 2039583
-1.4740005 -1.6250674 3.8421504 2039583
-1.4251451 -1.624832 3.8306105 2039583
-1.3748006 -1.6248695 3.8187187 2039583
-1.3246372 -1.6251488 3.8068671 2039583
-1.2978514 -1.6209445 3.8005619 2039583
-0.85890961 -1.6245931 3.8245866 2039583
-1.5021317 -1.5754836 3.8490593 2039583
-1.4741281 -1.5749291 3.842447 2039583
-1.4251258 -1.5750778 3.8308711 2039583
-1.3749477 -1.5748887 3.8190179 2039583
-1.3249623 -1.5751364 3.8072088 2039583
-1.2974629 -1.5745906 3.8007152 2039583
-0.85887176 -1.5749222 3.8249242 2039583
-1.5022472 -1.5245731 3.8493562 2039583
-1.4741434 -1.5250168 3.8427169 2039583
-1.4253595 -1.5250852 3.8311908 2039583
-1.3750516 -1.5249033 3.8193083 2039583
-1.3250474 -1.5250038 3.8074944 2039583
-1.2975621 -1.5243198 3.8010049 2039583
-0.85885394 -1.5250423 3.8251786 2039583
-1.5013342 -1.4788402 3.8493829 2039583
-1.4743036 -1.4750974 3.8430157 2039583
-1.4254061 -1.4748585 3.8314672 2039583
-1.3750974 -1.4750164 3.8195813 2039583
-1.3251247 -1.4749764 3.8077767 2039583
-1.2961794 -1.472544 3.8009517 2039583
-0.85890746 -1.4749599 3.825135 2039583
-1.5007151 -1.4257588 3.8495171 2039583
-1.4744471 -1.4249381 3.8433163 2039583
-1.4254813 -1.4248494 3.8317487 2039583
-1.3752015 -1.4252264 3.8198705 2039583
-1.3252017 -1.4249414 3.8080599 2039583
-1.2961191 -1.4241117 3.8011935 2039583
-0.85896629 -1.4250798 3.8250642 2039583
-1.5008309 -1.3748307 3.8498139 2039583
-1.4744161 -1.3747699 3.843574 2039583
-1.425621 -1.3750663 3.8320453 2039583
-1.3753501 -1.3751099 3.8201709 2039583
-1.3252875 -1.3747867 3.8083463 2039583
-1.2961428 -1.3748865 3.8014596 2039583
-0.85889679 -1.3751954 3.8255379 2039583
-1.500896 -1.3461809 3.8499808 2039583
-1.4746459 -1.324941 3.8438926 2039583
-1.425878 -1.3251581 3.8323708 2039583
-1.3754252 -1.3248819 3.8204536 2039583
-1.3254029 -1.3248479 3.8086371 2039583
-1.2945275 -1.3252617 3.8013415 2039583
-0.85899484 -1.325303 3.8253028 2039583
-1.4748765 -1.2751032 3.8442118 2039583
-1.4258692 -1.2750136 3.8326344 2039583
-1.3754711 -1.2747511 3.8207297 2039583
-1.3254244 -1.2751319 3.8089042 2039583
-1.2946246 -1.2757241 3.801626 2039583
-0.85900861 -1.2752154 3.8254225 2039583
-1.4748455 -1.2249136 3.8444681 2039583
-1.4258586 -1.2248623 3.8328969 2039583
-1.37553 -1.2248232 3.8210082 2039583
-1.3256954 -1.225179 3.8092337 2039583
-1.2944654 -1.2247319 3.8018584 2039583
-0.8589974 -1.2251239 3.8256519 2039583
-1.4729185 -1.174898 3.8442786 2039583
-1.4251271 -1.1745387 3.8329916 2039583
-1.3751303 -1.1754991 3.8211744 2039583
-1.3255893 -1.174913 3.8094742 2039583
-1.2929332 -1.1755323 3.8017573 2039583
-0.85906321 -1.175027 3.8255541 2039583
-1.4736482 -1.1249982 3.8447144 2039583
-1.4246293 -1.1250485 3.8331342 2039583
-1.3741858 -1.1251161 3.821219 2039583
-1.3241236 -1.1250331 3.8093925 2039583
-1.2914954 -1.1245451 3.8016882 2039583
-0.85939819 -1.1257218 3.8243132 2039583
-1.4731712 -1.0754001 3.8448651 2039583
-1.424605 -1.0749475 3.8333952 2039583
-1.3742279 -1.0749905 3.8214934 2039583
-1.3241954 -1.0749289 3.8096752 2039583
-1.2908628 -1.0728309 3.8018119 2039583
-0.85991967 -1.0750288 3.8222878 2039583
-1.4715105 -1.0252727 3.8447366 2039583
-1.4245218 -1.0249457 3.8336401 2039583
-1.3742145 -1.0249717 3.8217549 2039583
-1.3242376 -1.0249215 3.8099499 2039583
-1.2901109 -1.0244058 3.8018913 2039583
-0.85992509 -1.0250574 3.8224435 2039583
-1.4720219 -0.97503376 3.845124 2039583
-1.4245124 -0.97493804 3.8339007 2039583
-1.3741771 -0.97505939 3.8220105 2039583
-1.3241919 -0.97501254 3.8102028 2039583
-1.2900759 -0.9750374 3.8021426 2039583
-0.85987324 -0.97485536 3.8228457 2039583
-1.4717344 -0.92526013 3.8453193 2039583
-1.4252099 -0.92492056 3.8343306 2039583
-1.3746406 -0.92491019 3.822386 2039583
-1.3244102 -0.92499083 3.810519 2039583
-1.2890998 -0.92449474 3.8021805 2039583
-0.85998213 -0.92511034 3.8225627 2039583
-1.4701858 -0.87516785 3.8452184 2039583
-1.4250808 -0.87500173 3.8345649 2039583
-1.3748565 -0.87475306 3.8227015 2039583
-1.3247982 -0.87485403 3.8108764 2039583
-1.2885576 -0.87583971 3.8023093 2039583
-0.85995811 -0.87512821 3.8228447 2039583
-1.4704018 -0.82511944 3.8455358 2039583
-1.424952 -0.82507855 3.8347991 2039583
-1.3748119 -0.82493037 3.8229542 2039583
-1.3248416 -0.82481581 3.8111508 2039583
-1.2886556 -0.82549447 3.8025992 2039583
-0.86000836 -0.82491904 3.8228121 2039583
-1.4701267 -0.77535182 3.8457341 2039583
-1.4249427 -0.7750423 3.8350613 2039583
-1.3746631 -0.77521652 3.8231835 2039583
-1.3248991 -0.77487558 3.8114295 2039583
-1.2875237 -0.77427423 3.8026047 2039583
-0.85997063 -0.77493787 3.8231525 2039583
-1.4688348 -0.72524762 3.8456943 2039583
-1.4255062 -0.7247771 3.8354599 2039583
-1.3747679 -0.72526604 3.8234723 2039583
-1.3248675 -0.72503513 3.8116848 2039583
-1.2871407 -0.72470415 3.8027759 2039583
-0.86007935 -0.72495353 3.8228705 2039583
-1.4689828 -0.67542905 3.845993 2039583
-1.4256473 -0.67482674 3.8357594 2039583
-1.3750601 -0.67485094 3.8238082 2039583
-1.3247483 -0.67529511 3.8119214 2039583
-1.287239 -0.67434114 3.8030655 2039583
-0.8600266 -0.67496258 3.8232746 2039583
-1.4681425 -0.62524122 3.8460591 2039583
-1.4252182 -0.62530571 3.8359196 2039583
-1.3754234 -0.62453747 3.8241599 2039583
-1.3250099 -0.62533045 3.8122478 2039583
-1.2858852 -0.62410325 3.8030105 2039583
-0.86009121 -0.62474692 3.8231816 2039583
-1.4659874 -0.57483631 3.8458169 2039583
-1.4238942 -0.57527411 3.8358729 2039583
-1.3753638 -0.57490575 3.8244095 2039583
-1.3252119 -0.57493711 3.8125618 2039583
-1.2857618 -0.57490534 3.8032422 2039583
-0.86008286 -0.57498014 3.8233976 2039583
-1.4657352 -0.52550542 3.8460183 2039583
-1.4241049 -0.52457136 3.8361883 2039583
-1.3750149 -0.52550429 3.8245883 2039583
-1.3253127 -0.52443326 3.8128524 2039583
-1.2854906 -0.52553958 3.8034399 2039583
-0.86011791 -0.52521038 3.8234282 2039583
-1.4647449 -0.47534201 3.8460512 2039583
-1.4243699 -0.47476527 3.8365157 2039583
-1.3754746 -0.47539073 3.8249614 2039583
-1.3257791 -0.47443563 3.8132279 2039583
-1.2842019 -0.47586176 3.8033986 2039583
-0.86012411 -0.47521266 3.8235819 2039583
-1.464635 -0.42472297 3.8462932 2039583
-1.4238584 -0.42543557 3.8366551 2039583
-1.3755805 -0.42471477 3.8252559 2039583
-1.3254684 -0.42508677 3.8134155 2039583
-1.2842997 -0.42547172 3.803689 2039583
-0.86018878 -0.42521277 3.823488 2039583
-1.4642425 -0.37539247 3.8464608 2039583
-1.4243259 -0.37515399 3.8370306 2039583
-1.3759437 -0.37435928 3.8256075 2039583
-1.3252906 -0.37562391 3.8136356 2039583
-1.2838242 -0.3744798 3.803844 2039583
-0.86015087 -0.37498617 3.8238277 2039583
-1.462974 -0.32526496 3.8464262 2039583
-1.4244349 -0.32431045 3.8373282 2039583
-1.3755188 -0.32527518 3.8257668 2039583
-1.3257115 -0.32549927 3.8140001 2039583
-1.2827842 -0.3246341 3.8038642 2039583
-0.86020112 -0.32497722 3.8237967 2039583
-1.4629645 -0.2741057 3.8466942 2039583
-1.4245412 -0.27504843 3.8376155 2039583
-1.3758905 -0.27580953 3.8261163 2039583
-1.3258133 -0.27495718 3.8142905 2039583
-1.2828822 -0.27422643 3.804153 2039583
-0.86023611 -0.27497071 3.8238263 2039583
-1.4629705 -0.22490583 3.8469567 2039583
-1.4246472 -0.22577913 3.8378987 2039583
-1.374469 -0.22489581 3.8260491 2039583
-1.3244199 -0.22458269 3.8142288 2039583
-1.2822794 -0.22347882 3.8042791 2039583
-0.86027229 -0.22473802 3.8238566 2039583
-1.4614314 -0.17530735 3.8468554 2039583
-1.4247571 -0.17491254 3.8381939 2039583
-1.3743709 -0.17437035 3.8262949 2039583
-1.3245488 -0.17415544 3.8145254 2039583
-1.2811781 -0.17524472 3.8042741 2039583
-0.86017495 -0.17471659 3.8244469 2039583
-1.461544 -0.12431835 3.8471522 2039583
-1.4248663 -0.12403841 3.8384893 2039583
-1.3746717 -0.12501661 3.8266265 2039583
-1.3241229 -0.12520534 3.8146846 2039583
-1.2814577 -0.12609576 3.8046 2039583
-0.86026925 -0.12515797 3.824229 2039583
-1.4613428 -0.075476721 3.8473639 2039583
-1.4249723 -0.074746564 3.8387754 2039583
-1.3743861 -0.075899012 3.8268194 2039583
-1.3244894 -0.075864747 3.8150325 2039583
-1.2804526 -0.075150125 3.8046327 2039583
-0.8603636 -0.075609349 3.8240056 2039583
-1.4600106 -0.025502004 3.8473139 2039583
-1.4250785 -0.0254473 3.8390605 2039583
-1.3746798 -0.025368398 3.8271558 2039583
-1.3245904 -0.025289964 3.8153241 2039583
-1.2799423 -0.025220057 3.8047764 2039583
-0.86031091 -0.025350431 3.8244116 2039583
-1.4601231 0.025504621 3.8476095 2039583
-1.4251887 0.025449917 3.8393555 2039583
-1.3747855 0.025370976 3.8274503 2039583
-1.3246907 0.025292546 3.8156152 2039583
-1.2800397 0.025222622 3.8050673 2039583
-0.86033165 0.025351254 3.8245051 2039583
-3.0207233 0.096574463 3.8214667 10197915
-2.9759603 0.096560389 3.8209097 10197915
-2.9248188 0.096544318 3.8202734 10197915
-2.8752909 0.096528739 3.8196568 10197915
-2.8257794 0.096513167 3.8190405 10197915
-2.7746878 0.096497111 3.8184049 10197915
-2.725209 0.096481554 3.8177903 10197915
-2.675745 0.096465968 3.817173 10197915
-2.6246982 0.096449725 3.8165298 10197915
-2.5752676 0.096434198 3.8159165 10197915
-2.5258532 0.096418642 3.8153005 10197915
-2.4748616 0.096402623 3.8146675 10197915
-2.4254794 0.096387103 3.8140531 10197915
-2.3761132 0.096371576 3.8134389 10197915
-2.325171 0.096355587 3.8128045 10197915
-2.2742462 0.096339568 3.8121719 10197915
-2.2249289 0.096324071 3.8115585 10197915
-2.1756272 0.096308589 3.8109453 10197915
-2.1247516 0.096292578 3.8103127 10197915
-2.0738933 0.096276604 3.80968 10197915
-2.0246401 0.096261106 3.8090675 10197915
-1.975403 0.096245639 3.8084543 10197915
-1.9245952 0.09622971 3.8078244 10197915
-1.8753903 0.096214272 3.8072133 10197915
-1.8262008 0.096198797 3.8066018 10197915
-1.7754412 0.096182846 3.8059702 10197915
-1.7246988 0.096166894 3.8053391 10197915
-1.6739728 0.096150935 3.8047082 10197915
-1.6248481 0.09613549 3.8040962 10197915
-1.5757393 0.096120045 3.8034859 10197915
-1.525063 0.09610413 3.8028545 10197915
-1.4621527 0.0764056 3.8400826 3355443
-1.4251758 0.074901335 3.8367629 2631720
-1.3748729 0.074486874 3.825942 2565927
-1.3248535 0.074480653 3.8147175 2631720
-1.2788528 0.072978929 3.8049343 2105376
-0.86035156 0.072886303 3.8245931 2039583
-1.7115366 -1.7225728 3.8977492 2039583
-1.6762601 -1.7200761 3.8894286 2039583
-1.6264389 -1.7174882 3.8776734 2039583
-1.5765314 -1.7146968 3.8658981 2039583
-1.5305892 -1.7125807 3.855056 2039583
-0.85144013 -1.7124649 3.8558886 2039583
-0.84614742 -1.7172893 3.8782768 2039583
-1.7098771 -1.6751478 3.897608 2039583
-1.675938 -1.6749343 3.8895907 2039583
-1.6256704 -1.6750114 3.8777165 2039583
-1.5761147 -1.6748451 3.8660097 2039583
-1.5301005 -1.6751274 3.8551383 2039583
-0.85145587 -1.6741569 3.8559599 2039583
-0.84651232 -1.6749473 3.8768845 2039583
-1.7102385 -1.6248733 3.897959 2039583
-1.6759239 -1.6249967 3.889853 2039583
-1.6259809 -1.6249804 3.8780534 2039583
-1.5760639 -1.6249809 3.8662617 2039583
-1.5291705 -1.6243743 3.8551884 2039583
-0.85147625 -1.6246738 3.8560522 2039583
-0.84644645 -1.6252161 3.8773422 2039583
-1.7097741 -1.5759121 3.8981085 2039583
-1.6761671 -1.574922 3.8901751 2039583
-1.6259406 -1.5750725 3.8783088 2039583
-1.5761919 -1.5748688 3.8665581 2039583
-1.5284823 -1.5750901 3.8552866 2039583
-0.85149652 -1.5751885 3.8561442 2039583
-0.84638518 -1.5740775 3.8777857 2039583
-1.7086898 -1.5248927 3.8981223 2039583
-1.6761864 -1.5249665 3.8904436 2039583
-1.6261622 -1.5249166 3.8786271 2039583
-1.5764817 -1.5249825 3.8668904 2039583
-1.5287005 -1.5251993 3.855602 2039583
-0.8515175 -1.5241044 3.8562391 2039583
-0.84561044 -1.5249983 3.8812428 2039583
-1.708645 -1.4749645 3.8983765 2039583
-1.6763387 -1.4749945 3.8907437 2039583
-1.6261863 -1.4749842 3.8788967 2039583
-1.5764619 -1.4750941 3.8671496 2039583
-1.5274131 -1.4746312 3.8555651 2039583
-0.85153782 -1.4746143 3.8563313 2039583
-0.84579235 -1.4751859 3.880651 2039583
-1.708384 -1.4266707 3.8985691 2039583
-1.6765059 -1.4250197 3.8910487 2039583
-1.6265306 -1.4251643 3.8792417 2039583
-1.5749046 -1.424775 3.867048 2039583
-1.5254946 -1.4252025 3.8553736 2039583
-0.85155821 -1.4251217 3.8564234 2039583
-0.84569621 -1.4251094 3.8812385 2039583
-1.7062942 -1.3732221 3.8983588 2039583
-1.6760174 -1.3754781 3.8911951 2039583
-1.626442 -1.374983 3.8794866 2039583
-1.5749617 -1.3749976 3.867326 2039583
-1.5255237 -1.3750657 3.8556461 2039583
-0.85157913 -1.3740301 3.856518 2039583
-0.84577966 -1.3750346 3.8810649 2039583
-1.7056049 -1.3247519 3.8984525 2039583
-1.6749105 -1.3250065 3.8912001 2039583
-1.6267451 -1.3250371 3.879823 2039583
-1.5751117 -1.3250006 3.8676248 2039583
-1.5238445 -1.3246402 3.8555157 2039583
-0.85159951 -1.3245326 3.8566108 2039583
-0.84577268 -1.3249507 3.8812752 2039583
-1.7047256 -1.27651 3.8985009 2039583
-1.6743417 -1.2745208 3.8913326 2039583
-1.624351 -1.2751631 3.8795199 2039583
-1.573499 -1.2752465 3.8675075 2039583
-1.5240728 -1.2749649 3.8558333 2039583
-0.85161984 -1.2750329 3.8567026 2039583
-0.84583843 -1.2748656 3.8811779 2039583
-1.7040522 -1.2247984 3.8986144 2039583
-1.6733247 -1.2250025 3.8913555 2039583
-1.623391 -1.2248384 3.8795602 2039583
-1.5737392 -1.2251319 3.8678296 2039583
-1.5241221 -1.2250788 3.8561094 2039583
-0.85164028 -1.2255307 3.8567948 2039583
-0.84577829 -1.2247832 3.8816125 2039583
-1.704026 -1.1748527 3.8988731 2039583
-1.6736504 -1.1751165 3.8916962 2039583
-1.6234562 -1.1749867 3.8798394 2039583
-1.5735431 -1.1749721 3.8680487 2039583
-1.5239812 -1.1749581 3.8563399 2039583
-1.4977738 -1.1739736 3.8501551 2039583
-0.85091966 -1.1733974 3.8600321 2039583
-0.84518945 -1.17575 3.8842809 2039583
-1.7033497 -1.1275195 3.8989637 2039583
-1.6735045 -1.1251045 3.8919261 2039583
-1.6234475 -1.1250136 3.8801017 2039583
-1.5737836 -1.1250376 3.8683693 2039583
-1.5243608 -1.1249479 3.8566949 2039583
-1.4978855 -1.1246103 3.8504422 2039583
-0.85138428 -1.1227132 3.8582485 2039583
-0.84502006 -1.1250911 3.8851817 2039583
-1.7025018 -1.0750251 3.8990409 2039583
-1.6740026 -1.0750872 3.8923082 2039583
-1.6238986 -1.0750338 3.8804724 2039583
-1.5740236 -1.0750948 3.8686905 2039583
-1.5245254 -1.0750409 3.8569977 2039583
-1.4974504 -1.0719346 3.8506184 2039583
-0.85169989 -1.0754137 3.8570824 2039583
-0.84508383 -1.0748984 3.8850911 2039583
-1.7027471 -1.0249829 3.899364 2039583
-1.6735365 -1.0249479 3.8924646 2039583
-1.6234324 -1.0250465 3.8806272 2039583
-1.5737393 -1.0250299 3.8688889 2039583
-1.5242376 -1.0251276 3.8571939 2039583
-1.496357 -1.0241585 3.8506136 2039583
-0.85172075 -1.0248371 3.8571768 2039583
-0.84501785 -1.0250238 3.8855498 2039583
-1.7017267 -0.97896957 3.8993659 2039583
-1.6744636 -0.97491169 3.8929474 2039583
-1.6243402 -0.97504789 3.8811064 2039583
-1.5743593 -0.97495532 3.8692994 2039583
-1.5247231 -0.97497725 3.8575747 2039583
-1.4964689 -0.97477823 3.8509014 2039583
-0.85174114 -0.97479057 3.8572702 2039583
-0.8451246 -0.97515333 3.885278 2039583
-1.7011433 -0.92569315 3.8995104 2039583
-1.6737791 -0.92499065 3.8930509 2039583
-1.6237822 -0.92516363 3.8812387 2039583
-1.5742605 -0.92498982 3.86954 2039583
-1.5249447 -0.92493272 3.8578913 2039583
-1.4958739 -0.92298257 3.8510346 2039583
-0.85176146 -0.92527413 3.8573618 2039583
-0.84510118 -0.92559397 3.8855538 2039583
-1.701272 -0.87567812 3.8998053 2039583
-1.6747166 -0.87505019 3.8935356 2039583
-1.6243558 -0.87503397 3.881639 2039583
-1.5740566 -0.87490582 3.8697574 2039583
-1.5244776 -0.87523019 3.8580441 2039583
-1.4949398 -0.87430781 3.8510716 2039583
-0.85178256 -0.87469006 3.857456 2039583
-0.84514302 -0.87538803 3.8855591 2039583
-1.7013468 -0.84663409 3.8999772 2039583
-1.6740323 -0.82511973 3.8936386 2039583
-1.6243166 -0.82501709 3.8818951 2039583
-1.5748901 -0.82480168 3.8702197 2039583
-1.5251719 -0.82505143 3.8584743 2039583
-1.4950516 -0.82491046 3.8513594 2039583
-0.851803 -0.82463664 3.8575497 2039583
-0.84520769 -0.82514727 3.8854668 2039583
-1.6749598 -0.77504343 3.8941233 2039583
-1.6241732 -0.77488112 3.8821266 2039583
-1.5742233 -0.77516794 3.8703251 2039583
-1.5252911 -0.77487046 3.8587673 2039583
-1.4942732 -0.77363867 3.8514469 2039583
-0.85182327 -0.77511263 3.8576415 2039583
-0.84601617 -0.77483106 3.8822253 2039583
-1.6742924 -0.7251026 3.8942287 2039583
-1.6249355 -0.7248354 3.8825715 2039583
-1.5749282 -0.72504705 3.8707578 2039583
-1.5248237 -0.72515112 3.8589203 2039583
-1.4935225 -0.7244215 3.8515296 2039583
-0.85187906 -0.72504979 3.8575861 2039583
-0.84600955 -0.72499782 3.8824332 2039583
-1.6734959 -0.67509747 3.8943059 2039583
-1.6243176 -0.67504001 3.882689 2039583
-1.5749876 -0.67492914 3.8710353 2039583
-1.5255179 -0.6749441 3.8593509 2039583
-1.4936343 -0.67500722 3.8518178 2039583
-0.85182923 -0.67499733 3.8579767 2039583
-0.84605694 -0.67514545 3.8824115 2039583
-1.6727879 -0.62503219 3.8944039 2039583
-1.6252011 -0.62485778 3.8831637 2039583
-1.5746514 -0.62504423 3.8712211 2039583
-1.5255736 -0.62497014 3.8596277 2039583
-1.4925625 -0.62424767 3.8518338 2039583
-0.85188502 -0.62492955 3.8579216 2039583
-0.8460502 -0.62530434 3.8826196 2039583
-1.6733804 -0.57513416 3.8948071 2039583
-1.6245339 -0.5750528 3.8832693 2039583
-1.5754851 -0.57489049 3.8716829 2039583
-1.5252372 -0.57522959 3.8598118 2039583
-1.4921052 -0.57449949 3.8519883 2039583
-0.85194039 -0.57486504 3.8578651 2039583
-0.84609735 -0.57464594 3.8826015 2039583
-1.6712906 -0.52494061 3.8945804 2039583
-1.6253207 -0.52485406 3.8837211 2039583
-1.5748183 -0.52523178 3.8717883 2039583
-1.5258651 -0.52476811 3.8602266 2039583
-1.4922167 -0.52506787 3.852277 2039583
-0.85189104 -0.52479392 3.8582559 2039583
-0.84609067 -0.52479702 3.8828092 2039583
-1.6720351 -0.47493023 3.8950205 2039583
-1.6248997 -0.47503066 3.8838847 2039583
-1.5753316 -0.47484198 3.8721764 2039583
-1.5256979 -0.47512299 3.8604505 2039583
-1.4909561 -0.47475722 3.8522449 2039583
-0.85198236 -0.47526264 3.8580475 2039583
-0.84613782 -0.47494075 3.8827887 2039583
-1.6712102 -0.42529112 3.8950889 2039583
-1.6253 -0.42482737 3.8842452 2039583
-1.5755602 -0.42502478 3.872494 2039583
-1.5258005 -0.42534772 3.8607376 2039583
-1.4906874 -0.42454171 3.8524473 2039583
-0.85196692 -0.42518613 3.8582926 2039583
-0.84614539 -0.42468268 3.8829386 2039583
-1.6704348 -0.37480286 3.8951726 2039583
-1.6254228 -0.37497079 3.8845379 2039583
-1.5754663 -0.37532768 3.8727357 2039583
-1.5262837 -0.37463519 3.8611217 2039583
-1.490799 -0.37509316 3.8527353 2039583
-0.85195249 -0.37456861 3.8585351 2039583
-0.84616536 -0.37482345 3.8830335 2039583
-1.6700557 -0.32483336 3.8953464 2039583
-1.6255453 -0.32510644 3.8848319 2039583
-1.5760806 -0.32479057 3.8731482 2039583
-1.5258613 -0.32509544 3.861284 2039583
-1.4892503 -0.32538852 3.8526325 2039583
-0.85204399 -0.32504198 3.8583267 2039583
-0.84622616 -0.32456571 3.8829579 2039583
-1.6700965 -0.27517617 3.8956199 2039583
-1.6256675 -0.27523449 3.8851237 2039583
-1.5754138 -0.27510607 3.8732529 2039583
-1.5262495 -0.27517042 3.8616385 2039583
-1.4892695 -0.27454832 3.8529055 2039583
-0.85202879 -0.27495226 3.8585713 2039583
-0.8461653 -0.27468902 3.8833942 2039583
-1.6685787 -0.22466722 3.8955276 2039583
-1.6257902 -0.22535507 3.8854167 2039583
-1.575929 -0.22467209 3.8736415 2039583
-1.526765 -0.22477213 3.8620276 2039583
-1.489249 -0.22487019 3.8531642 2039583
-0.85201347 -0.2248542 3.8588178 2039583
-0.84626663 -0.22483939 3.8831451 2039583
-1.6690753 -0.17462102 3.8959107 2039583
-1.6259123 -0.17546825 3.88571 2039583
-1.5760467 -0.17493643 3.8739331 2039583
-1.52461 -0.17498574 3.8617821 2039583
-1.4863445 -0.17611711 3.8527362 2039583
-0.85210484 -0.17533202 3.8586085 2039583
-0.84620607 -0.17494918 3.8835812 2039583
-1.6680396 -0.12526038 3.8959267 2039583
-1.6260341 -0.12557377 3.8860023 2039583
-1.5761654 -0.12519315 3.8742237 2039583
-1.5248336 -0.12480135 3.8621004 2039583
-1.4860941 -0.12450572 3.8529506 2039583
-0.85209042 -0.12469664 3.8588517 2039583
-0.84630746 -0.12510358 3.8833313 2039583
-1.6674495 -0.074416958 3.8960571 2039583
-1.6261579 -0.075671874 3.8862958 2039583
-1.5762833 -0.075442515 3.8745165 2039583
-1.5249482 -0.075206399 3.86239 2039583
-1.4858162 -0.074494787 3.8531506 2039583
-0.85211074 -0.075139478 3.8589444 2039583
-0.8462466 -0.075199664 3.8837671 2039583
-1.6673702 -0.024402315 3.8963032 2039583
-1.6262809 -0.02576234 3.8865893 2039583
-1.5764021 -0.025684249 3.8748074 2039583
-1.5250626 -0.025603851 3.8626792 2039583
-1.4845612 -0.025540445 3.853112 2039583
-0.85213143 -0.025579935 3.8590364 2039583
-0.84634817 -0.025358077 3.8835175 2039583
-1.6666902 0.023501303 3.8963959 2039583
-1.6264074 0.025765026 3.8868911 2039583
-1.576524 0.025686901 3.8751085 2039583
-1.5251801 0.025606502 3.8629785 2039583
-1.4846756 0.025543071 3.8534095 2039583
-0.85215235 0.025580777 3.8591321 2039583
-0.84636885 0.025358904 3.8836133 2039583
-1.665923 0.072642125 3.8964744 2302755
-1.6265255 0.074079134 3.8871756 2171169
-1.575348 0.074159987 3.8750868 2171169
-1.5240538 0.073297136 3.8629653 2171169
-1.4841093 0.07405144 3.8535328 2105376
-0.85217202 0.073546216 3.8592205 2039583
-0.8443011 0.07468155 3.8848536 2039583
-0.77545875 0.095316701 3.8995512 4868682
-0.72525764 0.095301017 3.8989093 10197915
-0.67507303 0.095285334 3.8982673 10197915
-0.62490487 0.095269643 3.8976259 10197915
-0.57475352 0.095253974 3.8969851 10197915
-0.52461839 0.095238306 3.8963435 10197915
-0.47449997 0.09522263 3.8957026 10197915
-0.42439777 0.095206968 3.8950615 10197915
-0.37431228 0.095191307 3.8944206 10197915
-0.33716208 0.095179692 3.8939457 10197915
-1.9182148 -1.7577671 3.9461663 11711154
-1.8770968 -1.7555877 3.9364643 11711154
-1.8284893 -1.7531334 3.9251871 4210752
-1.7912772 -1.7507129 3.9164367 2039583
-1.9176292 -1.7249702 3.9462006 11711154
-1.8754317 -1.725071 3.9362326 11711154
-1.824118 -1.7250882 3.924315 3552822
-1.7750374 -1.7248648 3.912734 2039583
-1.7367941 -1.7227374 3.9037142 2039583
-1.9171131 -1.6757187 3.9463398 11711154
-1.8754466 -1.6749965 3.9365001 11711154
-1.8242558 -1.675051 3.9246123 3618615
-1.7751536 -1.6749861 3.9130304 2039583
-1.7351246 -1.6748987 3.9035738 2039583
-1.9161068 -1.6249242 3.9463704 11711154
-1.8755963 -1.6249169 3.9368021 11711154
-1.8245119 -1.6249962 3.9249372 3815994
-1.77527 -1.6249862 3.913321 2039583
-1.7355415 -1.625067 3.9039333 2039583
-1.916115 -1.5749756 3.9466369 11711154
-1.8757468 -1.5750515 3.9371009 11711154
-1.8244988 -1.5749487 3.9251997 3684408
-1.774369 -1.5745405 3.9133737 2039583
-1.7340275 -1.5751934 3.903841 2039583
-1.9155396 -1.5258628 3.9467604 8026746
-1.8758638 -1.5249586 3.9373941 10921638
-1.8246441 -1.5252265 3.9254966 3684408
-1.7737247 -1.5249606 3.9134839 2039583
-1.7320604 -1.5250498 3.9036422 2039583
-1.914088 -1.4741791 3.9466915 2960685
-1.8755536 -1.4753519 3.937583 3487029
-1.8248507 -1.4751579 3.9258101 2697513
-1.7738417 -1.4750358 3.9137793 2039583
-1.7321917 -1.4750264 3.9039369 2039583
-1.9128141 -1.4247668 3.9466517 2960685
-1.8741732 -1.4251127 3.9375224 2960685
-1.825032 -1.424965 3.9261203 2171169
-1.7739855 -1.4250014 3.9140756 2039583
-1.7315781 -1.4243323 3.9040604 2039583
-1.9120052 -1.3758453 3.9467196 2960685
-1.8746288 -1.3750288 3.9378951 2960685
-1.82506 -1.3749899 3.9263897 2171169
-1.7740858 -1.3750653 3.9143631 2039583
-1.7307069 -1.37497 3.9041169 2039583
-1.9116849 -1.3253859 3.9469113 2960685
-1.8746794 -1.3249302 3.9381723 2960685
-1.8253591 -1.32502 3.9267256 2171169
-1.7742623 -1.3250099 3.9146702 2039583
-1.7306392 -1.3250936 3.9043663 2039583
-1.9114228 -1.2748141 3.9471176 2960685
-1.8745255 -1.2750744 3.9383991 2960685
-1.8252755 -1.2751448 3.9269698 2171169
-1.7744387 -1.2749472 3.9149752 2039583
-1.7300752 -1.2744809 3.9045012 2039583
-1.910471 -1.2255739 3.9471529 2960685
-1.8751472 -1.2250915 3.9388108 2960685
-1.8255967 -1.2250358 3.9273021 2236962
-1.7743551 -1.2249898 3.9152222 2039583
-1.7290452 -1.2249755 3.9045181 2039583
-1.9102267 -1.1752435 3.9473608 2960685
-1.8750685 -1.1749703 3.9390588 2960685
-1.8257153 -1.1749161 3.9275885 2171169
-1.7748667 -1.1749145 3.9156048 2039583
-1.7295572 -1.1749147 3.9049063 2039583
-1.9100547 -1.1246593 3.9475884 2960685
-1.874878 -1.1249689 3.9392784 2960685
-1.8254275 -1.1250238 3.9277849 2171169
-1.7743952 -1.1249408 3.9157591 2039583
-1.7280067 -1.1244373 3.9048035 2039583
-1.9087968 -1.0750262 3.9475551 2960685
-1.8756852 -1.0750837 3.9397316 2960685
-1.826354 -1.0750092 3.9282663 2236962
-1.775337 -1.0749652 3.91625 2039583
-1.7281734 -1.0750266 3.9051054 2039583
-1.9086515 -1.0254704 3.9477811 2960685
-1.8754935 -1.0250674 3.9399519 2960685
-1.825959 -1.0249869 3.9284399 2236962
-1.774866 -1.0249796 3.9164011 2039583
-1.7276052 -1.02496 3.9052367 2039583
-1.908891 -0.97515905 3.9481058 2960685
-1.875303 -0.97504669 3.9401717 2960685
-1.8261474 -0.97507209 3.9287462 2236962
-1.7753372 -0.97498536 3.9167755 2039583
-1.7270918 -0.97460145 3.9053822 2039583
-1.9071555 -0.92490119 3.9479606 2960685
-1.8743984 -0.92496514 3.9402237 2960685
-1.8249381 -0.92520225 3.9287395 2171169
-1.7753357 -0.92498523 3.9170408 2039583
-1.7260548 -0.92487472 3.9053993 2039583
-1.9072391 -0.87510473 3.948245 2960685
-1.8740823 -0.87500036 3.9404128 2960685
-1.8242965 -0.87483984 3.9288561 2171169
-1.775242 -0.87509537 3.9172821 2039583
-1.7268683 -0.87489778 3.9058552 2039583
-1.9074124 -0.8256675 3.9485471 2960685
-1.8738812 -0.82492787 3.9406292 2960685
-1.8250928 -0.8249318 3.9293065 2171169
-1.7758976 -0.82507318 3.9177024 2039583
-1.724859 -0.82466727 3.9056473 2039583
-0.8417927 -0.80301529 3.9000039 2039583
-1.9056032 -0.77483261 3.9483886 2960685
-1.8747102 -0.77506536 3.9410896 2960685
-1.8249539 -0.77490866 3.9295409 2171169
-1.7753359 -0.77494496 3.917836 2039583
-1.7250906 -0.77499306 3.905967 2039583
-0.84180379 -0.77555805 3.9000554 2039583
-1.9058263 -0.72470433 3.9487071 2960685
-1.874508 -0.72497803 3.9413073 2960685
-1.8248166 -0.72487956 3.9297731 2171169
-1.7762543 -0.72501516 3.9183159 2039583
-1.7251276 -0.72500104 3.9062364 2039583
-0.84182417 -0.72548753 3.9001491 2039583
-1.9058826 -0.67619401 3.948977 2960685
-1.8743063 -0.67488593 3.941524 2960685
-1.8255603 -0.67519462 3.9302099 2171169
-1.775635 -0.67476106 3.9184361 2039583
-1.7250535 -0.67512101 3.9064875 2039583
-1.6981889 -0.67378163 3.9001465 2039583
-0.84184444 -0.6754145 3.9002435 2039583
-1.9042675 -0.62493956 3.9488673 2960685
-1.8749998 -0.62523144 3.9419513 2960685
-1.8250469 -0.62478745 3.9303565 2171169
-1.7761421 -0.62505478 3.9188194 2039583
-1.7256583 -0.62510043 3.9068928 2039583
-1.6983134 -0.62535393 3.9004323 2039583
-0.84186476 -0.62533897 3.9003377 2039583
-1.904413 -0.57426858 3.9491689 2960685
-1.8750676 -0.57511693 3.9422324 2960685
-1.8253767 -0.57472324 3.9306989 2171169
-1.776441 -0.57521725 3.9191523 2039583
-1.7252392 -0.57498395 3.9070616 2039583
-1.6980481 -0.57277942 3.9006474 2039583
-0.84188515 -0.57526118 3.9004314 2039583
-1.9044182 -0.52673888 3.9494216 2960685
-1.8747321 -0.5247761 3.9424202 2960685
-1.8242239 -0.52526069 3.9306886 2171169
-1.7743163 -0.52480286 3.9189172 2039583
-1.7260206 -0.52505577 3.9075084 2039583
-1.6967695 -0.52519017 3.9005971 2039583
-0.84190547 -0.52518082 3.9005263 2039583
-1.9028493 -0.47612107 3.9493196 2960685
-1.8752161 -0.47533464 3.9427955 2960685
-1.8235539 -0.4748438 3.930799 2171169
-1.7750542 -0.47523341 3.9193542 2039583
-1.7254026 -0.47493425 3.9076276 2039583
-1.6968983 -0.47513101 3.9008927 2039583
-0.8419258 -0.47509813 3.9006202 2039583
-1.9029952 -0.42543277 3.9496226 2960685
-1.8756931 -0.42518321 3.9431741 2960685
-1.8240939 -0.42507589 3.9311886 2236962
-1.7745379 -0.42495766 3.9195004 2039583
-1.7263123 -0.42509791 3.9081054 2039583
-1.6965396 -0.42329028 3.9010828 2039583
-0.84194601 -0.42501304 3.9007146 2039583
-1.9031224 -0.38127887 3.9498863 2960685
-1.8751578 -0.37459776 3.9433148 2960685
-1.8245639 -0.37506741 3.9315648 2236962
-1.7749926 -0.37513348 3.9198701 2039583
-1.7256436 -0.37496775 3.9082117 2039583
-1.6953541 -0.37494925 3.9010589 2039583
-0.84196645 -0.37492543 3.9008088 2039583
-1.8756416 -0.32513085 3.9436913 2960685
-1.824029 -0.32462928 3.931705 2171169
-1.7751279 -0.32481545 3.9201694 2039583
-1.7262826 -0.32535556 3.9086227 2039583
-1.6954829 -0.32487282 3.9013536 2039583
-0.84198672 -0.32483551 3.900903 2039583
-1.8761989 -0.2752997 3.9440873 2960685
-1.8245068 -0.27530295 3.9320798 2236962
-1.7752631 -0.27448988 3.9204671 2039583
-1.7261961 -0.27518842 3.9088714 2039583
-1.6949358 -0.27310148 3.9014981 2039583
-0.8420071 -0.27474311 3.9009972 2039583
-1.8749353 -0.22510275 3.9440541 2960685
-1.8246462 -0.22482072 3.932379 2236962
-1.7752142 -0.22522599 3.9207163 2039583
-1.7260911 -0.22539194 3.9091084 2039583
-1.693939 -0.22467273 3.9015193 2039583
-0.84202743 -0.22464834 3.9010921 2039583
-1.8742257 -0.17483927 3.9441526 2960685
-1.8247855 -0.17433082 3.9326797 2236962
-1.7735159 -0.17519884 3.9205792 2039583
-1.724753 -0.17490318 3.9090602 2039583
-1.6940671 -0.17457899 3.9018152 2039583
-0.84204781 -0.17455105 3.9011858 2039583
-1.8743645 -0.12582815 3.9444458 2960685
-1.8249201 -0.12546216 3.9329686 2236962
-1.7738471 -0.1250779 3.9209228 2039583
-1.7248844 -0.12470896 3.909358 2039583
-1.693258 -0.12312043 3.9018974 2039583
-0.84206825 -0.12445144 3.9012802 2039583
-1.8738503 -0.075658724 3.9445894 2960685
-1.8250555 -0.074956886 3.9332645 2236962
-1.7739824 -0.074727364 3.921222 2039583
-1.7250155 -0.074506946 3.9096556 2039583
-1.6925226 -0.074360684 3.9019818 2039583
-0.84208852 -0.074349351 3.9013741 2039583
-1.8728088 -0.024512794 3.9446144 2960685
-1.8251908 -0.024444064 3.9335539 2236962
-1.7741166 -0.02436929 3.9215176 2039583
-1.7251462 -0.024297394 3.9099531 2039583
-1.6926508 -0.024249699 3.902277 2039583
-0.84210885 -0.024244884 3.9014688 2039583
-1.8729472 0.024515219 3.944906 2960685
-1.8253248 0.024446467 3.9338446 2236962
-1.7742476 0.024371669 3.9218102 2039583
-1.7246419 0.024703233 3.9100924 2039583
-1.6912055 0.024372915 3.9021919 2039583
-0.84212857 0.024245637 3.9015601 2039583
-3.1125832 0.096047282 3.9294398 4473924
-3.0747631 0.096035458 3.9289563 6645093
-3.025445 0.096020028 3.9283254 9605778
-2.9761438 0.096004613 3.9276948 10197915
-2.9252155 0.095988691 3.9270434 10197915
-2.8743041 0.095972769 3.9263918 10197915
-2.8250511 0.095957391 3.9257627 10197915
-2.7758143 0.095942006 3.925133 10197915
-2.724951 0.095926054 3.9244804 10197915
-2.6741059 0.095910154 3.9238303 10197915
-2.6249173 0.095894791 3.9232016 10197915
-2.5757442 0.095879413 3.9225724 10197915
-2.5249488 0.095863536 3.9219227 10197915
-2.4741702 0.095847674 3.9212737 10197915
-2.4250455 0.095832318 3.920646 10197915
-2.3759367 0.095816977 3.9200172 10197915
-2.3252075 0.095801115 3.9193692 10197915
-2.2744951 0.095785275 3.9187207 10197915
-2.2254341 0.095769949 3.9180934 10197915
-2.1747549 0.095754102 3.9174454 10197915
-2.1240921 0.095738269 3.9167976 10197915
-2.0750794 0.095722951 3.9161713 10197915
-2.0260823 0.09570764 3.915545 10197915
-1.9754707 0.09569189 3.9149008 10197915
-1.9248737 0.095676087 3.9142537 10197915
-1.8726339 0.073481299 3.9423494 8158332
-1.8254484 0.073520243 3.9325294 3881787
-1.7744048 0.073210441 3.9213946 2302755
-1.7236884 0.073002554 3.9100564 2302755
-1.6892967 0.07274507 3.9019978 2302755
-0.83595973 0.081209876 3.9010515 2236962
-2.0222526 -1.763256 3.9707117 11711154
-1.9760298 -1.7608981 3.9598053 11711154
-1.9419849 -1.7590672 3.9517739 11711154
-2.0205958 -1.7254785 3.9705212 11711154
-1.9753063 -1.7250921 3.9598238 11711154
-1.9416293 -1.7248297 3.9518704 11711154
-2.0201125 -1.6749362 3.9706755 11711154
-1.9752219 -1.6749543 3.9600706 11711154
-1.9408109 -1.6735542 3.9519486 11711154
-2.0201676 -1.6250501 3.9709504 11711154
-1.9754223 -1.6249229 3.960382 11711154
-1.9403349 -1.6251625 3.9520929 11711154
-2.020221 -1.5751575 3.9712276 6316128
-1.9755895 -1.5751129 3.960686 10395294
-1.9401971 -1.5745507 3.9523277 11711154
-2.0199559 -1.5245219 3.9714341 2960685
-1.975215 -1.5254923 3.9608591 3158064
-1.9391826 -1.5234704 3.9523587 4934475
-2.0189185 -1.4749486 3.9714501 2960685
-1.9740167 -1.4749476 3.9608443 2960685
-1.938882 -1.4750915 3.9525433 2960685
-2.01896 -1.4249479 3.9717262 2960685
-1.9743154 -1.4249442 3.9611793 2960685
-1.9389871 -1.4249856 3.9528329 2960685
-2.019001 -1.3749418 3.9720008 2960685
-1.9742962 -1.3750559 3.9614387 2960685
-1.9375496 -1.3737416 3.9527659 2960685
-2.0190637 -1.3250768 3.9722772 2960685
-1.9743894 -1.3250353 3.9617255 2960685
-1.9373699 -1.324877 3.9529815 2960685
-2.0196857 -1.2750533 3.9726896 2960685
-1.9747642 -1.2748882 3.9620793 2960685
-1.9376885 -1.2753655 3.9533186 2960685
-2.0196378 -1.2250239 3.9729438 2960685
-1.9748576 -1.2248518 3.9623673 2960685
-1.9362453 -1.2244067 3.9532468 2960685
-2.0196567 -1.174988 3.9732132 2960685
-1.9748387 -1.1749358 3.9626255 2960685
-1.9357769 -1.1747648 3.9533997 2960685
-2.0196102 -1.1247966 3.9734676 2960685
-1.9748178 -1.1250137 3.9628856 2960685
-1.9361039 -1.1252961 3.9537392 2960685
-2.0200298 -1.0750403 3.9738295 2960685
-1.9755317 -1.0750818 3.9633176 2960685
-1.9348865 -1.0750749 3.953717 2960685
-2.0204489 -1.0252736 3.9741917 2960685
-1.9755105 -1.0250174 3.9635782 2960685
-1.9342833 -1.0247039 3.9538417 2960685
-2.0204022 -0.97505999 3.9744465 2960685
-1.9753623 -0.9748221 3.9638095 2960685
-1.9346946 -0.97471619 3.9542029 2960685
-2.0203559 -0.92484009 3.9747014 2960685
-1.9754902 -0.92487007 3.9641027 2960685
-1.9332955 -0.9250561 3.9541342 2960685
