# .PCD v0.7 - Point Cloud Data file format
VERSION 0.7
FIELDS x y z rgb
SIZE 4 4 4 4
TYPE F F F U
COUNT 1 1 1 1
WIDTH 1172
HEIGHT 1
VIEWPOINT 0 0 0 1 0 0 0
POINTS 1172
DATA ascii
0.97584343 -0.22544925 2.8824868 6513507
1.0251818 -0.22483733 2.8657787 6513507
1.060806 -0.22503254 2.8537118 6513507
0.93789005 -0.1746234 2.8955131 6513507
0.97569233 -0.17555763 2.8827069 6513507
1.0246964 -0.17454706 2.8661127 6513507
1.0606074 -0.17488433 2.8539481 6513507
0.93824625 -0.12547116 2.8955557 6513507
0.97574419 -0.12540473 2.8828583 6513507
1.0247505 -0.12468285 2.8662624 6513507
1.0606743 -0.12426567 2.8540981 6513507
0.93706203 -0.075589173 2.8961284 6513507
0.97472227 -0.075256266 2.8833749 6513507
1.0248038 -0.074813627 2.8664129 6513507
1.0612075 -0.073952936 2.8540859 6513507
0.93725401 -0.025481688 2.8962331 6513507
0.97477341 -0.025086595 2.8835266 6513507
1.024858 -0.024939023 2.8665633 6513507
1.0617893 -0.024830215 2.8540554 6513507
0.93824381 0.025196161 2.8960679 6513507
0.97482514 0.025088366 2.8836784 6513507
1.0249119 0.024940779 2.8667138 6513507
1.0618449 0.024831938 2.8542051 6513507
-1.6150093 0.095765732 2.8537953 3103624
-1.574772 0.095907636 2.8580236 1986433
-1.5265603 0.096077681 2.86309 1059654
-1.4092498 0.096491404 2.8754194 9934743
-1.3740784 0.096615441 2.8791158 5139855
-1.3240113 0.096792027 2.8843782 1324895
-1.2840593 0.096932925 2.8885767 8028037
-0.95655584 0.098381862 2.8611102 2250122
-0.92557448 0.098491438 2.8642972 1258323
-0.87495005 0.098670527 2.8695047 5595502
-0.82529867 0.09884616 2.8746128 10000536
-0.77546883 0.099022433 2.8797388 10000536
-0.74060571 0.099145748 2.8833251 10197915
0.93829376 0.075592063 2.8962231 6908265
0.97487646 0.075268611 2.8838332 6908265
1.0249656 0.074825764 2.8668647 6842472
1.0619004 0.074499279 2.8543541 6776679
-0.41184935 0.10059577 2.8566592 1126224
-0.375635 0.10072424 2.8603072 8882829
-0.32525581 0.10090296 2.8653822 10000536
-0.27469879 0.10108231 2.8704753 10000536
-0.16592751 0.10146817 2.8814328 10000536
-0.13979425 0.10156088 2.8840654 6781584
-0.0096010882 0.10202274 2.897181 10000536
0.0096096061 0.10209089 2.8991165 10000536
0.12879299 0.10279436 2.8519876 10197915
0.17396568 0.10295504 2.8564458 10197915
0.2240552 0.10313322 2.8613896 10197915
0.27431846 0.10331203 2.8663499 10197915
0.32475626 0.10349146 2.8713279 10197915
0.37536949 0.10367149 2.876323 10197915
0.42494717 0.10384785 2.881216 10197915
0.47469515 0.10402482 2.8861258 10197915
0.52461159 0.10420235 2.8910525 10197915
0.57470018 0.10438054 2.8959959 10197915
0.60777164 0.10449818 2.8992596 10197915
0.69665855 0.10508917 2.8501358 10197915
0.72450763 0.1051885 2.8528295 10197915
0.7754851 0.10537028 2.8577602 10197915
0.82541859 0.10554838 2.8625898 10197915
0.8742978 0.10572271 2.8673184 10197915
0.93127644 0.10457999 2.8839498 10197915
0.97525942 0.10376016 2.8817158 10197915
1.0249963 0.1033337 2.866951 10197915
1.0619321 0.10288272 2.8544395 10197915
0.78202361 -1.3087339 2.9444675 6447714
0.82238156 -1.3056055 2.9308095 6447714
0.86527216 -1.3023472 2.9162931 6447714
0.7831561 -1.2750255 2.9441974 6447714
0.82551354 -1.2750059 2.9298508 6447714
0.87500083 -1.2750231 2.9130902 6447714
0.90657955 -1.2743654 2.9023969 6447714
0.78414577 -1.2250296 2.9440324 6447714
0.8253811 -1.2249732 2.9300649 6447714
0.87501085 -1.2249762 2.9132557 6447714
0.90700668 -1.2243602 2.9024212 6447714
0.7843616 -1.1750863 2.9441276 6447714
0.82543892 -1.1749351 2.9302158 6447714
0.8750515 -1.1749774 2.9134107 6447714
0.90776157 -1.174911 2.9023328 6447714
0.7842648 -1.1250535 2.9443293 6447714
0.82558036 -1.1250025 2.930337 6447714
0.87509346 -1.1250259 2.9135666 6447714
0.90780926 -1.1249843 2.9024856 6447714
0.78378081 -1.075458 2.9446607 6447714
0.8248992 -1.0746763 2.9307373 6447714
0.87519431 -1.0750167 2.9136996 6447714
0.90790194 -1.0750543 2.9026232 6447714
0.78340167 -1.0251106 2.9449613 6447714
0.82454234 -1.0249699 2.931026 6447714
0.87520885 -1.0249484 2.913866 6447714
0.90799457 -1.0251193 2.9027605 6447714
0.78440022 -0.97495657 2.9447918 6447714
0.82450545 -0.97502488 2.9312093 6447714
0.8752594 -0.97492707 2.9140179 6447714
0.9085452 -0.97429407 2.9027462 6447714
0.78452516 -0.92498362 2.9449184 6513507
0.82464761 -0.92496598 2.9313295 6513507
0.87529665 -0.92500806 2.9141743 6513507
0.90908676 -0.92491728 2.9027307 6513507
0.78450006 -0.87491548 2.9450958 6513507
0.82455051 -0.87495875 2.9315317 6513507
0.875278 -0.87502891 2.9143498 6513507
0.90912783 -0.87490606 2.9028859 6513507
0.78459126 -0.82493335 2.9452345 6513507
0.82472444 -0.82499689 2.9316411 6513507
0.87544823 -0.82504505 2.9144614 6513507
0.90922797 -0.82504225 2.9030204 6513507
0.7847873 -0.77524751 2.9453375 6513507
0.82470703 -0.77497625 2.9318166 6513507
0.87549436 -0.77500445 2.9146166 6513507
0.90937436 -0.77532649 2.9031391 6513507
0.78586513 -0.72507471 2.9451406 6513507
0.82473278 -0.72500354 2.9319782 6513507
0.87540734 -0.72490388 2.9148147 6513507
0.91002661 -0.72454685 2.9030902 6513507
0.78571552 -0.67508161 2.9453602 6513507
0.82487851 -0.67502815 2.9320955 6513507
0.87548584 -0.67495704 2.914957 6513507
0.91045851 -0.67472816 2.9031129 6513507
0.7859478 -0.62508881 2.9454515 6513507
0.82481891 -0.6249885 2.9322863 6513507
0.87562376 -0.62506026 2.9150786 6513507
0.9104014 -0.62464213 2.903301 6513507
-1.6747481 -0.56291091 2.9272304 2702415
0.78582138 -0.57498252 2.9456642 6513507
0.82489532 -0.5750581 2.93243 6513507
0.87561917 -0.57499456 2.9152508 6513507
0.91057754 -0.57509702 2.9034095 6513507
-1.674724 -0.52610594 2.9279156 2702673
0.78637373 -0.52550536 2.9456434 6513507
0.82497072 -0.52500927 2.9325733 6513507
0.87572598 -0.52497804 2.9153824 6513507
0.91068327 -0.52541047 2.9035406 6513507
-1.6710421 -0.48043808 2.9395456 3034991
0.78697896 -0.47502929 2.9456093 6513507
0.82498735 -0.47501117 2.9327366 6513507
0.87562388 -0.47506526 2.915586 6513507
0.91154701 -0.47472978 2.9034207 6513507
0.78725845 -0.42503011 2.945684 6513507
0.8249175 -0.42506018 2.9329286 6513507
0.87569261 -0.42503783 2.915731 6513507
0.91178489 -0.42461953 2.9035101 6513507
-1.6714007 -0.35693949 2.9405406 2894892
0.78709173 -0.37489265 2.9459112 6513507
0.82534069 -0.37500009 2.9329555 6513507
0.87598324 -0.37506035 2.915802 6513507
0.91170615 -0.37459031 2.9037056 6513507
-1.6719819 -0.32496578 2.9393568 2377321
0.78731179 -0.32488197 2.9460051 6513507
0.82479471 -0.32492816 2.9333093 6513507
0.87587297 -0.32491925 2.9160109 6513507
0.91200805 -0.32530394 2.9037702 6513507
-1.6721325 -0.27506468 2.9397418 2379129
0.78757644 -0.27541414 2.9460828 6513507
0.82543027 -0.27512732 2.9332628 6513507
0.87562323 -0.27482 2.9162636 6513507
0.91192818 -0.27550468 2.903965 6513507
-1.6723536 -0.22498806 2.9399204 2313592
0.78851271 -0.22481911 2.9459367 6513507
0.82512575 -0.22488591 2.9335361 6513507
0.87565237 -0.22554378 2.91642 6513507
0.91242248 -0.2243261 2.9039712 6513507
-1.6724668 -0.1750564 2.9404182 2247541
0.78837979 -0.17477362 2.9461515 6513507
0.82527262 -0.17506945 2.9336553 6513507
0.87486988 -0.17522043 2.9168556 6513507
0.91202295 -0.17446472 2.9042749 6513507
-1.6727066 -0.1251405 2.9405413 2181490
0.78859597 -0.12475403 2.9462476 6513507
0.82526249 -0.12519102 2.9338276 6513507
0.87491691 -0.12447356 2.9170108 6513507
0.9120205 -0.12503554 2.9044423 6513507
-1.6728135 -0.075005405 2.9410579 2181233
0.78850079 -0.074577838 2.94645 6513507
0.82530576 -0.07536155 2.9339797 6513507
0.87496245 -0.074929647 2.9171622 6513507
0.91216564 -0.07571318 2.9045606 6513507
-1.6730666 -0.025079001 2.941143 2181744
0.78917021 -0.025186798 2.9463897 6513507
0.82534909 -0.025526889 2.9341345 6513507
0.87500834 -0.025380552 2.9173162 6513507
0.91233271 -0.025016187 2.9046748 6513507
-1.6732432 0.025082536 2.9414549 2115438
0.78980088 0.024554398 2.9463446 6513507
0.82539397 0.025528716 2.9342916 6513507
0.87505442 0.025382373 2.9174726 6513507
0.91330147 0.025269659 2.9045174 6513507
-1.6727145 0.072999969 2.9403067 1917033
-1.6258916 0.095427997 2.9157236 2316172
-1.575653 0.095604628 2.9211204 1324375
-1.5424461 0.095721364 2.9246869 1059397
-1.4249717 0.09613438 2.9373062 8423828
-1.3751458 0.096309543 2.9426584 1985406
-1.3286364 0.096473075 2.947655 3623261
-0.96601611 0.098054595 2.9220023 1853299
-0.92500508 0.098199233 2.9263127 1059398
-0.8756367 0.098373346 2.9315009 8751244
-0.82491052 0.098552249 2.9368317 10000536
-0.774001 0.098731801 2.9421823 10000536
-0.74788952 0.098823898 2.9449272 10000536
-0.53545254 0.099871449 2.9044294 1324124
0.78974551 0.074593477 2.946532 6908265
0.82543671 0.075374037 2.9344468 6842472
0.87510127 0.074941911 2.9176245 6842472
0.91343796 0.075633898 2.9046416 6908265
-0.41567776 0.10029514 2.9167514 2046293
-0.37393028 0.1004428 2.921046 10066329
-0.32487488 0.10061634 2.9260921 10000536
-0.27805495 0.10078195 2.9309082 10000536
-0.16699553 0.10117482 2.9423337 10000536
-0.14031193 0.10126921 2.9450786 5927566
0.034864388 0.10218047 2.9016609 10066329
0.074641272 0.10232158 2.9056678 10132122
0.12421018 0.10249742 2.910661 10197915
0.17516437 0.10267819 2.9157948 10197915
0.2250783 0.10285527 2.9208226 10197915
0.27516606 0.10303295 2.9258685 10197915
0.3254258 0.10321125 2.9309313 10197915
0.37462828 0.10338578 2.9358888 10197915
0.42523453 0.10356532 2.9409862 10197915
0.47601542 0.10374546 2.9461019 10197915
0.50830364 0.10386 2.9493544 10197915
0.63232487 0.10458551 2.9016826 10197915
0.67415869 0.10473432 2.9058118 10197915
0.72476041 0.10491432 2.9108052 10197915
0.7822997 0.10388582 2.9303994 10197915
0.82539368 0.10307662 2.9303448 10197915
0.87510967 0.10274361 2.9176531 10197915
0.91252124 0.10324496 2.905046 10197915
0.63365972 -1.3199372 2.9946804 6447714
0.67333198 -1.3169284 2.9812534 6447714
0.7231831 -1.313181 2.9643803 6447714
0.75705594 -1.3105376 2.9529176 6447714
0.63397759 -1.2749393 2.9947245 6447714
0.67436761 -1.2749881 2.9810441 6447714
0.72459549 -1.2750295 2.9640317 6447714
0.75730008 -1.274935 2.952955 6447714
0.63405514 -1.2249005 2.9948678 6447714
0.67431563 -1.2249769 2.9812305 6447714
0.72443897 -1.2250252 2.9642549 6447714
0.75837159 -1.2249669 2.9527621 6447714
0.63404441 -1.1750455 2.9950397 6447714
0.67433578 -1.1749616 2.9813933 6447714
0.72468907 -1.1749629 2.96434 6447714
0.75858319 -1.175027 2.9528596 6447714
0.63410437 -1.1251844 2.9951892 6447714
0.67452061 -1.1249429 2.9815004 6447714
0.72459638 -1.1250039 2.9645391 6447714
0.75840378 -1.1249282 2.9530907 6447714
0.6352036 -1.0753238 2.9949849 6447714
0.67440689 -1.074918 2.9817078 6447714
0.72463256 -1.0749835 2.9646959 6447714
0.75866324 -1.0748272 2.9531715 6447714
0.6352514 -1.0250386 2.9951391 6447714
0.6745041 -1.0249974 2.9818428 6447714
0.72466558 -1.0249051 2.9648554 6447714
0.75861412 -1.0245928 2.9533579 6447714
0.63535637 -0.97494048 2.9952731 6447714
0.67457598 -0.97507274 2.9819884 6447714
0.7247799 -0.97504121 2.9649851 6447714
0.75978261 -0.97495311 2.9531307 6447714
0.63533264 -0.9249388 2.9954495 6447714
0.67452884 -0.92503321 2.9821739 6447714
0.72479218 -0.92506289 2.9651496 6513507
0.75979799 -0.92497611 2.9532945 6513507
0.63540465 -0.87493128 2.995595 6513507
0.67454916 -0.87498516 2.9823368 6513507
0.72472668 -0.87502205 2.9653411 6513507
0.75981379 -0.8749938 2.9534576 6513507
0.63656539 -0.82499444 2.9953709 6513507
0.67468983 -0.82498991 2.9824588 6513507
0.72497958 -0.82497698 2.9654248 6513507
0.75998884 -0.82514578 2.9535687 6513507
0.63670331 -0.77483982 2.9954934 6513507
0.67473096 -0.77504599 2.9826131 6513507
0.72480065 -0.7749809 2.9656544 6513507
0.76003736 -0.77472585 2.9537215 6513507
0.63671601 -0.72489965 2.9956584 6513507
0.67467368 -0.72509402 2.982801 6513507
0.7249248 -0.72498071 2.9657819 6513507
0.76121998 -0.72499442 2.9534898 6513507
0.63669688 -0.67517853 2.9958324 6513507
0.67471451 -0.67502576 2.9829566 6513507
0.72497851 -0.67497784 2.9659331 6513507
0.76099062 -0.67497635 2.9537368 6513507
0.63663673 -0.62533766 2.9960222 6513507
0.67481941 -0.62489909 2.9830909 6513507
0.72501719 -0.6250748 2.966089 6513507
0.76129425 -0.62484765 2.953805 6513507
-1.6587139 -0.56296849 2.9745736 6514281
0.63783753 -0.57524818 2.995785 6513507
0.67475212 -0.57493234 2.9832828 6513507
0.72504151 -0.57500547 2.9662502 6513507
0.76111406 -0.5749405 2.9540334 6513507
-1.6588557 -0.52487713 2.9747884 5534096
0.63797408 -0.5248915 2.9959087 6513507
0.6748938 -0.52501541 2.9834042 6513507
0.72500199 -0.52492791 2.9664321 6513507
0.7616291 -0.52445513 2.9540288 6513507
-1.6593894 -0.48413572 2.9738903 5339295
0.6381104 -0.47453094 2.9960325 6513507
0.67505759 -0.47503954 2.9835169 6513507
0.72528875 -0.475012 2.9665043 6513507
0.76249903 -0.47505227 2.9539018 6513507
0.63802439 -0.42452529 2.996232 6513507
0.67476833 -0.42505834 2.9837849 6513507
0.72498876 -0.4250367 2.9667757 6513507
0.7623297 -0.42500088 2.9541297 6513507
-1.6593006 -0.35705662 2.9762685 4615316
0.63805765 -0.37489289 2.9963884 6513507
0.67481959 -0.37506986 2.983937 6513507
0.72512919 -0.37499875 2.966898 6513507
0.76260936 -0.37485588 2.9542038 6513507
-1.6600299 -0.32495779 2.9746473 4419484
0.6392498 -0.32521248 2.9961517 6513507
0.67502528 -0.32496634 2.9840355 6513507
0.72549146 -0.32496062 2.9669437 6513507
0.76238734 -0.32512209 2.9544463 6513507
-1.6603594 -0.27532825 2.9745002 3893915
0.63928324 -0.27557611 2.9963095 6513507
0.67525393 -0.27480441 2.9841282 6513507
0.72506136 -0.27512982 2.9672575 6513507
0.76316231 -0.27443156 2.9543543 6513507
-1.6608388 -0.22512458 2.9739187 3499929
0.63922781 -0.22565013 2.9964969 6513507
0.67504197 -0.22502232 2.9843683 6513507
0.72528428 -0.22496784 2.9673507 6513507
0.76373303 -0.22520527 2.9543273 6513507
-1.6609963 -0.17504084 2.9742875 3039637
0.63943762 -0.17477909 2.9965978 6513507
0.67502248 -0.1755181 2.9845433 6513507
0.72550648 -0.17480348 2.9674456 6513507
0.7637732 -0.17503285 2.9544857 6513507
-1.6611179 -0.12501067 2.9747617 2908565
0.63943702 -0.1242842 2.996769 6513507
0.67495233 -0.12510665 2.9847367 6513507
0.72536016 -0.12540543 2.9676635 6513507
0.76381385 -0.12485518 2.9546402 6513507
-1.6614312 -0.074706711 2.9746726 2711187
0.6405772 -0.074485913 2.996551 6513507
0.67536843 -0.074484125 2.984767 6513507
0.7253986 -0.07500127 2.9678202 6513507
0.76385391 -0.074672133 2.9547968 6513507
-1.66151 -0.024651973 2.9752719 2514065
0.64061064 -0.024829792 2.9967074 6513507
0.67518455 -0.024732759 2.9849992 6513507
0.7254371 -0.024591729 2.9679782 6513507
0.76447904 -0.023993328 2.9547555 6513507
-1.661683 0.024655381 2.9755821 2316173
0.64064395 0.024831515 2.9968641 6513507
0.67521954 0.024734491 2.9851532 6513507
0.72547454 0.024593446 2.9681311 6513507
0.7650584 0.024482349 2.9547253 6513507
-1.6619827 0.072776794 2.9752235 2250636
-1.6244469 0.095120154 2.9818065 1655403
-1.5835943 0.095263317 2.9862938 993862
-1.4697201 0.095662348 2.9988031 9934743
-1.3041592 0.09655913 2.950284 10066329
-1.2983236 0.096579641 2.950911 10000536
-1.0021591 0.097620919 2.9827263 2447500
-0.97588778 0.097713254 2.9855473 1522785
-0.9256103 0.097890012 2.9909482 3228761
-0.8751508 0.098067418 2.9963684 10000536
-0.84503567 0.09817329 2.9996035 10000536
-0.55645704 0.09949901 2.9650455 1721211
-0.54078758 0.099554285 2.9666924 1059657
-0.42818481 0.099951416 2.9785271 1191759
0.64067763 0.074498013 2.9970214 6842472
0.67544091 0.074438766 2.9852459 6842472
0.72551292 0.075013556 2.9682889 6908265
0.76509851 0.074674703 2.9548802 6908265
-0.40750599 0.10002434 2.9807003 7830916
-0.37459159 0.10014042 2.9841597 10197915
-0.32447562 0.10031718 2.9894266 10132122
-0.2803272 0.10047288 2.9940665 10197915
-0.009804287 0.10173086 2.9585044 10197915
0.024549704 0.10185238 2.9620385 10197915
0.074994199 0.10203082 2.9672279 10197915
0.12561435 0.10220988 2.9724348 10197915
0.17517206 0.1023852 2.9775338 10197915
0.22490008 0.10256109 2.9826488 10197915
0.2747992 0.10273762 2.9877822 10197915
0.32487047 0.10291473 2.9929335 10197915
0.37133828 0.10307909 2.9977133 10197915
0.53319705 0.1039483 2.9518623 10197915
0.57561177 0.10409876 2.956135 10197915
0.63234556 0.1031831 2.9771461 10197915
0.67410207 0.10252874 2.9794762 10197915
0.72594601 0.10324355 2.9675832 10197915
0.76512116 0.10283346 2.954968 10197915
0.4845207 -1.3562307 3.0450704 6447714
0.52072036 -1.3534528 3.032819 6447714
0.5545128 -1.3506089 3.0213833 6447714
0.48566625 -1.3250753 3.0447874 6447714
0.52617645 -1.3250421 3.0310674 6447714
0.57519639 -1.3241577 3.0144649 6447714
0.60944188 -1.3217908 3.002876 6447714
0.48457333 -1.2752129 3.0453265 6447714
0.52503014 -1.2749268 3.0316248 6447714
0.57569814 -1.2750189 3.0144656 6447714
0.60961211 -1.2750442 3.0029769 6447714
0.48494503 -1.2255303 3.0453694 6447714
0.52500898 -1.2249782 3.0318012 6447714
0.5757733 -1.2250698 3.0146086 6447714
0.6096586 -1.225034 3.0031302 6447714
0.48575076 -1.1749122 3.0452669 6447714
0.52508521 -1.1750275 3.0319438 6447714
0.5758149 -1.1749969 3.0147634 6447714
0.60970533 -1.1750194 3.0032837 6447714
0.48577645 -1.1248513 3.0454285 6447714
0.52512389 -1.1250714 3.0321 6447714
0.57584512 -1.1249191 3.0149243 6447714
0.6097517 -1.124998 3.003437 6447714
0.48576906 -1.0750146 3.045599 6447714
0.52507007 -1.0751094 3.0322871 6447714
0.57582015 -1.074954 3.0150993 6447714
0.61084467 -1.0748609 3.0032365 6447714
0.48576185 -1.0251721 3.0457702 6447714
0.52513319 -1.0250847 3.0324352 6447714
0.57586175 -1.0249839 3.0152531 6447714
0.61087716 -1.0251338 3.0033944 6447714
0.48618335 -0.97562629 3.0457952 6447714
0.52395159 -0.97507018 3.0330052 6447714
0.57470495 -0.97499561 3.015816 6447714
0.6109224 -0.97513789 3.0035474 6447714
0.48705012 -0.9250145 3.0456727 6447714
0.5240134 -0.92503607 3.0331523 6447714
0.57475376 -0.92501146 3.0159669 6447714
0.6109674 -0.92513686 3.003701 6447714
0.48711824 -0.87496847 3.0458188 6513507
0.52402407 -0.87499869 3.0333195 6513507
0.57476521 -0.87502164 3.0161314 6513507
0.61101252 -0.87513083 3.0038557 6513507
0.48719212 -0.8250441 3.0459633 6513507
0.52411437 -0.82507473 3.0334575 6513507
0.57481992 -0.82502639 3.0162821 6513507
0.61216885 -0.82489228 3.0036345 6513507
0.48712128 -0.77485949 3.0461569 6513507
0.52410758 -0.77514637 3.0336275 6513507
0.57482594 -0.77502561 3.0164521 6513507
0.61227071 -0.77490485 3.0037689 6513507
0.48735365 -0.72533292 3.0462451 6513507
0.52408373 -0.72509164 3.0338056 6513507
0.57488585 -0.72501999 3.0166018 6513507
0.61235458 -0.72479427 3.0039093 6513507
0.48835713 -0.67500204 3.0460758 6513507
0.52411735 -0.6749723 3.0339639 6513507
0.57496119 -0.67500931 3.0167444 6513507
0.61236995 -0.67467684 3.0040741 6513507
0.48847729 -0.62526244 3.0462036 6513507
0.52416193 -0.62490684 3.0341184 6513507
0.57495672 -0.62499338 3.0169141 6513507
0.61234993 -0.62480104 3.0042496 6513507
-1.6416904 -0.56309754 3.0248373 6381921
0.48847532 -0.57537222 3.0463724 6513507
0.52421236 -0.5748964 3.034271 6513507
0.5750379 -0.5749718 3.0170541 6513507
0.61354506 -0.57497132 3.0040133 6513507
-1.6500051 -0.50109422 3.0013177 3959707
-1.6417669 -0.52512157 3.0252421 2704996
0.4884477 -0.52505428 3.0465529 6513507
0.52426302 -0.52488118 3.0344226 6513507
0.575028 -0.52494568 3.0172257 6513507
0.61357754 -0.52521753 3.0041709 6513507
-1.6500527 -0.48743066 3.001404 3893914
-1.6420996 -0.48951277 3.0248525 2508906
0.48874712 -0.47512025 3.0466197 6513507
0.52436471 -0.47492093 3.0345566 6513507
0.57511449 -0.47491392 3.0173659 6513507
0.61360973 -0.47545895 3.004328 6513507
0.48958296 -0.4245339 3.0465076 6513507
0.52431238 -0.42489591 3.034744 6513507
0.5750944 -0.42499056 3.0175443 6513507
0.61358905 -0.42557916 3.0045054 6513507
-1.6505076 -0.3569673 3.0022314 3762842
-1.6424168 -0.35715476 3.0261176 2377321
0.48983848 -0.37535101 3.0465872 6513507
0.52417547 -0.37480339 3.0349593 6513507
0.57506812 -0.37506151 3.0177224 6513507
0.61360091 -0.3754687 3.004669 6513507
-1.6506159 -0.32589358 3.0024288 3762843
-1.6424969 -0.32497284 3.0264161 2245992
0.48974848 -0.32565942 3.0467865 6513507
0.52422571 -0.32476598 3.0351121 6513507
0.57509863 -0.32507041 3.0178788 6513507
0.61482668 -0.32517222 3.0044241 6513507
-1.6510437 -0.27113405 3.0020759 3565721
-1.6426524 -0.27484888 3.0267904 2114664
0.48977432 -0.27518421 3.0469477 6513507
0.52425277 -0.27478272 3.0352716 6513507
0.57512885 -0.27507424 3.0180404 6513507
0.61494523 -0.27478161 3.0045547 6513507
-1.6511383 -0.22214678 3.0026133 3170709
-1.6425467 -0.22528812 3.0279284 1916772
0.49001509 -0.22521655 3.0470357 6513507
0.52433121 -0.22491556 3.0354133 6513507
0.57515925 -0.2250724 3.0181975 6513507
0.61506426 -0.22438708 3.0046852 6513507
-1.6511439 -0.17419726 3.0033925 2709647
-1.6425376 -0.17500173 3.028791 1653345
0.49102455 -0.17419446 3.0468674 6513507
0.52460074 -0.17534989 3.0354908 6513507
0.57518929 -0.17506555 3.0183561 6513507
0.61496723 -0.17428425 3.0048869 6513507
-1.6513175 -0.12443959 3.0037079 2710672
-1.6427462 -0.12524536 3.0290034 1719906
0.49104992 -0.12497206 3.0470245 6513507
0.5245291 -0.1256499 3.0356834 6513507
0.57521969 -0.12505327 3.018517 6513507
0.61506242 -0.12439638 3.005024 6513507
-1.6514909 -0.074671403 3.0040233 2579600
-1.6428605 -0.075304575 3.0294952 1720162
0.49107519 -0.075744428 3.0471821 6513507
0.52444834 -0.075463496 3.0358796 6513507
0.57525021 -0.075035848 3.018677 6513507
0.6161949 -0.074691139 3.0048089 6513507
-1.6516646 -0.0248928 3.004339 2514577
-1.6430353 -0.025103891 3.0298164 1654369
0.4911015 -0.02524934 3.0473447 6513507
0.52447659 -0.025155693 3.0360408 6513507
0.57528025 -0.025013132 3.0188315 6513507
0.61622703 -0.024898212 3.0049665 6513507
-1.6517509 0.025908154 3.0049286 2514576
-1.6436251 0.024867602 3.0289049 1588321
0.49128461 0.024780307 3.047452 6513507
0.52450418 0.025157465 3.0362027 6513507
0.57531059 0.025014877 3.0189936 6513507
0.61625928 0.02489996 3.0051239 6513507
-1.6515278 0.072239235 3.0063579 2250635
-1.6433063 0.073003612 3.0305932 1456477
-1.4543868 0.095716074 3.0004871 9934743
-1.424842 0.095819622 3.0037329 3694732
-1.3750751 0.095994018 3.0091999 1192278
-1.3370408 0.096127279 3.0133779 9474451
-1.0142645 0.097258374 3.0488348 2118535
-0.81967783 0.098262437 3.0023277 10000536
-0.7809568 0.098398581 3.0064871 10000536
-0.56236351 0.099167094 3.0299685 1390692
-0.54635638 0.099223368 3.0316877 1125190
-0.42508006 0.099649757 3.0447159 4807277
-0.38775501 0.099780984 3.0487256 10197915
0.49235144 0.075746894 3.0472639 6974058
0.52453166 0.075475946 3.0363622 6974058
0.57534087 0.075048134 3.0191531 6908265
0.61629146 0.074703351 3.0052824 6842472
-0.16934778 0.10086427 3.0057299 10197915
-0.1420918 0.10096041 3.0085945 5270925
-0.010016259 0.10142621 3.0224755 10197915
0.025081336 0.10154998 3.0261638 10197915
0.075360849 0.10172732 3.0314481 10197915
0.12581626 0.10190525 3.036751 10197915
0.17517984 0.10207935 3.0419393 10197915
0.22471383 0.10225407 3.0471449 10197915
0.25144842 0.10234835 3.0499549 10197915
0.39651385 0.10316815 3.0003033 10197915
0.42553264 0.10327081 3.0032885 10197915
0.47905946 0.10316102 3.017719 10197915
0.5244512 0.10273667 3.0252311 10197915
0.57568091 0.10248595 3.0176859 10197915
0.6163094 0.10209723 3.0053682 10197915
0.33578804 -1.3676451 3.0954068 6447714
0.37429321 -1.364562 3.0823755 6447714
0.42377838 -1.3608133 3.0656281 6447714
0.4600713 -1.3580506 3.0533447 6447714
0.33720139 -1.324909 3.095073 6447714
0.37545896 -1.3250303 3.0821149 6447714
0.42543688 -1.3250237 3.0651872 6447714
0.46046409 -1.324885 3.053324 6447714
0.33726543 -1.2749726 3.0952201 6447714
0.37536943 -1.2749773 3.0823147 6447714
0.42546511 -1.2749608 3.0653477 6447714
0.46050423 -1.2749863 3.0534799 6447714
0.3372941 -1.224907 3.0953798 6447714
0.37548637 -1.2250516 3.0824435 6447714
0.42540565 -1.2249523 3.0655365 6447714
0.46097282 -1.2243857 3.0534921 6447714
0.33725473 -1.1748413 3.0955627 6447714
0.37546182 -1.1750525 3.0826221 6447714
0.4255279 -1.1750618 3.0656636 6447714
0.4617033 -1.1750343 3.0534122 6447714
0.33731827 -1.1248841 3.0957108 6447714
0.37549493 -1.1250489 3.0827804 6447714
0.42546192 -1.1250453 3.0658545 6447714
0.46178171 -1.1250559 3.0535545 6447714
0.33843058 -1.075037 3.0955021 6447714
0.37545431 -1.0751067 3.082962 6447714
0.42554897 -1.0749588 3.0659955 6447714
0.46186054 -1.075073 3.0536969 6447714
0.33861953 -1.0249571 3.0956075 6447714
0.37563071 -1.0249646 3.0830717 6447714
0.42555982 -1.0249912 3.0661612 6447714
0.46169516 -1.0250843 3.0539215 6447714
0.33855549 -0.97486359 3.0957975 6447714
0.37540659 -0.97494686 3.0833173 6447714
0.42547628 -0.97507972 3.0663593 6447714
0.46223038 -0.97448337 3.0539114 6447714
0.3386811 -0.92502183 3.0959253 6447714
0.37562963 -0.92498648 3.0834105 6447714
0.42561617 -0.92503905 3.0664797 6447714
0.46306509 -0.92508018 3.0537961 6447714
0.33854696 -0.87504482 3.0961399 6447714
0.3755995 -0.87495732 3.0835896 6447714
0.42570922 -0.87499565 3.0666173 6513507
0.46313822 -0.875027 3.0539403 6513507
0.33972484 -0.8255747 3.0959082 6513507
0.37554744 -0.82498568 3.0837765 6513507
0.42553252 -0.82494485 3.0668471 6513507
0.46309 -0.82496738 3.0541265 6513507
0.33977038 -0.77514029 3.0960631 6513507
0.37568292 -0.77501267 3.0839 6513507
0.42560732 -0.77495098 3.0669918 6513507
0.46304134 -0.77490109 3.0543127 6513507
0.34004191 -0.72516376 3.0961401 6513507
0.3756212 -0.72496295 3.0840905 6513507
0.42575321 -0.72507489 3.0671098 6513507
0.46351197 -0.72444552 3.0543237 6513507
0.33983466 -0.67502254 3.09638 6513507
0.37565374 -0.67504579 3.0842485 6513507
0.4257105 -0.67494595 3.0672936 6513507
0.46452126 -0.67522287 3.054148 6513507
0.34004986 -0.625036 3.0964761 6513507
0.37569812 -0.62498724 3.084403 6513507
0.42567447 -0.62493479 3.0674751 6513507
0.46438998 -0.62510014 3.0543633 6513507
-1.6245536 -0.56309658 3.0754349 4802889
0.34064281 -0.57570636 3.0964427 6513507
0.37570947 -0.57499075 3.0845683 6513507
0.42572656 -0.57504421 3.0676267 6513507
0.46431535 -0.5747422 3.0545585 6513507
-1.6246614 -0.52491367 3.075753 2109505
0.3413198 -0.52499592 3.0963845 6513507
0.37563482 -0.52505296 3.0847631 6513507
0.42576024 -0.52496052 3.0677853 6513507
0.46437192 -0.52484196 3.0547073 6513507
-1.6261227 -0.49446622 3.0719464 2439242
0.34114748 -0.47497717 3.0966125 6513507
0.37602097 -0.47491801 3.0848012 6513507
0.42527509 -0.47525027 3.0681176 6513507
0.4641214 -0.47431889 3.0549638 6513507
0.34135574 -0.42498258 3.0967107 6513507
0.3754293 -0.42490342 3.08517 6513507
0.42431715 -0.42497742 3.0686121 6513507
0.46454084 -0.42516336 3.0549879 6513507
-1.6273261 -0.35716778 3.0706754 2242896
0.34122294 -0.37479442 3.0969248 6513507
0.3760722 -0.37508196 3.0851204 6513507
0.42459795 -0.37503773 3.0686858 6513507
0.46450973 -0.37465301 3.0551691 6513507
-1.6272967 -0.32495731 3.0712986 2111311
0.34196144 -0.32558244 3.0968423 6513507
0.3755466 -0.32498783 3.0854683 6513507
0.4248797 -0.32509699 3.0687604 6513507
0.46433431 -0.3247132 3.0553973 6513507
-1.6275257 -0.2751123 3.0714514 1914190
0.34249771 -0.2747328 3.096832 6513507
0.3760384 -0.27515998 3.0854704 6513507
0.42448729 -0.27482063 3.0690618 6513507
0.46475738 -0.27538076 3.0554204 6513507
-1.6276532 -0.22508365 3.071907 1651276
0.3426244 -0.22472191 3.0969584 6513507
0.37581918 -0.22499366 3.0857151 6513507
0.4246648 -0.22505791 3.0691719 6513507
0.46483791 -0.22502072 3.0555634 6513507
-1.6279305 -0.17504661 3.0719199 1453642
0.3416968 -0.17528856 3.09744 6513507
0.37485799 -0.17487316 3.0862091 6513507
0.42484361 -0.17529283 3.0692787 6513507
0.46581 -0.17468265 3.0554051 6513507
-1.628464 -0.12486311 3.0711806 1388618
0.34136903 -0.1244847 3.097723 6513507
0.37468728 -0.12525161 3.0864348 6513507
0.42471012 -0.12462193 3.0694964 6513507
0.46561843 -0.12467559 3.0556395 6513507
-1.6287211 -0.075258873 3.0712464 1323082
0.34182864 -0.075535126 3.0977333 6513507
0.37458679 -0.075382352 3.0866375 6513507
0.42473218 -0.0750314 3.0696549 6513507
0.46607485 -0.075337686 3.0556514 6513507
-1.628848 -0.025450917 3.0717001 1323082
0.34264269 -0.024382707 3.0976312 6513507
0.37472653 -0.025517788 3.0867591 6513507
0.4247545 -0.025435532 3.0698147 6513507
0.46588326 -0.025320128 3.055886 6513507
-1.6295166 0.025442488 3.0705719 1191496
0.34266028 0.024384376 3.0977886 6513507
0.37474662 0.025519619 3.086925 6513507
0.42477721 0.025437346 3.0699811 6513507
0.46609938 0.025549095 3.055985 6513507
-1.6290623 0.073599085 3.0699422 1059655
-1.5067554 0.095203608 3.0640068 9934743
-1.4754366 0.095312968 3.0675271 6584720
-1.4247046 0.09549015 3.0732288 1655665
-1.376214 0.095659472 3.0786784 5792624
-1.002075 0.097301103 3.0501742 1589093
-0.97520912 0.097395241 3.0531249 1059911
-0.92501748 0.097571105 3.0586381 6910331
-0.87464267 0.097747631 3.0641716 10000536
-0.82408684 0.097924791 3.0697255 10000536
-0.78946114 0.098046124 3.073529 10000536
-0.57105023 0.098811492 3.0975213 1324381
-0.3628118 0.099868678 3.0514045 10197915
-0.33782625 0.09995652 3.0540886 10197915
0.34267837 0.074440002 3.0979526 6908265
0.3746461 0.075394757 3.0871286 6908265
0.42479947 0.075043641 3.0701396 6908265
0.4673658 0.075297616 3.0557241 6908265
-0.31279519 0.10004452 3.0567772 10197915
-0.28269967 0.10015033 3.0600102 10197915
-0.17180383 0.10054021 3.0719228 10197915
-0.1439503 0.10063814 3.0749149 4285578
-0.010237614 0.10110825 3.0892785 10197915
0.024353268 0.10122985 3.092994 10197915
0.06930799 0.1013879 3.0978234 10197915
0.27696958 0.10243835 3.0526371 10197915
0.32913709 0.10235668 3.0661404 10197915
0.37453598 0.1018673 3.0756383 10197915
0.42455298 0.10169163 3.0682886 10197915
0.46421739 0.10169921 3.0568798 10197915
0.18665121 -1.4039067 3.1457968 6447714
0.21201879 -1.4016929 3.137212 6447714
0.18762365 -1.3750985 3.1455648 6447714
0.22575648 -1.3747727 3.1326549 6447714
0.27555326 -1.3720431 3.1157942 6447714
0.31119037 -1.3691238 3.1037338 6447714
0.18768652 -1.3248693 3.145714 6447714
0.22582106 -1.3250049 3.132797 6447714
0.27617103 -1.3250109 3.1157432 6447714
0.31239879 -1.3250155 3.1034737 6447714
0.18764327 -1.2748919 3.1458969 6447714
0.22576709 -1.2751027 3.132983 6447714
0.27585751 -1.2752447 3.1160178 6447714
0.31204715 -1.2744191 3.1037633 6447714
0.18793266 -1.225449 3.1459658 6447714
0.22591996 -1.2250029 3.1331029 6447714
0.27502891 -1.2249986 3.1164694 6447714
0.31117082 -1.2249533 3.1042273 6447714
0.18901247 -1.175106 3.1457705 6447714
0.22584692 -1.1749614 3.1332951 6447714
0.27500206 -1.1749799 3.1166465 6447714
0.31133446 -1.1749829 3.1043408 6447714
0.18908143 -1.1250625 3.1459167 6447714
0.22588521 -1.1250423 3.1334517 6447714
0.27497596 -1.1249554 3.1168246 6447714
0.31115252 -1.1250174 3.1045721 6447714
0.18888472 -1.0750142 3.1461535 6447714
0.22591619 -1.0749917 3.1336112 6447714
0.27516755 -1.0750591 3.1169291 6447714
0.31247231 -1.0749246 3.104295 6447714
0.1889538 -1.0249593 3.1462991 6447714
0.22583662 -1.0249348 3.1338058 6447714
0.27498451 -1.0250251 3.1171603 6447714
0.31252366 -1.0250483 3.1044455 6447714
0.18902285 -0.97489953 3.1464455 6447714
0.2259109 -0.97493595 3.1339488 6447714
0.27508739 -0.97491521 3.1172953 6447714
0.31254044 -0.97494102 3.1046097 6447714
0.1903628 -0.9247818 3.1461606 6447714
0.22604452 -0.92493397 3.1340771 6447714
0.2751708 -0.92500573 3.117434 6447714
0.31259143 -0.92494458 3.1047616 6447714
0.19036488 -0.8748095 3.1463292 6447714
0.22586225 -0.87505525 3.134306 6447714
0.27502805 -0.8750869 3.1176527 6447714
0.3125152 -0.8749432 3.1049566 6447714
0.19031639 -0.82515508 3.1465137 6513507
0.22588417 -0.82504058 3.1344645 6513507
0.27518535 -0.82496625 3.1177695 6513507
0.31378368 -0.82465863 3.104697 6513507
0.19022682 -0.77532983 3.1467128 6513507
0.22599791 -0.77489388 3.1345987 6513507
0.27511853 -0.77503884 3.1179624 6513507
0.31365749 -0.77499431 3.1049085 6513507
0.19031189 -0.72501838 3.1468537 6513507
0.22547284 -0.72525626 3.1349454 6513507
0.27456737 -0.72471547 3.1183164 6513507
0.31405672 -0.72486889 3.1049426 6513507
0.19131428 -0.67535621 3.146683 6513507
0.22476639 -0.67510849 3.1353545 6513507
0.27392617 -0.67490107 3.1187041 6513507
0.31371021 -0.67494667 3.1052289 6513507
0.1916922 -0.62464309 3.1467252 6513507
0.22472218 -0.6250298 3.1355352 6513507
0.27398667 -0.6250571 3.1188517 6513507
0.31400961 -0.62492013 3.1052957 6513507
-1.609881 -0.56333327 3.1187561 3092271
0.19164497 -0.57494342 3.1469097 6513507
0.22467877 -0.57494795 3.1357212 6513507
0.27391881 -0.57501984 3.1190445 6513507
0.3147296 -0.57452935 3.1052227 6513507
-1.6100612 -0.5251497 3.1188586 2039583
0.191655 -0.52542913 3.1470735 6513507
0.22469793 -0.5249936 3.1358826 6513507
0.27385595 -0.52491087 3.1192338 6513507
0.31513509 -0.52497464 3.1052525 6513507
-1.6131729 -0.49864271 3.1101129 2039583
0.19157045 -0.47552824 3.1472714 6513507
0.2248829 -0.47496724 3.1359911 6513507
0.27415258 -0.47499022 3.119303 6513507
0.31533962 -0.47503057 3.1053531 6513507
0.19231926 -0.42588425 3.147186 6513507
0.22492307 -0.4250741 3.1361465 6513507
0.27387118 -0.42506424 3.1195676 6513507
0.31501198 -0.42506546 3.1056335 6513507
0.19301924 -0.37442136 3.1471226 6513507
0.22452505 -0.37516889 3.1364505 6513507
0.2738902 -0.37500331 3.1197319 6513507
0.31542102 -0.37492195 3.1056645 6513507
0.19297385 -0.32466871 3.1473074 6513507
0.2247317 -0.32499123 3.1365507 6513507
0.27428642 -0.32487935 3.1197636 6513507
0.31573516 -0.32468849 3.105727 6513507
0.19298391 -0.27513519 3.1474702 6513507
0.22508107 -0.27467853 3.1366003 6513507
0.27388725 -0.27518937 3.1200662 6513507
0.31667957 -0.27497807 3.1055756 6513507
0.192994 -0.22559656 3.1476355 6513507
0.22480349 -0.22482461 3.1368637 6513507
0.2739729 -0.22498493 3.1202099 6513507
0.31651565 -0.22517143 3.1058002 6513507
0.1932596 -0.17664094 3.1477113 6513507
0.22481512 -0.17545027 3.1370268 6513507
0.27420178 -0.1747169 3.1203024 6513507
0.31653246 -0.17499962 3.1059644 6513507
0.19434415 -0.12493134 3.1475186 6513507
0.22454135 -0.1252376 3.1372879 6513507
0.27404922 -0.12540084 3.1205196 6513507
0.3165493 -0.1248225 3.1061275 6513507
0.19430287 -0.074330986 3.1477032 6513507
0.2251285 -0.074578039 3.1372614 6513507
0.27406356 -0.074985832 3.1206841 6513507
0.31708363 -0.074207716 3.1061192 6513507
0.194313 -0.024778141 3.1478677 6513507
0.22485083 -0.024696736 3.1375258 6513507
0.27407813 -0.024565501 3.1208515 6513507
0.31782493 -0.024448866 3.1060355 6513507
0.19432311 0.02477986 3.1480312 6513507
0.2248624 0.024698442 3.1376882 6513507
0.2740922 0.024567178 3.1210113 6513507
0.31784141 0.024450546 3.1061954 6513507
-1.5233119 0.094801605 3.1346598 8488588
-1.475261 0.094968811 3.1401887 2052487
-1.4258025 0.095140889 3.1458786 2505813
-1.3960481 0.095244408 3.1493015 9934743
-1.024422 0.096887991 3.1182168 1589351
-0.97574824 0.097057968 3.123687 1585226
-0.92564952 0.097232923 3.1293178 10066329
-0.87536991 0.097408511 3.1349688 10197915
-0.82490844 0.097584724 3.14064 10197915
-0.79835063 0.097677484 3.1436255 10197915
-0.45612738 0.099214204 3.1101458 1456480
-0.42565379 0.099321008 3.1134934 6253174
-0.3747305 0.099499449 3.1190877 10197915
-0.3249045 0.099674046 3.1245611 10197915
-0.28646177 0.09980876 3.1287839 10197915
0.19438764 0.074092679 3.1481769 6842472
0.22514376 0.074520931 3.1377625 6908265
0.27410686 0.074998133 3.1211796 6974058
0.31785819 0.07464207 3.1063595 6974058
-0.17437038 0.10020155 3.1410966 10197915
-0.14589258 0.10030135 3.1442251 2840198
0.095056027 0.10147842 3.100589 10197915
0.12473512 0.10158277 3.1037769 10197915
0.17859419 0.10153627 3.115639 10197915
0.22234616 0.10122513 3.1251495 10197915
0.27511066 0.10203833 3.1176968 10197915
0.31786713 0.10167018 3.1064479 10197915
0.038159851 -1.4149808 3.1960528 6447714
0.073921196 -1.4122748 3.1839495 6447714
0.12278954 -1.4086131 3.1674101 6447714
0.16132648 -1.4055408 3.1543677 6447714
0.038394257 -1.3748664 3.1961088 6447714
0.075158156 -1.3749682 3.1836574 6447714
0.1246192 -1.3749835 3.1669054 6447714
0.1620257 -1.3748419 3.1542351 6447714
0.038427301 -1.3247663 3.1962671 6447714
0.075242341 -1.3250571 3.1837974 6447714
0.12468305 -1.3249207 3.1670518 6447714
0.16204767 -1.3249936 3.154397 6447714
0.039250255 -1.2755721 3.1961553 6447714
0.075166114 -1.27514 3.1839924 6447714
0.12470368 -1.2749225 3.1672149 6447714
0.16206966 -1.2751389 3.1545577 6447714
0.039659031 -1.2249897 3.196188 6447714
0.075170055 -1.22508 3.1841598 6447714
0.12461042 -1.2248495 3.1674156 6447714
0.16231988 -1.224754 3.1546438 6447714
0.039678562 -1.1750643 3.1963496 6447714
0.075174034 -1.1750138 3.1843283 6447714
0.12464549 -1.1749092 3.1675727 6447714
0.16338618 -1.1749814 3.1544509 6447714
0.039724305 -1.1249692 3.1965044 6447714
0.075199738 -1.1250119 3.1844893 6447714
0.1246736 -1.1250327 3.1677313 6447714
0.16338275 -1.1247882 3.1546228 6447714
0.039700203 -1.074869 3.1966822 6447714
0.075181939 -1.0750045 3.184664 6447714
0.12465156 -1.0750121 3.1679087 6447714
0.16334265 -1.074824 3.1548042 6447714
0.040101584 -1.0256479 3.1967123 6447714
0.075214997 -1.0249922 3.1848223 6447714
0.12470096 -1.0249863 3.1680613 6447714
0.1633635 -1.0249741 3.1549661 6447714
0.041070234 -0.97506124 3.1965554 6447714
0.075189859 -0.97497493 3.1850007 6447714
0.12468609 -0.97495633 3.1682351 6447714
0.16339655 -0.9750002 3.1551239 6447714
0.04109237 -0.92516619 3.1967175 6447714
0.075230204 -0.92495102 3.1851552 6447714
0.12472843 -0.92492044 3.168391 6447714
0.16469289 -0.92504251 3.1548545 6447714
0.041114554 -0.87526637 3.1968789 6447714
0.075241484 -0.87499255 3.1853213 6447714
0.1247206 -0.87487978 3.1685622 6447714
0.16475166 -0.87509441 3.1550031 6447714
0.04105676 -0.82516748 3.1970675 6447714
0.075165376 -0.82502806 3.1855156 6447714
0.12475585 -0.82483357 3.1687191 6447714
0.16480498 -0.82503372 3.1551554 6513507
0.041058924 -0.77487743 3.197237 6513507
0.075256638 -0.77505928 3.1856534 6513507
0.12468378 -0.77485073 3.1689143 6513507
0.16464023 -0.77507687 3.1553795 6513507
0.04238062 -0.72448075 3.1969597 6513507
0.075333849 -0.72515476 3.1857967 6513507
0.12470461 -0.72493172 3.1690745 6513507
0.16462135 -0.72511232 3.1555552 6513507
0.042324539 -0.67440164 3.1971481 6513507
0.075213604 -0.6751743 3.1860063 6513507
0.12470412 -0.67500746 3.1692445 6513507
0.16563444 -0.67464089 3.1553824 6513507
0.042337961 -0.62476498 3.1973116 6513507
0.075188443 -0.62512016 3.1861835 6513507
0.12471779 -0.62500894 3.1694086 6513507
0.16600098 -0.6249665 3.1554265 6513507
0.042434353 -0.57535267 3.1974456 6513507
0.075221568 -0.57505935 3.1863432 6513507
0.12473157 -0.57500505 3.1695738 6513507
0.1660509 -0.57491952 3.1555789 6513507
0.042447876 -0.52570689 3.1976101 6513507
0.07520362 -0.52499437 3.1865168 6513507
0.12474526 -0.52499598 3.1697381 6513507
0.16615196 -0.52476877 3.1557143 6513507
0.043240812 -0.47658697 3.1975064 6513507
0.07521487 -0.47499293 3.1866822 6513507
0.12475902 -0.47498211 3.1699021 6513507
0.16609949 -0.47471038 3.155901 6513507
0.04371345 -0.42522681 3.1975214 6513507
0.075226091 -0.4249866 3.1868482 6513507
0.12480827 -0.42489409 3.1700547 6513507
0.16674508 -0.42445824 3.155853 6513507
0.043715753 -0.37490824 3.1976898 6513507
0.075244598 -0.37504467 3.1870096 6513507
0.1248434 -0.37473238 3.1702118 6513507
0.16733779 -0.37522873 3.1558185 6513507
0.043718081 -0.32458442 3.1978602 6513507
0.075277753 -0.32516757 3.1871681 6513507
0.1248785 -0.32456532 3.1703708 6513507
0.16734658 -0.32556382 3.1559837 6513507
0.043720387 -0.27425522 3.1980298 6513507
0.075355075 -0.27535602 3.1873119 6513507
0.12476388 -0.27452821 3.1705792 6513507
0.16719766 -0.27560645 3.1562028 6513507
0.0441522 -0.2255438 3.1980474 6513507
0.075425103 -0.22560981 3.1874566 6513507
0.12477034 -0.22462565 3.1707458 6513507
0.16729328 -0.22518682 3.1563406 6513507
0.045098439 -0.17522477 3.1978981 6513507
0.075253226 -0.17564212 3.1876826 6513507
0.12477691 -0.17471801 3.1709116 6513507
0.16801032 -0.17410901 3.156271 6513507
0.045046605 -0.12586784 3.198082 6513507
0.07525719 -0.12546523 3.1878517 6513507
0.12478346 -0.12480512 3.1710794 6513507
0.1686649 -0.12422019 3.1562176 6513507
0.045048982 -0.075524621 3.1982515 6513507
0.075261131 -0.075283021 3.1880188 6513507
0.12479007 -0.074886911 3.1712458 6513507
0.16867365 -0.074535906 3.1563835 6513507
0.045051366 -0.025176063 3.1984215 6513507
0.075265147 -0.025095519 3.1881886 6513507
0.12479658 -0.024963455 3.1714125 6513507
0.16868246 -0.024846463 3.1565478 6513507
0.045160692 0.024568427 3.1985524 6513507
0.075269111 0.025097286 3.1883569 6513507
0.12480313 0.024965202 3.1715789 6513507
0.16869125 0.02484821 3.1567132 6513507
-1.3873557 0.095274664 3.1503022 9934743
-1.060529 0.096411869 3.1879041 2118535
-1.024861 0.096535981 3.1920078 1125705
-0.97759509 0.09670046 3.1974461 5201260
-0.58399111 0.098426037 3.1677167 1324638
-0.46131942 0.09885443 3.181504 1258068
-0.42495227 0.098981455 3.1855917 8093831
-0.37415209 0.099158846 3.1913011 10197915
-0.32447824 0.099332303 3.1968842 10197915
-0.29827145 0.099423811 3.1998289 10197915
0.046375308 0.075526521 3.1983132 7039851
0.075273052 0.075295359 3.1885257 6974058
0.12480965 0.074899159 3.1717451 6974058
0.16877186 0.07462962 3.1568539 6908265
-0.010468973 0.1007759 3.1591015 10197915
0.02490453 0.10089987 3.1629872 10197915
0.074828796 0.10107481 3.1684716 10197915
0.12475251 0.10112447 3.1700282 10197915
0.16998743 0.10069392 3.1565316 10197915
-0.11164266 -1.4513149 3.2466676 6447714
-0.11036816 -1.4250931 3.246325 6447714
-0.075661324 -1.4235232 3.2345743 6447714
-0.026076723 -1.4198269 3.2177927 6447714
0.013050495 -1.4169323 3.20455 6447714
-0.11025557 -1.3748972 3.2464564 6447714
-0.075062037 -1.3748672 3.2345345 6447714
-0.025395308 -1.3748658 3.2177141 6447714
0.013249141 -1.3750316 3.2046247 6447714
-0.11029754 -1.3248676 3.24664 6447714
-0.075045928 -1.3249854 3.2347014 6447714
-0.025374435 -1.3249112 3.2178769 6447714
0.013263864 -1.3249159 3.2047901 6447714
-0.10934526 -1.2756885 3.246484 6447714
-0.075022139 -1.2749451 3.2348628 6447714
-0.025247991 -1.2750933 3.2180028 6447714
0.014172215 -1.2743171 3.204653 6447714
-0.10884377 -1.2249073 3.2464852 6447714
-0.075021245 -1.2249035 3.2350295 6447714
-0.025369642 -1.225127 3.2182119 6447714
0.014571245 -1.224944 3.2046847 6447714
-0.10907899 -1.1748161 3.2467356 6447714
-0.075150363 -1.175005 3.2352414 6447714
-0.025296174 -1.1750154 3.2183578 6447714
0.01459762 -1.1750392 3.2048454 6447714
-0.10883255 -1.1251131 3.246819 6447714
-0.074997753 -1.1249506 3.2353578 6447714
-0.025334574 -1.1249695 3.2185395 6447714
0.014624014 -1.1251293 3.2050054 6447714
-0.10533426 -1.0941149 3.2457399 6447714
-0.071206957 -1.0788832 3.2342343 6447714
-0.025343513 -1.0749897 3.2187121 6447714
0.014573595 -1.0750905 3.2051916 6447714
-0.055517837 -1.0442822 3.2290356 6447714
-0.020974169 -1.0292851 3.2173867 6447714
0.015035029 -1.0245545 3.2052062 6447714
-0.007894069 -0.97531557 3.2131383 6447714
0.015942497 -0.97495264 3.2050669 6447714
-0.0079896711 -0.92521745 3.2133398 6447714
0.015996221 -0.92487592 3.2052188 6447714
-0.0082294429 -0.8741523 3.2135949 6447714
0.015979869 -0.8750158 3.2053928 6447714
-0.00942575 -0.82462037 3.2141678 6447714
0.015874995 -0.82503998 3.2055972 6447714
-0.0093245795 -0.77501768 3.2143016 6513507
0.015857955 -0.77494693 3.2057719 6513507
-0.0092232162 -0.72541076 3.2144346 6513507
0.017242508 -0.72497749 3.2054722 6513507
-0.0093254969 -0.67521566 3.2146385 6513507
0.017319432 -0.67506057 3.2056131 6513507
-0.0093259932 -0.62464088 3.2148099 6513507
0.017352667 -0.62513936 3.2057722 6513507
-0.0094495425 -0.57462108 3.2150207 6513507
0.017320886 -0.57500756 3.2059531 6513507
-0.0092029525 -0.52538782 3.2151039 6513507
0.017192449 -0.52476597 3.206166 6513507
-0.0093274573 -0.47554755 3.2153153 6513507
0.018071851 -0.4743821 3.206039 6513507
-0.0093279546 -0.42495164 3.2154865 6513507
0.018582826 -0.42502928 3.2060323 6513507
-1.5737382 -0.3622334 3.2288196 2039583
-0.0093284538 -0.37435037 3.2156577 6513507
0.018812625 -0.37543842 3.2061229 6513507
-1.5741653 -0.32499266 3.2281775 2039583
-0.0093919747 -0.32487831 3.2158465 6513507
0.018584965 -0.32544801 3.2063687 6513507
-1.5742954 -0.27502498 3.2286272 2039583
-0.0092687756 -0.27561206 3.2159719 6513507
0.018585945 -0.27498484 3.2065394 6513507
-1.574489 -0.22504143 3.2288866 2039583
-0.0093299197 -0.22517842 3.2161629 6513507
0.019166768 -0.22407703 3.2065151 6513507
-1.5746953 -0.17495131 3.2291083 2039583
-0.0104128 -0.17403501 3.2167029 6513507
0.019675285 -0.1744491 3.2065108 6513507
-1.5747274 -0.12473642 3.2298496 2039583
-0.010802077 -0.12476254 3.2170014 6513507
0.020153835 -0.12532961 3.2065144 6513507
-1.5750288 -0.075251229 3.2297835 2039583
-0.010532106 -0.075485796 3.217077 6513507
0.01991397 -0.075725645 3.206764 6513507
-1.5751516 -0.025524864 3.2302468 2039583
-0.010667017 -0.025324605 3.2172916 6513507
0.019915035 -0.025243077 3.2069347 6513507
-1.5758442 0.025417816 3.2290478 2039583
-0.01066759 0.025326403 3.2174642 6513507
0.020063695 0.025401533 3.2070553 6513507
-1.5757494 0.073887847 3.2268772 2039583
-1.5242901 0.094437324 3.2105756 2444665
-1.4750767 0.094607927 3.2163754 1324637
-1.433298 0.094752744 3.2212987 7501952
-0.95198464 0.096789531 3.2003918 10197915
-0.92502946 0.096883342 3.2034938 10197915
-0.87484324 0.097057968 3.2092679 10197915
-0.83224148 0.097206205 3.2141688 10197915
-0.60673708 0.097990841 3.2401135 1721466
-0.58964407 0.098050319 3.2420802 1059398
-0.2877714 0.099460497 3.2010095 10197915
-0.20085824 0.099764027 3.2107782 10197915
-0.17440841 0.099856384 3.2137501 9475224
-0.14659843 0.099953517 3.2168765 1855110
-0.010533775 0.075498231 3.2175882 6974058
0.021240992 0.075727597 3.2068262 7039851
-0.017342476 0.10004985 3.2199774 10197915
-0.25980267 -1.4627541 3.2968102 6447714
-0.22758844 -1.4601672 3.2859075 6447714
-0.17866088 -1.4563284 3.2693496 6447714
-0.13772616 -1.4531627 3.2554958 6447714
-0.25956309 -1.4250265 3.2968562 6447714
-0.22595692 -1.4250287 3.2854745 6447714
-0.17597479 -1.4249952 3.2685466 6447714
-0.13629103 -1.4249125 3.2551053 6447714
-0.25947475 -1.37502 3.2969964 6447714
-0.22592627 -1.3750427 3.2856345 6447714
-0.17610036 -1.3751127 3.2687562 6447714
-0.13613696 -1.3750941 3.2552211 6447714
-0.25953954 -1.3250053 3.2971871 6447714
-0.22602679 -1.3251232 3.2858357 6447714
-0.17604333 -1.3250803 3.2689078 6447714
-0.1362112 -1.3250146 3.2554166 6447714
-0.25960416 -1.2749846 3.2973781 6447714
-0.22597148 -1.2749784 3.2859864 6447714
-0.17605683 -1.2749605 3.2690818 6447714
-0.13518646 -1.2746317 3.2552395 6447714
-0.25703532 -1.244469 3.2966123 6447714
-0.22216535 -1.2287803 3.2848549 6447714
-0.17609493 -1.2249935 3.2692633 6447714
-0.13488463 -1.2250041 3.255306 6447714
-0.20645541 -1.1946009 3.2796493 6447714
-0.17219593 -1.178897 3.2680988 6447714
-0.13486084 -1.1750586 3.255466 6447714
-0.15612574 -1.1444068 3.2627723 6447714
-0.13213107 -1.1324743 3.2546859 6447714
-0.20241532 -0.95230293 3.2791004 6566193
-0.17574635 -0.95221263 3.2700682 6566193
-0.14723213 -0.95227796 3.2604101 6566193
-0.20242111 -0.92515934 3.2791944 6566193
-0.17622145 -0.92497921 3.2703211 6566193
-0.14723633 -0.92528921 3.2605031 6566193
-0.20243183 -0.8749401 3.2793677 6566193
-0.1760775 -0.87497431 3.270442 6369844
-0.14724408 -0.87535614 3.2606745 4997719
-0.20244253 -0.82471526 3.279541 6446686
-0.17618984 -0.82495809 3.2706487 6119011
-0.14725184 -0.82541776 3.2608461 2908566
-0.20245324 -0.77448535 3.2797148 6447714
-0.17473088 -0.77491039 3.2703242 5923176
-0.14588751 -0.77536374 3.2605536 3039894
-0.20246366 -0.72560775 3.2798834 6513507
-0.17483357 -0.7249614 3.2705271 5988969
-0.14589518 -0.72542197 3.260725 3237786
-0.20247439 -0.6753673 3.2800572 6513507
-0.17472586 -0.67500472 3.2706597 5989226
-0.14590283 -0.675475 3.2608967 3303836
-0.20248511 -0.62512165 3.280231 6513507
-0.17493896 -0.62497675 3.270901 6054761
-0.14591052 -0.62552273 3.2610683 3238301
-0.20249583 -0.57487047 3.2804048 6513507
-0.17462628 -0.57500905 3.2709646 5989226
-0.14591821 -0.57556522 3.2612398 3041179
-0.20250654 -0.52461404 3.2805781 6513507
-0.17506756 -0.52496946 3.2712831 5923177
-0.14592589 -0.5256024 3.2614117 2645653
