# .PCD v0.7 - Point Cloud Data file format
VERSION 0.7
FIELDS x y z rgb
SIZE 4 4 4 4
TYPE F F F U
COUNT 1 1 1 1
WIDTH 1186
HEIGHT 1
VIEWPOINT 0 0 0 1 0 0 0
POINTS 1186
DATA ascii
-0.0081694806 0.11273543 1.9719734 10197915
0.024926329 0.11276462 1.9722488 10132122
0.075204946 0.11280791 1.9732397 10000536
0.12511975 0.11285115 1.9739977 10132122
0.17466061 0.11289456 1.9745227 10197915
0.22505905 0.11293795 1.9755157 10197915
0.27508914 0.11298136 1.9762752 10197915
0.32474056 0.11302488 1.9768016 10197915
0.37484926 0.11306841 1.9775627 10197915
0.42499301 0.11311112 1.9787804 10197915
0.47516739 0.11315551 1.9790864 10197915
0.52539212 0.11319907 1.9798489 10197915
0.57523847 0.11324204 1.9808344 10197915
0.62512505 0.11328568 1.9813635 10197915
0.67504591 0.11332868 1.98235 10197915
0.72501087 0.11337242 1.9828806 10197915
0.77500618 0.11341549 1.9838684 10197915
0.82463282 0.11345853 1.9846219 10197915
0.87470901 0.11350236 1.9851539 10197915
0.92060608 0.11355322 1.9796081 10197915
0.97511774 0.11361366 1.9729379 10197915
1.0253705 0.11365731 1.9736961 10197915
1.0748374 0.11370029 1.974442 10197915
1.1251671 0.11374402 1.975201 9276813
1.1755353 0.11378777 1.975961 2894892
1.2251159 0.11383081 1.9767088 5658198
1.2770085 0.11389707 1.9653877 6447714
1.3245704 0.11394145 1.9643641 6447714
1.3751496 0.11398497 1.9653448 6447714
1.422611 0.11402258 1.9681531 6447714
1.4536686 0.1140293 1.9801552 6447714
-1.4029716 0.11140013 2.0217698 1059141
-1.3839115 0.11141668 2.0220697 993348
-1.21877 0.11155989 2.0246692 2182528
-1.1747152 0.1115981 2.0253627 3491419
-1.1248063 0.11164139 2.0261483 10132122
-1.0898484 0.11167172 2.0266986 3302287
-0.96650732 0.11177868 2.0286398 4675173
-0.60624397 0.11210688 2.0253184 2449040
-0.57494569 0.11214388 2.0201881 1721977
-0.54453701 0.11218187 2.0140181 1059654
-0.42365271 0.11227375 2.0233223 4417678
-0.37467182 0.11231758 2.0233178 3098469
-0.32492036 0.11236119 2.0238471 10000536
-0.27513912 0.11240395 2.024873 10000536
-0.24565394 0.11243465 2.0224032 10000536
-0.16248718 0.11250079 2.0271392 2112347
-0.13979256 0.11252239 2.0264018 10000536
-0.0084058978 0.11263536 2.0290418 10197915
0.025226392 0.1126645 2.029567 10197915
0.075279295 0.11270839 2.0301003 10066329
0.12495697 0.11275146 2.0308764 10000536
0.17508291 0.11279451 2.0319088 10132122
0.22483474 0.11283766 2.0326867 10197915
0.27462488 0.1128809 2.0334647 10197915
0.32486829 0.11292488 2.0340002 10197915
0.37286699 0.11296897 2.0333638 10197915
0.42535716 0.11303741 2.0210917 10197915
0.47493929 0.11308042 2.0218611 10197915
0.52455938 0.11312348 2.0226307 10197915
0.57505918 0.1131673 2.0234141 10197915
0.62475526 0.11321042 2.0241852 10197915
0.67448962 0.11325358 2.0249569 10197915
0.72510558 0.11329748 2.0257423 10197915
0.77491623 0.11334071 2.026515 10197915
0.82476503 0.11338398 2.0272882 10197915
0.87465179 0.11342726 2.0280623 10197915
0.92820019 0.11349321 2.017751 10197915
0.97510952 0.11353957 2.0152488 10197915
1.0251714 0.11358345 2.0157766 10197915
1.0748591 0.11362656 2.0165417 10197915
1.1249962 0.11366966 2.0175581 10197915
1.1751831 0.11371364 2.0180869 5658198
1.2249762 0.11375608 2.0193436 3750201
1.2748092 0.11380024 2.0196235 6447714
1.3246872 0.11384349 2.0203917 6447714
1.3750173 0.11388677 2.0214112 6447714
1.4249686 0.11393011 2.022181 6447714
1.4704989 0.11396307 2.0266459 6447714
-1.4219764 0.1112987 2.0700066 1059398
-1.3940694 0.11135555 2.0518148 860993
-1.26047 0.11142933 2.0779295 2512007
-1.2249436 0.11147469 2.0701983 1390173
-1.1748083 0.11151905 2.0704825 8028037
-1.1276714 0.11156315 2.0693839 7242388
-1.0982282 0.11161201 2.0565405 2580370
-1.0013149 0.11164185 2.0889831 993860
-0.98711115 0.11168308 2.0727341 4872551
-0.61511397 0.11199956 2.0820987 2250892
-0.57851028 0.11203806 2.0788205 1522792
-0.4560363 0.11213247 2.0874822 10000536
-0.42494372 0.11216895 2.0825489 2643592
-0.37461635 0.11221211 2.0836215 4872554
-0.32873562 0.11225973 2.0798736 10000536
-0.27523872 0.11232546 2.0696867 10000536
-0.24871033 0.11234847 2.0701103 10000536
-0.16391243 0.11242199 2.0714648 3229539
-0.14076695 0.11244205 2.0718346 10000536
-0.008591922 0.11255664 2.0739458 10197915
0.024925144 0.11258569 2.0744812 10197915
0.074800961 0.11262892 2.0752778 10132122
0.1247151 0.1126722 2.0760751 10000536
0.17466758 0.1127155 2.0768731 10132122
0.2246585 0.11275885 2.0776715 10197915
0.27468795 0.11280222 2.0784707 10197915
0.32475579 0.11284561 2.0792706 10197915
0.37781391 0.11289941 2.075659 10197915
0.42488074 0.11295938 2.0654485 10197915
0.47512701 0.11300252 2.0665026 10197915
0.52498317 0.11304574 2.0672929 10197915
0.57529837 0.11308981 2.0678337 10197915
0.62523323 0.11313314 2.0686162 10197915
0.67476809 0.11317562 2.0696676 10197915
0.72477716 0.11321897 2.070461 10197915
0.77525109 0.1132632 2.0710039 10197915
0.8253395 0.11330664 2.0717885 10197915
0.87502182 0.11334927 2.0728436 10197915
0.92518431 0.11339277 2.0736389 10197915
0.97495204 0.11343638 2.0741608 10197915
1.0247524 0.11347911 2.0752177 10197915
1.0750299 0.11352268 2.0760152 10197915
1.1249077 0.11356642 2.0765386 10197915
1.1748265 0.11360923 2.0775979 9803157
1.2247825 0.11365302 2.0781219 3815994
1.274776 0.11369596 2.0791836 4671303
1.3248107 0.11373981 2.0797093 6447714
1.374877 0.11378275 2.080771 6447714
1.4249908 0.11382667 2.0812974 6447714
1.4751312 0.11386969 2.0823605 6447714
1.5185927 0.11389796 2.0884225 6447714
1.3715506 -0.9544 2.1429422 6447714
1.4102261 -0.95146853 2.1298525 6447714
1.3752707 -0.92502284 2.1417298 6447714
1.4129338 -0.92497724 2.1289718 6447714
1.3753351 -0.87499356 2.1417735 6447714
1.4130009 -0.87497252 2.1290255 6447714
1.3758893 -0.82510012 2.1416633 6447714
1.4130917 -0.82501405 2.1290662 6447714
1.3761066 -0.77495223 2.1416581 6447714
1.4130392 -0.7750023 2.1291599 6447714
1.3761766 -0.72499132 2.1417127 6447714
1.413148 -0.72494131 2.1291916 6447714
1.3762339 -0.67499936 2.1417577 6447714
1.4131707 -0.67497456 2.1292586 6447714
1.3762597 -0.6249786 2.1418197 6447714
1.4131861 -0.62505168 2.1293261 6447714
1.3762763 -0.57498085 2.1418903 6447714
1.413259 -0.57498306 2.1293736 6447714
1.3763304 -0.52503377 2.1419442 6447714
1.4132683 -0.52495795 2.1294413 6447714
1.3764375 -0.47500482 2.1419804 6447714
1.4134003 -0.47502834 2.1294715 6447714
1.3766114 -0.42518461 2.1419952 6447714
1.4127305 -0.42531437 2.1297674 6447714
1.3771687 -0.37512863 2.1418788 6447714
1.4126722 -0.37500837 2.1298549 6447714
1.3772243 -0.32511246 2.1419346 6447714
1.4128013 -0.32498381 2.1298883 6447714
1.3772521 -0.27501228 2.1419961 6447714
1.4126724 -0.27510586 2.1300027 6447714
1.3772004 -0.22501813 2.1420817 6447714
1.4128228 -0.22492105 2.1300232 6447714
1.3772579 -0.17504868 2.1421394 6447714
1.4128747 -0.17483519 2.1300802 6447714
1.377452 -0.12483057 2.1421442 6447714
1.4128683 -0.12531441 2.130152 6447714
1.3774664 -0.074663296 2.1422164 6447714
1.4129072 -0.075014256 2.1302111 6447714
1.3774097 -0.024850739 2.1422992 6447714
1.4129485 -0.024711205 2.1302722 6447714
1.3779259 0.024664247 2.1422014 6447714
1.4127202 0.025040707 2.1304238 6447714
1.3775423 0.07461714 2.1424017 6447714
1.4123043 0.075029433 2.130635 6447714
-1.4674417 0.11114378 2.135273 1059398
-1.4395567 0.11120664 2.1136088 927299
-1.3066894 0.11126444 2.1485424 2380165
-1.273663 0.11132005 2.1336436 1654893
-1.2289945 0.11136783 2.1291833 4345954
-1.1749005 0.11143584 2.117965 10000536
-1.1392423 0.11146673 2.118552 3302287
-1.0103551 0.11157835 2.1206737 4675173
-0.621261 0.11191533 2.1270783 2118537
-0.58441687 0.11194724 2.1276848 1324379
-0.46057013 0.1120545 2.1297233 7438738
-0.42539173 0.11208495 2.1303022 1920126
-0.37523124 0.11212841 2.1311281 6252917
-0.32046175 0.11219361 2.1218801 10000536
-0.27618435 0.11224323 2.1161563 10000536
-0.16633989 0.11233658 2.1189768 3689831
-0.14260919 0.11235955 2.1179891 10000536
-0.0087873433 0.11247383 2.1211178 10197915
0.025053686 0.11250362 2.1213889 10197915
0.07473702 0.1125462 2.1224821 10197915
0.12490653 0.11258964 2.123302 10132122
0.17511462 0.11263313 2.1241221 10132122
0.22491065 0.11267678 2.1246538 10197915
0.27519822 0.11272033 2.1254749 10197915
0.32507554 0.11276305 2.1265724 10197915
0.37499756 0.11280678 2.1271055 10197915
0.42494908 0.11284957 2.1282036 10197915
0.47495022 0.11289338 2.1287379 10197915
0.52497613 0.11293622 2.1298378 10197915
0.57460731 0.11297922 2.1306489 10197915
0.62471902 0.1130231 2.1311843 10197915
0.67486441 0.11306608 2.1322865 10197915
0.72460979 0.11310913 2.1330991 10197915
0.77059078 0.11316068 2.1271582 10197915
0.82504755 0.11322439 2.1185949 10197915
0.87453026 0.11326729 2.1193974 10197915
0.92493516 0.11331096 2.1202145 10197915
0.97537893 0.11335465 2.1210322 10197915
1.0249755 0.11339764 2.1218362 10197915
1.0746098 0.11344065 2.1226411 10197915
1.1242818 0.11348368 2.1234467 10197915
1.1748797 0.11352752 2.1242669 10197915
1.2255162 0.11357139 2.1250875 7368816
1.2753028 0.11361454 2.125895 2894892
1.3251284 0.11365785 2.1267052 6250335
1.3770961 0.10731726 2.1409359 6447714
1.4145957 0.10806794 2.1302216 6447714
1.4748294 0.11378757 2.129132 6447714
1.5248054 0.11383084 2.1299424 6447714
1.5587384 0.11386025 2.1304927 6447714
1.225867 -0.96542054 2.1922483 6447714
1.2739377 -0.9618237 2.1759789 4473924
1.3232461 -0.95802075 2.1592906 4408131
1.2268831 -0.92498136 2.1919622 6447714
1.2753769 -0.92506748 2.1755455 4342338
1.3253406 -0.924963 2.1586292 4605510
1.2268766 -0.87500077 2.1920371 6447714
1.2753847 -0.87505609 2.1756151 4276545
1.3254133 -0.87498552 2.1586788 4671303
1.226927 -0.82501805 2.1920936 6447714
1.2754328 -0.82498646 2.1756706 4276545
1.325416 -0.82503176 2.1587474 4671303
1.3512335 -0.81679696 2.1500194 6447714
1.2269899 -0.77500206 2.1921427 6447714
1.2754562 -0.77496827 2.1757352 4276545
1.3254317 -0.7750771 2.1588161 4605510
1.3512648 -0.7749508 2.1500697 6447714
1.2272949 -0.72518796 2.1921129 6447714
1.2754598 -0.72500378 2.1758063 4276545
1.3254905 -0.72503746 2.1588674 4671303
1.3513023 -0.72508889 2.1501288 6447714
1.227803 -0.6750111 2.1920147 6447714
1.2755162 -0.67500782 2.1758595 4276545
1.3255305 -0.6749692 2.1589279 4671303
1.3513399 -0.67522442 2.1501889 6447714
1.2278491 -0.62498951 2.1920698 6447714
1.2755998 -0.62503713 2.175904 4276545
1.3255626 -0.6249786 2.1589873 4671303
1.3513769 -0.62535703 2.1502483 6447714
1.2278215 -0.57496738 2.1921515 6447714
1.275561 -0.57500869 2.1759892 4276545
1.3256104 -0.57498461 2.1590452 4671303
1.3514144 -0.57548678 2.1503074 6447714
1.2279023 -0.52500123 2.1921964 6447714
1.2756524 -0.52497673 2.1760314 4276545
1.3256465 -0.52498639 2.1591041 4671303
1.351402 -0.5247888 2.1503851 6447714
1.2278137 -0.47507295 2.1922996 6447714
1.275589 -0.47490814 2.1761239 4210752
1.3249516 -0.47496277 2.1594129 4671303
1.3507421 -0.47534114 2.1506805 6447714
1.2271717 -0.42498669 2.192589 6447714
1.2748746 -0.4250007 2.1764381 4276545
1.324939 -0.42495707 2.1594877 4671303
1.3511063 -0.42243373 2.1506333 6447714
1.2272272 -0.37500721 2.1926429 6447714
1.2749872 -0.37502155 2.1764727 4276545
1.324982 -0.37494841 2.159548 4671303
1.3515823 -0.37450007 2.1505418 6447714
1.2273116 -0.32502216 2.1926866 6447714
1.2750304 -0.32506797 2.1765301 4342338
1.3250179 -0.32493696 2.1596065 4671303
1.3516024 -0.3243134 2.1506073 6447714
1.2279092 -0.27509043 2.1925557 6447714
1.2750218 -0.27502942 2.1766055 4276545
1.325073 -0.27494973 2.1596618 4671303
1.3516401 -0.27442652 2.1506667 6447714
1.2282554 -0.22491629 2.1925116 6447714
1.2752248 -0.22504255 2.176609 4210752
1.3251417 -0.22504173 2.159709 4671303
1.3516774 -0.22453701 2.1507263 6447714
1.2279184 -0.17495714 2.192697 6447714
1.2751436 -0.17489471 2.1767094 4276545
1.3252544 -0.17521356 2.1597443 4671303
1.3517148 -0.17464468 2.1507862 6447714
1.2283244 -0.12500687 2.1926332 6447714
1.2749095 -0.12479107 2.1768608 4342338
1.3251585 -0.12527172 2.159847 4671303
1.3517522 -0.12474962 2.1508455 6447714
1.2279856 -0.075036511 2.1928196 6513507
1.2753839 -0.075201944 2.1767716 4210752
1.3251966 -0.0751651 2.1599078 4671303
1.3517896 -0.074851803 2.1509051 6447714
1.2283937 -0.025086239 2.1927552 6513507
1.2751991 -0.025252137 2.1769071 4210752
1.3252335 -0.025055641 2.1599669 4671303
1.3518273 -0.02495121 2.1509647 6447714
1.2284241 0.025087152 2.1928146 6513507
1.2746756 0.025113426 2.1771576 4144959
1.3247083 0.02519856 2.160218 4671303
1.352599 0.024949256 2.1507754 6447714
1.2280898 0.075042941 2.1930025 6513507
1.2747207 0.075172871 2.1772139 4144959
1.3245639 0.075180367 2.1603386 4671303
1.3526362 0.074849591 2.1508348 6447714
-1.5075022 0.11103162 2.1789093 1125447
-1.4869777 0.11104938 2.1792576 993348
-1.3171779 0.11119626 2.1821406 2117253
-1.2751046 0.11123268 2.1828549 1716814
-1.2208872 0.11129625 2.1742415 10000536
-1.1779755 0.11135172 2.164494 6979732
-1.1478852 0.1114019 2.151197 2580370
-1.0338678 0.11147098 2.1700253 4674917
-0.65571523 0.11178173 2.1858265 2448783
-0.62495929 0.11182485 2.1769149 1920385
-0.59069461 0.11186232 2.1730232 1125707
-0.46612522 0.111959 2.1814795 5731216
-0.42495757 0.11199846 2.1799757 1721201
-0.37497738 0.11204119 2.1811273 7896452
-0.32495081 0.11208501 2.1816599 10000536
-0.28101823 0.11212529 2.181088 10000536
-0.16882226 0.11224939 2.1675622 4149866
-0.14460412 0.11227034 2.1679668 10000536
-0.008990814 0.11238774 2.1702342 10132122
0.025183102 0.11241732 2.170805 10197915
0.075575374 0.11246092 2.1716471 10197915
0.12510574 0.1125038 2.1724756 10197915
0.17467412 0.11254673 2.1733038 10197915
0.22518252 0.11259043 2.1741481 10197915
0.27482703 0.11263342 2.174978 10197915
0.32450971 0.11267643 2.1758084 10197915
0.37513456 0.11272023 2.1766546 10197915
0.42489362 0.11276332 2.1774864 10197915
0.474691 0.11280642 2.1783185 10197915
0.52543277 0.11285036 2.1791666 10197915
0.57530695 0.11289349 2.1800003 10197915
0.62521935 0.1129367 2.1808345 10197915
0.67516965 0.11297996 2.1816697 10197915
0.72515875 0.11302324 2.1825054 10197915
0.77909857 0.11309159 2.1710238 10197915
0.82519948 0.11313894 2.1675324 10197915
0.87537032 0.11318292 2.1680617 10197915
0.92513293 0.11322599 2.1688874 10197915
0.97491807 0.11326803 2.1703186 10197915
1.0247532 0.11331225 2.1705389 10197915
1.0750811 0.11335529 2.1716771 10197915
1.1254419 0.11339943 2.1722095 10197915
1.1749364 0.11344176 2.1733344 10197915
1.2275798 0.10791082 2.188695 10132122
1.2739464 0.10740691 2.1756434 4802889
1.3247775 0.10729044 2.1600301 4737096
1.3526604 0.10692975 2.1508732 6447714
1.4495646 0.11370889 2.1611669 6447714
1.4790618 0.11371265 2.1741014 6447714
1.5251771 0.11374559 2.1788404 6447714
1.5733397 0.11378441 2.1812825 6447714
1.6085052 0.11378786 2.1972704 6447714
1.0698602 -1.0022284 2.2450123 6447714
1.0776495 -0.975025 2.2424147 6447714
1.1245184 -0.97310907 2.2265506 6447714
1.1744651 -0.96932089 2.2096457 6447714
1.2015338 -0.96724391 2.2004843 6447714
1.0776631 -0.92498392 2.2424829 6447714
1.1252919 -0.92500734 2.226357 6447714
1.1753244 -0.92497891 2.2094193 6447714
1.2015618 -0.92533004 2.2005353 6447714
1.0777133 -0.8750059 2.2425375 6447714
1.1253225 -0.87493622 2.2264197 6447714
1.175305 -0.87500274 2.2094982 6447714
1.2015951 -0.8752135 2.2005963 6447714
1.0777123 -0.82502621 2.2426116 6447714
1.1253161 -0.82491994 2.2264938 6447714
1.1753587 -0.82499522 2.209552 6447714
1.2016287 -0.82509387 2.2006578 6447714
1.0780839 -0.77523637 2.2425566 6447714
1.1253672 -0.77498811 2.2265496 6447714
1.1753802 -0.77495736 2.2096169 6447714
1.2016621 -0.77497154 2.2007186 6447714
1.0786316 -0.72505075 2.2424443 6447714
1.1253896 -0.72499424 2.2266133 6447714
1.1754204 -0.72497207 2.2096751 6447714
1.2021449 -0.72232181 2.2006316 6447714
1.0786079 -0.67503995 2.2425244 6447714
1.1254468 -0.67499799 2.2266657 6447714
1.1754935 -0.67498523 2.2097235 6447714
1.2024794 -0.67493719 2.2005868 6447714
1.0786343 -0.62502563 2.2425883 6513507
1.1254776 -0.62497139 2.2267284 6513507
1.175462 -0.62502289 2.2098062 6447714
1.2025499 -0.62482357 2.2006357 6447714
1.0786744 -0.57500941 2.2426467 6513507
1.1254628 -0.57494092 2.2268064 6513507
1.1755593 -0.5749737 2.209846 6447714
1.2025642 -0.57529813 2.2007027 6447714
1.0787098 -0.52498996 2.2427073 6513507
1.1255037 -0.52496529 2.2268641 6513507
1.1755096 -0.52494919 2.209934 6447714
1.2025977 -0.5251677 2.2007632 6447714
1.0787745 -0.47507194 2.2427568 6513507
1.1255635 -0.47495854 2.2269177 6513507
1.1756063 -0.47497955 2.2099738 6513507
1.2026314 -0.47503489 2.200825 6513507
1.078796 -0.42515081 2.2428229 6513507
1.1256126 -0.42492044 2.2269714 6513507
1.1756555 -0.42500764 2.2100298 6513507
1.2026647 -0.42489895 2.200886 6513507
1.0787724 -0.3751229 2.2429023 6513507
1.1256305 -0.37490812 2.2270381 6513507
1.175626 -0.37508798 2.2101119 6513507
1.2026981 -0.37476033 2.2009473 6513507
1.0793329 -0.32522821 2.2427852 6513507
1.1256064 -0.32495028 2.2271194 6513507
1.1757084 -0.32499686 2.2101567 6513507
1.2027129 -0.32491639 2.2010143 6513507
1.0796379 -0.27498975 2.2427533 6513507
1.1249216 -0.27504787 2.2274237 6513507
1.1749188 -0.27487683 2.2104971 6513507
1.2035202 -0.27445987 2.2008138 6513507
1.0797002 -0.22507277 2.242806 6513507
1.12492 -0.22496025 2.2274969 6513507
1.1750567 -0.22495468 2.2105222 6513507
1.2035673 -0.22521295 2.2008693 6513507
1.0798116 -0.17526188 2.2428401 6513507
1.125019 -0.17483602 2.2275352 6513507
1.1750966 -0.17506351 2.2105808 6513507
1.2036008 -0.17506912 2.2009304 6513507
1.0797876 -0.12537473 2.2429202 6513507
1.1250573 -0.12470928 2.2275941 6513507
1.1748217 -0.12521905 2.2107458 6513507
1.2036341 -0.1249226 2.2009916 6513507
1.0797604 -0.075268991 2.243 6513507
1.1249857 -0.074755237 2.2276907 6513507
1.1752248 -0.074856423 2.2106824 6513507
1.2036676 -0.07477323 2.2010529 6513507
1.079792 -0.025090285 2.2430649 6513507
1.1250186 -0.024919011 2.2277517 6513507
1.175073 -0.024729487 2.2108059 6513507
1.203701 -0.02462106 2.2011139 6513507
1.0798216 0.025091218 2.2431264 6513507
1.1250483 0.024919957 2.2278147 6513507
1.1751059 0.024730358 2.2108665 6513507
1.203734 0.024621954 2.2011747 6513507
1.0798517 0.075275585 2.2431886 6513507
1.1250808 0.074761726 2.2278752 6513507
1.1753342 0.074835353 2.2108622 6513507
1.2037672 0.074779652 2.2012353 6513507
-1.5567709 0.11086519 2.2487743 1125447
-1.5264676 0.11092705 2.2289147 1059398
-1.4986651 0.11097826 2.21386 860222
-1.3525381 0.11110463 2.2163808 3168133
-1.325271 0.11112819 2.216851 1589359
-1.2752541 0.11117144 2.2177136 5201003
-1.2251985 0.11121473 2.2185771 9803415
-1.1915042 0.11124386 2.2191584 2317455
-1.0583704 0.11135899 2.2214546 4674917
-0.66190201 0.11170178 2.2282934 2250892
-0.62515235 0.11173357 2.2289274 1655408
-0.59849834 0.11175664 2.2293875 1191497
-0.47150183 0.11186642 2.2315779 4877712
-0.42450535 0.11190706 2.2323883 1390945
-0.37470749 0.11195014 2.2332473 9606036
-0.32487133 0.11199322 2.234107 10000536
-0.28141326 0.11203696 2.231343 10000536
-0.17056063 0.11215677 2.2195785 4741487
-0.1456693 0.11218242 2.2176604 10000536
-0.0092050573 0.11229702 2.2219496 10000536
0.024862342 0.11232648 2.2225327 10132122
0.075067222 0.11237048 2.2230718 10197915
0.1253157 0.11241338 2.224252 10197915
0.17514278 0.11245646 2.2251043 10197915
0.22500305 0.11250073 2.2253048 10197915
0.27489704 0.11254276 2.2268116 10197915
0.32483891 0.11258593 2.2276666 10197915
0.37481904 0.11262918 2.2285213 10197915
0.42529491 0.11267337 2.2290642 10197915
0.47535476 0.11271671 2.2299087 10197915
0.52497566 0.11275903 2.2310915 10197915
0.57421196 0.11280283 2.2312541 10197915
0.62495202 0.11287652 2.2151139 10197915
0.67476511 0.1129196 2.2159595 10197915
0.72461623 0.11296275 2.2168062 10197915
0.7745055 0.11300591 2.217653 10197915
0.82443279 0.11304911 2.2185009 10197915
0.87439841 0.11309232 2.2193491 10197915
0.92440212 0.11313561 2.2201979 10197915
0.97444397 0.11317887 2.2210479 10197915
1.0245246 0.11322221 2.2218981 10197915
1.0797671 0.10768733 2.2403042 10197915
1.1251354 0.10696013 2.2273536 10132122
1.174418 0.10687671 2.2112181 10132122
1.2037889 0.10669952 2.2012744 10197915
1.497533 0.11363143 2.2299287 6447714
1.525575 0.11365569 2.2304051 6447714
1.5751426 0.11369857 2.2312462 6447714
1.6210026 0.11373825 2.2320249 6447714
0.92799062 -1.012996 2.2930274 6447714
0.97370815 -1.0095066 2.277555 6447714
1.0223191 -1.0058229 2.2611024 6447714
1.052768 -1.0033469 2.2507975 6447714
0.9290266 -0.9750309 2.2927318 6447714
0.97544771 -0.9749797 2.2770162 6447714
1.0253245 -0.97504044 2.2601306 6447714
1.0527644 -0.97476137 2.2508407 6447714
0.92895275 -0.9250074 2.2928293 6447714
0.97543287 -0.92497474 2.2770927 6447714
1.0253388 -0.92504668 2.2601979 6447714
1.0528139 -0.92505872 2.250895 6447714
0.92904186 -0.87504709 2.2928717 6447714
0.97545886 -0.87500072 2.2771564 6447714
1.0253478 -0.87501985 2.2602673 6447714
1.0528629 -0.87535352 2.2509506 6447714
0.92991549 -0.82497823 2.2926481 6447714
0.97555655 -0.82499123 2.2771962 6447714
1.0253962 -0.82505184 2.2603228 6447714
1.0528719 -0.82532489 2.25102 6447714
0.9298982 -0.77503818 2.2927272 6447714
0.97546893 -0.77498114 2.277297 6447714
1.0253733 -0.7750501 2.2604048 6447714
1.0532874 -0.77316016 2.2509544 6447714
0.92992878 -0.72501963 2.2927883 6447714
0.97559172 -0.72499794 2.277329 6447714
1.0254697 -0.72501534 2.2604415 6447714
1.0537357 -0.72455978 2.2508733 6447714
0.92991978 -0.67496216 2.2928643 6447714
0.97552812 -0.67498028 2.2774215 6447714
1.0254914 -0.6750083 2.2605045 6447714
1.0537343 -0.67468375 2.250946 6447714
0.92996788 -0.62497604 2.2929194 6513507
0.97562432 -0.62499326 2.277463 6513507
1.0255113 -0.624937 2.2605727 6513507
1.0538239 -0.62528813 2.2509873 6513507
0.92989212 -0.57517207 2.2930176 6513507
0.97549921 -0.5748207 2.2775767 6513507
1.0255387 -0.57495433 2.2606344 6513507
1.0538225 -0.57540607 2.2510595 6513507
0.92916304 -0.52504635 2.2933371 6513507
0.9747808 -0.52493858 2.2778935 6513507
1.0254827 -0.52503002 2.2607269 6513507
1.0538522 -0.52506113 2.2511227 6513507
0.9292447 -0.47494367 2.2933817 6513507
0.97494304 -0.47502762 2.2779105 6513507
1.0256145 -0.47504142 2.2607572 6513507
1.0538818 -0.47471315 2.2511854 6513507
0.9293173 -0.42504945 2.2934294 6513507
0.97482145 -0.42502043 2.2780232 6513507
1.0256448 -0.42502093 2.2608163 6513507
1.0538884 -0.42459041 2.2512555 6513507
0.93014824 -0.375025 2.2932212 6513507
0.9749251 -0.37501451 2.2780616 6513507
1.0256364 -0.37493491 2.2608936 6513507
1.0539625 -0.37517998 2.251302 6513507
0.93018234 -0.32505348 2.2932818 6513507
0.9750126 -0.325001 2.2781026 6513507
1.0257025 -0.32499975 2.2609422 6513507
1.0545443 -0.32429144 2.2511787 6513507
0.93002075 -0.2750355 2.2934082 6513507
0.97484148 -0.27498898 2.2782345 6513507
1.025581 -0.27506083 2.2610562 6513507
1.0548033 -0.27512562 2.2511621 6513507
0.93028814 -0.22485395 2.29339 6513507
0.97520518 -0.22506422 2.2781823 6513507
1.0253648 -0.22526999 2.2611978 6513507
1.0543792 -0.22364533 2.2513804 6513507
0.9302519 -0.17491445 2.2934759 6513507
0.97476137 -0.1750109 2.2784066 6513507
1.0250599 -0.17501068 2.2613761 6513507
1.0540564 -0.17443244 2.2515602 6513507
0.93016022 -0.12534072 2.2935777 6513507
0.97525543 -0.12499521 2.2783101 6513507
1.0248172 -0.12476181 2.261534 6513507
1.0540854 -0.12499775 2.2516217 6513507
0.93030196 -0.074986607 2.2936027 6513507
0.97481591 -0.074959792 2.278533 6513507
1.0251 -0.075113811 2.2615085 6513507
1.0541142 -0.075560369 2.2516842 6513507
0.93027103 -0.024706302 2.2936862 6513507
0.97531086 -0.024945693 2.2784357 6513507
1.0249995 -0.025297781 2.2616124 6513507
1.0541438 -0.025187425 2.2517469 6513507
0.93048239 0.024513381 2.293685 6513507
0.97533739 0.024946623 2.2785003 6513507
1.0250281 0.025298767 2.261677 6513507
1.0541732 0.02518836 2.2518101 6513507
0.93121535 0.074980222 2.2935104 6579300
0.97489661 0.074966267 2.2787216 6513507
1.0251647 0.075088508 2.2617028 6513507
1.0542026 0.075566947 2.2518728 6579300
-1.5690463 0.11078969 2.2856572 1059398
-1.5475277 0.11080828 2.2860408 860734
-1.3707447 0.11098474 2.2755964 1985406
-1.324875 0.1110331 2.2714236 2177622
-1.2745584 0.11107656 2.2723129 9474451
-1.2290096 0.11112464 2.2681274 6060435
-1.0842029 0.11124101 2.275676 4609381
-0.66698974 0.11163414 2.2643712 2184586
-0.6277796 0.11166803 2.265059 1522790
-0.50065219 0.11177788 2.267287 10197915
-0.47444597 0.11180052 2.2677462 4286607
-0.42481551 0.11184341 2.2686167 1981534
-0.37514666 0.11188634 2.2694871 10000536
-0.3245016 0.11193012 2.2703748 10000536
-0.28508472 0.11196418 2.2710657 10000536
-0.17326917 0.11206081 2.2730258 5004657
-0.14787386 0.11208275 2.2734711 10000536
-0.0094285468 0.11220241 2.275898 10000536
0.025466191 0.11223254 2.2765095 10000536
0.07548105 0.11227577 2.2773862 10197915
0.12458981 0.11231823 2.2782471 10197915
0.17468131 0.1123615 2.279125 10197915
0.22481118 0.11240481 2.280004 10197915
0.27497998 0.11244818 2.2808831 10197915
0.32518724 0.11249156 2.2817633 10197915
0.37448502 0.11253417 2.2826273 10197915
0.42476934 0.11257762 2.2835093 10197915
0.47509229 0.11262111 2.2843912 10197915
0.52450377 0.11266382 2.2852569 10197915
0.57652777 0.11271317 2.2836504 10197915
0.62548029 0.11278362 2.2684188 10197915
0.67507643 0.1128259 2.2696259 10197915
0.72471797 0.11286939 2.2701442 10197915
0.77486628 0.11291154 2.2717061 10197915
0.82504374 0.11295613 2.2718887 10197915
0.87527466 0.11299954 2.2727616 10197915
0.92934811 0.10822346 2.2880466 10132122
0.97513652 0.10738834 2.2762313 10197915
1.0247803 0.10682596 2.2613268 10066329
1.0549257 0.10739333 2.2516739 10197915
1.5340798 0.11360074 2.2661748 6447714
1.5749412 0.11363607 2.2668796 6447714
1.6253388 0.11367964 2.2677488 6447714
1.6595917 0.11370927 2.2683396 6447714
0.76116061 -1.0502461 2.3494556 6447714
0.77923429 -1.0241619 2.3433747 6447714
0.82389796 -1.0208935 2.3282568 6447714
0.87408739 -1.017046 2.3112712 6447714
0.90373719 -1.0148518 2.3012366 6447714
0.77950019 -0.97503591 2.343354 6447714
0.82461095 -0.97500229 2.328084 6447714
0.87506527 -0.97500217 2.3110008 6447714
0.90384328 -0.97484392 2.3012583 6447714
0.77958179 -0.92504328 2.3434007 6447714
0.82465267 -0.92494071 2.328141 6447714
0.87512255 -0.92501861 2.3110542 6447714
0.90383649 -0.92481208 2.301333 6447714
0.77980649 -0.87525588 2.3433959 6447714
0.82470238 -0.87497658 2.3281972 6447714
0.8751446 -0.87493801 2.3111193 6447714
0.90394086 -0.87481719 2.3013699 6447714
0.78047734 -0.82506889 2.3432415 6447714
0.82468683 -0.82500923 2.3282743 6447714
0.87513041 -0.82491612 2.3111963 6447714
0.90468961 -0.82521534 2.3011882 6447714
0.78054762 -0.77500719 2.3432896 6447714
0.82473457 -0.775006 2.32833 6447714
0.87517661 -0.77498811 2.3112526 6447714
0.90476573 -0.7749052 2.3012352 6447714
0.78060973 -0.72498697 2.3433416 6447714
0.82479423 -0.72503287 2.3283823 6447714
0.8751862 -0.72499382 2.3113217 6447714
0.90480405 -0.72477949 2.3012946 6447714
0.78050262 -0.67496419 2.3434501 6447714
0.82475799 -0.67502451 2.3284674 6447714
0.8752479 -0.67499614 2.3113737 6447714
0.90480322 -0.67502773 2.301367 6447714
0.78056312 -0.62493831 2.343502 6447714
0.82477969 -0.62501293 2.3285317 6513507
0.87526441 -0.62496454 2.3114395 6513507
0.90480256 -0.62527239 2.3014395 6513507
0.78064066 -0.5749988 2.3435488 6513507
0.82480991 -0.57499796 2.3285933 6513507
0.87524015 -0.57492971 2.3115211 6513507
0.90485346 -0.57494903 2.3014953 6513507
0.78062218 -0.52505583 2.343626 6513507
0.82484245 -0.5249809 2.328656 6513507
0.87527472 -0.52495521 2.3115819 6513507
0.90490437 -0.52462387 2.3015506 6513507
0.78066003 -0.474976 2.3436856 6513507
0.82490456 -0.47506124 2.3287065 6513507
0.87534678 -0.47497934 2.3116298 6513507
0.90490377 -0.47486019 2.3016229 6513507
0.78082305 -0.4250609 2.3437028 6513507
0.82491577 -0.42513901 2.3287766 6513507
0.87536031 -0.424936 2.311697 6513507
0.90507942 -0.42465317 2.3016355 6513507
0.78148907 -0.3749963 2.3435507 6513507
0.82487839 -0.37511319 2.3288598 6513507
0.87538791 -0.3748906 2.3117607 6513507
0.90575194 -0.37534326 2.3014798 6513507
0.78152657 -0.32498005 2.3436089 6513507
0.82490152 -0.32505116 2.3289254 6513507
0.87534726 -0.32493725 2.3118465 6513507
0.90586215 -0.3248302 2.3015151 6513507
0.78168643 -0.27510247 2.3436282 6513507
0.82493365 -0.27501985 2.3289862 6513507
0.87537879 -0.27498096 2.3119085 6513507
0.90584505 -0.27461439 2.3015938 6513507
0.78170455 -0.2251292 2.343693 6513507
0.82498574 -0.22505248 2.3290403 6513507
0.87542981 -0.22495843 2.3119621 6513507
0.9058702 -0.22503741 2.3016562 6513507
0.78164077 -0.17478061 2.3437886 6513507
0.82509452 -0.17521745 2.3290758 6513507
0.8750847 -0.17503244 2.3121524 6513507
0.90540993 -0.17452717 2.3018854 6513507
0.78148204 -0.12474729 2.3439145 6513507
0.82508934 -0.12534532 2.3291509 6513507
0.87472606 -0.12467306 2.3123462 6513507
0.90507847 -0.12493721 2.3020701 6513507
0.7818622 -0.075240657 2.3438582 6513507
0.82502288 -0.075268202 2.3292446 6513507
0.87463892 -0.074725434 2.3124483 6513507
0.90510398 -0.074392118 2.3021348 6513507
0.78170508 -0.025248067 2.3439832 6513507
0.82504588 -0.025090026 2.3293104 6513507
0.87466288 -0.024909081 2.3125119 6513507
0.90512872 -0.024797982 2.3021979 6513507
0.78172719 0.025249001 2.3440475 6513507
0.82506853 0.025090966 2.329375 6513507
0.87468642 0.024909988 2.3125761 6513507
0.90536851 0.025406325 2.3021894 6513507
0.78279138 0.075212218 2.3437614 6513507
0.82509148 0.075274743 2.3294399 6579300
0.87471223 0.074731849 2.3126397 6513507
0.90601945 0.074389286 2.3020399 6513507
-1.6074023 0.11068939 2.3233027 1125447
-1.5855345 0.11070826 2.3236988 993605
-1.4112788 0.11085868 2.3268559 2381192
-1.3750341 0.11088996 2.3275125 1258586
-1.325404 0.11093279 2.3284113 2571608
-1.2757361 0.11097567 2.3293116 8161427
-1.2461096 0.11100124 2.3298481 2514578
-1.111177 0.11111771 2.3322928 4609381
-0.70371127 0.11146942 2.3396747 2316941
-0.67401934 0.11152754 2.321681 2052743
-0.63525355 0.11156914 2.3177431 1324119
-0.50801414 0.11166252 2.3294139 9737881
-0.47568893 0.11170013 2.3244722 2578570
-0.42529777 0.11174427 2.3250129 3624035
-0.3748737 0.11178717 2.3262842 10000536
-0.32488406 0.11183032 2.3271823 10000536
-0.28869873 0.111866 2.3253067 10000536
-0.20142537 0.11190299 2.3487751 1655676
-0.1746991 0.11196002 2.3298807 5530228
-0.14839819 0.11201669 2.310971 10000536
-0.0095840897 0.11213658 2.3134446 10000536
0.024927458 0.1121664 2.3140593 10000536
0.074807912 0.11220945 2.3149481 10132122
0.12472669 0.11225256 2.3158376 10197915
0.17468387 0.11229571 2.3167276 10197915
0.2246794 0.11233892 2.3176181 10197915
0.27471343 0.1123821 2.3185101 10197915
0.32478604 0.11242536 2.3194025 10197915
0.37489706 0.11246863 2.3202951 10197915
0.42504674 0.11251198 2.3211882 10197915
0.4752351 0.11255533 2.322083 10197915
0.52546209 0.1125987 2.3229775 10197915
0.57572788 0.11264212 2.3238733 10197915
0.62506449 0.11268472 2.3247528 10197915
0.67443877 0.11272733 2.3256321 10197915
0.72481948 0.11277088 2.3265302 10197915
0.78086102 0.10733903 2.3413239 10132122
0.82522744 0.1070466 2.3290834 10197915
0.87472659 0.10635085 2.3126805 10197915
0.90603536 0.10586339 2.3020797 10066329
1.5467244 0.11354733 2.3031781 6447714
1.5782458 0.1135502 2.317636 6447714
1.624797 0.11358151 2.3235567 6447714
1.6740539 0.11362337 2.3248148 6447714
1.7121233 0.11362358 2.3441222 6447714
0.63068187 -1.0604632 2.3936152 6447714
0.67292702 -1.057256 2.3793166 6447714
0.72026235 -1.0536705 2.363297 6447714
0.75501406 -1.0511758 2.3515353 6447714
0.6316092 -1.0249661 2.3933504 6447714
0.67502654 -1.0250109 2.378654 6447714
0.72496527 -1.0249614 2.3617461 6447714
0.75502497 -1.0248867 2.3515701 6447714
0.63164425 -0.97499222 2.3934131 6447714
0.67509574 -0.97503424 2.3787026 6447714
0.72506851 -0.97498894 2.3617828 6447714
0.75500453 -0.97483498 2.3516483 6447714
0.63163412 -0.92506087 2.3934882 6447714
0.67500961 -0.92498529 2.3788006 6447714
0.72505105 -0.92497587 2.3618631 6447714
0.75510794 -0.92518073 2.351686 6447714
0.63167197 -0.87503272 2.393549 6447714
0.67510384 -0.87496704 2.3788469 6447714
0.72507614 -0.87499714 2.3619242 6447714
0.7552833 -0.87421924 2.3517003 6447714
0.6316998 -0.82495654 2.3936117 6447714
0.67515224 -0.82502043 2.3788967 6447714
0.72512889 -0.82501429 2.3619809 6447714
0.75596994 -0.82499367 2.3515401 6447714
0.63164502 -0.77497017 2.3937025 6447714
0.67507571 -0.77503288 2.3790035 6447714
0.72512835 -0.77496094 2.3620522 6447714
0.75605386 -0.77517265 2.3515823 6447714
0.6317113 -0.72498167 2.3937507 6447714
0.67514688 -0.72497255 2.3790393 6447714
0.72510749 -0.72497255 2.3621345 6447714
0.75602919 -0.72485387 2.3516641 6447714
0.63219684 -0.67523837 2.3936613 6447714
0.67517948 -0.67497915 2.3791139 6447714
0.72517514 -0.67501569 2.36218 6447714
0.75600368 -0.67485625 2.3517451 6447714
-1.6563779 -0.60410953 2.380116 2039583
0.63266242 -0.62492585 2.3935735 6447714
0.67520279 -0.62502152 2.3791668 6447714
0.72521263 -0.62502003 2.3622427 6447714
0.75611639 -0.6251927 2.3517785 6447714
-1.6564739 -0.57498229 2.3799601 2303787
0.63267815 -0.57501191 2.3936415 6513507
0.67512518 -0.57498759 2.3792791 6513507
0.72513461 -0.5749917 2.3623395 6513507
0.75609195 -0.5748648 2.3518598 6513507
-1.6565094 -0.53052789 2.3800504 4680076
0.63269377 -0.52509606 2.3937097 6513507
0.67530251 -0.52491492 2.379282 6513507
0.72532427 -0.52502602 2.3623486 6513507
0.75606662 -0.52485752 2.3519394 6513507
0.63273072 -0.47498131 2.393769 6513507
0.67519867 -0.47498396 2.3793912 6513507
0.72514105 -0.47502264 2.3624811 6513507
0.75617939 -0.47518811 2.3519735 6513507
0.6326654 -0.42491096 2.3938634 6513507
0.67524403 -0.42501426 2.3794487 6513507
0.7249077 -0.42524135 2.3626337 6513507
0.75583124 -0.42351961 2.3521664 6513507
-1.6530555 -0.35207084 2.3910367 3097174
0.63222384 -0.3752982 2.3940833 6513507
0.67473215 -0.37475285 2.379694 6513507
0.72438997 -0.37499315 2.3628809 6513507
0.75612247 -0.37491703 2.352139 6513507
-1.6531479 -0.32499582 2.3908815 2965845
0.63194263 -0.32488158 2.3942533 6513507
0.67446721 -0.32504764 2.379858 6513507
0.7244029 -0.32497308 2.3629487 6513507
0.75624698 -0.32523793 2.352169 6513507
-1.653218 -0.27492854 2.3908947 2637140
0.63192344 -0.27487609 2.3943315 6513507
0.67436063 -0.27505398 2.3799603 6513507
0.72438949 -0.27505445 2.363028 6513507
0.75621665 -0.27481148 2.3522506 6513507
-1.6532625 -0.22496964 2.3909848 2308690
0.63201481 -0.2253522 2.3943713 6513507
0.67433167 -0.22498533 2.3800519 6513507
0.72462362 -0.22489046 2.3630192 6513507
0.75623775 -0.2251178 2.3523164 6513507
-1.653289 -0.17522423 2.3911238 2046033
0.63271433 -0.17539366 2.394208 6513507
0.67465723 -0.17491934 2.3800018 6513507
0.72423291 -0.17492694 2.3632245 6513507
0.75625861 -0.17542125 2.3523805 6513507
-1.6533339 -0.12514506 2.3912125 1585741
0.63284874 -0.12492559 2.3942351 6513507
0.674438 -0.12523079 2.3801649 6513507
0.72467744 -0.12500769 2.3631454 6513507
0.75627959 -0.12474753 2.3524466 6513507
-1.6534293 -0.074745759 2.3911517 1586255
0.63290507 -0.074508175 2.39429 6513507
0.67445731 -0.074943252 2.3802133 6513507
0.72427201 -0.075067438 2.3633571 6513507
0.75630075 -0.075045444 2.3525126 6513507
-1.6534506 -0.024767123 2.3913074 1520718
0.63285786 -0.02479892 2.3943772 6513507
0.67447621 -0.024653004 2.3802977 6513507
0.72471797 -0.025148747 2.3632758 6513507
0.75632155 -0.025340637 2.352576 6513507
-1.6535002 0.024768107 2.3913779 1323083
0.63287538 0.024799835 2.3944423 6513507
0.67449373 0.024653899 2.3803451 6513507
0.72473764 0.025149688 2.363344 6513507
0.75634253 0.025341598 2.3526435 6513507
-1.6535783 0.074752755 2.391366 1125705
0.63292694 0.074458055 2.3944969 6513507
0.674514 0.074949712 2.3804224 6579300
0.72433209 0.075073935 2.3635521 6513507
0.75724167 0.075042397 2.352411 6513507
-1.6534504 0.10543379 2.3918798 1125447
-1.6209495 0.11060837 2.3626921 1059398
-1.5987145 0.11062752 2.3631012 926527
-1.4234563 0.11077873 2.3663313 1985149
-1.3749579 0.11082058 2.3672247 1125708
-1.3244809 0.1108641 2.3681548 4938088
-1.2807678 0.11090181 2.3689604 5731986
-1.1299704 0.1110319 2.3717391 4609381
-0.70976913 0.11139436 2.379482 2184843
-0.67544466 0.11142398 2.3801146 1854076
-0.64404899 0.11145107 2.380693 1125447
-0.51339024 0.11156376 2.3831005 6848148
-0.47502577 0.11159687 2.3838072 1920641
-0.42482364 0.11164017 2.3847322 5595503
-0.37458298 0.1116835 2.3856575 10000536
-0.32528928 0.11172602 2.3865662 10000536
-0.29273626 0.1117541 2.3871663 10000536
-0.20288037 0.11183163 2.3888218 1655161
-0.17619433 0.11185464 2.3893135 6055796
-0.0098279631 0.11203325 2.3723125 10000536
0.0250716 0.11206406 2.3725567 10000536
0.074736252 0.11210623 2.373858 10066329
0.12494113 0.11214954 2.3747752 10197915
0.17518461 0.11219291 2.3756931 10197915
0.22496144 0.11223652 2.3762085 10197915
0.27528504 0.11227995 2.3771279 10197915
0.3251442 0.11232231 2.378433 10197915
0.37504974 0.11236604 2.3789506 10197915
0.42358154 0.11243725 2.3630805 10197915
0.47538221 0.11248716 2.3610368 10197915
0.5254696 0.1125304 2.361944 10197915
0.57461232 0.11257282 2.3628345 10197915
0.63140202 0.10730228 2.389281 10197915
0.67458421 0.10730587 2.3784132 10197915
0.72463572 0.10669088 2.3633225 10197915
0.75725514 0.10623058 2.3524511 10197915
1.5982568 0.1134565 2.3813825 6447714
1.6252298 0.11347979 2.3818715 6447714
1.6752051 0.11352292 2.382777 6447714
1.725219 0.1135661 2.383683 6447714
1.7522403 0.11358942 2.3841724 6447714
0.48248336 -1.0716947 2.4437735 6447714
0.52452475 -1.0684834 2.4295442 6447714
0.57363433 -1.0647962 2.4129233 6447714
0.60588998 -1.0623443 2.4020059 6447714
0.48293301 -1.0250232 2.443686 6447714
0.52537477 -1.0249424 2.4293194 6447714
0.57473463 -1.0250225 2.4126096 6447714
0.60602933 -1.0249784 2.4020128 6447714
0.48293018 -0.9750154 2.4437611 6447714
0.52542984 -0.97495705 2.4293728 6447714
0.57473582 -0.97503692 2.4126787 6447714
0.60605639 -0.97496492 2.4020755 6447714
0.48296008 -0.92500603 2.4438243 6447714
0.52536339 -0.92496955 2.4294672 6447714
0.57475537 -0.92501116 2.4127467 6447714
0.60608381 -0.92494965 2.4021394 6447714
0.48288843 -0.87509841 2.4439206 6447714
0.5253222 -0.87498093 2.4295537 6447714
0.57479775 -0.87498242 2.4128032 6447714
0.60611099 -0.8749308 2.4022019 6447714
0.4819966 -0.825019 2.4442954 6447714
0.52448845 -0.82503301 2.4299099 6447714
0.5747928 -0.82495242 2.4128783 6447714
0.60609651 -0.82505029 2.4022799 6447714
0.48205453 -0.77502829 2.4443474 6447714
0.52448612 -0.77498084 2.4299815 6447714
0.57477289 -0.77495486 2.412956 6447714
0.60608172 -0.77516609 2.4023561 6447714
0.48205939 -0.72497797 2.4444177 6447714
0.5245207 -0.7250011 2.430043 6447714
0.57479984 -0.72495496 2.4130197 6447714
0.6061092 -0.72513878 2.4024203 6447714
0.48206225 -0.67497724 2.4444888 6447714
0.52452081 -0.67501891 2.4301145 6447714
0.57480431 -0.67495263 2.4130917 6447714
0.60660535 -0.67428547 2.4023256 6447714
-1.6427467 -0.60416496 2.4203794 2039583
0.48303422 -0.62502438 2.4442325 6447714
0.5245105 -0.62503308 2.4301906 6447714
0.57485366 -0.6249842 2.4131455 6447714
0.60708004 -0.62499613 2.4022367 6447714
-1.6426742 -0.57505 2.4207246 2106151
0.4829933 -0.5750047 2.4443185 6513507
0.52454966 -0.5750075 2.4302497 6513507
0.57485253 -0.57497621 2.4132197 6513507
0.60713315 -0.57475567 2.4022899 6513507
-1.6427375 -0.53066486 2.4207289 2705767
0.48310155 -0.52492201 2.444355 6513507
0.52463257 -0.52501667 2.4302945 6513507
0.574875 -0.52500236 2.4132836 6513507
0.60714567 -0.52463508 2.402359 6513507
0.48304719 -0.47495764 2.4444444 6513507
0.52457321 -0.47506082 2.4303856 6513507
0.57491177 -0.4750627 2.4133449 6513507
0.60713071 -0.4747583 2.4024363 6513507
0.48299295 -0.42498916 2.444536 6513507
0.52457714 -0.42498893 2.4304574 6513507
0.5749585 -0.42504662 2.4133999 6513507
0.60714746 -0.42500472 2.4025021 6513507
-1.6454002 -0.35226732 2.4136486 2308431
0.48316953 -0.3750791 2.4445486 6513507
0.52463311 -0.37491453 2.430511 6513507
0.57495731 -0.37502813 2.4134731 6513507
0.6071642 -0.37524903 2.4025686 6513507
-1.6455941 -0.32499105 2.4131942 2308432
0.48315492 -0.32498682 2.4446275 6513507
0.52472401 -0.32491282 2.4305525 6513507
0.57504767 -0.32504338 2.4135149 6513507
0.60718066 -0.32549009 2.4026346 6513507
-1.6456541 -0.27494034 2.4132369 2111311
0.48295161 -0.27482644 2.4447675 6513507
0.52461237 -0.27490893 2.4306626 6513507
0.57496727 -0.27501935 2.413614 6513507
0.60714316 -0.27547452 2.4027205 6513507
-1.6500044 -0.20587757 2.4006913 2637139
-1.6456462 -0.22523503 2.4134812 1914190
0.48326543 -0.22521313 2.4447334 6513507
0.5245207 -0.22486238 2.4307652 6513507
0.57494843 -0.22499159 2.4136939 6513507
0.6073736 -0.22458124 2.4027159 6513507
-1.6500353 -0.17504881 2.4007356 2374482
-1.6454185 -0.17496841 2.4143727 1585483
0.48360723 -0.17559953 2.4446902 6513507
0.52456528 -0.1748883 2.4308238 6513507
0.57496327 -0.17499852 2.4137597 6513507
0.60822064 -0.17452252 2.4025016 6513507
-1.6500858 -0.12432823 2.4008093 1782862
-1.6454556 -0.12503619 2.4144814 1322313
0.48409176 -0.12457036 2.4445977 6513507
0.52483988 -0.12525353 2.4308021 6513507
0.57498026 -0.12500247 2.4138284 6513507
0.60816503 -0.12442058 2.4025934 6513507
-1.6501352 -0.074599117 2.4008815 1717583
-1.6455055 -0.075023971 2.4145546 1322826
0.48410511 -0.074946813 2.4446664 6513507
0.52474016 -0.075460047 2.4309087 6513507
0.57499522 -0.07500343 2.413893 6513507
0.60818172 -0.074654356 2.4026589 6513507
-1.6501848 -0.024867034 2.4009538 1520718
-1.6455544 -0.02500866 2.4146278 1257289
0.48411849 -0.025320472 2.4447334 6513507
0.52468491 -0.025178237 2.4309993 6513507
0.57501191 -0.025001757 2.4139612 6513507
0.60819852 -0.024885392 2.4027264 6513507
-1.6502342 0.024868034 2.401026 1257291
-1.6456047 0.025009656 2.414701 1191496
0.48413217 0.025321426 2.4448011 6513507
0.52469933 0.025179155 2.4310682 6513507
0.57502735 0.025002711 2.4140275 6513507
0.60821521 0.024886316 2.4027925 6513507
-1.6502838 0.074606091 2.4010978 994120
-1.6456547 0.075031005 2.4147742 1059654
0.48414555 0.074953265 2.4448695 6513507
0.5248149 0.07543014 2.4311008 6579300
0.57504392 0.07500995 2.4140956 6579300
0.60823172 0.074660771 2.4028592 6513507
-1.6503145 0.10544506 2.4011426 1059911
-1.6443893 0.10595793 2.4129109 993605
-1.469256 0.11061641 2.4356959 2117249
-1.4285195 0.11067462 2.4232562 1258326
-1.374879 0.11074875 2.4083161 1388366
-1.3245139 0.11079218 2.4092603 7963275
-1.2919048 0.11082027 2.4098713 2383248
-1.153373 0.1109397 2.4124682 993091
-1.145448 0.11094654 2.4126172 8291208
-0.71603656 0.11131673 2.4206667 2184586
-0.67513245 0.11135199 2.4214337 1655148
-0.6491822 0.11137439 2.4219208 1257289
-0.518264 0.1114872 2.4243741 5863058
-0.47523254 0.1115243 2.4251809 1787766
-0.42516086 0.11156747 2.4261196 6844795
-0.3750504 0.11161068 2.4270587 10066329
-0.32490116 0.1116539 2.4279993 10000536
-0.2947945 0.11167984 2.4285634 10000536
-0.2043858 0.1117578 2.4302583 1456747
-0.17723739 0.11178119 2.4307671 6450295
-0.010083102 0.11192529 2.4339004 10197915
0.025216883 0.11195571 2.434562 10197915
0.075676776 0.11199924 2.4355083 10197915
0.12516542 0.11204188 2.4364364 10197915
0.174692 0.11208457 2.4373641 10197915
0.22526814 0.11212818 2.4383125 10197915
0.27487084 0.11217093 2.4392421 10197915
0.32451162 0.11221374 2.4401731 10197915
0.37520438 0.11225744 2.4411232 10197915
0.42575625 0.11233669 2.4216819 10197915
0.48087025 0.10774854 2.4370465 10197915
0.52433467 0.10740698 2.4274886 10197915
0.57497436 0.10688284 2.4126682 10197915
0.60822946 0.1065153 2.402848 10197915
1.6370467 0.1134189 2.4227278 6447714
1.674664 0.11345135 2.4234207 6447714
1.7245133 0.11349435 2.4243395 6447714
1.7672701 0.11353122 2.4251268 6447714
0.33289331 -1.1079606 2.4943657 6447714
0.3719615 -1.1050867 2.481143 6447714
0.41223201 -1.1019286 2.4675131 6447714
0.33373845 -1.0749208 2.4941266 6447714
0.37503061 -1.0750051 2.4801474 6447714
0.42450345 -1.0749142 2.463397 6447714
0.45712343 -1.0736301 2.4523561 6447714
0.33373323 -1.0249861 2.4941995 6447714
0.37501264 -1.0249754 2.4802251 6447714
0.42455563 -1.0249735 2.4634521 6447714
0.45722184 -1.0250176 2.4523931 6447714
0.33380008 -0.97504956 2.4942496 6447714
0.37509355 -0.97502279 2.4802711 6447714
0.42454517 -0.97495461 2.4635286 6447714
0.45716646 -0.97500581 2.4524834 6447714
0.33383349 -0.92504907 2.4943116 6447714
0.37509423 -0.92506921 2.4803419 6447714
0.42462656 -0.92496967 2.4635739 6447714
0.45726642 -0.9249925 2.4525225 6447714
0.33371767 -0.8749851 2.4944224 6447714
0.37500829 -0.87502873 2.4804444 6447714
0.42454705 -0.87498313 2.4636712 6447714
0.45721126 -0.87497538 2.4526138 6447714
0.33378938 -0.82497925 2.494473 6447714
0.37515038 -0.82494611 2.480468 6447714
0.42466372 -0.82503378 2.4637048 6447714
0.45723358 -0.82495618 2.4526784 6447714
0.33380356 -0.77497137 2.4945388 6447714
0.37507108 -0.77498335 2.4805675 6447714
0.42456365 -0.77503943 2.4638121 6447714
0.45733368 -0.77493626 2.4527166 6447714
0.33396763 -0.72505903 2.4945552 6447714
0.37511963 -0.72501642 2.4806232 6447714
0.42464948 -0.72500688 2.4638536 6447714
0.45720088 -0.7249074 2.4528344 6447714
0.33479235 -0.6749236 2.4943469 6447714
0.37508854 -0.67496747 2.480706 6447714
0.42466846 -0.6749683 2.4639199 6447714
0.45740309 -0.67501396 2.4528375 6447714
0.33483487 -0.62501544 2.4944067 6447714
0.37510517 -0.62499571 2.4807732 6447714
0.42460796 -0.62496829 2.4640131 6447714
0.4582195 -0.62500811 2.4526334 6447714
0.33488989 -0.57503992 2.4944608 6447714
0.3752242 -0.57498133 2.4808044 6447714
0.42472708 -0.57500356 2.4640455 6447714
0.45822334 -0.57489598 2.4527047 6513507
0.33482999 -0.5249989 2.4945538 6513507
0.37511665 -0.52500373 2.4809136 6513507
0.42460251 -0.5249967 2.4641593 6513507
0.45835671 -0.52501327 2.4527316 6513507
0.33478847 -0.47501773 2.4946387 6513507
0.37513295 -0.47498333 2.480979 6513507
0.4247463 -0.47502881 2.4641855 6513507
0.45821461 -0.47488871 2.4528525 6513507
0.33480835 -0.4250339 2.4947035 6513507
0.37515315 -0.42492059 2.4810464 6513507
0.42472583 -0.4249751 2.4642618 6513507
0.45838332 -0.42511675 2.452867 6513507
0.33489907 -0.37491956 2.4947448 6513507
0.37519953 -0.375016 2.4811029 6513507
0.4246321 -0.37496328 2.4643648 6513507
0.45831749 -0.37498984 2.4529619 6513507
0.33498982 -0.32480398 2.4947898 6513507
0.37529284 -0.3250291 2.4811437 6513507
0.42487371 -0.32502276 2.4643574 6513507
0.45826876 -0.32497308 2.4530513 6513507
0.33487681 -0.27493933 2.4948993 6513507
0.37501684 -0.27503756 2.4813085 6513507
0.42453146 -0.27500299 2.4645448 6513507
0.45840287 -0.27519304 2.4530787 6513507
0.33528316 -0.22570786 2.4948335 6513507
0.37528145 -0.22492251 2.481292 6513507
0.42497084 -0.22506115 2.4644704 6513507
0.45835558 -0.2246062 2.4531677 6513507
0.33576569 -0.17541771 2.4947426 6513507
0.3753317 -0.17492832 2.4813483 6513507
0.42448318 -0.17502885 2.4647062 6513507
0.4589107 -0.17416449 2.453052 6513507
0.33601198 -0.12479014 2.4947324 6513507
0.37513101 -0.12533636 2.4814868 6513507
0.42499414 -0.12501007 2.464606 6513507
0.45933604 -0.12499741 2.4529788 6513507
0.33590409 -0.074417859 2.4948411 6513507
0.37528902 -0.074968651 2.4815063 6513507
0.42451459 -0.074926279 2.4648411 6513507
0.45934883 -0.075203724 2.453047 6513507
0.33591336 -0.024806563 2.4949086 6513507
0.37522706 -0.024674237 2.4815998 6513507
0.42501095 -0.024908429 2.464746 6513507
0.45936152 -0.02540729 2.4531147 6513507
0.33592266 0.024807474 2.4949758 6513507
0.37523732 0.024675118 2.481668 6513507
0.42502263 0.024909342 2.4648123 6513507
0.45937437 0.025408244 2.4531837 6513507
0.33593196 0.074424185 2.4950442 6513507
0.37531981 0.074975193 2.4817126 6645093
0.42454976 0.074932709 2.4650455 6579300
0.45938697 0.075210229 2.4532516 6513507
-1.5116056 0.11047941 2.49227 2381449
-1.4748563 0.11051104 2.4929841 1324893
-1.4208719 0.11057796 2.4823704 1257296
-1.3752682 0.11063617 2.472434 5924466
-1.3321205 0.11068703 2.4654481 5141139
-1.1799494 0.1108036 2.4766417 4609381
-0.72252458 0.11123633 2.4633024 2118537
-0.67988747 0.11127305 2.4641161 1522531
-0.52330941 0.11140793 2.467103 5140625
-0.47544661 0.11144917 2.4680161 1589611
