# .PCD v0.7 - Point Cloud Data file format
VERSION 0.7
FIELDS x y z rgb
SIZE 4 4 4 4
TYPE F F F U
COUNT 1 1 1 1
WIDTH 1182
HEIGHT 1
VIEWPOINT 0 0 0 1 0 0 0
POINTS 1182
DATA ascii
-0.49331859 -1.8248584 4.3450027 2960685
3.1342406 -1.825016 4.3254776 2039583
3.1513722 -1.8081644 4.3000097 2039583
-0.55455148 -1.7748059 4.3040781 2960685
-0.52484387 -1.7749045 4.3240299 2960685
-0.49324808 -1.7749814 4.3452482 2960685
3.1342726 -1.7751484 4.3255563 2039583
3.1514022 -1.7743338 4.3000512 2039583
-0.55457497 -1.7249509 4.3042593 2960685
-0.5248661 -1.7248183 4.3242126 2960685
-0.49317771 -1.7250985 4.3454928 2960685
3.1342769 -1.725091 4.3256764 2039583
3.1514461 -1.7244772 4.3001113 2039583
-0.55586058 -1.6736227 4.3035989 2960685
-0.52495164 -1.6748469 4.3243532 2960685
-0.49328986 -1.6752119 4.3456149 2960685
3.1343403 -1.6750307 4.3257065 2039583
3.1514904 -1.6746191 4.3001714 2039583
-0.55626184 -1.6251104 4.3035216 2960685
-0.52491039 -1.6249917 4.3245773 2960685
-0.49331075 -1.6248719 4.3458004 2960685
3.1344109 -1.625064 4.3257308 2039583
3.1515346 -1.6247596 4.3002319 2039583
-0.55628526 -1.5752556 4.3037043 2960685
-0.52493286 -1.5750123 4.3247595 2960685
-0.4933013 -1.5749757 4.3460035 2960685
3.1344621 -1.5749073 4.3257809 2039583
3.1515789 -1.5748988 4.3002925 2039583
-0.55630875 -1.5253966 4.3038855 2960685
-0.52495509 -1.5249095 4.324944 2960685
-0.49335259 -1.5250776 4.3461676 2960685
3.1345046 -1.5247481 4.3258433 2039583
3.1516232 -1.5250366 4.3003526 2039583
-0.55630368 -1.4750872 4.3040881 2960685
-0.5250566 -1.4749224 4.3250742 2960685
-0.49340373 -1.4751756 4.3463302 2960685
3.1345246 -1.4748719 4.3259406 2039583
3.1516678 -1.4751729 4.3004131 2039583
-0.55635619 -1.4247758 4.3042517 2960685
-0.52499938 -1.4249308 4.3253112 2960685
-0.49339414 -1.4252666 4.3465347 2960685
3.133971 -1.4252669 4.326889 2039583
3.1510477 -1.4221504 4.3014708 2039583
-0.55637962 -1.3749043 4.3044338 2960685
-0.5251168 -1.3749347 4.325429 2960685
-0.49508885 -1.3754499 4.3455944 2960685
3.133817 -1.3750521 4.3272476 2039583
3.150903 -1.375847 4.3018026 2039583
-0.5564031 -1.3250283 4.3046155 2960685
-0.52505928 -1.3250545 4.3256645 2960685
-0.49510989 -1.3250972 4.3457789 2960685
3.1337714 -1.3250719 4.3274422 2039583
3.1509473 -1.3259646 4.3018632 2039583
-0.5564267 -1.2751484 4.3047972 2960685
-0.5250659 -1.2750496 4.3258581 2960685
-0.49513099 -1.2747403 4.3459644 2960685
3.1338181 -1.274991 4.327498 2039583
3.1509917 -1.2760805 4.3019228 2039583
-0.55647916 -1.2248214 4.3049612 2960685
-0.52519953 -1.2250419 4.3259678 2960685
-0.49515212 -1.2243789 4.346149 2960685
3.1338964 -1.2250087 4.3275094 2039583
3.1510355 -1.2261951 4.3019838 2039583
-0.55647397 -1.1744851 4.3051643 2960685
-0.52511042 -1.1750282 4.3262253 2960685
-0.49517322 -1.1740136 4.3463349 2960685
3.1339014 -1.1749252 4.3276262 2039583
3.1510799 -1.1763083 4.3020444 2039583
-0.55649745 -1.1245922 4.3053455 2960685
-0.52516419 -1.1250111 4.3263869 2960685
-0.49511254 -1.124228 4.3465729 2960685
3.133992 -1.1248398 4.327621 2039583
3.1510956 -1.1255099 4.3021493 2039583
-0.5575465 -1.0735229 4.3048429 2960685
-0.52515489 -1.0749897 4.326591 2960685
-0.49521464 -1.0750681 4.3466988 2960685
3.1340537 -1.0749532 4.3276529 2039583
3.15117 -1.0747482 4.3021674 2039583
-0.55818409 -1.0250667 4.3046064 2960685
-0.52516121 -1.0250832 4.3267851 2960685
-0.49523562 -1.0252895 4.3468814 2960685
3.1340363 -1.0249655 4.3278093 2039583
3.1512141 -1.0248573 4.302228 2039583
-0.558254 -0.97482085 4.304759 2960685
-0.52519929 -0.97517222 4.3269577 2960685
-0.49533808 -0.97552407 4.3470106 2960685
3.134156 -0.97497636 4.3277564 2039583
3.1512587 -0.97496468 4.3022885 2039583
-0.55823153 -0.92456502 4.3049731 2960685
-0.52522165 -0.92501855 4.3271408 2960685
-0.49527726 -0.92572033 4.3472471 2960685
3.1341226 -0.92498571 4.327929 2039583
3.1513031 -0.92507112 4.3023481 2039583
-0.55825502 -0.87466383 4.3051548 2960685
-0.5253073 -0.87498093 4.3272805 2960685
-0.49529848 -0.87532943 4.3474331 2960685
3.1341677 -0.87499279 4.3279905 2039583
3.1513469 -0.87517565 4.3024087 2039583
-0.55837125 -0.8244105 4.3052759 2960685
-0.52534539 -0.82505774 4.3274522 2960685
-0.49531943 -0.82493401 4.3476186 2960685
3.1342115 -0.82499897 4.328053 2039583
3.1514215 -0.82441074 4.3024263 2039583
-0.55830252 -0.77413678 4.3055205 2960685
-0.52538353 -0.77513081 4.3276258 2960685
-0.49652752 -0.77630949 4.3469996 2960685
3.1350248 -0.77508348 4.3269639 2039583
3.1514375 -0.77359951 4.3025327 2039583
-0.55832618 -0.72422302 4.3057022 2960685
-0.52526265 -0.7251997 4.3279037 2960685
-0.49703535 -0.72394335 4.3468657 2960685
3.1352096 -0.72493255 4.326818 2039583
3.1514816 -0.72370011 4.3025928 2039583
-0.55834973 -0.67430508 4.3058844 2960685
-0.52544379 -0.67526543 4.32798 2960685
-0.49699426 -0.67442095 4.3470893 2960685
3.135246 -0.67506748 4.3268909 2039583
3.1515262 -0.67379916 4.3026528 2039583
-0.55837333 -0.62438285 4.306066 2960685
-0.52535474 -0.62520403 4.3282385 2960685
-0.49713859 -0.62587583 4.3471851 2960685
3.1353106 -0.62520087 4.3269191 2039583
3.1515706 -0.62389696 4.3027129 2039583
-0.55839688 -0.57445645 4.3062482 2960685
-0.52534509 -0.57514042 4.3284431 2960685
-0.49709743 -0.57634515 4.3474088 2960685
3.1352975 -0.57512069 4.3270669 2039583
3.1516144 -0.57399315 4.3027735 2039583
-0.55842048 -0.52452582 4.3064299 2960685
-0.52539915 -0.52507144 4.3286042 2960685
-0.49711862 -0.52593738 4.3475938 2960685
3.1353352 -0.52503943 4.3271379 2039583
3.1516583 -0.52408808 4.302834 2039583
-0.55945331 -0.4734208 4.3059387 2960685
-0.52540576 -0.47499919 4.3287978 2960685
-0.49713984 -0.47552529 4.3477793 2960685
3.1353853 -0.47506163 4.3271894 2039583
3.1517029 -0.47418165 4.3028941 2039583
-0.56010693 -0.42454356 4.3056927 2960685
-0.52544349 -0.42504188 4.3289714 2960685
-0.497161 -0.42510894 4.3479648 2960685
3.1354289 -0.42497736 4.327251 2039583
3.151747 -0.4242737 4.3029547 2039583
-0.5601306 -0.37461308 4.3058743 2960685
-0.52548164 -0.37508065 4.3291426 2960685
-0.49718222 -0.37468821 4.3481498 2960685
3.1354821 -0.37489182 4.3273015 2039583
3.151792 -0.37436444 4.3030157 2039583
-0.56015444 -0.32467833 4.3060565 2960685
-0.52556759 -0.32523662 4.3292828 2960685
-0.49720344 -0.32426324 4.3483357 2960685
3.1355557 -0.32501638 4.3273177 2039583
3.1518357 -0.32445365 4.3030763 2039583
-0.56017792 -0.27473938 4.3062387 2960685
-0.52565378 -0.27550927 4.3294225 2960685
-0.49722463 -0.27383393 4.3485208 2960685
3.1356282 -0.27524671 4.3273358 2039583
3.1518798 -0.27454159 4.3031363 2039583
-0.56020164 -0.22479621 4.3064208 2960685
-0.52573991 -0.22577913 4.3295612 2960685
-0.49718341 -0.22426949 4.3487449 2960685
3.1357605 -0.22558556 4.3272624 2039583
3.1519241 -0.22462808 4.3031969 2039583
-0.56022525 -0.17484881 4.306602 2960685
-0.52555442 -0.17579408 4.3298836 2960685
-0.49793348 -0.17979042 4.3484168 2960685
3.1356506 -0.17569965 4.3275547 2039583
3.1519687 -0.17471321 4.3032575 2039583
-0.56024897 -0.12489724 4.3067837 2960685
-0.52557677 -0.1255725 4.3300676 2960685
-0.49896002 -0.12609081 4.3479404 2960685
3.1356955 -0.1255015 4.3276143 2039583
3.1520133 -0.12479686 4.3033175 2039583
-0.56027263 -0.074941464 4.3069663 2960685
-0.525599 -0.075346597 4.3302498 2960685
-0.49898133 -0.075657643 4.3481259 2960685
3.1357384 -0.07530196 4.3276768 2039583
3.1520576 -0.074879155 4.3033781 2039583
-0.5602963 -0.024981422 4.3071475 2960685
-0.52562159 -0.025116492 4.3304358 2960685
-0.49900261 -0.025220171 4.3483109 2960685
3.1357822 -0.025100961 4.3277383 2039583
3.1521015 -0.024960026 4.3034387 2039583
-0.56032002 0.024982832 4.3073306 2960685
-0.52564377 0.025117906 4.3306174 2960685
-0.49902385 0.025221599 4.3484964 2960685
3.135828 0.025101427 4.3277979 2039583
3.1521461 0.024960494 4.3034987 2039583
-0.56034362 0.074951306 4.3075128 4210752
-0.525666 0.075356573 4.3308015 4276545
-0.49904513 0.075667672 4.3486819 4342338
3.1358714 0.075305261 4.3278599 2039583
3.1521904 0.074882425 4.3035598 2039583
2.6886508 0.10230514 4.3323164 9474192
2.7251067 0.1023261 4.3332038 7566195
2.7761676 0.10235544 4.3344464 5526612
2.8254335 0.10238376 4.3356457 3289650
2.8747265 0.1024121 4.3368464 2039583
2.9258745 0.1024415 4.3380914 2039583
2.9752233 0.10246988 4.339293 2039583
3.0245993 0.10249828 4.3404951 2039583
3.0758328 0.10252772 4.341742 2039583
3.1304181 0.10225626 4.3302469 2039583
3.1522141 0.10162683 4.3035922 2039583
-0.45641088 -1.9521092 4.3692851 2960685
-0.42771846 -1.9567709 4.3885369 2960685
3.0909953 -1.9569041 4.3895364 2039583
3.1037457 -1.9526794 4.3705621 2039583
-0.46780631 -1.9245888 4.3617439 2960685
-0.43071371 -1.9250561 4.386652 2960685
3.0921528 -1.9251003 4.3878937 2039583
3.1088078 -1.9246467 4.3630953 2039583
-0.46813855 -1.8750499 4.3617134 2960685
-0.43084437 -1.8749117 4.3867607 2960685
3.0922682 -1.8752381 4.3878493 2039583
3.1089716 -1.8749564 4.3629766 2039583
-0.46802512 -1.8251861 4.3619857 2960685
-0.43072775 -1.8247627 4.3870387 2960685
3.0922103 -1.8249704 4.3880606 2039583
3.1090531 -1.825094 4.3629827 2039583
-0.46804518 -1.7749912 4.3621745 2960685
-0.43067858 -1.774773 4.3872681 2960685
3.092298 -1.7746962 4.3880591 2039583
3.10904 -1.7750505 4.3631287 2039583
-0.46799803 -1.7249534 4.3624024 2960685
-0.43076441 -1.7249457 4.3874102 2960685
3.0923114 -1.724829 4.3881626 2039583
3.1091154 -1.7250026 4.363143 2039583
-0.46817297 -1.6750784 4.3624835 2960685
-0.43085042 -1.6751165 4.3875504 2960685
3.0923977 -1.6751668 4.3881607 2039583
3.1090643 -1.6749564 4.3633451 2039583
-0.46801567 -1.6250356 4.3627863 2960685
-0.43080053 -1.6251127 4.3877807 2960685
3.0924132 -1.6252931 4.3882647 2039583
3.1092153 -1.6249077 4.3632469 2039583
-0.46825752 -1.5751537 4.362824 2960685
-0.43086383 -1.5749401 4.3879356 2960685
3.092485 -1.5752174 4.3882847 2039583
3.1092343 -1.5750402 4.3633456 2039583
-0.46807817 -1.5250998 4.3631415 2960685
-0.43081468 -1.5249316 4.3881674 2960685
3.0925004 -1.5253468 4.3883886 2039583
3.109246 -1.5253501 4.3634543 2039583
-0.46820807 -1.4748787 4.3632507 2960685
-0.43090078 -1.4750868 4.388308 2960685
3.0925574 -1.475269 4.3884292 2039583
3.109302 -1.4751148 4.3634949 2039583
-0.4682059 -1.424817 4.3634515 2960685
-0.43167454 -1.4256613 4.3879833 2960685
3.0925727 -1.4249898 4.3885336 2039583
3.1093595 -1.4248787 4.3635383 2039583
-0.46985576 -1.3749281 4.3625417 2960685
-0.43264979 -1.3749162 4.3875303 2960685
3.0926456 -1.3749098 4.3885531 2039583
3.1094348 -1.3748233 4.363555 2039583
-0.47002783 -1.3251338 4.3626251 2960685
-0.43271759 -1.3248042 4.3876843 2960685
3.0927179 -1.3250321 4.3885713 2039583
3.1094275 -1.3249469 4.3636899 2039583
-0.46986505 -1.2751837 4.3629293 2960685
-0.43257478 -1.2748659 4.3879757 2960685
3.0926747 -1.2751501 4.388762 2039583
3.1094844 -1.2750715 4.3637333 2039583
-0.46992528 -1.2252272 4.3630862 2960685
-0.43263078 -1.2249277 4.3881354 2960685
3.0927465 -1.2250661 4.3887801 2039583
3.1094956 -1.2250103 4.363842 2039583
-0.4699859 -1.1752667 4.363245 2960685
-0.43277398 -1.1751699 4.3882365 2960685
3.0928199 -1.1749822 4.3888006 2039583
3.1095653 -1.1751292 4.3638649 2039583
-0.47007647 -1.1251525 4.3633819 2960685
-0.43267953 -1.1252197 4.3884969 2960685
3.0928912 -1.1248984 4.3888192 2039583
3.1096537 -1.1250662 4.3638601 2039583
-0.4700869 -1.0750359 4.363574 2960685
-0.43275958 -1.0749003 4.3886442 2960685
3.092849 -1.0750052 4.38901 2039583
3.1096215 -1.0748268 4.3640347 2039583
-0.4700152 -1.024913 4.3638206 2960685
-0.43267938 -1.0247623 4.3888965 2960685
3.0920737 -1.0246959 4.3902903 2039583
3.1088634 -1.0249329 4.3652887 2039583
-0.47008589 -0.97478235 4.3639727 2960685
-0.43279725 -0.97498941 4.3890147 2960685
3.0920935 -0.97492111 4.3903885 2039583
3.1088607 -0.97480106 4.3654213 2039583
-0.47000426 -0.92480201 4.3642254 2960685
-0.43271554 -0.9252044 4.389267 2960685
3.0921125 -0.92514277 4.3904858 2039583
3.1088817 -0.92482835 4.3655171 2039583
-0.47006488 -0.87481761 4.3643842 2960685
-0.43283269 -0.87505078 4.3893862 2960685
3.0921805 -0.87490624 4.390512 2039583
3.1089368 -0.87502557 4.3655596 2039583
-0.470238 -0.8249824 4.3644643 2960685
-0.43317825 -0.82523054 4.3893499 2960685
3.0922887 -0.82489616 4.3904777 2039583
3.1090622 -0.82522213 4.3655009 2039583
-0.47140756 -0.77479142 4.3638763 2960685
-0.43433586 -0.77494049 4.3887725 2960685
3.0922675 -0.7748875 4.390635 2039583
3.1097786 -0.77496409 4.3645606 2039583
-0.47182661 -0.72495162 4.3637919 2960685
-0.43446395 -0.72486889 4.3888845 2960685
3.0922461 -0.72487456 4.3907924 2039583
3.1099548 -0.72505629 4.3644238 2039583
-0.47190303 -0.67477584 4.3639393 2960685
-0.43464786 -0.67499852 4.3889585 2960685
3.0932243 -0.67542076 4.3894625 2039583
3.1100149 -0.67488945 4.3644624 2039583
-0.47199795 -0.62473637 4.3640723 2960685
-0.43477586 -0.62512666 4.3890705 2960685
3.0933414 -0.6253134 4.3894138 2039583
3.1101067 -0.62472093 4.3644505 2039583
-0.47198167 -0.57483345 4.3642845 2960685
-0.43449271 -0.5748347 4.3894587 2960685
3.0933306 -0.57465905 4.3895593 2039583
3.1101344 -0.57485592 4.3645363 2039583
-0.47173831 -0.5249244 4.3646412 2960685
-0.43445373 -0.5247438 4.3896837 2960685
3.0932624 -0.52451295 4.3897877 2039583
3.1100452 -0.52498835 4.3647947 2039583
-0.47183308 -0.47487038 4.3647771 2960685
-0.43480581 -0.47527295 4.3896437 2960685
3.0934737 -0.47517809 4.3896003 2039583
3.1101317 -0.47496518 4.3647928 2039583
-0.4719463 -0.42495349 4.3648987 2960685
-0.43476593 -0.42537907 4.3898678 2960685
3.0935159 -0.42530444 4.3896618 2039583
3.110234 -0.42509413 4.3647699 2039583
-0.47223175 -0.37531734 4.3649054 2960685
-0.43467537 -0.37466809 4.3901291 2960685
3.0935049 -0.37464064 4.3898058 2039583
3.1103735 -0.37537712 4.3646865 2039583
-0.47209838 -0.32538989 4.36519 2960685
-0.43441421 -0.32454425 4.3905034 2960685
3.0934367 -0.32448119 4.3900342 2039583
3.110363 -0.32535195 4.3648267 2039583
-0.47200665 -0.2749002 4.3654532 2960685
-0.43499368 -0.27548721 4.3903079 2960685
3.0937042 -0.27542397 4.38976 2039583
3.1103501 -0.27487028 4.3649783 2039583
-0.47202685 -0.22427021 4.3656383 2960685
-0.43473005 -0.22555681 4.3906822 2960685
3.0936348 -0.22552128 4.3899903 2039583
3.1103933 -0.22423948 4.3650393 2039583
-0.47257635 -0.17391661 4.3654714 2960685
-0.43592635 -0.17522907 4.3900781 2960685
3.0936797 -0.17459965 4.3900537 2039583
3.1102493 -0.17433795 4.3653812 2039583
-0.47417831 -0.12557168 4.3645844 2960685
-0.43624061 -0.12432494 4.39007 2960685
3.0936105 -0.12442691 4.3902817 2039583
3.1106713 -0.12555838 4.3648763 2039583
-0.473768 -0.075952269 4.3650579 2960685
-0.43673217 -0.075279377 4.3899341 2960685
3.0938792 -0.075379446 4.390008 2039583
3.1105242 -0.075955212 4.3652201 2039583
-0.47378844 -0.025318377 4.3652453 2960685
-0.43651167 -0.025463572 4.3902783 2960685
3.0938087 -0.02546346 4.3902378 2039583
3.1105678 -0.025318719 4.3652821 2039583
-0.47380859 0.025319837 4.3654313 2960685
-0.43653041 0.025465038 4.3904667 2960685
3.0938537 0.025463946 4.3903008 2039583
3.1106129 0.025319213 4.365345 2039583
-0.47382903 0.075962342 4.3656182 4408131
-0.43678775 0.075289316 4.3904924 4210752
3.0940104 0.075382754 4.3901925 2039583
3.1106567 0.07595861 4.3654089 2039583
-0.42018783 0.10004496 4.3906636 10197915
-0.37481502 0.10007231 4.3918629 10197915
-0.32396334 0.1001014 4.3931403 10197915
-0.27489984 0.10012946 4.394372 10197915
-0.22580858 0.10015757 4.3956051 10197915
-0.17487013 0.10018671 4.3968844 10197915
-0.12390203 0.10021587 4.3981643 10197915
-0.074726298 0.10024402 4.3993993 10197915
3.0912561 0.10012912 4.3943567 2039583
-0.40652484 -1.9601259 4.4027567 2960685
-0.37333402 -1.9648577 4.4250278 2960685
-0.34240329 -1.9697973 4.4457827 2960685
3.0649815 -1.965691 4.4282465 2039583
-0.40683523 -1.9255438 4.4026856 2960685
-0.37574273 -1.9248877 4.4235692 2960685
-0.34261486 -1.9251999 4.4458165 2960685
3.06707 -1.9250616 4.425241 2039583
-0.4067688 -1.8751553 4.4029293 2960685
-0.37567458 -1.8748761 4.4238129 2960685
-0.34259763 -1.8750898 4.4460263 2960685
3.0671694 -1.8750108 4.4252214 2039583
-0.4067024 -1.8247598 4.4031734 2960685
-0.37563869 -1.82498 4.4240336 2960685
-0.34258029 -1.8249743 4.4462371 2960685
3.0671782 -1.8249558 4.4253335 2039583
-0.40680328 -1.7749809 4.4033027 2960685
-0.37587544 -1.7750832 4.4240732 2960685
-0.34296337 -1.775614 4.4461741 2960685
3.0672488 -1.7750962 4.4253559 2039583
-0.40690431 -1.7251987 4.4034324 2960685
-0.37580606 -1.7249324 4.4243193 2960685
-0.34430575 -1.7250341 4.4454737 2960685
3.0672433 -1.7250401 4.4254913 2039583
-0.40683788 -1.6747905 4.403676 2960685
-0.37568679 -1.6749032 4.4245973 2960685
-0.34449318 -1.6753955 4.4455447 2960685
3.0674059 -1.6749806 4.4253755 2039583
-0.40677145 -1.6243763 4.4039211 2960685
-0.3757202 -1.6249946 4.4247732 2960685
-0.34433708 -1.6251055 4.4458489 2960685
3.0673096 -1.625021 4.4256434 2039583
-0.40647271 -1.5737442 4.4043221 2960685
-0.37551245 -1.5752591 4.4251089 2960685
-0.34452441 -1.5754611 4.445919 2960685
3.0674293 -1.5748632 4.4255962 2039583
-0.40526363 -1.5253302 4.4053264 2960685
-0.37419149 -1.5250233 4.4261951 2960685
-0.34445155 -1.5251707 4.4461679 2960685
3.0678482 -1.5253124 4.425096 2039583
-0.40509325 -1.4751952 4.4056392 2960685
-0.37403473 -1.4749213 4.4264994 2960685
-0.34437868 -1.4748743 4.4464159 2960685
3.0683537 -1.4750352 4.4244699 2039583
-0.40614635 -1.4236732 4.4051356 2960685
-0.37408689 -1.4249438 4.4266596 2960685
-0.34456614 -1.4252211 4.446486 2960685
3.068485 -1.4249566 4.4244018 2039583
-0.40698847 -1.3748446 4.4047637 2960685
-0.37418434 -1.3750945 4.4267941 2960685
-0.34440997 -1.3749038 4.4467893 2960685
3.0685019 -1.3749735 4.4245024 2039583
-0.40695608 -1.3248996 4.4049835 2960685
-0.37411872 -1.3249742 4.4270358 2960685
-0.3445974 -1.3252447 4.4468617 2960685
3.0685463 -1.324891 4.4245639 2039583
-0.40692329 -1.2749492 4.4052019 2960685
-0.37417108 -1.2749883 4.4271989 2960685
-0.34452456 -1.2749296 4.4471092 2960685
3.068505 -1.2749048 4.4247537 2039583
-0.40704086 -1.224998 4.4053221 2960685
-0.37417695 -1.2251254 4.4273915 2960685
-0.34445161 -1.2246083 4.4473572 2960685
3.0686731 -1.2250249 4.4246283 2039583
-0.40710726 -1.1750431 4.4054747 2960685
-0.37419331 -1.1751233 4.4275789 2960685
-0.34463918 -1.1749407 4.4474277 2960685
3.0686302 -1.1750365 4.424819 2039583
-0.40692538 -1.1247091 4.4057956 2960685
-0.37415463 -1.125126 4.427803 2960685
-0.34544361 -1.1271867 4.4470773 2960685
3.0687191 -1.1249453 4.4248142 2039583
-0.40699154 -1.074744 4.4059501 2960685
-0.37427917 -1.0751168 4.427918 2960685
-0.34639958 -1.074952 4.4466419 2960685
3.0687072 -1.0749593 4.4249573 2039583
-0.40721092 -1.0251493 4.4059987 2960685
-0.37439454 -1.0249754 4.4280386 2960685
-0.34634963 -1.0243118 4.446876 2960685
3.0688636 -1.0249667 4.424849 2039583
-0.40707654 -0.97480232 4.4062881 2960685
-0.37401015 -0.97496003 4.4284949 2960685
-0.34636417 -0.97461087 4.4470625 2960685
3.068862 -0.97487408 4.4249768 2039583
-0.40694225 -0.92444694 4.4065781 2960685
-0.37438154 -0.92507255 4.428442 2960685
-0.34637865 -0.92490584 4.4472499 2960685
3.0687699 -0.9248777 4.4252419 2039583
-0.40726471 -0.87521678 4.4065552 2960685
-0.37435129 -0.87491918 4.4286609 2960685
-0.34639323 -0.87519687 4.4474373 2960685
3.0689828 -0.87498868 4.4250531 2039583
-0.40741447 -0.82457483 4.4066563 2960685
-0.37411249 -0.82488543 4.4290195 2960685
-0.34640783 -0.82548338 4.4476237 2960685
3.068933 -0.82499021 4.4252553 2039583
-0.40869498 -0.77452677 4.4059939 2960685
-0.37445727 -0.77512467 4.4289842 2960685
-0.34635779 -0.77481842 4.4478579 2960685
3.0690432 -0.7748884 4.4252172 2039583
-0.40894312 -0.72498316 4.4060235 2960685
-0.37433499 -0.72495162 4.4292684 2960685
-0.3465021 -0.72515023 4.4479575 2960685
3.0689728 -0.72489309 4.4254484 2039583
-0.40900049 -0.67512214 4.4061832 2960685
-0.37431562 -0.6749078 4.4294782 2960685
-0.34645206 -0.67447656 4.4481926 2960685
3.0699892 -0.67487377 4.4240623 2039583
-0.40881091 -0.62462842 4.4065104 2960685
-0.37431267 -0.6251334 4.4296765 2960685
-0.3464666 -0.62474644 4.448379 2960685
3.070061 -0.62490845 4.4240828 2039583
-0.40893131 -0.57506692 4.4066248 2960685
-0.3745003 -0.5749476 4.4297481 2960685
-0.34648123 -0.57501209 4.4485664 2960685
3.0700002 -0.57484835 4.4242997 2039583
-0.40905225 -0.5255034 4.4067407 2960685
-0.37437269 -0.52489626 4.4300337 2960685
-0.34656554 -0.52615243 4.4487028 2960685
3.0702033 -0.52498776 4.4241209 2039583
-0.4089663 -0.47469926 4.4069991 2960685
-0.37425065 -0.47496867 4.4303117 2960685
-0.34826189 -0.47540495 4.4477649 2960685
3.070169 -0.47492179 4.4243007 2039583
-0.40881163 -0.42479295 4.4073019 2960685
-0.37484235 -0.42504442 4.4301124 2960685
-0.34827659 -0.42567125 4.4479518 2960685
3.0702417 -0.4250524 4.4243169 2039583
-0.40916833 -0.37555018 4.4072561 2960685
-0.37405777 -0.37496707 4.4308381 2960685
-0.34829122 -0.3759332 4.4481392 2960685
3.0701168 -0.37518501 4.4246311 2039583
-0.40901801 -0.32502744 4.4075565 2960685
-0.37458214 -0.32516843 4.4306822 2960685
-0.34830639 -0.32434863 4.4483328 2960685
3.0704105 -0.32502121 4.4243202 2039583
-0.40886787 -0.27449667 4.4078579 2960685
-0.37466615 -0.27509868 4.4308233 2960685
-0.34832108 -0.27460214 4.4485202 2960685
3.0703578 -0.27486065 4.4245262 2039583
-0.40922445 -0.22524917 4.4078131 2960685
-0.37402809 -0.2247314 4.4314542 2960685
-0.34833568 -0.22485146 4.4487071 2960685
3.0701609 -0.22488102 4.4249439 2039583
-0.41034847 -0.17450805 4.4072595 2960685
-0.37492594 -0.17521268 4.4310465 2960685
-0.34835035 -0.1750966 4.4488945 2960685
3.0707009 -0.1752189 4.4242682 2039583
-0.41080433 -0.12415634 4.4071527 2960685
-0.37449849 -0.12484313 4.4315324 2960685
-0.3483651 -0.1253375 4.4490814 2960685
3.0704367 -0.12465324 4.424789 2039583
-0.41082135 -0.074862026 4.4073367 2960685
-0.37451428 -0.075276144 4.4317174 2960685
-0.34837967 -0.075574271 4.4492688 2960685
3.0704792 -0.075159587 4.42485 2039583
-0.41083845 -0.025563585 4.4075193 2960685
-0.37452981 -0.025705004 4.4319043 2960685
-0.34839433 -0.025806801 4.4494562 2960685
3.0705228 -0.02566456 4.424912 2039583
-0.41085622 0.025565052 4.4077115 2960685
-0.37454617 0.025706491 4.4320974 2960685
-0.34840959 0.025808303 4.4496498 2960685
3.0705664 0.025665065 4.4249744 2039583
-0.41087332 0.074871816 4.4078946 4210752
-0.37456194 0.075286046 4.4322805 4210752
-0.34842423 0.075584248 4.4498372 4342338
3.07061 0.075162843 4.4250369 2039583
-0.025522592 0.10027216 4.4006348 10197915
0.025532497 0.10030138 4.4019165 10197915
0.074792199 0.10032957 4.4031544 10197915
0.12407992 0.10035776 4.4043913 10197915
0.17522225 0.10038704 4.4056759 10197915
0.22456613 0.10041527 4.4069147 10197915
0.27393812 0.10044352 4.4081545 10197915
0.32516789 0.10047283 4.4094415 10197915
0.37459612 0.10050111 4.4106822 10197915
0.42405257 0.10052941 4.4119244 10132122
0.47537002 0.10055877 4.4132128 10132122
0.52488291 0.10058709 4.4144564 3881787
0.57442409 0.10061545 4.4157004 2039583
0.62582928 0.10064486 4.4169912 2039583
0.67542708 0.10067327 4.4182367 2039583
0.72505295 0.10070163 4.4194827 2039583
0.77470672 0.10073005 4.4207296 2039583
0.82438892 0.10075849 4.421978 2039583
0.87594032 0.10078796 4.4232717 2039583
0.92567927 0.10081644 4.424521 2039583
0.97544658 0.10084491 4.4257708 2039583
1.0049498 0.10086176 4.4265099 2039583
3.070632 0.10082892 4.4250684 2039583
-0.27614048 -2.0046318 4.4901452 2960685
3.0230911 -2.0048587 4.4905272 2039583
-0.31724846 -1.9733124 4.4626622 2960685
-0.28056893 -1.9750948 4.487288 2960685
3.0327773 -1.9743872 4.4761825 2039583
-0.31802714 -1.9250569 4.4623303 2960685
-0.28082111 -1.9249821 4.4873171 2960685
3.0334415 -1.9249947 4.4753156 2039583
-0.31792313 -1.8750329 4.4625978 2960685
-0.28059179 -1.8750355 4.4876695 2960685
3.0333636 -1.8749588 4.4755611 2039583
-0.31810626 -1.8250117 4.4626737 2960685
-0.28089291 -1.8250871 4.4876633 2960685
3.033407 -1.8249251 4.4756227 2039583
-0.31828263 -1.7746929 4.4627547 2960685
-0.28128621 -1.7757262 4.4875956 2960685
3.0335236 -1.7748861 4.4755731 2039583
-0.31984785 -1.725181 4.4618988 2960685
-0.2825352 -1.7250487 4.4869576 2960685
3.0334649 -1.7249498 4.4757876 2039583
-0.31983656 -1.6751688 4.4621038 2960685
-0.28254756 -1.6749295 4.4871483 2960685
3.0336363 -1.6751149 4.4756603 2039583
-0.31982744 -1.6251614 4.4623094 2960685
-0.28265163 -1.6249901 4.4872766 2960685
3.033556 -1.6250725 4.4759026 2039583
-0.31981671 -1.5751442 4.4625134 2960685
-0.28251803 -1.5750524 4.4875641 2960685
3.0336807 -1.5751348 4.4758463 2039583
-0.31980687 -1.5251226 4.4627185 2960685
-0.28263569 -1.5249177 4.4876828 2960685
3.0336585 -1.5251884 4.4760075 2039583
3.0511372 -1.5117416 4.4500136 2039583
-0.31979665 -1.4751006 4.462923 2960685
-0.28254211 -1.4747834 4.4879446 2960685
3.0337081 -1.4751453 4.476058 2039583
3.0511689 -1.4748852 4.4500599 2039583
-0.32000074 -1.4250699 4.4629855 2960685
-0.28276688 -1.4250135 4.4879904 2960685
3.0338709 -1.4250941 4.4759407 2039583
3.0512114 -1.4251277 4.4501224 2039583
-0.3197768 -1.3750402 4.4633331 2960685
-0.28252658 -1.3750544 4.4883499 2960685
3.0337646 -1.3750484 4.4762306 2039583
3.0512543 -1.3753691 4.4501843 2039583
-0.32009917 -1.325 4.4633136 2960685
-0.28272361 -1.3249092 4.4884162 2960685
3.0339272 -1.3249972 4.4761119 2039583
3.0512967 -1.3256087 4.4502463 2039583
-0.31968507 -1.2751285 4.4637914 2960685
-0.28248322 -1.2749369 4.4887762 2960685
3.0337987 -1.275046 4.4764299 2039583
3.0513401 -1.2758472 4.4503093 2039583
-0.32012498 -1.2250842 4.4636922 2960685
-0.28282672 -1.2249707 4.4887419 2960685
3.0339937 -1.2249973 4.4762669 2039583
3.051384 -1.224241 4.4503732 2039583
-0.31978312 -1.1750313 4.4641209 2960685
-0.28258723 -1.1749903 4.4891009 2960685
3.0339983 -1.1749374 4.4763865 2039583
3.0514271 -1.1744767 4.4504361 2039583
-0.32128489 -1.1245904 4.4633126 2960685
-0.2839027 -1.1254039 4.4884143 2960685
3.0340059 -1.1249892 4.4765005 2039583
3.0514693 -1.1247108 4.4504981 2039583
-0.32159385 -1.0750673 4.4633007 2960685
-0.28447822 -1.0747424 4.4882283 2960685
3.0347176 -1.0752928 4.4755688 2039583
3.0515125 -1.0749437 4.4505606 2039583
-0.32185727 -1.0250375 4.4633222 2960685
-0.28454816 -1.0247858 4.4883785 2960685
3.0350471 -1.0251678 4.4752045 2039583
3.0515552 -1.025175 4.450623 2039583
-0.3217074 -0.97499198 4.4636207 2960685
-0.28441298 -0.97483224 4.4886684 2960685
3.0351212 -0.97512287 4.4752188 2039583
3.0515978 -0.97540498 4.4506855 2039583
-0.32178676 -0.92510998 4.4637647 2960685
-0.28468931 -0.92486268 4.4886799 2960685
3.0351405 -0.92507613 4.4753189 2039583
3.0516407 -0.92563343 4.4507475 2039583
-0.32179895 -0.87490237 4.4639559 2960685
-0.28434774 -0.87490243 4.4891076 2960685
3.0351429 -0.87513781 4.4754419 2039583
3.0516849 -0.87401736 4.4508123 2039583
-0.32178152 -0.82485211 4.4641657 2960685
-0.28471518 -0.82513362 4.4890571 2960685
3.0351877 -0.82508814 4.4755034 2039583
3.0517273 -0.82424301 4.4508753 2039583
-0.32179412 -0.77494949 4.4643545 2960685
-0.28440228 -0.77515948 4.4894662 2960685
3.0352926 -0.77503723 4.4754739 2039583
3.0517704 -0.77446735 4.4509368 2039583
-0.32186371 -0.72488779 4.4645052 2960685
-0.28470868 -0.72497422 4.4894586 2960685
3.0351422 -0.72516352 4.4758244 2039583
3.0515718 -0.72204375 4.4513655 2039583
-0.32176715 -0.67497897 4.4647679 2960685
-0.2844846 -0.67498797 4.4898076 2960685
3.034416 -0.67502284 4.4770317 2039583
3.0509429 -0.67511803 4.4524212 2039583
-0.3219668 -0.62490845 4.4648323 2960685
-0.28458643 -0.62500089 4.4899359 2960685
3.0344784 -0.62483978 4.4770646 2039583
3.0509858 -0.625323 4.4524837 2039583
-0.32171789 -0.57499003 4.465198 2960685
-0.2848081 -0.57522207 4.4899845 2960685
3.034502 -0.57488078 4.4771566 2039583
3.0510287 -0.57552654 4.4525461 2039583
-0.32222855 -0.52478307 4.4650536 2960685
-0.28446427 -0.52540362 4.4904132 2960685
3.0345228 -0.52492493 4.477253 2039583
3.0510378 -0.52477807 4.4526601 2039583
-0.32349461 -0.4750354 4.4643998 2960685
-0.28665885 -0.47497699 4.4891376 2960685
3.0345662 -0.47485012 4.4773159 2039583
3.0511487 -0.47503582 4.4526215 2039583
-0.32400712 -0.42484012 4.4642544 2960685
-0.28615686 -0.42497852 4.4896736 2960685
3.0346746 -0.42500502 4.4772782 2039583
3.0511584 -0.42428437 4.4527354 2039583
-0.32329649 -0.37490231 4.4649286 2960685
-0.28669742 -0.3748132 4.4895096 2960685
3.0345829 -0.37492859 4.4775429 2039583
3.0512009 -0.37448242 4.4527984 2039583
-0.32403454 -0.32499531 4.4646301 2960685
-0.28632614 -0.3252748 4.4899545 2960685
3.0348651 -0.3250851 4.4772463 2039583
3.0512435 -0.32467893 4.4528604 2039583
-0.3233237 -0.27503806 4.4653063 2960685
-0.28656989 -0.2750836 4.4899893 2960685
3.0345669 -0.27499595 4.4778194 2039583
3.0512865 -0.27487403 4.4529233 2039583
-0.32406187 -0.22513372 4.4650068 2960685
-0.28646946 -0.22509116 4.4902549 2960685
3.0350168 -0.22504817 4.4772773 2039583
3.0513294 -0.22506781 4.4529858 2039583
-0.32331282 -0.17501257 4.4657097 2960685
-0.28648165 -0.17487153 4.4904451 2960685
3.03459 -0.17493719 4.4780378 2039583
3.0513716 -0.17526016 4.4530482 2039583
-0.32413104 -0.1251152 4.4653563 2960685
-0.28649381 -0.12464777 4.4906354 2960685
3.0351024 -0.12488812 4.4774008 2039583
3.051415 -0.12545112 4.4531102 2039583
-0.32334003 -0.075114056 4.4660878 2960685
-0.28650594 -0.07441964 4.4908271 2960685
3.0346761 -0.074758671 4.4781637 2039583
3.0514579 -0.075640693 4.4531727 2039583
-0.32415843 -0.025220321 4.465734 2960685
-0.2865181 -0.02418731 4.4910183 2960685
3.0351887 -0.024722384 4.4775281 2039583
3.0515003 -0.025828848 4.4532351 2039583
-0.32417229 0.025221765 4.4659247 2960685
-0.28652981 0.024188625 4.4912014 2960685
3.0352302 0.024722839 4.4775901 2039583
3.0515447 0.025829345 4.4533 2039583
-0.32338125 0.075123928 4.4666524 4342338
-0.28654203 0.074429393 4.4913926 4342338
3.0348036 0.074761964 4.4783516 2039583
3.0515873 0.075644016 4.4533625 2039583
2.7822154 0.10187869 4.4711404 2039583
2.8255057 0.10190345 4.4722261 2039583
2.8744686 0.10193146 4.4734569 2039583
2.925343 0.10196058 4.4747343 2039583
2.9762456 0.10198969 4.4760113 2039583
3.0293674 0.10190611 4.4723425 2039583
3.05161 0.10147434 4.4533949 2039583
-0.25562906 -2.007725 4.5039086 2960685
-0.22249673 -2.0124545 4.5261407 2960685
-0.19395387 -2.0167577 4.5452933 2960685
2.9906838 -2.015578 4.5387545 2039583
3.0073962 -2.0100501 4.5138831 2039583
-0.25554621 -1.9754312 4.5040917 2960685
-0.22483118 -1.9749271 4.5247221 2960685
-0.19386922 -1.9747679 4.5455155 2960685
2.9911449 -1.9753324 4.5381699 2039583
3.0081773 -1.9751235 4.5128102 2039583
-0.25573465 -1.9251418 4.5041637 2960685
-0.22496733 -1.9250658 4.5248284 2960685
-0.19396904 -1.9246374 4.5456476 2960685
2.9912353 -1.9252244 4.5381632 2039583
3.0082188 -1.9246788 4.5128736 2039583
-0.25556797 -1.8748276 4.5044765 2960685
-0.22495724 -1.875069 4.525032 2960685
-0.19406879 -1.8745041 4.5457792 2960685
2.9913237 -1.8751169 4.538156 2039583
3.0082774 -1.874842 4.5129137 2039583
-0.25566861 -1.8251469 4.5046048 2960685
-0.22499561 -1.8249292 4.5252066 2960685
-0.19398539 -1.824982 4.5460324 2960685
2.9912722 -1.825001 4.538363 2039583
3.0082412 -1.8250123 4.513093 2039583
-0.256558 -1.7735282 4.5042124 2960685
-0.22498611 -1.7749242 4.5254102 2960685
-0.19390197 -1.7754538 4.5462828 2960685
2.9914083 -1.7751002 4.5382833 2039583
3.0083935 -1.7749753 4.5129943 2039583
-0.25735343 -1.7249892 4.5038705 2960685
-0.22495712 -1.7249122 4.5256276 2960685
-0.19400181 -1.7253087 4.5464144 2960685
2.9914339 -1.725199 4.5383716 2039583
3.0083883 -1.7249259 4.5131283 2039583
-0.25763062 -1.6746832 4.5038829 2960685
-0.22492714 -1.674894 4.5258446 2960685
-0.19410154 -1.6751616 4.5465469 2960685
2.9914298 -1.6750783 4.5385065 2039583
3.0084462 -1.6748879 4.5131683 2039583
-0.25740662 -1.624835 4.504231 2960685
-0.22508252 -1.6250118 4.5259395 2960685
-0.19392668 -1.6249831 4.5468621 2960685
2.9914715 -1.6249611 4.5385714 2039583
3.0084887 -1.6250511 4.5132308 2039583
-0.25751933 -1.5749871 4.504353 2960685
-0.2249856 -1.5751194 4.5261993 2960685
-0.19402651 -1.574827 4.5469937 2960685
2.9915612 -1.5748494 4.5385647 2039583
3.0084844 -1.5749978 4.5133648 2039583
-0.25763178 -1.5251369 4.5044746 2960685
-0.22518781 -1.5250903 4.5262632 2960685
-0.19412628 -1.5246693 4.5471263 2960685
2.9919753 -1.5256326 4.5380726 2039583
3.0085893 -1.5249593 4.5133362 2039583
-0.25740781 -1.4752702 4.5048232 2960685
-0.22480051 -1.474924 4.5267224 2960685
-0.19404288 -1.4751127 4.5473781 2960685
2.9925809 -1.4751375 4.5372958 2039583
3.0086315 -1.4749037 4.5134006 2039583
-0.25768512 -1.4249536 4.5048361 2960685
-0.22513095 -1.4250226 4.5266981 2960685
-0.19499598 -1.4284202 4.5469232 2960685
2.9926672 -1.4251091 4.5372949 2039583
3.0086427 -1.4248554 4.5135098 2039583
-0.25746107 -1.3750756 4.5051837 2960685
-0.22511096 -1.3751154 4.5269098 2960685
-0.19589125 -1.3750092 4.5465336 2960685
2.9926131 -1.3750784 4.5375051 2039583
3.0086854 -1.3750106 4.5135727 2039583
-0.25757375 -1.3252096 4.5053048 2960685
-0.2250233 -1.325065 4.5271659 2960685
-0.19589965 -1.3242097 4.5467281 2960685
2.9926629 -1.3250486 4.5375543 2039583
3.0087883 -1.3249576 4.5135465 2039583
-0.25768629 -1.2753426 4.5054269 2960685
-0.22511947 -1.2748874 4.5273013 2960685
-0.19590776 -1.2752874 4.5469174 2960685
2.9927864 -1.2750195 4.537499 2039583
3.0087216 -1.2749013 4.5137701 2039583
-0.25746232 -1.2254459 4.5057745 2960685
-0.22505237 -1.2248309 4.527544 2960685
-0.1958482 -1.2253972 4.5471549 2960685
2.9927473 -1.2249768 4.537684 2039583
3.0088117 -1.2248454 4.513763 2039583
-0.2577396 -1.175118 4.5057888 2960685
-0.22509052 -1.1749038 4.5277147 2960685
-0.19599228 -1.1746306 4.5472598 2960685
2.9928162 -1.1749461 4.5377078 2039583
3.0089009 -1.1747909 4.5137572 2039583
-0.258834 -1.123979 4.5052562 2960685
-0.22504184 -1.1248466 4.5279474 2960685
-0.19593273 -1.124732 4.5474973 2960685
2.9928851 -1.1249143 4.5377316 2039583
3.0088806 -1.1249325 4.5139141 2039583
-0.25942427 -1.0750394 4.505053 2960685
-0.22508094 -1.074911 4.5281196 2960685
-0.19594087 -1.0757931 4.5476851 2960685
2.9929101 -1.0751047 4.5378213 2039583
3.0096166 -1.07442 4.5129476 2039583
-0.25954399 -1.02507 4.5051713 2960685
-0.22537158 -1.0249741 4.5281229 2960685
-0.1959493 -1.0249678 4.5478802 2960685
2.9929514 -1.0252963 4.5378857 2039583
3.0099528 -1.0250616 4.5125704 2039583
-0.2592876 -0.97507375 4.5055399 2960685
-0.2249044 -0.97503328 4.5286312 2960685
-0.19595772 -0.97413832 4.5480762 2960685
2.9929762 -0.97503 4.5379758 2039583
3.0099597 -0.97514981 4.5126872 2039583
-0.25961801 -0.92473745 4.5055184 2960685
-0.22515781 -0.92508727 4.5286589 2960685
-0.19596583 -0.92518699 4.5482655 2960685
2.993027 -0.92498249 4.5380268 2039583
3.0100098 -0.92488241 4.5127411 2039583
-0.25935909 -0.87510258 4.505888 2960685
-0.2252643 -0.87500775 4.5287867 2960685
-0.19590627 -0.87526393 4.548502 2960685
2.9931419 -0.8751713 4.5379829 2039583
3.0100453 -0.87497228 4.5128145 2039583
-0.25958335 -0.82475394 4.5059381 2960685
-0.22508928 -0.82504672 4.5291028 2960685
-0.1960503 -0.82447398 4.5486064 2960685
2.993068 -0.82512987 4.5382204 2039583
3.0100796 -0.82506031 4.512888 2039583
-0.25949004 -0.77474833 4.5061975 2960685
-0.2251375 -0.77495801 4.5292687 2960685
-0.19756044 -0.77597761 4.5477843 2960685
2.9931183 -0.7750814 4.5382719 2039583
3.0101364 -0.77497524 4.5129309 2039583
-0.25934246 -0.72510386 4.506494 2960685
-0.22518644 -0.72486609 4.5294318 2960685
-0.19783054 -0.72537845 4.5478029 2960685
2.9932759 -0.72503418 4.5381622 2039583
3.0102277 -0.72505856 4.5129194 2039583
-0.259673 -0.67475808 4.5064707 2960685
-0.22524554 -0.67516071 4.5295906 2960685
-0.19783907 -0.67453676 4.5479989 2960685
2.9932387 -0.67498446 4.5383463 2039583
3.0102139 -0.67496359 4.5130672 2039583
-0.25952283 -0.62547815 4.5067663 2960685
-0.22523266 -0.62505734 4.5297985 2960685
-0.19784759 -0.62369066 4.5481949 2960685
2.9932096 -0.62516469 4.5385156 2039583
3.0102005 -0.6248641 4.5132146 2039583
-0.25953388 -0.57509106 4.5069604 2960685
-0.22502013 -0.574817 4.5301404 2960685
-0.19785577 -0.57472366 4.5483828 2960685
2.9933927 -0.57488465 4.5383687 2039583
3.0104673 -0.57476538 4.5129452 2039583
-0.25970826 -0.5243479 4.5070429 2960685
-0.22534208 -0.52496916 4.5301208 2960685
-0.19786395 -0.52575266 4.5485716 2960685
2.9930282 -0.52571189 4.5390348 2039583
3.0097528 -0.52421772 4.5141363 2039583
-0.26115182 -0.47508875 4.5062685 2960685
-0.22538939 -0.47512195 4.5302854 2960685
-0.19787247 -0.47489375 4.5487671 2960685
2.9923568 -0.47530946 4.540163 2039583
3.0094693 -0.47490826 4.5146847 2039583
-0.2615622 -0.4247447 4.5061922 2960685
-0.22486456 -0.42512923 4.5308366 2960685
-0.19788098 -0.42403051 4.5489621 2960685
2.9925416 -0.42481902 4.5400167 2039583
3.0096402 -0.4251008 4.5145564 2039583
-0.26137349 -0.3752659 4.5065145 2960685
-0.22544631 -0.37487626 4.5306435 2960685
-0.19788916 -0.37504691 4.5491509 2960685
2.9926052 -0.37458232 4.5400481 2039583
3.0093489 -0.37526813 4.5151153 2039583
-0.26138467 -0.3248708 4.5067058 2960685
-0.22545983 -0.32501745 4.5308318 2960685
-0.19789736 -0.32605928 4.5493398 2960685
2.9925849 -0.3254047 4.5402036 2039583
3.0097461 -0.32479382 4.5146527 2039583
-0.26139578 -0.27447152 4.5068979 2960685
-0.22479542 -0.27526391 4.5314751 2960685
-0.19790588 -0.27518323 4.5495348 2960685
2.9925292 -0.27514032 4.5404143 2039583
3.0096123 -0.27496353 4.5149779 2039583
-0.2612927 -0.22560728 4.5071611 2960685
-0.2256708 -0.2246204 4.5310893 2960685
-0.19791439 -0.2243028 4.5497303 2960685
2.9927726 -0.22439755 4.5401802 2039583
3.00948 -0.22512321 4.5153008 2039583
-0.26152605 -0.17523131 4.5072045 2960685
-0.22525205 -0.17459568 4.5315676 2960685
-0.1979223 -0.17718743 4.549912 2960685
2.9927127 -0.17493592 4.5403953 2039583
3.009877 -0.17466222 4.5148396 2039583
-0.26142868 -0.12511495 4.5074677 2960685
-0.22526135 -0.12578911 4.531755 2960685
2.992753 -0.12603076 4.5404592 2039583
3.0097394 -0.12532876 4.5151663 2039583
-0.26143995 -0.074698605 4.5076604 2960685
-0.22527105 -0.075101085 4.5319486 2960685
2.9927962 -0.075243309 4.5405231 2039583
3.0097826 -0.074824192 4.515233 2039583
-0.26145104 -0.024277978 4.5078506 2960685
-0.22528061 -0.024408799 4.5321426 2960685
2.9928384 -0.024454387 4.5405879 2039583
3.0098252 -0.024318164 4.5152965 2039583
-0.26146176 0.024279304 4.5080366 2960685
-0.22528996 0.02441014 4.5323305 2960685
2.9928794 0.02445484 4.5406518 2039583
3.0098667 0.024318613 4.515358 2039583
-0.26147288 0.074708402 4.5082297 4408131
-0.22529429 0.075108454 4.5324063 4473924
-0.17491555 0.099683717 4.539896 10197915
-0.12604928 0.09971153 4.541163 10197915
-0.07527449 0.099740438 4.54248 10197915
-0.024470596 0.099769361 4.543797 10197915
0.024479697 0.099797219 4.5450659 10197915
0.075341836 0.099826194 4.5463853 10197915
0.12623313 0.09985517 4.5477042 10197915
0.17526767 0.099883072 4.5489759 10197915
0.20734251 0.099901348 4.549808 10197915
2.992923 0.075246625 4.5407152 2039583
3.0099094 0.074827462 4.5154204 2039583
-0.11992124 -2.0527143 4.5948701 2960685
2.9538136 -2.0523117 4.5935631 2039583
-0.16929522 -2.020386 4.5618386 2960685
-0.13196787 -2.0252895 4.5868888 2960685
2.9654062 -2.0230467 4.576375 2039583
-0.17010522 -1.975001 4.5614738 2960685
-0.13304564 -1.9749508 4.5863643 2960685
2.9663007 -1.975026 4.5751657 2039583
-0.16997305 -1.925189 4.5617609 2960685
-0.13303772 -1.9250603 4.5865674 2960685
2.9664383 -1.9249895 4.5750875 2039583
-0.17006348 -1.8750006 4.5618978 2960685
-0.13302888 -1.8751626 4.5867701 2960685
2.9664023 -1.8750658 4.5752692 2039583
-0.17022412 -1.8249977 4.5619893 2960685
-0.132964 -1.8248838 4.5870137 2960685
2.9664173 -1.8250314 4.5753708 2039583
-0.17006388 -1.775176 4.562294 2960685
-0.13301182 -1.774981 4.5871773 2960685
2.9665027 -1.774992 4.5753717 2039583
-0.17012702 -1.7253467 4.562449 2960685
-0.13305938 -1.7250757 4.5873451 2960685
2.9665091 -1.7249508 4.5754867 2039583
-0.17006436 -1.6753268 4.5626893 2960685
-0.13299496 -1.674783 4.5875874 2960685
2.9666378 -1.6749114 4.5754247 2039583
-0.17015478 -1.6251205 4.5628262 2960685
-0.13309991 -1.6248646 4.5877142 2960685
2.9665678 -1.624869 4.5756555 2039583
-0.17009273 -1.5750916 4.5630665 2960685
-0.13299172 -1.575135 4.5879841 2960685
2.9667027 -1.5750473 4.5755787 2039583
-0.17025267 -1.5250583 4.5631576 2960685
-0.13312474 -1.5252088 4.5880923 2960685
2.967159 -1.5247656 4.5750275 2039583
-0.17024668 -1.4750233 4.5633612 2960685
-0.13305937 -1.474903 4.5883331 2960685
2.9677289 -1.4750097 4.5743079 2039583
-0.17132978 -1.4245673 4.5628324 2960685
-0.13305125 -1.4249684 4.5885386 2960685
2.967761 -1.4249182 4.5743833 2039583
-0.17196473 -1.3750488 4.5626011 2960685
-0.13408095 -1.3759106 4.5880404 2960685
2.9677174 -1.3749263 4.5745749 2039583
-0.17194681 -1.3249276 4.5628138 2960685
-0.13489869 -1.3251486 4.5876932 2960685
2.9678488 -1.3250399 4.5745034 2039583
-0.17208077 -1.2749739 4.5629196 2960685
-0.13496709 -1.2749443 4.5878448 2960685
2.9678614 -1.2750462 4.5746107 2039583
-0.17213883 -1.2251898 4.5630794 2960685
-0.1350354 -1.2247369 4.5879984 2960685
2.9679723 -1.2248437 4.5745759 2039583
-0.17186841 -1.1750534 4.5634584 2960685
-0.1349473 -1.1747286 4.5882564 2960685
2.9679792 -1.1748433 4.5746932 2039583
-0.17202638 -1.1249175 4.5635519 2960685
-0.13498457 -1.1249297 4.588428 2960685
2.9680002 -1.1250566 4.5747876 2039583
-0.17221025 -1.0749508 4.5636258 2960685
-0.13502179 -1.0751278 4.5886002 2960685
2.9681344 -1.0750576 4.5747123 2039583
-0.17201567 -1.024976 4.5639539 2960685
-0.13493277 -1.0251113 4.5888581 2960685
2.967994 -1.0250589 4.5750484 2039583
-0.17212462 -0.97516388 4.5640788 2960685
-0.13500114 -0.97488421 4.5890117 2960685
2.9681039 -0.9750548 4.5750093 2039583
-0.17200485 -0.92501032 4.5643568 2960685
-0.13491255 -0.92485738 4.5892687 2960685
2.9681387 -0.92494637 4.5750885 2039583
-0.17206267 -0.87468702 4.564518 2960685
-0.13494992 -0.87503773 4.5894413 2960685
2.9682775 -0.87483943 4.5750074 2039583
-0.17204453 -0.82486326 4.5647273 2960685
-0.13501871 -0.82500345 4.5895934 2960685
2.9682348 -0.82483184 4.5751982 2039583
-0.17378876 -0.77503085 4.5637527 2960685
-0.13505614 -0.77496582 4.5897655 2960685
2.9682727 -0.77503365 4.5752678 2039583
-0.17409885 -0.72525454 4.5637403 2960685
-0.13631 -0.72552925 4.5891199 2960685
2.96837 -0.72512895 4.5752478 2039583
-0.17393148 -0.67502511 4.564054 2960685
-0.1368715 -0.67490584 4.5889425 2960685
2.9684734 -0.67512107 4.5752215 2039583
-0.17379951 -0.62494504 4.5643387 2960685
-0.13675286 -0.62526 4.5892191 2960685
2.9683356 -0.62521309 4.5755515 2039583
-0.17391247 -0.57501644 4.5644622 2960685
-0.13679422 -0.57537681 4.5893879 2960685
2.9692717 -0.57527077 4.5742874 2039583
-0.17412832 -0.52492905 4.5645146 2960685
-0.1368186 -0.52525187 4.5895705 2960685
2.9694831 -0.52502638 4.5740972 2039583
-0.17419462 -0.47499707 4.5646691 2960685
-0.13705161 -0.47466099 4.5896144 2960685
2.9695325 -0.47498718 4.5741491 2039583
-0.1737351 -0.42520562 4.5651736 2960685
-0.13702466 -0.42429021 4.5898314 2960685
2.9694726 -0.42493892 4.5743651 2039583
-0.17380244 -0.37525991 4.5653267 2960685
-0.13690628 -0.37462017 4.5901084 2960685
2.9695916 -0.37500197 4.5743165 2039583
-0.17425726 -0.32469723 4.5652189 2960685
-0.13691197 -0.32519162 4.5903001 2960685
2.969821 -0.32484636 4.5741024 2039583
-0.17412001 -0.2744264 4.5655122 2960685
-0.13691768 -0.2757588 4.5904908 2960685
2.9697175 -0.27490994 4.5743799 2039583
-0.17399833 -0.22509445 4.5657883 2960685
-0.13679901 -0.22607183 4.5907688 2960685
2.969691 -0.22552642 4.5745468 2039583
-0.17415793 -0.17577352 4.5658774 2960685
-0.13692963 -0.17497817 4.5908837 2960685
2.9694526 -0.17556652 4.5750303 2039583
-0.17562798 -0.12509553 4.5650897 2960685
-0.13705941 -0.12388264 4.5909977 2960685
2.9699821 -0.12454081 4.5743666 2039583
-0.17609723 -0.074065983 4.5649776 2960685
-0.13833116 -0.074775212 4.5903387 2960685
2.9698868 -0.074032359 4.5746393 2039583
-0.17586781 -0.024587521 4.5653276 2960685
-0.13881363 -0.024721541 4.5902123 2960685
2.9698591 -0.024638683 4.5748062 2039583
-0.17587516 0.024588885 4.5655189 2960685
-0.13881943 0.024722923 4.590404 2960685
2.9698989 0.02463913 4.5748687 2039583
-0.17528401 0.074170992 4.5661101 4210752
-0.13831139 0.073391341 4.590939 4144959
0.23187944 0.099915296 4.5504436 10197915
0.2753078 0.099940024 4.5515695 10197915
0.32631528 0.099969082 4.5528922 10197915
0.36600763 0.099991649 4.5539207 10197915
2.97001 0.074035607 4.5748296 2039583
0.39058828 0.10000566 4.5545588 10197915
0.42463574 0.10002504 4.5554414 10197915
0.47383735 0.10005306 4.5567174 10197915
0.52496058 0.10008216 4.558043 6645093
0.57611328 0.10011128 4.5593691 2039583
0.62539959 0.10013933 4.5606465 2039583
0.67471373 0.10016742 4.5619254 2039583
0.72405559 0.10019551 4.5632048 2039583
0.7734248 0.10022361 4.5644846 2039583
0.82472265 0.10025281 4.565815 2039583
0.87605 0.10028204 4.5671458 2039583
0.92550462 0.1003102 4.5684285 2039583
0.97498715 0.10033837 4.5697107 2039583
1.0206876 0.10036438 4.5708961 2039583
2.9690022 0.10048518 4.5763974 2039583
-0.10445616 -2.0552833 4.6052461 2960685
-0.071426511 -2.0601599 4.6274095 2960685
-0.044091199 -2.0644798 4.64575 2960685
2.9298871 -2.0605536 4.6291695 2039583
-0.10612707 -2.0232749 4.6042519 2960685
-0.074748002 -2.0250003 4.6253185 2960685
-0.044266541 -2.0254185 4.6457877 2960685
2.9331164 -2.0250382 4.6244531 2039583
-0.10681038 -1.975086 4.603982 2960685
-0.074840009 -1.9749671 4.6254539 2960685
-0.044268414 -1.9754605 4.6459846 2960685
2.9332273 -1.9751419 4.6244111 2039583
-0.10692118 -1.9250963 4.6041059 2960685
-0.074687466 -1.9249314 4.6257553 2960685
-0.044270292 -1.9254977 4.6461811 2960685
2.9332609 -1.92502 4.6244893 2039583
-0.10681944 -1.8751082 4.6043744 2960685
-0.074779779 -1.87489 4.6258903 2960685
-0.044272166 -1.8755307 4.6463785 2960685
2.8782518 -1.8713446 4.6471334 2039583
2.9332314 -1.8748946 4.62466 2039583
-0.1067176 -1.8251137 4.6046381 2960685
-0.074715957 -1.8249916 4.6261315 2960685
-0.044274043 -1.8255597 4.6465731 2960685
2.8784528 -1.8233408 4.647459 2039583
2.9332809 -1.8249929 4.6247106 2039583
-0.10682848 -1.7751123 4.604763 2960685
-0.074719094 -1.7752357 4.6263261 2960685
-0.044275913 -1.7755847 4.6467705 2960685
2.8786626 -1.77341 4.6477976 2039583
2.9333749 -1.7750911 4.6246982 2039583
-0.10679761 -1.7251079 4.6049814 2960685
-0.074722387 -1.7250344 4.6265225 2960685
-0.04427778 -1.7256048 4.6469655 2960685
2.8788724 -1.7234719 4.6481361 2039583
2.9333911 -1.7250742 4.6248026 2039583
-0.10683752 -1.6750993 4.6051512 2960685
-0.074725449 -1.6748282 4.6267195 2960685
-0.044279654 -1.6756204 4.6471629 2960685
2.879082 -1.6735263 4.6484752 2039583
2.9334302 -1.6749437 4.6248693 2039583
-0.10687753 -1.6250879 4.6053238 2960685
-0.074840009 -1.624913 4.6268406 2960685
-0.044488348 -1.6268667 4.6472168 2960685
2.8792918 -1.6235738 4.6488132 2039583
2.9334471 -1.6249242 4.6249723 2039583
-0.10684658 -1.5750706 4.6055422 2960685
-0.074731782 -1.5749942 4.6271129 2960685
-0.046126131 -1.5755066 4.6463208 2960685
2.8795013 -1.5736139 4.6491518 2039583
2.9335222 -1.5749043 4.6249852 2039583
-0.1069574 -1.5250534 4.6056652 2960685
-0.074757375 -1.5250704 4.6272917 2960685
-0.046198942 -1.5245818 4.646472 2960685
2.8797114 -1.5236465 4.6494908 2039583
2.9335995 -1.5247712 4.6249967 2039583
-0.10685563 -1.4750253 4.6059337 2960685
-0.074871719 -1.4749961 4.6274128 2960685
-0.046200894 -1.4745948 4.6466684 2960685
2.8799212 -1.4736718 4.6498294 2039583
2.9335706 -1.4748591 4.6251693 2039583
-0.10686012 -1.4254721 4.6061254 2960685
-0.074741259 -1.4250636 4.6276989 2960685
-0.046279311 -1.4255881 4.6468105 2960685
2.9336562 -1.4249465 4.6251664 2039583
-0.10800318 -1.3740007 4.6055617 2960685
-0.074722417 -1.3749803 4.6279101 2960685
-0.046204731 -1.3765315 4.6470556 2960685
2.9336619 -1.3749202 4.6252851 2039583
-0.10868942 -1.3248463 4.6052961 2960685
-0.074747577 -1.3248914 4.6280899 2960685
-0.046206687 -1.3265319 4.6472516 2960685
2.9337471 -1.3248926 4.6252847 2039583
