# .PCD v0.7 - Point Cloud Data file format
VERSION 0.7
FIELDS x y z rgb
SIZE 4 4 4 4
TYPE F F F U
COUNT 1 1 1 1
WIDTH 1172
HEIGHT 1
VIEWPOINT 0 0 0 1 0 0 0
POINTS 1172
DATA ascii
0.22569826 0.11230347 2.6318038 10197915
0.27592173 0.11233133 2.6324573 10197915
0.32507741 0.11235866 2.6330969 10197915
0.37425718 0.11238597 2.6337373 10197915
0.42455444 0.11241389 2.6343918 10197915
0.47487682 0.11244185 2.635047 10197915
0.52522409 0.11246981 2.6357021 10197915
0.57559651 0.1124978 2.6363578 10197915
0.62489796 0.11252515 2.6369994 10132122
0.67422354 0.11255251 2.6376407 10132122
0.7246685 0.11258031 2.6382918 10132122
0.77514011 0.11260835 2.6389489 10132122
0.82563668 0.11263639 2.639606 10132122
0.8750599 0.11266384 2.6402493 10132122
0.92450738 0.1126913 2.6408927 10132122
0.97507852 0.11271938 2.641551 10132122
1.0256748 0.11274751 2.6422093 10132122
1.0751957 0.112775 2.6428542 3750201
1.1247406 0.11280251 2.6434989 2039583
1.1754115 0.11283066 2.6441584 2039583
1.2250053 0.1128582 2.644804 2039583
1.2591834 0.11287718 2.6452487 2039583
-0.18575339 -1.2026733 2.6944005 2960685
-0.22393623 -1.1719099 2.6682913 2960685
-0.18848988 -1.1749208 2.692579 2960685
-0.22543921 -1.1250372 2.6673522 2960685
-0.18864407 -1.125144 2.6925693 2960685
-0.22544627 -1.0749785 2.6674447 2960685
-0.18961011 -1.0750076 2.6920035 2960685
-0.22547193 -1.0249623 2.6675227 2960685
-0.1895926 -1.0249671 2.6921117 2960685
-0.22543496 -0.97503418 2.6676443 2960685
-0.18961354 -0.97492278 2.6921942 2960685
-0.22548346 -0.92501098 2.6677084 2960685
-0.18961976 -0.92498648 2.6922863 2960685
-0.25141448 -0.87171632 2.6500399 2960685
-0.22544655 -0.87498438 2.6678295 2960685
-0.18957412 -0.87493676 2.6924138 2960685
-0.25142255 -0.82453412 2.6501248 2960685
-0.22546223 -0.82500046 2.6679158 2960685
-0.18969898 -0.82488239 2.6924236 2960685
-0.25143105 -0.77515411 2.6502144 2960685
-0.225508 -0.77501225 2.6679795 2960685
-0.18960129 -0.77493554 2.6925879 2960685
-0.25143954 -0.72577071 2.6503038 2960685
-0.22549705 -0.72502184 2.6680839 2960685
-0.18961737 -0.72498649 2.692673 2960685
-0.25144818 -0.67528653 2.6503949 2960685
-0.22545253 -0.67507249 2.6682117 2960685
-0.18968099 -0.67503452 2.6927252 2960685
-0.25145686 -0.62479872 2.6504867 2960685
-0.22554272 -0.6250298 2.6682456 2960685
-0.18963963 -0.62507564 2.6928511 2960685
-0.25146553 -0.5743075 2.6505778 2960685
-0.22550039 -0.57493585 2.6683712 2960685
-0.18965109 -0.57500744 2.6929393 2960685
-0.25147402 -0.52491075 2.6506674 2960685
-0.22553551 -0.52493203 2.6684437 2960685
-0.18973354 -0.52504069 2.6929798 2960685
-0.25148252 -0.47551042 2.6507566 2960685
-0.22549099 -0.47496924 2.6685705 2960685
-0.18959281 -0.47496572 2.693172 2960685
-0.25149113 -0.42500898 2.6508482 2960685
-0.22555079 -0.42500544 2.6686244 2960685
-0.18970859 -0.42488259 2.6931891 2960685
-0.25149983 -0.374504 2.6509397 2960685
-0.22556566 -0.37498912 2.6687117 2960685
-0.18971014 -0.37502146 2.6932836 2960685
-0.25150833 -0.3250936 2.6510289 2960685
-0.2255681 -0.32492533 2.6688082 2960685
-0.18982889 -0.32548934 2.6932986 2960685
-0.25151679 -0.27567983 2.6511185 2960685
-0.22551805 -0.27499461 2.6689377 2960685
-0.19086118 -0.2749323 2.6926894 2960685
-0.25152546 -0.22516461 2.6512101 2960685
-0.22554478 -0.22506435 2.6690145 2960685
-0.19068784 -0.22510155 2.6929038 2960685
-0.25153416 -0.17464584 2.6513014 2960685
-0.22567752 -0.17508021 2.6690207 2960685
-0.19084162 -0.17491443 2.6928942 2960685
-0.25192505 -0.12175369 2.6511354 2960685
-0.22565167 -0.12482046 2.6691365 2960685
-0.19077544 -0.12495744 2.6930375 2960685
-0.25258201 -0.075774558 2.650774 2960685
-0.22541475 -0.075056449 2.6693943 2960685
-0.19078201 -0.074753821 2.6931286 2960685
-0.25259075 -0.025258953 2.6508653 2960685
-0.22566698 -0.025301062 2.6693158 2960685
-0.19078851 -0.024546789 2.6932206 2960685
-0.25259942 0.025260117 2.6509569 2960685
-0.22567491 0.025302239 2.6694081 2960685
-0.19079493 0.024547882 2.693311 2960685
-0.25260812 0.075782679 2.6510479 4210752
-0.22543778 0.075064369 2.6696677 4013373
-0.19080143 0.074761771 2.6934032 4079166
-0.25261346 0.1065371 2.651104 10197915
-0.22554642 0.10616475 2.6693699 10197915
-0.18568549 0.10797643 2.6879759 10197915
-0.12534101 0.11203142 2.6774175 10197915
-0.07544475 0.11205911 2.6780791 10197915
-0.025523648 0.11208683 2.6787415 10197915
0.025532247 0.11211515 2.6794186 10197915
0.075503118 0.11214289 2.6800811 10197915
0.12549892 0.11217064 2.6807446 10197915
0.17551929 0.1121984 2.6814077 10197915
0.22445211 0.11222556 2.6820569 10197915
0.27452165 0.11225335 2.6827209 10197915
0.32461584 0.11228115 2.6833856 10197915
0.37473491 0.11230899 2.6840506 10197915
0.42487881 0.1123368 2.6847157 10197915
0.47504762 0.11236463 2.6853809 10197915
0.52524126 0.11239251 2.6860468 10197915
0.5743435 0.11241975 2.6866982 10197915
0.6245864 0.11244766 2.6873646 10132122
0.67485422 0.11247554 2.6880312 10132122
0.72514641 0.11250333 2.6886957 10132122
0.77546388 0.11253125 2.689363 10132122
0.8246876 0.11255858 2.6900158 10132122
0.8750549 0.11258653 2.6906841 10132122
0.92544687 0.1126145 2.6913521 10132122
0.97474331 0.11264186 2.6920061 10132122
1.0251851 0.11266984 2.6926751 10132122
1.075652 0.11269786 2.6933444 7039851
1.1250215 0.11272527 2.6939995 2039583
1.174415 0.11275267 2.6946547 2039583
1.224956 0.11278071 2.6953247 2039583
1.2721499 0.11280691 2.6959507 2039583
-0.16248965 -1.2063813 2.7103367 2960685
-0.12567927 -1.2119609 2.7355533 2960685
-0.16387348 -1.1751529 2.7094476 2960685
-0.12800992 -1.1749657 2.7340276 2960685
-0.16400594 -1.1248891 2.7094553 2960685
-0.12796703 -1.1249506 2.734153 2960685
-0.1650005 -1.0750389 2.708868 2960685
-0.12797633 -1.0749321 2.7342422 2960685
-0.16496885 -1.0250895 2.708987 2960685
-0.12799948 -1.0249641 2.7343225 2960685
-0.16498198 -0.97505176 2.709074 2960685
-0.12803212 -0.97499228 2.7343965 2960685
-0.16499501 -0.9250102 2.709162 2960685
-0.12802231 -0.92496365 2.7344997 2960685
-0.16497834 -0.8749634 2.7092707 2960685
-0.12800315 -0.87498564 2.7346098 2960685
-0.16498399 -0.82500154 2.7093625 2960685
-0.12804551 -0.82500315 2.7346773 2960685
-0.16502671 -0.77503705 2.7094285 2960685
-0.12802133 -0.77501827 2.7347903 2960685
-0.16501015 -0.72498029 2.7095377 2960685
-0.12868132 -0.72533727 2.7344334 2960685
-0.16507532 -0.67500782 2.709589 2960685
-0.12915836 -0.67500883 2.7342036 2960685
-0.16496919 -0.62511885 2.7097573 2960685
-0.1291084 -0.62496221 2.7343347 2960685
-0.16501209 -0.57505178 2.7098243 2960685
-0.12913005 -0.57496864 2.734416 2960685
-0.16506234 -0.52489811 2.7098877 2960685
-0.12917952 -0.52502841 2.7344782 2960685
-0.16501604 -0.47499725 2.7100148 2960685
-0.12914877 -0.47508565 2.7345955 2960685
-0.16507393 -0.42517868 2.7100711 2960685
-0.12920246 -0.42502579 2.7346544 2960685
-0.16506404 -0.37510037 2.7101748 2960685
-0.12912294 -0.37496233 2.7348065 2960685
-0.16523033 -0.32468337 2.7101576 2960685
-0.12913226 -0.32500833 2.7348964 2960685
-0.1661211 -0.27502826 2.7096431 2960685
-0.12914169 -0.2750507 2.7349858 2960685
-0.16628137 -0.22492471 2.7096295 2960685
-0.12917344 -0.22503355 2.7350614 2960685
-0.16613223 -0.17513315 2.7098277 2960685
-0.12927623 -0.17484497 2.7350869 2960685
-0.1659731 -0.12525167 2.7100325 2960685
-0.12918955 -0.1247083 2.7352431 2960685
-0.16630736 -0.07474938 2.7099013 2960685
-0.12914684 -0.074793056 2.7353685 2960685
-0.1661493 -0.024700684 2.7101059 2960685
-0.1291512 -0.024931766 2.7354617 2960685
-0.16615494 0.024701802 2.7101984 2960685
-0.12915555 0.024932912 2.7355552 2960685
-0.16632427 0.074757323 2.7101779 4079166
-0.12959702 0.074483514 2.735348 4013373
-0.16548331 0.10615749 2.7108147 10197915
-0.12932828 0.10664774 2.7336907 10197915
-0.074652053 0.1119796 2.7302434 10197915
-0.024889469 0.11200721 2.730916 10197915
0.024897646 0.11203482 2.7315898 10197915
0.074709326 0.11206245 2.7322628 10197915
0.12454555 0.1120901 2.7329371 10197915
0.17440641 0.11211774 2.7336111 10197915
0.22429185 0.1121454 2.7342858 10197915
0.2742019 0.11217308 2.7349606 10197915
0.32413661 0.11220079 2.7356355 10197915
0.37409601 0.11222851 2.7363114 10197915
0.42408007 0.11225621 2.7369878 10197915
0.47408879 0.11228395 2.7376637 10197915
0.52412236 0.11231171 2.7383406 10197915
0.5741806 0.11233947 2.7390172 10197915
0.62426341 0.11236726 2.7396946 10197915
0.67437124 0.11239503 2.7403727 10197915
0.72450316 0.11242276 2.7410479 10132122
0.77466035 0.11245053 2.7417254 10132122
0.82484239 0.11247837 2.7424035 10132122
0.87504941 0.1125062 2.743083 10132122
0.92528129 0.11253405 2.743762 10132122
0.97553784 0.11256193 2.7444417 10132122
1.0258193 0.11258983 2.7451215 10132122
1.0749822 0.11261708 2.7457862 10132122
1.1241691 0.11264438 2.7464514 2631720
1.1745244 0.1126723 2.7471321 2039583
1.2249045 0.11270025 2.7478132 2039583
1.2753098 0.11272821 2.7484949 2039583
1.3096905 0.11274726 2.74896 2039583
-0.034772262 -1.2506541 2.7977786 2960685
-0.10254593 -1.215652 2.7513993 2960685
-0.074144579 -1.2198552 2.7708552 2960685
-0.041529499 -1.2245622 2.7931976 2960685
-0.10258992 -1.175228 2.751447 2960685
-0.075732432 -1.1749517 2.7698543 2960685
-0.041672021 -1.1749843 2.7931955 2960685
-0.10259347 -1.1251111 2.7515414 2960685
-0.075728104 -1.1249691 2.7699525 2960685
-0.041686613 -1.1249729 2.7932825 2960685
-0.10259697 -1.074991 2.7516356 2960685
-0.075768314 -1.0750357 2.7700205 2960685
-0.041655004 -1.075104 2.7933998 2960685
-0.10260045 -1.0248673 2.75173 2960685
-0.075740062 -1.0250447 2.7701383 2960685
-0.041643202 -1.0250868 2.7935045 2960685
-0.1026298 -0.97531706 2.7518051 2960685
-0.075738095 -0.97499979 2.7702353 2960685
-0.041711118 -0.97506756 2.7935548 2960685
-0.10260742 -0.92574972 2.7519159 2960685
-0.075778268 -0.92495149 2.7703044 2960685
-0.041619755 -0.92504191 2.7937145 2960685
-0.10261095 -0.87561566 2.7520101 2960685
-0.075755022 -0.87495124 2.7704167 2960685
-0.041680537 -0.87487078 2.7937691 2960685
-0.10261445 -0.82547861 2.7521048 2960685
-0.075691998 -0.82500046 2.7705557 2960685
-0.041681956 -0.82484215 2.7938643 2960685
-0.10261797 -0.77533799 2.7521994 2960685
-0.075793222 -0.77504629 2.7705843 2960685
-0.041676838 -0.77494884 2.7939646 2960685
-0.10338183 -0.72271931 2.7517767 2960685
-0.075690016 -0.72503507 2.7707503 2960685
-0.041658364 -0.72506058 2.7940731 2960685
-0.10373606 -0.67485964 2.7516265 2960685
-0.075812481 -0.67502201 2.7707617 2960685
-0.04168614 -0.67501682 2.7941501 2960685
-0.10373962 -0.62472254 2.7517204 2960685
-0.075763494 -0.6250577 2.7708938 2960685
-0.041667901 -0.62511802 2.7942588 2960685
-0.10374315 -0.57458198 2.7518148 2960685
-0.075744711 -0.57503623 2.7710023 2960685
-0.041642815 -0.57507044 2.7943728 2960685
-0.10374671 -0.52443802 2.7519093 2960685
-0.075782679 -0.52501309 2.7710724 2960685
-0.041777235 -0.52501929 2.7943771 2960685
-0.10375027 -0.4742907 2.7520032 2960685
-0.075773388 -0.4749864 2.771174 2960685
-0.042728364 -0.47503552 2.7938216 2960685
-0.10371959 -0.42451143 2.7521203 2960685
-0.07576406 -0.42495435 2.7712772 2960685
-0.042866278 -0.42511952 2.793823 2960685
-0.10375729 -0.37474501 2.7521899 2960685
-0.075878061 -0.37502548 2.7712965 2960685
-0.042867273 -0.37486649 2.7939196 2960685
-0.10376085 -0.32496738 2.7522838 2960685
-0.07573621 -0.32498831 2.7714891 2960685
-0.042746831 -0.32493234 2.7940984 2960685
-0.10379855 -0.27557585 2.752353 2960685
-0.07580696 -0.27484128 2.771538 2960685
-0.042900622 -0.27517819 2.7940884 2960685
-0.10376787 -0.22578239 2.7524703 2960685
-0.075841725 -0.22490247 2.7716093 2960685
-0.042781819 -0.22473893 2.7942681 2960685
-0.1037714 -0.17561448 2.752564 2960685
-0.075605847 -0.17495887 2.7718687 2960685
-0.042874526 -0.17497611 2.7943001 2960685
-0.10377498 -0.12544315 2.7526588 2960685
-0.075689577 -0.12500994 2.7719071 2960685
-0.042829603 -0.12503122 2.794426 2960685
-0.10377854 -0.075268418 2.7527537 2960685
-0.076020248 -0.075330004 2.7717772 2960685
-0.042831056 -0.075252764 2.7945218 2960685
-0.10378208 -0.025090229 2.7528472 2960685
-0.075744957 -0.025265343 2.7720602 2960685
-0.042832509 -0.025470929 2.7946167 2960685
-0.10378564 0.025091376 2.7529414 2960685
-0.075747594 0.025266523 2.7721581 2960685
-0.04283401 0.025472114 2.7947133 2960685
-0.10432252 0.077043839 2.7526743 4408131
-0.076035649 0.075285874 2.7720549 4144959
-0.042835463 0.075260781 2.7948093 4144959
-0.10490221 0.10604407 2.7523327 10197915
-0.074622869 0.10626505 2.7730265 10197915
-0.036100231 0.10789774 2.7911155 10197915
0.025392221 0.11195195 2.7858484 10197915
0.075038753 0.11197945 2.7865329 10197915
0.12470987 0.11200698 2.7872183 10197915
0.17556132 0.11203518 2.7879198 10197915
0.22528169 0.11206271 2.7886047 10197915
0.27502671 0.1120903 2.7892914 10197915
0.32479605 0.11211788 2.7899776 10197915
0.37459004 0.11214547 2.7906644 10197915
0.42556733 0.11217372 2.7913673 10197915
0.47541082 0.11220134 2.7920549 10197915
0.52527899 0.11222899 2.7927427 10197915
0.57517159 0.11225663 2.7934308 10197915
0.62508893 0.11228431 2.7941186 10197915
0.67503077 0.11231197 2.7948079 10197915
0.72499639 0.11233952 2.7954934 10197915
0.77498645 0.11236711 2.7961795 10132122
0.82500213 0.11239482 2.7968695 10132122
0.87504244 0.11242255 2.7975595 10132122
0.9251076 0.11245029 2.7982495 10132122
0.97519732 0.11247806 2.7989402 10132122
1.0253118 0.11250582 2.7996318 10132122
-0.012696888 -1.2542516 2.8129001 2960685
0.023653159 -1.2598474 2.8378012 2960685
-0.016298851 -1.2249807 2.8104885 2960685
0.020841414 -1.2252768 2.8359408 2960685
-0.016295655 -1.1750367 2.8105865 2960685
0.019923745 -1.1749651 2.8354094 2960685
-0.016315475 -1.1250899 2.8106709 2960685
0.019983225 -1.1249764 2.8355463 2960685
-0.016315563 -1.0748892 2.810766 2960685
0.019970739 -1.0749835 2.8356342 2960685
-0.01630909 -1.024852 2.8108668 2960685
0.019977896 -1.0250553 2.8357341 2960685
-0.016309237 -0.97497702 2.8109627 2960685
0.019972414 -0.97505552 2.8358278 2960685
-0.01625205 -0.92501718 2.8110998 2960685
0.020011902 -0.92498338 2.835952 2960685
-0.016364485 -0.87505239 2.8111172 2960685
0.019941082 -0.87497741 2.8359985 2960685
-0.0162376 -0.82508409 2.8112998 2960685
0.019987067 -0.82496828 2.8361273 2960685
-0.016350126 -0.77511477 2.8113215 2960685
0.019942118 -0.77502239 2.8361931 2960685
-0.016304437 -0.72505486 2.8114479 2960685
0.019995252 -0.72507483 2.8363259 2960685
-0.016266445 -0.67499608 2.8115721 2960685
0.020015309 -0.67505437 2.8364356 2960685
-0.016405769 -0.6249299 2.8115714 2960685
0.019905623 -0.62496197 2.8364568 2960685
-0.016193995 -0.57494533 2.8118131 2960685
0.020036252 -0.57493544 2.836643 2960685
-0.016383706 -0.52495843 2.8117802 2960685
0.019945567 -0.5249728 2.8366773 2960685
-0.017459277 -0.47508639 2.8111401 2960685
0.019920083 -0.47500923 2.8367558 2960685
-0.017495284 -0.42502308 2.8112099 2960685
0.020071056 -0.42503917 2.8369553 2960685
-0.017446334 -0.37503248 2.8113391 2960685
0.0193471 -0.37531927 2.836555 2960685
-0.017467685 -0.325039 2.811425 2960685
0.018850062 -0.3248989 2.8363113 2960685
-0.017447583 -0.27488714 2.8115315 2960685
0.018829525 -0.27496696 2.8363945 2960685
-0.017607551 -0.22512248 2.8115201 2960685
0.018623533 -0.22488973 2.8363497 2960685
-0.017292021 -0.17503534 2.8118343 2960685
0.018831117 -0.1750993 2.8365884 2960685
-0.017608754 -0.12496015 2.8117108 2960685
0.019039033 -0.12529814 2.8368256 2960685
-0.017293198 -0.07485836 2.8120234 2960685
0.018627524 -0.07478258 2.8366423 2960685
-0.017609948 -0.024783934 2.8119044 2960685
0.018833051 -0.024680842 2.8368793 2960685
-0.017610565 0.024785055 2.8119993 2960685
0.018833691 0.024681948 2.8369744 2960685
-0.017294979 0.074866243 2.8123112 4210752
0.0186294 0.074790537 2.8369305 4210752
-0.017451713 0.10602298 2.8122644 10197915
0.020970674 0.10677647 2.8377631 10197915
0.074203268 0.11189231 2.8429821 10197915
0.12488065 0.11192036 2.8436954 10197915
0.17558329 0.11194842 2.844409 10197915
0.22513142 0.11197586 2.8451059 10197915
0.27470395 0.11200333 2.8458037 10197915
0.32430068 0.11203078 2.8465016 10197915
0.37510356 0.11205893 2.8472161 10197915
0.42593193 0.11208707 2.8479314 10197915
0.47560292 0.11211456 2.8486302 10197915
0.52529824 0.1121421 2.8493295 10197915
0.561993 0.11216243 2.8498456 10197915
1.075451 0.11253363 2.800323 10132122
1.1244482 0.11256077 2.8009987 6118749
1.1746366 0.11258859 2.8016908 2039583
1.2248493 0.11261639 2.8023834 2039583
1.2750875 0.11264425 2.803076 2039583
1.3230118 0.1126708 2.8037369 2039583
0.0461707 -1.2632021 2.8532264 2960685
0.076886877 -1.2679927 2.8742676 2960685
0.10807563 -1.2727815 2.8956337 2960685
0.045686267 -1.2234238 2.8529713 2960685
0.074994586 -1.2249572 2.8730543 2960685
0.10800075 -1.2250259 2.895674 2960685
0.044922989 -1.1749743 2.8525417 2960685
0.074952714 -1.1750059 2.8731225 2960685
0.10766678 -1.1758358 2.8955398 2960685
0.044910483 -1.1250821 2.8526292 2960685
0.074994296 -1.1250513 2.873245 2960685
0.10674644 -1.125005 2.8950071 2960685
0.04489794 -1.0751879 2.8527162 2960685
0.075046062 -1.0750364 2.873378 2960685
0.10675007 -1.0749081 2.8951061 2960685
0.044871394 -1.0249945 2.8527951 2960685
0.074862003 -1.0250189 2.873349 2960685
0.10673009 -1.0248075 2.8951888 2960685
0.044915088 -0.97509319 2.8529212 2960685
0.075051196 -0.97499782 2.8735745 2960685
0.10671001 -0.97494322 2.8952708 2960685
0.044958796 -0.92518651 2.8530474 2960685
0.075053722 -0.9250294 2.873672 2960685
0.1068083 -0.92507875 2.8954351 2960685
0.04493219 -0.87498313 2.8531258 2960685
0.074979357 -0.87505734 2.8737175 2960685
0.10676467 -0.87496704 2.8955014 2960685
0.044905614 -0.82477725 2.8532047 2960685
0.075058892 -0.82508177 2.8738689 2960685
0.10679201 -0.82485271 2.8956168 2960685
0.044921227 -0.77486128 2.8533118 2960685
0.075001203 -0.77498984 2.873925 2960685
0.10677198 -0.77497518 2.8956988 2960685
0.044880603 -0.72494608 2.8533802 2960685
0.074970581 -0.72489488 2.8740015 2960685
0.10675196 -0.72509503 2.8957808 2960685
0.0449243 -0.67502087 2.8535063 2960685
0.075016849 -0.67496592 2.8741302 2960685
0.10673188 -0.67521244 2.895864 2960685
0.044925813 -0.62539077 2.8536034 2960685
0.075014509 -0.62497777 2.8742239 2960685
0.1067829 -0.62508333 2.8959956 2960685
0.04496954 -0.57545727 2.8537295 2960685
0.074977823 -0.57498568 2.8742948 2960685
0.10678653 -0.57471263 2.8960953 2960685
0.04494293 -0.52523196 2.8538074 2960685
0.075074255 -0.52504694 2.8744574 2960685
0.10683751 -0.52457452 2.8962271 2960685
0.044874839 -0.47471449 2.8538587 2960685
0.075049333 -0.47499043 2.8745368 2960685
0.10681777 -0.4749172 2.8963087 2960685
0.044931967 -0.42447272 2.8539944 2960685
0.075057432 -0.42498785 2.8746402 2960685
0.10677379 -0.42526019 2.8963742 2960685
0.044242308 -0.37339678 2.8536198 2960685
0.075021483 -0.3750385 2.8747106 2960685
0.10675371 -0.37535873 2.8964562 2960685
0.043741055 -0.32508197 2.8533697 2960685
0.075013071 -0.32502922 2.8748009 2960685
0.10665977 -0.32583058 2.8964877 2960685
0.043742526 -0.27544242 2.853467 2960685
0.074955553 -0.27496052 2.8748586 2960685
0.10557654 -0.27473429 2.895844 2960685
0.043789126 -0.22555634 2.8535957 2960685
0.074940771 -0.2249454 2.8749437 2960685
0.1055802 -0.22435395 2.8959439 2960685
0.043745477 -0.17497055 2.853662 2960685
0.075036876 -0.17504044 2.8751066 2960685
0.10564379 -0.17455766 2.8960829 2960685
0.043701973 -0.12438292 2.8537297 2960685
0.075094752 -0.12507358 2.8752422 2960685
0.10552728 -0.12539524 2.8960984 2960685
0.043748528 -0.074485973 2.853858 2960685
0.075097315 -0.075046688 2.8753405 2960685
0.10559088 -0.075592086 2.8962383 2960685
0.043749999 -0.02482941 2.8539546 2960685
0.0750999 -0.025016312 2.8754401 2960685
0.10559452 -0.02519813 2.8963373 2960685
0.043751493 0.024830531 2.8540516 2960685
0.075102471 0.025017455 2.8755395 2960685
0.10559817 0.025199283 2.8964374 2960685
0.043752965 0.074493811 2.8541486 4144959
0.075105056 0.075054646 2.8756359 4210752
0.1056018 0.075600192 2.8965368 4342338
0.043753892 0.10523933 2.8542087 10197915
0.075106613 0.10603163 2.8756964 10197915
0.10560405 0.10680233 2.8965983 10197915
0.58685881 0.11217618 2.8501956 10197915
0.62476212 0.11219718 2.8507292 10197915
0.6745308 0.11222474 2.8514295 10197915
0.72432363 0.11225228 2.852129 10197915
0.77414048 0.11227977 2.8528275 10197915
0.82398254 0.11230739 2.853529 10197915
0.8750366 0.11233564 2.8542473 10132122
0.92611629 0.11236393 2.8549662 10132122
0.97603315 0.11239158 2.8556683 10132122
1.0259745 0.11241923 2.8563709 10132122
1.0759403 0.1124469 2.8570743 10132122
1.1259308 0.11247458 2.8577771 9605778
1.1759459 0.11250227 2.8584812 2039583
1.2259855 0.11252998 2.8591847 2039583
1.27605 0.11255771 2.8598895 2039583
1.3261392 0.11258544 2.860594 2039583
1.3619313 0.11260528 2.8610978 2039583
0.14068328 -1.3028315 2.9179218 2960685
0.1716025 -1.3074486 2.9391024 2960685
0.13282551 -1.2749728 2.9125893 2960685
0.16919467 -1.2748941 2.9375157 2960685
0.13273971 -1.225109 2.9126272 2960685
0.16914269 -1.2249606 2.9375749 2960685
0.13236681 -1.1747673 2.9124696 2960685
0.16918986 -1.1749396 2.9377034 2960685
0.13150035 -1.1250025 2.9119699 2960685
0.16854724 -1.1253455 2.9373598 2960685
0.13152865 -1.0749338 2.9120879 2960685
0.16793472 -1.0750207 2.9370368 2960685
0.13150103 -1.0249422 2.9121649 2960685
0.16789222 -1.0250783 2.9371042 2960685
0.1314977 -0.97494644 2.9122577 2960685
0.16795911 -0.97505027 2.9372456 2960685
0.13149422 -0.92494708 2.912354 2960685
0.16793875 -0.92501575 2.9373281 2960685
0.13153845 -0.87494659 2.9124787 2960685
0.16793108 -0.87506676 2.9374199 2960685
0.13153514 -0.82493997 2.9125743 2960685
0.16796774 -0.82511324 2.9375415 2960685
0.1315397 -0.77493125 2.9126732 2960685
0.1679341 -0.77498364 2.9376144 2960685
0.13152005 -0.72500074 2.9127548 2960685
0.16798355 -0.72493386 2.9377451 2960685
0.13150878 -0.67498279 2.9128444 2960685
0.16795868 -0.67497367 2.9378247 2960685
0.13152875 -0.62496418 2.9129555 2960685
0.16785389 -0.62500483 2.937849 2960685
0.13163768 -0.5750227 2.9131253 2960685
0.16810198 -0.57503456 2.9381156 2960685
0.13153803 -0.52507669 2.9131539 2960685
0.16789174 -0.5250622 2.9380682 2960685
0.13150239 -0.47512922 2.9132264 2960685
0.16802996 -0.47499549 2.9382594 2960685
0.13156341 -0.42501396 2.9133632 2960685
0.16797797 -0.42501757 2.9383204 2960685
0.13155136 -0.37489617 2.9134517 2960685
0.16799782 -0.37503177 2.9384291 2960685
0.13142128 -0.32473895 2.91346 2960685
0.16799375 -0.32495752 2.9385223 2960685
0.1303893 -0.27498552 2.9128482 2960685
0.16794656 -0.27521691 2.938587 2960685
0.1301824 -0.22506596 2.9128034 2960685
0.16662551 -0.22488958 2.9377785 2960685
0.130312 -0.17491589 2.9129875 2960685
0.16691686 -0.17498559 2.9380741 2960685
0.13057905 -0.12467731 2.9132686 2960685
0.16663688 -0.1250971 2.937978 2960685
0.13016632 -0.075213507 2.9130807 2960685
0.1669282 -0.07517951 2.9382749 2960685
0.13038127 -0.025345912 2.9133236 2960685
0.16664821 -0.025290845 2.938179 2960685
0.13038574 0.02534708 2.9134257 2960685
0.16665411 0.025292007 2.9382808 2960685
0.13017967 0.075221509 2.9133799 4210752
0.16694532 0.075187489 2.9385755 4276545
0.13105224 0.1064957 2.912149 10197915
0.16865963 0.1073653 2.9299147 10197915
0.22497529 0.11188558 2.9039478 10197915
0.27557322 0.11191358 2.9046748 10197915
0.32499072 0.11194094 2.9053845 10197915
0.37443262 0.11196828 2.9060943 10197915
0.42510542 0.11199633 2.906822 10197915
0.47580355 0.11202439 2.9075501 10197915
0.52531892 0.11205177 2.9082613 10197915
0.57485878 0.11207918 2.908973 10197915
0.62563199 0.11210729 2.9097021 10197915
0.67522085 0.11213474 2.9104142 10197915
0.72483397 0.11216216 2.9111264 10197915
0.77568156 0.1121902 2.9118533 10197915
0.82534379 0.11221766 2.9125667 10197915
0.8750304 0.11224515 2.9132802 10197915
0.92474139 0.11227266 2.9139946 10132122
0.97447687 0.11230019 2.9147081 10132122
1.0254507 0.11232838 2.9154403 10132122
1.0752351 0.11235593 2.9161553 10132122
1.1250442 0.1123835 2.9168708 10132122
1.1748779 0.11241106 2.9175863 5526612
1.224736 0.11243866 2.9183025 2039583
1.2746184 0.11246625 2.9190187 2039583
1.3245256 0.11249387 2.9197352 2039583
1.3744571 0.11252148 2.9204524 2039583
1.4000405 0.11253566 2.9208202 2039583
0.19487461 -1.3111054 2.9550438 2960685
0.22756685 -1.3160648 2.9774408 2960685
0.25583437 -1.3203582 2.996803 2960685
0.19462636 -1.2751329 2.9549432 2960685
0.22568637 -1.2749256 2.9762304 2960685
0.25576228 -1.2750764 2.9968417 2960685
0.1946329 -1.2252228 2.9550438 2960685
0.22560619 -1.2249331 2.9762723 2960685
0.25575477 -1.2251453 2.9969325 2960685
0.19468974 -1.1750734 2.9551795 2960685
0.22569481 -1.1750017 2.9764278 2960685
0.2557798 -1.1752118 2.997046 2960685
0.19396269 -1.1237741 2.9547801 2960685
0.22560853 -1.1250026 2.9764655 2960685
0.25573963 -1.1252735 2.9971142 2960685
0.19341862 -1.0750852 2.9545012 2960685
0.22574399 -1.0749363 2.9766555 2960685
0.25569564 -1.0758818 2.9971788 2960685
0.19339377 -1.0251435 2.9545817 2960685
0.22567792 -1.0248656 2.9767051 2960685
0.25448647 -1.0253903 2.9964483 2960685
0.19342129 -0.97498536 2.9546964 2960685
0.22565126 -0.97492099 2.9767828 2960685
0.25453842 -0.97534996 2.9965808 2960685
0.19340704 -0.92483491 2.954783 2960685
0.22569971 -0.92503828 2.9769135 2960685
0.25450391 -0.92490041 2.996654 2960685
0.19338197 -0.87487501 2.9548616 2960685
0.22563349 -0.87502223 2.9769633 2960685
0.25451264 -0.87485737 2.9967563 2960685
0.19346198 -0.82491893 2.9550133 2960685
0.22571497 -0.82506752 2.9771173 2960685
0.25447816 -0.82481658 2.9968293 2960685
0.19343717 -0.77495521 2.9550927 2960685
0.22574998 -0.77504367 2.9772375 2960685
0.2545301 -0.7747615 2.9969606 2960685
0.19341268 -0.72498906 2.9551725 2960685
0.22573067 -0.72495437 2.9773207 2960685
0.25453869 -0.72512186 2.9970632 2960685
0.19349244 -0.67502004 2.9553235 2960685
0.22575842 -0.67498857 2.9774365 2960685
0.25454733 -0.67547882 2.9971645 2960685
0.19336331 -0.62504905 2.9553311 2960685
0.22573936 -0.62495542 2.977519 2960685
0.25459927 -0.62541103 2.9972968 2960685
0.1935478 -0.57506973 2.9555542 2960685
0.22571285 -0.57498449 2.9775975 2960685
0.25456479 -0.57494104 2.9973705 2960685
0.19338755 -0.52489144 2.9555409 2960685
0.22571403 -0.52507299 2.9776964 2960685
0.25453037 -0.5244689 2.9974439 2960685
0.1935299 -0.4749029 2.9557347 2960685
0.22575597 -0.47503042 2.9778183 2960685
0.25458229 -0.47439048 2.9975762 2960685
0.1934834 -0.42491889 2.9557993 2960685
0.22585796 -0.4249838 2.9779851 2960685
0.25459093 -0.42473036 2.997678 2960685
0.19343716 -0.3749333 2.9558635 2960685
0.22577772 -0.37499794 2.9780283 2960685
0.25459957 -0.37506694 2.9977796 2960685
0.19359051 -0.32513213 2.9560649 2960685
0.22577885 -0.32501146 2.9781246 2960685
0.25460818 -0.3254002 2.9978807 2960685
0.19326764 -0.27457735 2.9559407 2960685
0.22580615 -0.27501681 2.9782395 2960685
0.25461683 -0.27573013 2.9979827 2960685
0.19222969 -0.22528127 2.9553249 2960685
0.22558565 -0.2249575 2.9781859 2960685
0.2546688 -0.22563109 2.9981151 2960685
0.1922362 -0.17508875 2.955426 2960685
0.22597203 -0.17508803 2.9785454 2960685
0.25407583 -0.17726642 2.9978015 2960685
0.1922428 -0.12489273 2.9555278 2960685
0.22605164 -0.12514557 2.9786952 2960685
0.25332394 -0.12417811 2.9973888 2960685
0.1922494 -0.074693233 2.9556291 2960685
0.22557098 -0.074699037 2.9784653 2960685
0.25333261 -0.074509323 2.9974904 2960685
0.19225602 -0.024490332 2.9557302 2960685
0.22587903 -0.024681255 2.9787724 2960685
0.25334114 -0.024837192 2.997592 2960685
0.19226246 0.024491435 2.9558282 2960685
0.22588679 0.024682371 2.9788713 2960685
0.25334978 0.024838313 2.9976935 2960685
0.19226903 0.074701153 2.9559293 4276545
0.22559401 0.074707009 2.9787691 4276545
0.25335833 0.074517183 2.9977956 4210752
0.19227321 0.10654309 2.9559941 10197915
0.22704116 0.10671213 2.9771638 10197915
0.26795369 0.1097356 2.976629 10197915
0.32447904 0.11184658 2.9667363 10197915
0.37496507 0.11187451 2.9674766 10197915
0.42547616 0.11190243 2.9682174 10197915
0.4747797 0.11192969 2.968941 10197915
0.52410716 0.11195697 2.9696639 10197915
0.5746929 0.11198492 2.9704056 10197915
0.6253038 0.11201291 2.971148 10197915
0.67470479 0.11204022 2.9718721 10197915
0.7241298 0.11206754 2.9725976 10197915
0.77481496 0.11209548 2.9733379 10197915
0.82552558 0.11212347 2.974081 10197915
0.87502402 0.11215083 2.9748068 10197915
0.92454672 0.11217822 2.975533 10197915
0.97409362 0.11220561 2.9762592 10197915
1.0249045 0.1122337 2.9770045 10132122
1.0757405 0.11226181 2.9777501 10132122
1.1253614 0.11228923 2.978478 10132122
1.1750062 0.11231668 2.9792056 9605778
1.2246757 0.11234415 2.9799342 2039583
1.2743692 0.1123716 2.9806623 2039583
1.3240871 0.1123991 2.9813919 2039583
1.3750732 0.11242728 2.9821391 2039583
1.4161288 0.11245 2.9827416 2039583
0.29647455 -1.3515432 3.0245948 2960685
0.3201642 -1.3552426 3.040823 2960685
0.28150991 -1.3239031 3.0143919 2960685
0.31721944 -1.324967 3.0388646 2960685
0.28098989 -1.2750158 3.0141318 2960685
0.31727016 -1.2749681 3.0389938 2960685
0.28099939 -1.2250257 3.0142345 2960685
0.3173036 -1.2250677 3.039113 2960685
0.28094727 -1.1749495 3.0142939 2960685
0.31730884 -1.17506 3.0392146 2960685
0.28092057 -1.1249529 3.0143712 2960685
0.31727415 -1.1249444 3.0392861 2960685
0.28081778 -1.0748152 3.0143981 2960685
0.31728452 -1.0750349 3.0393896 2960685
0.27970836 -1.0250552 3.0137329 2960685
0.31734702 -1.0250174 3.0395293 2960685
0.27968025 -0.97506827 3.0138111 2960685
0.31734648 -0.97489065 3.0396252 2960685
0.27972311 -0.92500037 3.013936 2960685
0.31693888 -0.92546928 3.0394409 2960685
0.27969143 -0.87492907 3.0140095 2960685
0.31595811 -0.8751049 3.0388668 2960685
0.27974647 -0.82493228 3.0141473 2960685
0.31601867 -0.82511687 3.0390043 2960685
0.27970222 -0.77493155 3.0142117 2960685
0.3160913 -0.77501136 3.0391488 2960685
0.27976567 -0.72492796 3.0143521 2960685
0.31602803 -0.72490221 3.0392029 2960685
0.27966321 -0.67492211 3.0143785 2960685
0.3160634 -0.67490464 3.0393245 2960685
0.27978471 -0.62491083 3.0145583 2960685
0.3159866 -0.62513351 3.039366 2960685
0.27979439 -0.57497519 3.0146623 2960685
0.3160975 -0.57524258 3.0395393 2960685
0.27978298 -0.52495766 3.0147498 2960685
0.31609589 -0.5251193 3.0396338 2960685
0.27976739 -0.47501495 3.0148358 2960685
0.31609428 -0.47499311 3.0397308 2960685
0.2797938 -0.42506874 3.0149496 2960685
0.31605518 -0.42497772 3.0397999 2960685
0.27974072 -0.37504157 3.0150099 2960685
0.31601608 -0.37507555 3.03987 2960685
0.27973339 -0.32508931 3.0151014 2960685
0.31613886 -0.32493967 3.0400507 2960685
0.27979767 -0.27505547 3.0152411 2960685
0.31621173 -0.27468365 3.0401971 2960685
0.27979895 -0.22494052 3.0153382 2960685
0.31624776 -0.22465235 3.0403185 2960685
0.27918598 -0.17449516 3.0150151 2960685
0.31619677 -0.17496473 3.0403795 2960685
0.27855086 -0.12489436 3.0146768 2960685
0.31600615 -0.12551352 3.0403433 2960685
0.27856046 -0.074939109 3.0147784 2960685
0.31619284 -0.075580135 3.0405686 2960685
0.27856988 -0.024980444 3.0148818 2960685
0.31575704 -0.025731428 3.0403652 2960685
0.27857953 0.024981583 3.0149853 2960685
0.31485572 0.02518758 3.0398462 2960685
0.27858883 0.074947052 3.0150871 4342338
0.31486651 0.075565055 3.0399499 4408131
0.27859488 0.10617704 3.0151517 10197915
0.31819931 0.10771095 3.03703 10197915
0.37426165 0.11177582 3.0314853 10197915
0.42460355 0.11180363 3.0322394 10197915
0.47497058 0.11183145 3.0329938 10197915
0.52536261 0.11185928 3.0337489 10197915
0.5757798 0.11188713 3.0345044 10197915
0.6249606 0.1119143 3.0352409 10197915
0.67416537 0.11194149 3.0359786 10197915
0.7246567 0.11196939 3.0367346 10197915
0.77517271 0.11199721 3.0374897 10197915
0.82571393 0.11202506 3.0382447 10197915
0.87501603 0.1120523 3.0389838 10197915
0.92434245 0.11207954 3.039722 10197915
0.97495842 0.11210749 3.0404809 10197915
1.0255996 0.11213546 3.0412393 10197915
1.0749992 0.11216275 3.0419793 10197915
1.1244228 0.11219005 3.0427198 10132122
1.1751385 0.11221806 3.0434797 10132122
1.2258797 0.11224608 3.0442395 5526612
1.2753767 0.11227342 3.0449812 2039583
1.3248979 0.11230079 3.0457227 2039583
1.3757139 0.11232885 3.0464845 2039583
1.425284 0.11235624 3.0472264 2039583
1.4557997 0.11237309 3.047684 2039583
0.34223694 -1.3585845 3.0559435 2960685
0.37732476 -1.3638785 3.0799799 2960685
0.40294722 -1.3679659 3.0975316 2960685
0.34176365 -1.3250227 3.0556841 2960685
0.3748748 -1.3248127 3.0783744 2960685
0.40299523 -1.3250095 3.097647 2960685
0.34181026 -1.2750597 3.0558121 2960685
0.375034 -1.2749038 3.0785797 2960685
0.40293673 -1.2750158 3.0977032 2960685
0.34189105 -1.2248856 3.0559638 2960685
0.37495574 -1.2249932 3.0786233 2960685
0.40302274 -1.2249942 3.0978594 2960685
0.34184515 -1.174917 3.0560298 2960685
0.37499255 -1.175007 3.078747 2960685
0.40296429 -1.1749955 3.0979152 2960685
0.34181026 -1.1251591 3.0561011 2960685
0.37498587 -1.1249478 3.0788383 2960685
0.4030503 -1.1249654 3.0980701 2960685
0.34185696 -1.0751808 3.0562298 2960685
0.37503371 -1.0748841 3.078968 2960685
0.40299183 -1.0749617 3.0981266 2960685
0.34184563 -1.0249903 3.0563178 2960685
0.37507439 -1.0249599 3.0790908 2960685
0.40307784 -1.0249228 3.0982823 2960685
0.34189171 -0.97501111 3.0564463 2960685
0.37498888 -0.97503024 3.0791278 2960685
0.40301937 -0.97491395 3.0983386 2960685
0.34140396 -0.92411029 3.0562105 2960685
0.37508786 -0.92502809 3.079293 2960685
0.40310541 -0.92486691 3.0984941 2960685
0.34052616 -0.87494755 3.0557034 2960685
0.3750537 -0.87502128 3.0793653 2960685
0.40304688 -0.87485242 3.0985501 2960685
0.34057727 -0.82506084 3.0558341 2960685
0.37510988 -0.82494235 3.0795002 2960685
0.40313289 -0.82479674 3.0987053 2960685
0.3405492 -0.77517456 3.0559106 2960685
0.37503582 -0.77492732 3.0795476 2960685
0.40307444 -0.77477723 3.098762 2960685
0.34060061 -0.72509938 3.0560427 2960685
0.37516287 -0.72498369 3.07973 2960685
0.40312418 -0.72536582 3.0988915 2960685
0.34057271 -0.67502075 3.0561204 2960685
0.37510866 -0.67503387 3.0797894 2960685
0.40302318 -0.67707169 3.0989151 2960685
0.34056467 -0.62494057 3.0562119 2960685
0.37511802 -0.62494123 3.0798934 2960685
0.40174222 -0.62507474 3.0981376 2960685
0.34061566 -0.57485706 3.0563428 2960685
0.37516546 -0.5749827 3.0800207 2960685
0.40175596 -0.57503712 3.0982435 2960685
0.34068698 -0.52494884 3.0564883 2960685
0.37519863 -0.52502638 3.0801394 2960685
0.40176967 -0.52499598 3.0983493 2960685
0.34061924 -0.47503987 3.0565388 2960685
0.37514433 -0.47492048 3.0801988 2960685
0.40178338 -0.47495145 3.098455 2960685
0.34055123 -0.42513001 3.0565882 2960685
0.37517276 -0.42488441 3.0803151 2960685
0.40179715 -0.42490351 3.0985613 2960685
0.3406623 -0.3748481 3.0567598 2960685
0.37525675 -0.37498429 3.0804694 2960685
0.40181082 -0.37485215 3.0986671 2960685
0.34079394 -0.32473904 3.0569472 2960685
0.37519452 -0.32501483 3.0805225 2960685
0.40182456 -0.32479733 3.098773 2960685
0.34056449 -0.2753734 3.0568843 2960685
0.37507752 -0.2748929 3.0805366 2960685
0.40183824 -0.27473915 3.0988789 2960685
0.34069708 -0.22543836 3.0570736 2960685
0.37544081 -0.22491479 3.0808833 2960685
0.40185204 -0.22467753 3.0989852 2960685
0.34070882 -0.17478403 3.0571775 2960685
0.37513751 -0.17514609 3.0807707 2960685
0.40186578 -0.17461246 3.0990906 2960685
0.34081984 -0.12447727 3.0573516 2960685
0.37518388 -0.12494895 3.0809 2960685
0.40187952 -0.124544 3.0991967 2960685
0.34063047 -0.075104557 3.0573161 2960685
0.37545142 -0.075163983 3.0811803 2960685
0.40189329 -0.074472077 3.0993028 2960685
0.3402223 -0.024548324 3.0571344 2960685
0.37520954 -0.025393033 3.08111 2960685
0.40190697 -0.024396772 3.0994086 2960685
0.3393864 0.025326887 3.0566576 2960685
0.37522253 0.025394203 3.0812173 2960685
0.40192041 0.024397859 3.0995121 2960685
0.33926541 0.075203769 3.0566707 4342338
0.37548992 0.07517194 3.0814958 4342338
0.40193415 0.074479952 3.099618 4408131
0.33996052 0.10553489 3.0572057 10197915
0.37536803 0.10595921 3.0814714 10197915
0.42097321 0.11058825 3.0992081 10197915
0.46615949 0.11172406 3.0997388 10197915
0.47060594 -1.4032871 3.1438313 2960685
0.4296779 -1.3722318 3.1158423 2960685
0.4657445 -1.3751429 3.1405532 2960685
0.42843181 -1.3251508 3.1150787 2960685
0.46585044 -1.3249648 3.140723 2960685
0.42851016 -1.275025 3.1152291 2960685
0.46578345 -1.2749131 3.1407726 2960685
0.42844227 -1.2250565 3.1152804 2960685
0.46582982 -1.2249895 3.1409018 2960685
0.42854393 -1.1750031 3.1154466 2960685
0.4655264 -1.1755302 3.1407886 2960685
0.42806348 -1.1254039 3.1152122 2960685
0.4638437 -1.1245116 3.1397343 2960685
0.42708525 -1.0750459 3.1146381 2960685
0.46299708 -1.0752965 3.1392496 2960685
0.42711955 -1.0249295 3.114758 2960685
0.46305057 -1.0252602 3.1393824 2960685
0.42715377 -0.97489226 3.1148801 2960685
0.46302143 -0.97509253 3.1394594 2960685
0.42715839 -0.92494291 3.1149781 2960685
0.46307465 -0.92504811 3.1395912 2960685
0.42720231 -0.87498623 3.1151049 2960685
0.46300793 -0.87500161 3.1396427 2960685
0.42708927 -0.82511437 3.1151228 2960685
0.46303114 -0.82495207 3.1397545 2960685
0.42727077 -0.77506471 3.1153421 2960685
0.46316728 -0.77502775 3.139945 2960685
0.42719734 -0.72492903 3.1153896 2960685
0.4631153 -0.72497094 3.1400065 2960685
0.42698911 -0.67474121 3.1153438 2960685
0.46312368 -0.6749115 3.1401074 2960685
0.42579174 -0.62501514 3.1146195 2960685
0.46310928 -0.6249795 3.1401942 2960685
0.42587045 -0.57503581 3.1147709 2960685
0.46317008 -0.57504082 3.1403322 2960685
0.42585704 -0.52504927 3.1148582 2960685
0.4631258 -0.52509898 3.140398 2960685
0.42578396 -0.4751426 3.1149037 2960685
0.46314958 -0.47502619 3.140511 2960685
0.42598271 -0.42514789 3.1151354 2960685
0.46330833 -0.42494968 3.1407173 2960685
0.42585984 -0.37499562 3.1151474 2960685
0.46326363 -0.37499774 3.1407824 2960685
0.42587331 -0.32499343 3.1152534 2960685
0.46318173 -0.32491529 3.1408226 2960685
0.42586616 -0.27507299 3.1153448 2960685
0.46314451 -0.27483067 3.1408927 2960685
0.42613173 -0.22498508 3.1156242 2960685
0.46224278 -0.22559491 3.1403701 2960685
0.42569834 -0.17482139 3.1154237 2960685
0.46184638 -0.1756274 3.1401949 2960685
0.42600083 -0.12520829 3.1157258 2960685
0.46197608 -0.12517512 3.1403809 2960685
0.42601585 -0.074869335 3.1158328 2960685
0.46176144 -0.074457116 3.140331 2960685
0.42603037 -0.024526909 3.1159415 2960685
0.46189412 -0.024720367 3.140518 2960685
0.42604452 0.024527993 3.116046 2960685
0.46190959 0.024721475 3.1406248 2960685
0.42605916 0.074877217 3.1161523 4473924
0.461858 0.074316524 3.1406844 4276545
0.42606837 0.10586298 3.1162181 10197915
0.46627533 0.1063742 3.1353712 10197915
0.52538621 0.11175675 3.1006455 10197915
0.5743382 0.11178377 3.1013949 10197915
0.62460327 0.11181148 3.1021647 10197915
0.6748932 0.11183927 3.1029348 10197915
0.72520792 0.11186703 3.1037049 10197915
0.77554744 0.11189479 3.1044753 10197915
0.82461983 0.11192176 3.1052232 10197915
0.87500924 0.11194956 3.1059952 10197915
0.92542326 0.11197738 3.1067669 10197915
0.97456902 0.11200452 3.1075196 10197915
1.0250328 0.11203235 3.1082919 10197915
1.0755216 0.11206022 3.1090653 10197915
1.1247398 0.11208736 3.1098187 10197915
1.1752785 0.11211526 3.1105924 10132122
1.2258418 0.11214315 3.1113663 10000536
1.2751333 0.11217038 3.1121213 2039583
1.3244485 0.11219759 3.1128764 2039583
1.3750863 0.11222552 3.1136518 2039583
1.4257492 0.11225348 3.1144273 2039583
1.4725373 0.11227931 3.1151438 2039583
0.49138498 -1.4063241 3.1580658 2960685
0.5286718 -1.4121541 3.1836078 2960685
0.49055895 -1.3748521 3.1575601 2960685
0.52600354 -1.3748711 3.1818519 2960685
0.49053192 -1.3249998 3.1576383 2960685
0.52594739 -1.3249029 3.1819098 2960685
0.49061427 -1.2749603 3.1577902 2960685
0.52599323 -1.2750094 3.1820369 2960685
0.49054366 -1.2249153 3.1578391 2960685
0.52596551 -1.225034 3.1821129 2960685
0.49020568 -1.1742451 3.1577039 2960685
0.52607518 -1.1749778 3.1822872 2960685
0.48911431 -1.1249964 3.1570528 2960685
0.52599186 -1.1249183 3.1823261 2960685
0.48925504 -1.0748409 3.1572454 2960685
0.5261113 -1.0748553 3.1825037 2960685
0.48921469 -1.0248448 3.1573136 2960685
0.52553254 -1.0252279 3.1822028 2960685
0.55000347 -1.0085605 3.1990051 2960685
0.48920277 -0.97500861 3.1574018 2960685
0.52462095 -0.975003 3.1816752 2960685
0.5500164 -0.97412521 3.1990807 2960685
0.48929587 -0.92500687 3.1575615 2960685
0.52467328 -0.92502773 3.1818068 2960685
0.55003482 -0.92511868 3.1991873 2960685
0.48921698 -0.87500107 3.157604 2960685
0.52469617 -0.87504917 3.1819189 2960685
0.5500533 -0.87610888 3.1992946 2960685
0.48924351 -0.82483023 3.1577189 2960685
0.52461147 -0.82506758 3.1819563 2960685
0.55007219 -0.82577085 3.1994047 2960685
0.48929816 -0.77481574 3.1578524 2960685
0.52472699 -0.77500027 3.182133 2960685
0.55009103 -0.77542943 3.1995144 2960685
0.48932442 -0.72496331 3.1579676 2960685
0.52469093 -0.72501141 3.1822045 2960685
0.55010998 -0.7250846 3.1996245 2960685
0.48932198 -0.67494327 3.1580625 2960685
0.52476275 -0.67501915 3.1823504 2960685
0.55012882 -0.6747362 3.1997344 2960685
0.48934841 -0.62508357 3.1581764 2960685
0.52465361 -0.62494171 3.1823716 2960685
0.55014783 -0.62438446 3.1998448 2960685
0.48933604 -0.57522053 3.1582634 2960685
0.52471995 -0.57502604 3.1825142 2960685
0.55016577 -0.57667971 3.1999493 2960685
0.48926792 -0.52502811 3.1583145 2960685
0.52481675 -0.52510619 3.1826763 2960685
0.48939845 -0.4749957 3.1585 2960685
0.52476209 -0.47493592 3.182735 2960685
0.48948216 -0.42512104 3.1586533 2960685
0.52483803 -0.42484376 3.1828833 2960685
0.48943174 -0.37524533 3.158715 2960685
0.5248704 -0.3748315 3.1830027 2960685
0.48949632 -0.32536307 3.1588559 2960685
0.52486372 -0.32481486 3.1830933 2960685
0.48950294 -0.27515209 3.1589563 2960685
0.52482736 -0.27496064 3.183166 2960685
0.48835146 -0.22431767 3.1582661 2960685
0.52480596 -0.22518681 3.1832452 2960685
0.48788649 -0.17445929 3.1580424 2960685
0.52486801 -0.17532663 3.1833856 2960685
0.48805436 -0.12430045 3.1582553 2960685
0.52495986 -0.12529576 3.1835442 2960685
0.48807102 -0.074582733 3.1583617 2960685
0.52497768 -0.075179994 3.1836529 2960685
0.48808739 -0.024861656 3.1584694 2960685
0.52499598 -0.025060747 3.1837635 2960685
0.48810408 0.024862789 3.1585767 2960685
0.52501374 0.025061909 3.1838717 2960685
0.48812073 0.074590601 3.158685 4342338
0.52503181 0.075188011 3.1839814 4473924
0.48813108 0.10599925 3.158751 10197915
0.52512074 0.10687196 3.1810687 10197915
0.57414937 0.11167647 3.1713221 10197915
0.62422973 0.11170409 3.1721063 10197915
0.67433476 0.11173169 3.1728907 10197915
0.72446442 0.11175933 3.1736753 10197915
0.77461916 0.11178699 3.1744606 10197915
0.82479763 0.11181455 3.1752427 10197915
0.87500179 0.11184219 3.1760285 10197915
0.92523092 0.1118699 3.1768148 10197915
0.97548485 0.1118976 3.1776016 10197915
1.0257636 0.11192531 3.1783888 10197915
1.0760673 0.11195306 3.1791761 10197915
1.1250714 0.11198007 3.1799436 10197915
1.1740991 0.1120071 3.1807115 10197915
1.2244763 0.11203487 3.1814997 10197915
1.2748786 0.11206267 3.1822889 6645093
1.3253059 0.11209046 3.1830785 2039583
1.3757582 0.1121183 3.1838682 2039583
1.424907 0.11214537 3.184638 2039583
1.4740794 0.11217246 3.1854074 2039583
1.5152959 0.1121952 3.1860533 2039583
0.61996275 -1.4510597 3.2460966 2960685
0.57706887 -1.4197187 3.2167618 2960685
0.61247021 -1.4245605 3.2410121 2960685
0.57551587 -1.3749816 3.2157829 2960685
0.61219615 -1.3752581 3.2409203 2960685
0.57564157 -1.3248181 3.2159662 2960685
0.6123004 -1.3252851 3.2410882 2960685
0.575499 -1.2749 3.2159653 2960685
0.61235237 -1.275142 3.2412205 2960685
0.57560492 -1.2248948 3.2161341 2960685
0.61231124 -1.2251686 3.2412884 2960685
0.57567501 -1.1749692 3.2162774 2960685
0.6123634 -1.1750181 3.2414215 2960685
0.5755533 -1.125042 3.2162895 2960685
0.61227047 -1.1248666 3.2414544 2960685
0.57571906 -1.075027 3.2165008 2960685
0.61248857 -1.0750489 3.241699 2960685
0.57569861 -1.0250913 3.2165825 2960685
0.61240548 -1.0250567 3.2417388 2960685
0.57563239 -0.97507006 3.2166362 2960685
0.61237472 -0.97489518 3.2418149 2960685
0.57575309 -0.92496049 3.2168124 2960685
0.61256123 -0.92489707 3.242039 2960685
0.57567644 -0.87493092 3.2168562 2960685
0.61240536 -0.87506711 3.242028 2960685
0.57579738 -0.82498372 3.2170362 2960685
0.61249977 -0.82489216 3.2421896 2960685
0.57581699 -0.77503079 3.2171464 2960685
0.61249882 -0.77488339 3.2422848 2960685
0.57583672 -0.72507495 3.2172565 2960685
0.612593 -0.72504359 3.242445 2960685
0.57574475 -0.6751169 3.217289 2960685
0.61247921 -0.67485631 3.2424643 2960685
0.57585067 -0.62507033 3.2174585 2960685
0.6111905 -0.62504643 3.2416766 2960685
0.57565087 -0.57478189 3.217418 2960685
0.61104554 -0.57499182 3.2416749 2960685
0.57434434 -0.52489138 3.21662 2960685
0.61104226 -0.52493608 3.2417686 2960685
0.57443118 -0.47497338 3.2167754 2960685
0.61118203 -0.47506544 3.2419608 2960685
0.57446015 -0.42497379 3.2168906 2960685
0.61098909 -0.42520091 3.241924 2960685
0.57432669 -0.37505201 3.2168965 2960685
0.61122257 -0.37493455 3.2421813 2960685
0.57450902 -0.3250446 3.2171178 2960685
0.61117363 -0.32505903 3.2422447 2960685
0.57440501 -0.27495545 3.2171433 2960685
0.61112392 -0.27518234 3.242306 2960685
0.57427138 -0.22494531 3.2171471 2960685
0.61133289 -0.22470756 3.242547 2960685
0.57468104 -0.17476921 3.2175255 2960685
0.6111154 -0.17503047 3.2424936 2960685
0.57476103 -0.1248225 3.2176752 2960685
0.6112569 -0.12493667 3.2426858 2960685
0.57423121 -0.075365923 3.2174072 2960685
0.61127764 -0.075233176 3.2427969 2960685
0.57459784 -0.025328314 3.217756 2960685
0.61129826 -0.0255263 3.2429068 2960685
0.57461762 0.0253295 3.2178671 2960685
0.61131966 0.025527492 3.2430196 2960685
0.57429004 0.07537394 3.2177384 4473924
0.61134011 0.075241163 3.24313 4473924
0.57608879 0.10598474 3.2190304 10197915
0.61721289 0.10744458 3.2435911 10197915
0.67509878 0.11161975 3.2460904 10197915
0.72503573 0.11164728 3.2468901 10197915
0.774997 0.11167477 3.2476904 10197915
0.82498264 0.11170223 3.2484887 10197915
0.87499261 0.1117297 3.2492878 10197915
0.90879691 0.11174835 3.2498298 10197915
0.63888288 -1.4540341 3.2590568 2960685
0.67827386 -1.46009 3.2860408 2960685
0.63709718 -1.4247683 3.2578902 2960685
0.67314482 -1.4249537 3.282594 2960685
0.63705564 -1.3748786 3.2579582 2960685
0.67323601 -1.3749542 3.2827537 2960685
0.63714051 -1.3249811 3.2581134 2960685
0.67314428 -1.325042 3.2827866 2960685
0.63706797 -1.2749161 3.2581584 2960685
0.67329389 -1.275035 3.282985 2960685
0.63714242 -1.2248434 3.2583067 2960685
0.67327064 -1.2250279 3.2830658 2960685
0.63718486 -1.1749408 3.2584329 2960685
0.67327094 -1.1750141 3.2831619 2960685
0.63718569 -1.1250291 3.2585287 2960685
0.67331696 -1.1249971 3.2832901 2960685
0.63725996 -1.0749497 3.2586761 2960685
0.67333949 -1.0748876 3.2834024 2960685
0.63718766 -1.0248662 3.2587233 2960685
0.67335117 -1.0249559 3.2835066 2960685
0.63726169 -0.97477752 3.2588696 2960685
0.67338514 -0.97510874 3.2836254 2960685
0.63720894 -0.92502445 3.2589307 2960685
0.6734094 -0.92498988 3.2837386 2960685
0.63730502 -0.87492973 3.2590926 2960685
0.67343152 -0.87495679 3.2838509 2960685
0.63732672 -0.82500029 3.2592041 2960685
0.67338574 -0.82501012 3.2839155 2960685
0.63734859 -0.77506757 3.2593148 2960685
0.67354643 -0.77506006 3.2841227 2960685
0.63733858 -0.72496146 3.2594047 2960685
0.67344415 -0.72501791 3.2841482 2960685
0.63742375 -0.67502421 3.2595594 2960685
0.67353493 -0.67497045 3.2843072 2960685
0.63585764 -0.62504417 3.2585824 2960685
0.67348993 -0.624919 3.2843726 2960685
0.63587958 -0.57511425 3.2586942 2960685
0.67366153 -0.57486659 3.2845867 2960685
0.63586354 -0.52503031 3.2587795 2960685
0.67355841 -0.5248999 3.2846124 2960685
0.63596076 -0.47509399 3.2589419 2960685
0.67272377 -0.47540709 3.2841365 2960685
0.63585126 -0.42500469 3.2589633 2960685
0.67208523 -0.42503318 3.2837949 2960685
0.6360603 -0.37505862 3.2592027 2960685
0.67208999 -0.37500703 3.283895 2960685
0.63582104 -0.32496819 3.2591357 2960685
0.67209959 -0.32506642 3.2839985 2960685
0.63617992 -0.27500641 3.2594781 2960685
0.67198825 -0.27512673 3.284018 2960685
