# .PCD v0.7 - Point Cloud Data file format
VERSION 0.7
FIELDS x y z rgb
SIZE 4 4 4 4
TYPE F F F U
COUNT 1 1 1 1
WIDTH 1168
HEIGHT 1
VIEWPOINT 0 0 0 1 0 0 0
POINTS 1168
DATA ascii
0.12502058 0.11467423 0.97463506 10197915
0.17501301 0.11465722 0.97447145 10197915
0.22499059 0.11464007 0.97434527 10197915
0.27500367 0.11462297 0.97421581 10197915
0.32495096 0.11460593 0.97407496 10197915
0.37493533 0.11458877 0.97393262 10197915
0.42500389 0.11457171 0.97375685 10197915
0.47500759 0.11455464 0.97360772 10197915
0.52504694 0.11453756 0.97344732 10197915
0.57502031 0.11452036 0.97336334 10197915
0.62488496 0.11450313 0.97334635 10197915
0.67492348 0.11448117 0.97643965 10197915
0.72491926 0.1144641 0.97626507 10197915
0.76547033 0.11444186 0.98178065 10197915
-0.7421115 -0.45688534 1.0364883 2894892
-0.25588033 -0.4515346 1.0125926 1454669
-0.22053599 -0.45626715 1.0337944 1586512
-0.19663265 -0.45945156 1.0481334 1652048
-0.73577803 -0.42499748 1.0260016 2894892
-0.26341966 -0.42478374 1.0081071 1388620
-0.22549438 -0.42500448 1.0308666 1520206
-0.19699724 -0.42551595 1.047965 1783890
-0.73542005 -0.37501159 1.0255083 2894892
-0.26353854 -0.3750037 1.0081108 1454413
-0.22551121 -0.37500179 1.0309306 1454413
-0.19710472 -0.37500754 1.0479765 1652304
-0.73498571 -0.32495484 1.0248882 2894892
-0.26379821 -0.32486144 1.008033 1191499
-0.22552465 -0.32498735 1.030996 1257292
-0.1971232 -0.32504573 1.0480399 1257035
-0.73465925 -0.2750107 1.0244473 2894892
-0.26393169 -0.2750091 1.0080253 1257292
-0.22553955 -0.27499819 1.0310639 1257549
-0.19714096 -0.27502269 1.0481042 1323085
-0.73422545 -0.22499804 1.0238287 2894892
-0.26395911 -0.22500856 1.0080827 1389390
-0.22555669 -0.225003 1.0311288 1454926
-0.19714177 -0.22499359 1.0481788 1520719
-0.73387676 -0.17491457 1.0233506 2894892
-0.2639527 -0.17501295 1.0081625 1191755
-0.22556081 -0.17500781 1.0311993 1323340
-0.19716288 -0.17506659 1.0482404 1389133
-0.73349607 -0.12500465 1.0228196 2894892
-0.26399109 -0.12500019 1.0082139 1257291
-0.22559005 -0.12501265 1.0312567 1520717
-0.19717725 -0.12502484 1.0483066 1586254
-0.73307544 -0.075025469 1.0222223 2894892
-0.26400271 -0.074991509 1.0082821 1191498
-0.22560824 -0.074998103 1.031323 1323596
-0.19747028 -0.075667895 1.048205 1389132
-0.73274672 -0.024977276 1.0217774 2894892
-0.26402169 -0.024977911 1.0083458 1191754
-0.22559759 -0.024996955 1.0314029 1257803
-0.19759296 -0.025125589 1.0482066 1323340
-0.73350453 0.024071801 1.0231425 2894892
-0.26438534 0.024997633 1.0082015 1257289
-0.22561167 0.024999054 1.0314676 1257290
-0.19760574 0.025127748 1.0482743 1257546
-0.7341677 0.075039215 1.0243528 2894892
-0.26441896 0.074995384 1.0082572 992836
-0.22565512 0.075000137 1.0315177 926787
-0.19760674 0.075074278 1.0483484 927043
-0.72252685 0.11281194 1.0263987 8224125
-0.67516261 0.11487886 1.0231838 10197915
-0.63906074 0.11487856 1.0150062 9606037
-0.2641592 0.10793298 1.0079557 1583687
-0.22513612 0.10871539 1.0288144 2570064
-0.18071173 0.11283521 1.0311992 7830660
-0.12495108 0.11468524 1.0252775 10197915
-0.075030603 0.1146682 1.0251361 10197915
-0.025054444 0.11465111 1.0249625 10197915
0.025049461 0.11463404 1.0248098 10197915
0.075066663 0.11461687 1.0247102 10197915
0.12499811 0.11459998 1.0244508 10197915
0.17498556 0.11458279 1.0243728 10197915
0.22502898 0.11456567 1.0241987 10197915
0.27498662 0.11454857 1.0240996 10197915
0.3249293 0.11453155 1.0238937 10197915
0.37492862 0.11451453 1.0237414 10197915
0.42498305 0.1144973 1.023641 10197915
0.47502211 0.11448032 1.0234355 10197915
0.52504629 0.11446324 1.0232522 10197915
0.57601219 0.11444286 1.0250967 10197915
0.62498349 0.11442347 1.0267222 10197915
0.67495394 0.11440634 1.0266254 10197915
0.72497201 0.11438923 1.0264539 10197915
0.77491486 0.11437222 1.0262983 10197915
0.81241459 0.11434329 1.03699 10197915
-0.76741713 -0.4662649 1.0786339 2894892
-0.17011802 -0.46304104 1.0640324 1651535
-0.12930217 -0.4685148 1.0885224 1717071
-0.76546681 -0.42492917 1.0754694 2894892
-0.17207071 -0.42492425 1.0629134 1849426
-0.13027133 -0.42499843 1.0880046 1849426
-0.76508015 -0.37505391 1.0749282 2894892
-0.17218804 -0.37501016 1.0629377 1717841
-0.13027744 -0.37498948 1.0880791 1783633
-0.76472658 -0.3250083 1.0744427 2894892
-0.17218809 -0.32501447 1.0630059 1388877
-0.1302745 -0.3249833 1.0881521 1520463
-0.76429486 -0.27493873 1.0738264 2894892
-0.17219855 -0.27500376 1.0630602 1388621
-0.13029557 -0.27499032 1.0882158 1389134
-0.76392043 -0.22492079 1.0733067 2894892
-0.17220914 -0.22499494 1.0631411 1520719
-0.13066173 -0.22508304 1.0880719 1586512
-0.76351726 -0.17495558 1.072739 2894892
-0.17222759 -0.17498773 1.0632139 1389133
-0.13072713 -0.17501357 1.088106 1454926
-0.76312983 -0.12504166 1.0721961 2894892
-0.17223088 -0.12498997 1.0632726 1586510
-0.13073243 -0.12500386 1.0881767 1586511
-0.76305884 -0.074590713 1.0721823 2894892
-0.17257787 -0.074887641 1.0631342 1323340
-0.13073072 -0.075006977 1.0882552 1323340
-0.76473093 -0.025007855 1.0750707 2894892
-0.17265125 -0.024964862 1.0631838 1323340
-0.13077146 -0.025004327 1.0883063 1389388
-0.76433402 0.024990557 1.0745124 2894892
-0.17266218 0.024966959 1.0632477 1323082
-0.13077964 0.02500646 1.0883718 1257290
-0.76618016 0.074745886 1.0776918 2894892
-0.74981928 0.076590173 1.0504344 2894892
-0.1727057 0.074966513 1.0632809 1059141
-0.13075845 0.075012118 1.0884606 1124677
-0.76283181 0.11103481 1.0800709 6579300
-0.72622699 0.11446426 1.0731069 9803157
-0.6813879 0.11481043 1.0705069 9869208
-0.17199834 0.10801607 1.0628732 1847628
-0.12850596 0.1093678 1.0831753 3490906
-0.074992508 0.11459819 1.072077 10197915
-0.025019672 0.11458098 1.0720017 10197915
0.025014706 0.1145639 1.0718422 10197915
0.074957751 0.11454696 1.0715979 10197915
0.12496115 0.11452965 1.0715843 10197915
0.17502344 0.11451276 1.0713153 10197915
0.22499667 0.11449564 1.0711784 10197915
0.27502888 0.11447853 1.0710574 10197915
0.32504565 0.11446144 1.0708836 10197915
0.37504953 0.11444446 1.0706645 10197915
0.42595416 0.11442308 1.073173 10197915
0.47504026 0.11440425 1.074439 10197915
0.52500999 0.11438704 1.0743611 10197915
0.57403052 0.11436765 1.0760077 10197915
0.62503552 0.11434678 1.0781448 10197915
0.67510921 0.11432964 1.0780082 10197915
0.7251702 0.11431258 1.0778223 10197915
0.77506667 0.11429544 1.0777357 10197915
0.82409978 0.11427774 1.0782222 10197915
0.85884243 0.11424682 1.0908934 10197915
-0.80736339 -0.50604123 1.1451104 2894892
-0.79755616 -0.50270873 1.1287763 2894892
-0.060353216 -0.502765 1.1298449 2243412
-0.037328821 -0.50582951 1.1436566 2309204
-0.80668694 -0.47490767 1.1440471 2894892
-0.79108208 -0.47416174 1.1180483 2894892
-0.10504965 -0.47175741 1.1030701 1782863
-0.074859522 -0.47454098 1.1211815 1980241
-0.038354356 -0.4749676 1.143088 2177362
-0.80624628 -0.42516035 1.1434163 2894892
-0.79034793 -0.42492512 1.116927 2894892
-0.10510575 -0.42501235 1.1031063 1849426
-0.075235814 -0.42500231 1.1210302 1980754
-0.038354632 -0.42498645 1.1431615 2046291
-0.80585372 -0.37498912 1.1428659 2894892
-0.78998756 -0.3749859 1.1164298 2894892
-0.10511717 -0.37503272 1.1031739 1783633
-0.075242974 -0.37500021 1.1211016 1849170
-0.038366947 -0.37497941 1.1432294 1914962
-0.80541021 -0.32486904 1.1422303 2894892
-0.78954339 -0.32498091 1.115793 2894892
-0.10512389 -0.32500839 1.1032451 1520463
-0.075247385 -0.32500911 1.121174 1585999
-0.038792204 -0.32505941 1.1430489 1651791
-0.80501842 -0.27480265 1.1416811 2894892
-0.78919494 -0.27502838 1.1153162 2894892
-0.10513652 -0.27501613 1.103314 1454927
-0.075260274 -0.27500293 1.1212401 1454670
-0.038839083 -0.27498758 1.1430954 1520206
-0.80457574 -0.22478546 1.1410471 2894892
-0.78871506 -0.22501323 1.1146187 2894892
-0.10550916 -0.22471552 1.103165 1586768
-0.075248003 -0.22500683 1.1213228 1586512
-0.038829457 -0.22498071 1.1431762 1652304
-0.80418473 -0.17482351 1.140499 2894892
-0.78831708 -0.174932 1.1140599 2894892
-0.1055856 -0.17494121 1.1031913 1454926
-0.075265601 -0.17499611 1.1213866 1389134
-0.038845655 -0.1750071 1.1432406 1454926
-0.80376685 -0.12467418 1.1399064 2894892
-0.78798079 -0.12501973 1.1136029 2894892
-0.10556312 -0.12495572 1.1032807 1586511
-0.075251289 -0.12499584 1.1214713 1586511
-0.038826041 -0.12500745 1.143327 1652303
-0.80332536 -0.074813478 1.1392739 2894892
-0.78774846 -0.075766392 1.1133176 2894892
-0.10560661 -0.075105675 1.1033299 1388876
-0.075289771 -0.074972458 1.1215225 1388619
-0.038865309 -0.07508041 1.1433785 1256778
-0.8029359 -0.025005514 1.1387278 2894892
-0.78972477 -0.024984816 1.1167148 2894892
-0.10559127 -0.025141962 1.1034144 1520461
-0.075268202 -0.024968045 1.1216109 1389132
-0.038832206 -0.0250878 1.1434739 1059400
-0.80484974 0.023458198 1.1420166 2894892
-0.7917152 0.025501771 1.1201357 2894892
-0.10559806 0.025144106 1.1034853 1388875
-0.075272806 0.024970189 1.1216815 1257290
-0.038961928 0.024871817 1.1434718 1059399
-0.80479515 0.075225599 1.1420329 2894892
-0.79151797 0.075039983 1.1199102 2894892
-0.10562687 0.07512068 1.1035415 1058885
-0.075305365 0.074970633 1.1217377 1058629
-0.039336111 0.075087398 1.1433212 1059142
-0.80417168 0.11092489 1.143988 6513507
-0.77570605 0.11336435 1.1266685 8882055
-0.72604394 0.11474508 1.1246908 10066329
-0.69314682 0.11475633 1.1095045 9211537
-0.1055519 0.10753773 1.10353 1321029
-0.074491121 0.10834765 1.1202148 2307407
-0.032151032 0.11060616 1.1335487 5266283
0.025053801 0.11448704 1.1233891 10197915
0.075071625 0.11447013 1.1230947 10197915
0.12499831 0.11445278 1.1231229 10197915
0.17498709 0.11443595 1.1228318 10197915
0.22503839 0.11441881 1.1226907 10197915
0.27499741 0.11440174 1.1225384 10197915
0.32501879 0.11438471 1.1223434 10197915
0.37502679 0.11436762 1.1222034 10197915
0.42376274 0.1143475 1.1243558 10197915
0.47485268 0.11432677 1.1264107 10197915
0.52489114 0.11430974 1.1262096 10197915
0.57491499 0.11429262 1.1260744 10197915
0.624924 0.11427567 1.1258397 10197915
0.6751045 0.11425865 1.1256033 10197915
0.72508234 0.1142414 1.1255697 10197915
0.77495337 0.11422446 1.1253356 10197915
0.82490343 0.11420734 1.1252338 10197915
0.87187439 0.11418816 1.1271794 10197915
0.90410095 0.11415524 1.1417743 10197915
-0.82838678 -0.51405835 1.1801233 2894892
-0.01254386 -0.50917304 1.1585246 2374740
0.026389619 -0.51440305 1.1818776 2637397
0.053139802 -0.51797384 1.1979256 2834262
-0.82616788 -0.47495034 1.1765065 2894892
-0.013439184 -0.47499934 1.1580378 2243155
0.024468776 -0.47500515 1.1807857 2440019
0.053097915 -0.47503358 1.197964 2571605
-0.82576334 -0.42491516 1.1759362 2894892
-0.013425677 -0.4249939 1.1581208 2112083
0.024458202 -0.42499956 1.1808541 2243412
0.053110052 -0.42507553 1.1980467 2374740
-0.82529151 -0.37493145 1.1752543 2894892
-0.013438019 -0.37499946 1.1581877 1980498
0.024460727 -0.37499657 1.1809295 2111826
0.053113446 -0.37504125 1.198123 2111826
-0.82495463 -0.32490402 1.1747957 2894892
-0.013880291 -0.32496881 1.1579978 1651791
0.024458215 -0.32498708 1.1810031 1585485
0.052601364 -0.32497561 1.1978909 1651020
-0.82446033 -0.27492633 1.1740751 2894892
-0.013917434 -0.27503869 1.1580502 1520462
0.024469391 -0.27498123 1.1810849 1585998
0.052601337 -0.27503553 1.1979651 1651791
-0.8240785 -0.22490241 1.1735426 2894892
-0.013898198 -0.22500837 1.1581367 1717841
0.024473429 -0.2249981 1.1811621 1717841
0.052628323 -0.22508755 1.1980566 1783633
-0.82362843 -0.17493145 1.1728966 2894892
-0.013927457 -0.17498854 1.1581938 1454926
0.024462188 -0.17501856 1.1812294 1454926
0.052601434 -0.17497061 1.1981155 1455182
-0.82322538 -0.12501198 1.172328 2894892
-0.013913465 -0.12502797 1.1582773 1652047
0.024463022 -0.12499318 1.1813055 1652047
0.052619904 -0.12509264 1.1982015 1652047
-0.82271016 -0.075046495 1.1715724 2894892
-0.013949205 -0.074995391 1.1583303 1257034
0.024473848 -0.075000256 1.1813861 1322570
0.052623305 -0.074960999 1.198278 1322571
-0.82243842 -0.02494248 1.1712236 2894892
-0.013884789 -0.024956055 1.1584438 1059656
0.02447851 -0.025022179 1.1814648 1125449
0.052626695 -0.024822956 1.1983556 1125449
-0.82478726 0.024992088 1.1752402 2894892
-0.01401652 0.02512303 1.1584399 1059399
0.02448637 0.025014525 1.1815437 1059399
0.052621521 0.024743473 1.1984252 1059655
-0.82436985 0.075020038 1.1746483 2894892
-0.01443514 0.074971497 1.158263 1124935
0.024467321 0.074995719 1.1816074 1190727
0.052123118 0.074956864 1.1982034 1191240
-0.81834221 0.11175357 1.179101 7434609
-0.77496219 0.11468255 1.1779616 10197915
-0.73766392 0.11467829 1.1721721 9606037
-0.014113504 0.10758858 1.158275 1452872
0.025248677 0.10849944 1.1790708 2768212
0.070089325 0.11286346 1.1799815 8225416
0.12508269 0.11437567 1.1748118 10197915
0.17508945 0.11435866 1.1745962 10197915
0.22508185 0.11434152 1.1744989 10197915
0.27505979 0.1143247 1.174171 10197915
0.32511821 0.11430741 1.1741484 10197915
0.37506726 0.1142905 1.1738957 10197915
0.42499939 0.11427335 1.1737982 10197915
0.47511095 0.11425637 1.1735481 10197915
0.52501416 0.11423931 1.1734089 10197915
0.5749023 0.11422234 1.1731988 10197915
0.62496924 0.11420518 1.1730981 10197915
0.67482692 0.11418829 1.1728461 10197915
0.72476846 0.11417124 1.1726737 10197915
0.77498531 0.11415394 1.1726109 10197915
0.82499129 0.11413717 1.1722445 10197915
0.87488711 0.11411998 1.1722225 10197915
0.91792929 0.11409835 1.1767176 10197915
-0.86731046 -0.5535633 1.2448965 2894892
0.12820239 -0.55304348 1.242915 3227988
-0.8598972 -0.52430868 1.2326046 2894892
-0.84420681 -0.51982093 1.2064708 2894892
0.07884077 -0.52143365 1.2133423 2965590
0.11952492 -0.5249418 1.2377504 3096918
-0.86145252 -0.47640505 1.2352954 2894892
-0.84637451 -0.47222665 1.2101809 2894892
0.077874966 -0.47498775 1.212833 2768726
0.11947151 -0.47502407 1.2377923 2834261
-0.86189282 -0.4248918 1.2361356 2894892
-0.84644532 -0.4249585 1.2103966 2894892
0.077880174 -0.42498872 1.2129107 2440276
0.11949354 -0.42501828 1.2378806 2636884
-0.86144841 -0.37502384 1.2354987 2894892
-0.8459478 -0.37512493 1.2096709 2894892
0.077896245 -0.37500802 1.2129945 2243155
0.1194965 -0.37499228 1.2379569 2440276
-0.86100286 -0.32503352 1.2348593 2894892
-0.8455407 -0.32508901 1.2090958 2894892
0.077382468 -0.32501218 1.2127615 1782606
0.11950933 -0.32500115 1.2380404 1914190
-0.86060143 -0.27509555 1.2342938 2894892
-0.84507251 -0.27510768 1.2084192 2894892
0.077376068 -0.27500221 1.2128322 1717327
0.11928927 -0.27518624 1.2379824 1782606
-0.86006916 -0.22504139 1.2335107 2894892
-0.84466606 -0.2251762 1.2078454 2894892
0.077386558 -0.22499771 1.212913 1783632
0.11899783 -0.22500603 1.2378837 1914961
-0.85966623 -0.1750361 1.2329421 2894892
-0.84422761 -0.17504555 1.2072179 2894892
0.077391848 -0.17502265 1.2129916 1520718
0.11898571 -0.17498741 1.2379504 1783632
-0.85926425 -0.12508316 1.2323762 2894892
-0.84372866 -0.12496869 1.2064905 2894892
0.077374794 -0.12501724 1.2130557 1652047
0.11896115 -0.1250052 1.2380103 1652047
-0.85873204 -0.075010635 1.2315927 2894892
-0.84335154 -0.07494469 1.205965 2894892
0.07742817 -0.074981861 1.2131624 1257034
0.11903783 -0.075016208 1.238131 1257034
-0.85837227 -0.024993554 1.2310964 2894892
-0.84294653 -0.025217248 1.2053939 2894892
0.077393025 -0.024988135 1.2132162 1125705
0.11899465 -0.025007766 1.2381806 1191498
-0.85792685 0.02497628 1.2304577 2894892
-0.84549707 0.02505702 1.2097472 2894892
0.077387378 0.025001885 1.2132877 1125192
0.11900229 0.025009884 1.2382596 1125192
-0.85739636 0.074889608 1.2296773 2894892
-0.84505725 0.075136289 1.209118 2894892
0.076912925 0.074986801 1.2130772 1191497
0.11906102 0.075016834 1.2383696 1257289
-0.85660172 0.10974079 1.2314976 5658198
-0.82565975 0.11412229 1.2236619 9671571
-0.77843165 0.11461785 1.2221713 9935000
-0.74883848 0.11462835 1.2082427 4411490
0.077514395 0.10777605 1.21275 1847884
0.12139042 0.10916006 1.2335968 3689054
0.17492747 0.11428212 1.2259771 10197915
0.22487248 0.1142649 1.2259259 10197915
0.27490583 0.11424816 1.2255261 10197915
0.32512495 0.11423079 1.225516 10197915
0.37512922 0.11421382 1.225288 10197915
0.4249132 0.11419684 1.2251081 10197915
0.47488558 0.11417989 1.2248802 10197915
0.52504677 0.11416282 1.2247 10197915
0.57509094 0.11414577 1.2245139 10197915
0.6250186 0.11412854 1.2244633 10197915
0.67493135 0.11411174 1.2241489 10197915
0.7250334 0.11409465 1.2239695 10197915
0.77511793 0.1140776 1.2237831 10197915
0.82498705 0.11406048 1.2236893 10197915
0.87494165 0.11404359 1.2234184 10197915
0.92498201 0.11402653 1.2232382 10197915
0.96462089 0.11400097 1.2311689 10197915
-0.8880713 -0.56123823 1.2794722 2894892
0.14501603 -0.55535448 1.2530012 3359060
0.17785645 -0.55971164 1.2727002 3556438
0.21198547 -0.56431204 1.2931739 3753816
-0.8856082 -0.52487189 1.2754431 2894892
0.14482042 -0.52507144 1.2529294 3228247
0.17479913 -0.52499616 1.2709177 3359832
0.21158502 -0.5249871 1.2929915 3557209
-0.88527519 -0.47482023 1.2749923 2894892
0.14483486 -0.47498253 1.2530122 3031382
0.17482623 -0.47499445 1.2710102 3162711
0.21160649 -0.47497427 1.2930808 3294296
-0.88471127 -0.42495447 1.2741563 2894892
0.14484163 -0.42494512 1.2530905 2702932
0.17483538 -0.42499864 1.2710885 2768468
0.21162573 -0.42501155 1.2931664 2834260
-0.88428986 -0.37487501 1.2735578 2894892
0.14484824 -0.37501615 1.2531705 2506068
0.17484176 -0.37499592 1.271168 2506068
0.21162555 -0.37501442 1.2932408 2571604
-0.8837958 -0.32484543 1.2728374 2894892
0.14486276 -0.32502338 1.2532538 2045519
0.17485549 -0.32498696 1.2712522 1979726
0.21163382 -0.32501072 1.2933208 2045519
-0.88337499 -0.27487063 1.2722394 2894892
0.14462197 -0.27430591 1.253185 1650763
0.17485331 -0.27500758 1.2713244 1716813
0.21166879 -0.27497262 1.293417 1783119
-0.88386786 -0.2237922 1.273167 2894892
0.14432786 -0.22494091 1.2530824 1849425
0.17487876 -0.22502169 1.2714151 1783632
0.21166347 -0.22498427 1.2934879 1849168
-0.88583302 -0.17494655 1.2765421 2894892
0.14433366 -0.17495917 1.2531615 1783632
0.17488602 -0.17500547 1.2714945 1718096
0.21120414 -0.17518486 1.2932874 1717840
-0.88534462 -0.12495799 1.2758311 2894892
0.14432566 -0.12486811 1.25323 1652047
0.17491004 -0.1250066 1.2715825 1586511
0.21111414 -0.12496044 1.2933078 1586511
-0.8849715 -0.074915908 1.2753133 2894892
0.14434178 -0.07482212 1.2533145 1257034
0.17492537 -0.075013429 1.2716666 1257034
0.21112217 -0.075075954 1.2933875 1257034
-0.88442606 -0.024926001 1.2745078 2894892
0.14436142 -0.024924656 1.2534014 1125705
0.17488761 -0.025002735 1.2717205 1125705
0.21111798 -0.025097312 1.2934602 1125449
-0.88402551 0.02501446 1.2739438 2894892
0.14437073 0.024926802 1.2534821 1125191
0.17489968 0.025004882 1.2718015 1125192
0.21113159 0.025099479 1.2935433 1125192
-0.88350844 0.075005695 1.2731856 2894892
0.14436959 0.074837066 1.2535563 1257290
0.17496096 0.075004473 1.2719129 1257289
0.21116284 0.075090952 1.2936367 1192010
-0.87291735 0.11238085 1.2772329 8158332
-0.82542741 0.11455685 1.2739664 10132122
-0.79061776 0.11456324 1.2615962 9343123
0.14442196 0.10703794 1.253636 1124935
0.17574856 0.10793168 1.2711427 2111056
0.21758671 0.11012825 1.2856508 5003882
0.27512369 0.11417288 1.2759435 10197915
0.32529035 0.1141559 1.2756914 10197915
0.37517908 0.114139 1.2754385 10197915
0.42505011 0.11412192 1.2753118 10197915
0.47504097 0.11410486 1.2751522 10197915
0.52501506 0.11408788 1.2749313 10197915
0.5751068 0.11407092 1.2746787 10197915
0.6250509 0.11405376 1.2745813 10197915
0.6749807 0.11403681 1.2743608 10197915
0.72502834 0.11401976 1.2741702 10197915
0.77492881 0.11400274 1.2740109 10197915
0.82481289 0.1139859 1.2737284 10197915
0.87494689 0.11396886 1.2735097 10197915
0.92506593 0.11395165 1.2734092 10197915
0.97490722 0.11393446 1.2733716 10197915
1.0102903 0.11390781 1.2830303 10197915
-0.86519372 -0.60131282 1.3469096 2039583
0.29732767 -0.60061979 1.3443301 4280412
0.30351183 -0.60165113 1.3480397 4214877
-0.9058277 -0.5706566 1.3214444 2039583
-0.87970388 -0.57399565 1.3382388 2039583
0.23666632 -0.56760955 1.3079782 3885401
0.27569315 -0.57274467 1.3313897 4017242
0.3032243 -0.5750621 1.3479066 4083036
-0.90584499 -0.5250302 1.3211799 2039583
-0.88024247 -0.52499616 1.3379816 2039583
0.23622452 -0.52502489 1.3077761 3688538
0.27456364 -0.52500075 1.3307825 3754330
0.30324379 -0.52494937 1.3479937 3754330
-0.90583116 -0.47501424 1.321125 2039583
-0.88027352 -0.47500277 1.3380215 2039583
0.23623334 -0.4750376 1.3078572 3360088
0.27457646 -0.47498459 1.3308669 3360088
0.30325732 -0.47494194 1.3480762 3294296
-0.905788 -0.42500117 1.3210957 2039583
-0.88029736 -0.42501691 1.3380666 2039583
0.23625226 -0.42501926 1.3079454 2834260
0.27459213 -0.42500338 1.3309494 2834260
0.30327123 -0.42492849 1.3481594 2834261
-0.9057681 -0.37502351 1.3210249 2039583
-0.88032901 -0.37500548 1.3381164 2039583
0.23627679 -0.37499487 1.3080329 2637396
0.27462083 -0.37501544 1.3310424 2637140
0.30331364 -0.37490848 1.3482597 2571860
-0.90573889 -0.32501715 1.3210136 2039583
-0.8803553 -0.32499105 1.338166 2039583
0.23627755 -0.32496411 1.3081086 2045519
0.27464139 -0.32500774 1.3311306 2045776
0.30332732 -0.32499325 1.3483428 2111569
-0.90572023 -0.27501267 1.3209599 2039583
-0.88060582 -0.2751255 1.338086 2039583
0.23630357 -0.27497527 1.3081995 1782862
0.27464542 -0.27500716 1.331205 1848398
0.30320099 -0.27607822 1.3483402 1848655
-0.90577924 -0.22537169 1.321354 2039583
-0.88083005 -0.22497945 1.3379627 2039583
0.23630007 -0.22500549 1.3082712 1849425
0.27465031 -0.22500013 1.3312846 1849425
0.30271423 -0.22507995 1.3481247 1849169
-0.90605515 -0.17505209 1.3222225 2039583
-0.88086456 -0.17496853 1.3380475 2039583
0.23581442 -0.17487055 1.3080535 1717840
0.27467173 -0.17498665 1.3313733 1717840
0.30273375 -0.17482521 1.3482114 1717839
-0.90604067 -0.1249298 1.3222388 2039583
-0.8808713 -0.12500262 1.3381102 2039583
0.23575586 -0.12504256 1.3080961 1586511
0.27470931 -0.12499458 1.3314679 1586510
0.30276763 -0.12484066 1.3483065 1586254
-0.90602463 -0.075046152 1.3222321 2039583
-0.88096964 -0.074977532 1.338116 2039583
0.23571767 -0.074955463 1.3081492 1322826
0.27476206 -0.075009741 1.3315752 1257034
0.30275786 -0.07513652 1.3483748 1257034
-0.90603948 -0.025164556 1.322238 2039583
-0.88088477 -0.024948483 1.3382365 2039583
0.23579666 -0.024931742 1.3082669 1125705
0.27471095 -0.025005646 1.3316216 1125705
0.30279189 -0.025139207 1.3484702 1125705
-0.9060393 0.025164573 1.3222384 2039583
-0.88091344 0.02494962 1.3382816 2039583
0.2358118 0.024933862 1.308352 1125191
0.2747283 0.025007823 1.3317046 1059655
0.30281135 0.025141375 1.3485574 1125448
-0.90601701 0.075045459 1.3222229 2039583
-0.88106161 0.074985355 1.338253 2039583
0.23576871 0.074946895 1.3084041 1257290
0.27481294 0.075010918 1.3318306 1125447
0.30281624 0.075151525 1.348635 1059655
-0.90594375 0.10751854 1.3218596 2565927
-0.87937689 0.10856562 1.3357364 3487029
-0.83480579 0.11448529 1.3241013 9671830
0.23606329 0.10749559 1.3083225 1585483
0.27548152 0.10839948 1.3289801 2767956
0.32047105 0.11256861 1.3291701 8159367
0.37524253 0.1140669 1.3237588 10197915
0.42494574 0.11405002 1.3235283 10197915
0.47504479 0.11403308 1.3232636 10197915
0.52513075 0.11401594 1.3231323 10197915
0.57506335 0.11399891 1.3229696 10197915
0.62511963 0.11398205 1.3226362 10197915
0.6751582 0.11396484 1.322574 10197915
0.7250486 0.11394787 1.3223426 10197915
0.77505761 0.11393099 1.3220788 10197915
0.82505423 0.11391386 1.3219478 10197915
0.87503427 0.11389697 1.321684 10197915
0.92513645 0.11387975 1.3215868 10197915
0.97495019 0.11386288 1.3213562 10197915
1.0230703 0.11384407 1.3227842 10197915
1.0567827 0.11381169 1.3366722 10197915
-0.85488564 -0.60269189 1.3530946 2039583
-0.84700763 -0.60378462 1.3578212 1974049
0.33234277 -0.60543317 1.3653342 4280412
0.37139106 -0.61066777 1.3887578 4149084
-0.85504621 -0.5745095 1.3530359 2039583
-0.84690893 -0.57580268 1.3579158 1974049
0.32801738 -0.57498902 1.3627841 4083035
0.36967582 -0.57498437 1.3877822 3819866
-0.85491621 -0.52498329 1.3531734 2039583
-0.84676033 -0.52493578 1.3580706 1974048
0.32806534 -0.52501374 1.3628873 3688794
0.36972156 -0.5249784 1.3878847 3491673
-0.85495567 -0.47497675 1.3532145 2039583
-0.84664381 -0.47418255 1.3582052 1908513
0.32805794 -0.47501546 1.3629591 3228503
0.36972958 -0.47500432 1.387964 3162968
-0.85498393 -0.4249236 1.353264 2039583
-0.84640503 -0.4249638 1.3584126 1843236
0.32808256 -0.42499319 1.3630483 2834261
0.36974901 -0.42502543 1.3880497 2768468
-0.85500318 -0.37495255 1.3533196 2039583
-0.84645474 -0.37503049 1.3584462 1908772
0.32811525 -0.37499896 1.3631424 2571604
0.36979887 -0.37499967 1.3881552 2440276
-0.8550337 -0.32502243 1.3533618 2039583
-0.84644848 -0.32502285 1.3585145 1908772
0.32813692 -0.3250154 1.36323 2045776
0.36980847 -0.32500762 1.3882357 1914191
-0.85529125 -0.27451697 1.3532696 2039583
-0.84651464 -0.27494365 1.3585395 1908771
0.3279683 -0.27486312 1.3632039 1783119
0.36981291 -0.27502847 1.3883132 1717326
-0.85547763 -0.22496799 1.3532234 2039583
-0.84651661 -0.22506897 1.3586019 1908770
0.32753462 -0.22499035 1.3630183 1783633
0.36941785 -0.22523355 1.3881513 1718096
-0.85554826 -0.17507927 1.3532463 2039583
-0.84656185 -0.17498258 1.3586385 1908514
0.32751879 -0.17502767 1.3630835 1652304
0.36919519 -0.17500578 1.3880925 1652303
-0.85556567 -0.12498685 1.3533039 2039583
-0.84658331 -0.12496131 1.3586901 1908513
0.32754397 -0.12502521 1.363173 1454925
0.3692396 -0.12498254 1.3881932 1389389
-0.85557085 -0.075049296 1.3533581 2039583
-0.84661222 -0.074866727 1.3587372 1974049
0.32761386 -0.074983016 1.3632905 1257034
0.36929807 -0.074994281 1.388303 1257034
-0.85563165 -0.025152277 1.3533864 2039583
-0.84664154 -0.02476868 1.3587842 1974049
0.32757947 -0.024985904 1.363345 1125705
0.36920941 -0.025001036 1.388325 1060169
-0.85566121 0.025153449 1.3534359 2039583
-0.84667015 0.024769807 1.3588305 1974048
0.32760021 0.024988035 1.3634312 1059655
0.36923417 0.024982611 1.3884153 1125448
-0.85565937 0.075057305 1.353501 2039583
-0.8464424 0.075591378 1.3590322 1908514
0.32767668 0.074981399 1.3635528 1191753
0.3693575 0.074968107 1.3885635 1191754
-0.85569388 0.10710274 1.3535199 2039583
-0.84630573 0.1075482 1.3591499 2105894
0.32827109 0.10766591 1.3631232 1847884
0.37186956 0.10901215 1.3835728 3689310
0.42511594 0.11397251 1.3754568 10197915
0.47505191 0.11395537 1.3753657 10197915
0.52497095 0.11393841 1.3751254 10197915
0.57487524 0.11392141 1.374956 10197915
0.62476581 0.11390463 1.3746376 10197915
0.67506629 0.1138874 1.3745095 10197915
0.72506988 0.11387038 1.374301 10197915
0.77477175 0.11385357 1.374022 10197915
0.82488757 0.11383638 1.3739328 10197915
0.87498587 0.11381941 1.373686 10197915
0.92507005 0.11380229 1.3735216 10197915
0.97513938 0.11378546 1.3731996 10197915
1.0250545 0.11376862 1.3729181 10197915
1.0711174 0.11374728 1.3765205 10197915
1.1042072 0.11371084 1.3932632 10197915
0.39465043 -0.61382258 1.4027107 3951964
0.42587706 -0.61799681 1.4214442 3754587
0.46171796 -0.6227904 1.4429417 3491416
0.39458972 -0.57499164 1.4027319 3622744
0.42433691 -0.57500833 1.4205794 3425368
0.46147844 -0.57497239 1.4428704 3228246
0.39461958 -0.52496487 1.4028254 3425881
0.42437002 -0.52500087 1.4206736 3360088
0.46149275 -0.52501839 1.442953 3097174
0.39464509 -0.47501433 1.4029149 3097432
0.42436513 -0.47498605 1.4207499 2966103
0.46152636 -0.47505715 1.4430479 2834260
0.39466098 -0.4249745 1.4029994 2637396
0.42442104 -0.42498222 1.4208579 2571604
0.46157172 -0.42501563 1.4431502 2440275
0.3946816 -0.37501135 1.4030862 2440275
0.42443216 -0.37498856 1.4209371 2374483
0.46158248 -0.37500453 1.4432318 2308947
0.39470699 -0.32504168 1.4031761 1848398
0.42446092 -0.32497126 1.4210309 1848654
0.46110666 -0.32533699 1.4430196 1782862
0.39474624 -0.27498296 1.4032747 1717069
0.42447779 -0.2749652 1.4211177 1651277
0.46091083 -0.27499151 1.4429779 1585741
0.39429662 -0.22421473 1.4030806 1718096
0.42454126 -0.22496904 1.4212296 1454156
0.46092126 -0.22502936 1.443059 1520205
0.39409891 -0.17495926 1.4030358 1586767
0.42455408 -0.17498341 1.4213088 1388876
0.46099353 -0.17506057 1.4431772 1322827
0.39412382 -0.12497888 1.403126 1389389
0.42459005 -0.12499114 1.421409 1389133
0.46100894 -0.125045 1.4432617 1389132
0.39414921 -0.074992038 1.4032161 1191498
0.42463154 -0.074992687 1.4215095 1191498
0.46098605 -0.07514488 1.4433229 1191241
0.39417437 -0.024998762 1.4033055 1060169
0.42457014 -0.02500589 1.4215456 1125705
0.46107513 -0.025115898 1.4434507 1191497
0.39419967 0.025000906 1.4033961 1059912
0.42459959 0.02499116 1.4216371 1125448
0.46110451 0.025118064 1.4435427 1125704
0.39422515 0.075006962 1.403486 1257546
0.42471129 0.074990846 1.4217807 1257546
0.46107 0.075120039 1.4435984 1257545
0.39424118 0.10699073 1.4035436 1190726
0.42556748 0.10778401 1.4210224 2176848
0.46718624 0.10982865 1.4354407 4872553
0.52488136 0.11386547 1.4240578 10197915
0.57494509 0.11384848 1.4238451 10197915
0.62499076 0.11383145 1.4236324 10197915
0.67521793 0.11381421 1.4235324 10197915
0.72543335 0.11379732 1.4232051 10197915
0.77524006 0.11378023 1.4231068 10197915
0.82502866 0.11376347 1.4227822 10197915
0.87500292 0.1137465 1.4225696 10197915
0.92495894 0.11372951 1.4223572 10197915
0.97490299 0.11371253 1.422145 10197915
1.0248291 0.11369557 1.4219326 10197915
1.0747437 0.11367861 1.4217205 10197915
1.116666 0.11365902 1.425135 10197915
0.49323511 -0.6520682 1.4618106 3360088
0.52963966 -0.65700257 1.4836478 3228503
0.55362028 -0.66017443 1.4980334 3097174
0.48688322 -0.62498295 1.4580402 3294295
0.52523434 -0.62508458 1.4810534 3162710
0.55361336 -0.62513548 1.4980816 2965589
0.48688886 -0.57498407 1.4581181 3228246
0.52526087 -0.57499981 1.4811437 2965332
0.55362427 -0.57505512 1.498163 2899539
0.48691532 -0.52497959 1.4582083 3096918
0.52529436 -0.52500427 1.4812393 2834260
0.55369461 -0.52497029 1.49828 2768468
0.48695573 -0.47496882 1.4583079 2768468
0.52533323 -0.47500226 1.4813365 2571347
0.55372 -0.47503269 1.4983702 2505554
0.48700681 -0.42498517 1.4584125 2374483
0.52534038 -0.42501289 1.4814143 2242641
0.55373102 -0.42493477 1.4984518 2177105
0.48700222 -0.37499541 1.4584843 2243154
0.52541333 -0.37499821 1.4815336 1914190
0.5534814 -0.37667093 1.4983743 1914191
0.48648697 -0.32474267 1.4582511 1782863
0.52541524 -0.32499638 1.4816103 1782862
0.55302334 -0.3252342 1.4981763 1783119
0.48612195 -0.27529225 1.4581057 1585997
0.52521992 -0.27485654 1.4815679 1585741
0.55307186 -0.27518192 1.4982804 1585997
0.48557168 -0.22501455 1.4578507 1454156
0.52471399 -0.22500484 1.4813381 1322314
0.55308139 -0.22492248 1.4983615 1256521
0.48563805 -0.17506339 1.4579653 1256778
0.52475232 -0.17499037 1.4814372 1256265
0.55312985 -0.17506427 1.4984648 1190728
0.48567581 -0.12507242 1.4580624 1323340
0.52477217 -0.12500644 1.4815228 1323340
0.55317855 -0.12519874 1.4985683 1323084
0.48571566 -0.074906848 1.4581622 1191241
0.52415097 -0.075104423 1.4812251 1191241
0.55244976 -0.074369676 1.4982076 1190985
0.48569018 -0.024905 1.4582207 1125961
0.52404869 -0.025027042 1.4812387 1059656
0.55243981 -0.02482844 1.4982755 1191241
0.48572111 0.024907107 1.4583153 1125704
0.52408248 0.025029209 1.4813342 1059398
0.5524748 0.024830546 1.4983709 993349
0.485809 0.074921809 1.4584409 1191753
0.5241732 0.075030029 1.4814636 1191496
0.55249566 0.074963801 1.4984585 927043
0.4860898 0.10750253 1.458125 1848140
0.52498269 0.10836267 1.4779537 3031640
0.56899023 0.11202896 1.4767647 7765380
0.62614 0.11375482 1.4747409 10197915
0.67477202 0.11373611 1.476002 10197915
0.72480685 0.1137191 1.4757862 10197915
0.77512878 0.11370216 1.4754671 10197915
0.82498169 0.11368503 1.4753878 10197915
0.87496912 0.11366804 1.4751717 10197915
0.92509544 0.11365138 1.4747113 10197915
0.97505391 0.11363384 1.4748706 10197915
1.0249959 0.11361734 1.4743659 10197915
1.0749273 0.11360034 1.4741459 10197915
1.1251435 0.11358318 1.4740218 10197915
1.1656874 0.113553 1.4848291 10197915
0.58017373 -0.66361004 1.5139616 3031381
0.62149256 -0.66932207 1.5387472 2768467
0.57855737 -0.6249156 1.5130481 2899796
0.61991858 -0.62490475 1.5378695 2702675
0.57859868 -0.57499111 1.5131489 2702674
0.61996454 -0.57496911 1.5379719 2637139
0.57862306 -0.52507871 1.5132393 2702676
0.61992449 -0.52492082 1.5380234 2505811
0.57786673 -0.47501254 1.5128599 2440019
0.61919856 -0.47501525 1.5376617 2243154
0.57790816 -0.42499569 1.5129606 2111568
0.61922377 -0.42500868 1.5377514 2045776
0.5775792 -0.37476918 1.5128368 1848655
0.61929768 -0.37499586 1.5378712 1848655
0.57716799 -0.32499141 1.5126659 1783119
0.61930877 -0.32500318 1.5379522 1783119
0.57720298 -0.27499101 1.5127631 1585741
0.61936623 -0.2750037 1.5380619 1585997
0.57725585 -0.22500648 1.5128675 1256264
0.61939341 -0.2249984 1.5381528 1256521
0.57727528 -0.17501634 1.5129529 1190472
0.61942393 -0.17495953 1.5382452 1190728
0.57730943 -0.12497342 1.5130498 1323083
0.61878127 -0.12507886 1.5379348 1191498
0.57730579 -0.075040437 1.5131241 1190985
0.61862153 -0.07487943 1.5379148 1190985
0.57745886 -0.025077209 1.5132875 1191497
0.61874324 -0.024878757 1.5380615 1191497
0.57749581 0.025079349 1.5133852 993862
0.61878258 0.024880869 1.5381597 1059398
0.5774079 0.075031988 1.5134082 926787
0.6187405 0.074894376 1.5382103 860994
0.57815695 0.107784 1.5122523 2308433
0.62102652 0.10869178 1.5345696 3360090
0.67471308 0.11365177 1.5325521 10197915
0.72476608 0.11363482 1.5323235 10197915
0.77480018 0.11361782 1.5320944 10197915
0.82482296 0.11360084 1.5318657 10197915
0.87482697 0.11358391 1.5316366 10197915
0.92502952 0.11356664 1.5315486 10197915
0.97521698 0.11354981 1.5311772 10197915
1.0251766 0.11353283 1.5309485 10197915
1.0751246 0.11351593 1.5307201 10197915
1.1250541 0.11349897 1.5304918 10197915
1.1749724 0.113482 1.5302631 10197915
1.2118552 0.11345647 1.538819 10197915
0.68846476 -0.70323849 1.5788845 2505298
0.71301126 -0.70652032 1.5936091 2373969
0.64518505 -0.67167515 1.5529608 2768467
0.67505789 -0.67469251 1.570883 2637139
0.71218079 -0.67494911 1.5931584 2440018
0.64451265 -0.6250127 1.5526274 2505297
0.67484367 -0.62497121 1.5708271 2373968
0.71219349 -0.62492824 1.5932397 2242640
0.64456892 -0.5750913 1.5527357 2571347
0.67490488 -0.57503325 1.5709387 2308433
0.71227258 -0.5749529 1.5933625 2111311
0.64461035 -0.52494925 1.5528361 2440019
0.67495388 -0.52502108 1.5710449 2308690
0.71205473 -0.52532661 1.5933063 2177361
0.64464796 -0.47490779 1.5529335 2177361
0.67499655 -0.47502458 1.5711436 2177361
0.71143126 -0.47495604 1.5930072 2111312
0.64468223 -0.42496693 1.5530288 1980240
0.6750139 -0.42499995 1.5712297 1914448
0.7115047 -0.42504582 1.5931259 1848655
0.64471614 -0.37502033 1.5531234 1783119
0.67509061 -0.37496808 1.5713505 1783119
0.71155071 -0.3750191 1.5932286 1782862
0.64477593 -0.32496038 1.553234 1717583
0.67511433 -0.32497567 1.5714387 1585483
0.71156406 -0.32498592 1.5933115 1322056
0.64483553 -0.27489275 1.5533452 1585741
0.67517793 -0.2749764 1.5715525 1454155
0.71162611 -0.27505708 1.593423 1322056
0.64486939 -0.22492622 1.5534402 1387850
0.67478019 -0.22521332 1.5713876 1454412
0.71122086 -0.22455411 1.5932564 1520204
0.64490372 -0.17495368 1.5535347 1322570
0.6743595 -0.17498553 1.5712101 1257034
0.71083021 -0.17500016 1.5930954 1388876
0.6441434 -0.12478399 1.5531543 1455182
0.67438012 -0.12491773 1.5712984 1389645
0.71084642 -0.12505193 1.5931801 1455182
0.64412642 -0.07528685 1.5532181 1389132
0.67454875 -0.07491307 1.571475 1389132
0.71088511 -0.075148724 1.5932773 1454668
0.64416778 -0.025097057 1.5533186 1191240
0.67443061 -0.024974421 1.5714769 1257033
0.71097064 -0.025084591 1.5934039 1322825
0.64420968 0.02509921 1.5534177 1059655
0.67447257 0.024976542 1.5715771 1125191
0.71043801 0.024621936 1.5931581 1191240
0.64425111 0.07530193 1.5535179 795201
0.67467773 0.074928008 1.5717751 860994
0.71013623 0.075184472 1.5930537 927300
0.64427716 0.10684261 1.5535809 926529
0.67539293 0.10738015 1.5714477 1781834
0.71593088 0.10947303 1.5862722 4477284
0.77497089 0.11355317 1.5754118 10197915
0.82509285 0.11353651 1.5749453 10197915
0.87520766 0.11351948 1.5747097 10197915
0.92497987 0.11350243 1.5745908 10197915
0.97473699 0.11348575 1.5742414 10197915
1.0251285 0.11346849 1.5741193 10197915
1.0751826 0.11345153 1.573884 10197915
1.1248927 0.11343481 1.5735348 10197915
1.1749177 0.11341785 1.5732995 10197915
1.2237246 0.11340022 1.5737917 10197915
1.2614872 0.11335761 1.5935887 10197915
0.7374773 -0.7097826 1.6082853 2111568
0.77687788 -0.71506524 1.6319207 2046032
0.80358136 -0.71798962 1.6479398 2046032
0.73673469 -0.67498189 1.607891 2242640
0.7749272 -0.67497915 1.6308092 2045776
0.80358374 -0.67501503 1.6480054 1914190
0.73678184 -0.62496668 1.6079946 2176847
0.77500618 -0.62499744 1.6309313 1914189
0.80367053 -0.62498653 1.6481322 1848654
0.73685706 -0.57494557 1.6081148 2045518
0.77506262 -0.57503462 1.6310399 1914190
0.8037045 -0.57495153 1.6482278 1782861
0.7365849 -0.52464437 1.6080264 2111825
0.77507764 -0.52501518 1.6311245 1980240
0.80373836 -0.52491128 1.6483231 1914704
0.73601663 -0.47499985 1.6077605 2046033
0.77515703 -0.47498986 1.6312461 2046033
0.80382532 -0.47486153 1.64845 1980496
0.7360636 -0.42493847 1.6078628 1848655
0.77470899 -0.42524609 1.6310524 1848655
0.80324817 -0.42321867 1.6481805 1717583
0.73611772 -0.37500349 1.60797 1782862
0.77429181 -0.3750146 1.6308767 1717326
0.80296588 -0.37501359 1.6480832 1651534
0.7361486 -0.32501802 1.6080636 1321800
0.77435386 -0.32501054 1.630989 1321800
0.80299801 -0.32502186 1.6481777 1256264
0.73619902 -0.27498141 1.6081696 1387849
0.7743966 -0.27500078 1.6310894 1322313
0.80240113 -0.27654099 1.6478925 1322057
0.7362594 -0.22498278 1.6082805 1520204
0.77443409 -0.22501062 1.6311874 1585997
0.80215311 -0.22482222 1.6478206 1520204
0.73630947 -0.17497881 1.6083843 1388619
0.77454013 -0.17501317 1.6313249 1388619
0.80216908 -0.17500433 1.6479048 1323083
0.7362752 -0.1249675 1.6084391 1323340
0.77452838 -0.12498365 1.631394 1323340
0.80223829 -0.12494397 1.6480211 1388876
0.73650539 -0.074991763 1.6086527 1389132
0.77451932 -0.075001627 1.6314622 1323082
0.80228955 -0.075107656 1.6481267 1323082
0.73637003 -0.025017131 1.6086453 1257033
0.77472192 -0.025010878 1.63166 1191240
0.80234092 -0.025264906 1.648232 1190983
0.7357986 0.02539286 1.6083786 1191240
0.7747733 0.025013031 1.6317644 1125447
0.8023929 0.025267096 1.6483389 1125191
0.73573714 0.075000711 1.6084154 861251
0.77468771 0.074990548 1.6317883 860737
0.80244404 0.07512264 1.6484443 795201
0.7357291 0.10741625 1.6077143 1781065
0.77560508 0.10829508 1.6276566 3030613
0.82033682 0.11199437 1.6266811 8159623
0.87494129 0.11345149 1.6203731 10197915
0.92514884 0.11343443 1.6201302 10197915
0.97512239 0.11341781 1.619717 10197915
1.0248564 0.11340068 1.6196477 10197915
1.0747942 0.11338349 1.6195713 10197915
1.1247222 0.11336682 1.6191641 10197915
1.1748587 0.11334983 1.6189215 10197915
1.2249764 0.1133328 1.6186788 10197915
1.2705441 0.11330494 1.6268011 10197915
1.3010094 0.11327872 1.6373044 10197915
0.82791442 -0.71803939 1.6625413 2046032
0.8697713 -0.71812606 1.6876577 1914703
0.8279314 -0.67499697 1.6626159 1914447
0.86982483 -0.67505854 1.687753 1914447
0.82801408 -0.62500405 1.6627409 1782861
0.86989218 -0.62503463 1.6878682 1782861
0.82805461 -0.57497483 1.6628391 1848654
0.86992812 -0.57503933 1.6879652 1717069
0.82811427 -0.52496988 1.6629505 1914704
0.86999327 -0.52507246 1.68808 1717070
0.82813799 -0.4750216 1.6630394 1980497
0.87006897 -0.47502938 1.6882004 1717326
0.82818085 -0.42503449 1.6631387 1717583
0.87008744 -0.42498007 1.688287 1717582
0.82828254 -0.37501049 1.6632757 1651790
0.86938459 -0.37523645 1.6879377 1651790
0.82831234 -0.32501152 1.663368 1256264
0.86921763 -0.32501704 1.6879126 1256264
0.82766676 -0.27478328 1.6630558 1322313
0.8692463 -0.27501816 1.6880062 1256520
0.82743192 -0.22498961 1.6629889 1520204
0.86933196 -0.22501217 1.6881325 1586253
0.82750827 -0.17497611 1.6631092 1323083
0.8693375 -0.17503734 1.6882097 1388875
0.82755727 -0.12498716 1.6632144 1389388
0.86948836 -0.12505537 1.6883751 1454924
0.82757699 -0.074900858 1.6633013 1323082
0.86939031 -0.075179204 1.6883929 1257546
0.82764083 -0.024899935 1.6634142 1125191
0.86958218 -0.025183842 1.6885808 1059398
0.82769513 0.02490204 1.6635209 1059654
0.8696382 0.025186034 1.6886886 1059655
0.82773429 0.074885808 1.6636193 860481
0.86955899 0.075194225 1.6887159 794944
0.82851654 0.10731068 1.663368 1715528
0.87233311 0.10873286 1.6837686 3688027
0.92485893 0.11334728 1.6786637 10197915
0.97501338 0.11333058 1.678228 10197915
1.0249186 0.11331362 1.6779728 10197915
1.0748131 0.11329672 1.6777271 10197915
1.1249229 0.11327948 1.6776605 10197915
1.1750116 0.11326312 1.6770376 10197915
1.2250931 0.11324554 1.6771581 10197915
1.2751538 0.11322889 1.6767226 10197915
1.3194538 0.11320443 1.6828344 10197915
0.89529932 -0.71808439 1.7029767 1783375
0.92551547 -0.7182048 1.7211076 1651533
0.96212262 -0.71860474 1.7430741 1520204
0.89535373 -0.67494369 1.7030737 1783117
0.92519277 -0.67531908 1.7209784 1717325
0.96138138 -0.67451125 1.7426951 1651788
0.8954106 -0.62502843 1.7031829 1717069
0.92457867 -0.62505341 1.7206844 1717581
0.96081692 -0.62513387 1.7424303 1783374
0.89549124 -0.57496876 1.7033055 1651276
0.92463952 -0.5750038 1.7207971 1717325
0.96082217 -0.57503372 1.7425088 1914703
0.8955372 -0.52504104 1.7034084 1519948
0.92466366 -0.52497929 1.7208849 1585740
0.96097499 -0.52499372 1.7426748 1651789
0.89558297 -0.47510755 1.7035104 1388363
0.92479342 -0.47494873 1.7210391 1454155
0.96098524 -0.47501215 1.7427554 1454155
0.8956641 -0.4250274 1.7036331 1651790
0.92483681 -0.42497241 1.7211396 1585998
0.96103519 -0.42502493 1.7428612 1585997
0.89483684 -0.37425861 1.7032135 1651789
0.92482054 -0.374991 1.7212043 1520204
0.9611032 -0.37502983 1.7429758 1322570
0.89478111 -0.32494053 1.7032547 1256264
0.92495269 -0.3250027 1.7213583 1256264
0.96115386 -0.32496387 1.7430819 1190471
0.89475185 -0.27485937 1.7033112 1256520
0.92501694 -0.27500769 1.7214727 1256520
0.96124935 -0.27495611 1.7432131 1191240
0.8941859 -0.22607395 1.7030441 1586253
0.92429328 -0.22473781 1.7211119 1520460
0.96131581 -0.22500929 1.7433282 1454924
0.89387816 -0.17496522 1.7029366 1389131
0.92407984 -0.17498389 1.7210579 1388875
0.96131527 -0.17505449 1.7434024 1388875
0.8939358 -0.12488234 1.7030455 1389132
0.92407215 -0.12508138 1.7211293 1323338
0.96048594 -0.12515984 1.7429794 1323338
0.89399272 -0.074792996 1.703155 1191753
0.92413497 -0.075025022 1.7212425 1257289
0.96041298 -0.075099029 1.7430115 1191496
0.89405054 -0.024697216 1.7032644 993862
0.9243108 -0.024960497 1.7214223 993862
0.96047467 -0.025275148 1.7431229 993605
0.89410722 0.024699299 1.7033719 1059654
0.92437088 0.024962645 1.7215326 1059398
0.96050912 0.025206495 1.743219 1059398
0.89416498 0.07480789 1.7034816 860737
0.92433059 0.075010397 1.7215842 794944
0.96062678 0.075040355 1.7433635 729408
0.89420104 0.1065699 1.7035514 794686
0.92515796 0.10726032 1.7213864 1650249
0.96703029 0.1092185 1.7375695 4674918
1.0248582 0.11323614 1.7299858 10197915
1.0748675 0.11321915 1.7297276 10197915
1.1252142 0.11320233 1.7293161 10197915
1.1751949 0.11318549 1.7290533 10197915
1.2247961 0.11316844 1.7289518 10197915
1.2747457 0.11315157 1.728693 10197915
1.3250351 0.1131347 1.7282826 10197915
1.3639539 0.11311571 1.7320068 10197915
0.98602521 -0.71788865 1.7574179 1520204
1.0246415 -0.71820539 1.7805898 1454411
1.0542179 -0.71820819 1.7983376 1388618
0.98574507 -0.67507428 1.7573138 1585739
1.0246774 -0.67507303 1.7806752 1388105
1.0542762 -0.67503387 1.7984372 1322312
0.98583794 -0.62506098 1.757444 1783374
1.0247545 -0.62507659 1.7807986 1651789
1.0543438 -0.6251539 1.7985522 1585996
0.98590058 -0.57498187 1.7575572 1848910
1.024829 -0.57501012 1.780918 1717581
1.0533594 -0.57570535 1.7980354 1717324
0.98595047 -0.52495629 1.7576621 1651532
1.0248892 -0.52503288 1.7810292 1520203
1.0533468 -0.52479935 1.7981042 1519947
0.98601365 -0.4749856 1.7577745 1388363
1.0249205 -0.47501764 1.7811204 1388106
1.0533799 -0.47492498 1.7981986 1256520
0.98610604 -0.42506757 1.7579051 1520204
1.0241148 -0.42515886 1.7807132 1388362
1.0524894 -0.42371851 1.7977412 1322569
0.98613483 -0.37502375 1.7579962 1256520
1.0239863 -0.37496176 1.7807108 1190214
1.0523615 -0.37512571 1.7977369 1124422
0.98620611 -0.32497227 1.7581145 1190471
1.0239959 -0.32498592 1.780791 1124678
1.0524749 -0.32499325 1.7978798 1058886
0.98625875 -0.27497622 1.7582208 1190727
1.0241182 -0.27500275 1.7809381 1190727
1.0524963 -0.27511221 1.7979677 1125191
0.98634577 -0.22503285 1.7583485 1520460
1.0240897 -0.22497997 1.7809979 1454667
1.052587 -0.22496861 1.7980968 1454410
0.98633182 -0.17508423 1.7584144 1388874
1.0242151 -0.17495155 1.7811482 1388874
1.0526541 -0.17506956 1.7982121 1323338
0.98559451 -0.12484556 1.758047 1323338
1.0243193 -0.1249489 1.7812816 1323338
1.0527219 -0.12516397 1.7983273 1257544
0.98536199 -0.074795395 1.757983 1191240
1.0242707 -0.075075962 1.7813305 1191239
1.052789 -0.075252146 1.798442 1125446
0.98551333 -0.024764618 1.7581464 993605
1.0244823 -0.025094032 1.7815318 993605
1.0528564 -0.025333837 1.7985576 993605
0.9855752 0.024766734 1.7582601 1059397
1.0245483 0.025096167 1.7816455 1059397
1.0518734 0.024645323 1.7980422 1059140
0.98555088 0.074810289 1.7583195 795200
1.0244672 0.07509093 1.7816726 794943
1.0518433 0.07523831 1.7980998 794173
0.98618704 0.10695968 1.7586524 1387848
1.0255142 0.10784362 1.7792759 2768468
1.0701312 0.11176717 1.7787676 8291208
1.125121 0.1131369 1.7732024 10197915
1.1752708 0.11311969 1.7730999 10197915
1.2250395 0.11310289 1.7728342 10197915
1.275151 0.11308615 1.7724057 10197915
1.3252591 0.11306895 1.7723033 10197915
1.3753421 0.11305226 1.7718751 10197915
1.4094723 0.11302373 1.7831006 10197915
1.0785676 -0.71832275 1.8129483 1323082
1.1199956 -0.71838534 1.8378077 1322825
1.0786285 -0.6750896 1.813051 1322312
1.120065 -0.6748901 1.8379149 1322825
1.078639 -0.62509722 1.8131311 1585995
1.1201491 -0.62485486 1.8380404 1454410
1.077637 -0.57493812 1.8126049 1717324
1.1201785 -0.57499319 1.8381327 1783116
1.0776502 -0.52500987 1.8126879 1454154
1.1202933 -0.52499002 1.8382765 1454154
1.0777609 -0.47500134 1.812829 1388105
1.1199186 -0.4753004 1.8381258 1388105
1.0777845 -0.42498687 1.812919 1256776
1.1192049 -0.42498636 1.8377731 1190470
1.077836 -0.37500542 1.8130231 1190470
1.119288 -0.37499794 1.8378972 1256519
1.0779383 -0.32501811 1.8131597 1058628
1.1193662 -0.32500374 1.8380187 1058372
1.0780001 -0.27498373 1.813273 1125191
1.1194321 -0.27500185 1.838133 1124934
1.0780834 -0.22498344 1.8133972 1323081
1.1194619 -0.22504219 1.8382263 1323081
1.0780941 -0.17497621 1.8134791 1323081
1.1196208 -0.1750758 1.8383958 1323080
1.0782593 -0.1249629 1.8136516 1257545
1.1196635 -0.12505452 1.8384964 1257288
1.0781926 -0.074825071 1.8136858 1125190
1.1196296 -0.075172976 1.8385507 1125189
1.078361 -0.024838375 1.8138622 993604
1.119827 -0.025138117 1.8387448 993348
1.0773346 0.024899719 1.8133208 993604
1.1199002 0.025140293 1.8388628 1058883
1.0772297 0.074826784 1.8133332 728637
1.1198323 0.075140469 1.8388977 728379
1.0781894 0.10727014 1.8129497 1979468
1.122232 0.10856047 1.8326951 3886174
1.1749775 0.11305095 1.8192793 10197915
1.2249126 0.11303433 1.8188307 10197915
1.2748346 0.11301719 1.8187361 10197915
1.3247408 0.11300059 1.8182875 10197915
1.3746321 0.11298344 1.8181932 10197915
1.4215989 0.11296511 1.8195702 10197915
1.452296 0.11293951 1.8296045 10197915
1.1454099 -0.71818286 1.8530589 1322825
1.1749845 -0.71847111 1.8708044 1322825
1.2114702 -0.7184304 1.8926988 1257288
1.1454736 -0.67484516 1.8531619 1454153
1.1750411 -0.67491227 1.8709043 1322824
1.2115499 -0.67490524 1.8928119 1322824
1.1455472 -0.62498206 1.8532808 1454410
1.1751311 -0.62488157 1.8710322 1454409
1.2116009 -0.62493253 1.892917 1454153
1.1456203 -0.57511222 1.8533994 1783116
1.1751812 -0.57496017 1.8711373 1651531
1.2116693 -0.575041 1.8930334 1520202
1.1457034 -0.52504432 1.8535234 1519690
1.1752673 -0.52499413 1.8712643 1454154
1.2118093 -0.5250566 1.893191 1388104
1.1452595 -0.47373205 1.8533344 1322569
