# .PCD v0.7 - Point Cloud Data file format
VERSION 0.7
FIELDS x y z rgb
SIZE 4 4 4 4
TYPE F F F U
COUNT 1 1 1 1
WIDTH 1213
HEIGHT 1
VIEWPOINT 0 0 0 1 0 0 0
POINTS 1213
DATA ascii
2.5240231 -1.4250475 3.6703966 2039583
2.5751705 -1.4249769 3.664489 2039583
2.6254365 -1.4250646 3.6586812 2039583
2.6752138 -1.4248943 3.6529315 2039583
2.2851758 -1.3758118 3.698308 2039583
2.3248551 -1.3748336 3.6937313 2039583
2.3742752 -1.3750223 3.6880209 2039583
2.4250829 -1.3751035 3.6821513 2039583
2.475333 -1.374812 3.6763475 2039583
2.5246959 -1.3751558 3.6706419 2039583
2.5746553 -1.3749785 3.6648724 2039583
2.6254351 -1.3749847 3.6590061 2039583
2.6761837 -1.3750767 3.6531425 2039583
2.7023156 -1.3730843 3.6501362 2039583
2.2870784 -1.3254389 3.6984153 2039583
2.3244691 -1.3250599 3.6940985 2039583
2.374351 -1.3251325 3.6883349 2039583
2.4260449 -1.3248858 3.6823647 2039583
2.474988 -1.3249158 3.6767094 2039583
2.5242536 -1.3251538 3.6710169 2039583
2.5755906 -1.3249958 3.6650867 2039583
2.6257093 -1.3249861 3.6592989 2039583
2.6756699 -1.3249772 3.6535268 2039583
2.7038355 -1.3233355 3.6502831 2039583
2.2883241 -1.2755646 3.6985948 2039583
2.324826 -1.2750242 3.6943817 2039583
2.3750849 -1.2749922 3.6885757 2039583
2.4252057 -1.2753166 3.6827841 2039583
2.4751132 -1.2746804 3.677022 2039583
2.5251424 -1.2750837 3.6712406 2039583
2.575074 -1.2749782 3.6654718 2039583
2.626055 -1.2748967 3.6595838 2039583
2.6761246 -1.2754922 3.6537948 2039583
2.7047091 -1.2715567 3.6505179 2039583
2.2896636 -1.2261391 3.6987598 2039583
2.3253367 -1.2248948 3.6946476 2039583
2.3745582 -1.225073 3.6889598 2039583
2.4249406 -1.2248518 3.6831408 2039583
2.47435 -1.2250843 3.6774304 2039583
2.524642 -1.2250618 3.6716211 2039583
2.5760157 -1.2249808 3.6656871 2039583
2.625757 -1.2251713 3.6599391 2039583
2.6746089 -1.2248013 3.6542985 2039583
2.7053888 -1.2239841 3.6507478 2039583
2.2914846 -1.1757337 3.6988766 2039583
2.3249469 -1.1751846 3.695015 2039583
2.3754921 -1.1747528 3.6891775 2039583
2.4248388 -1.1750351 3.6834755 2039583
2.4740911 -1.1751481 3.6777854 2039583
2.5255792 -1.1749781 3.6718366 2039583
2.5754974 -1.1749451 3.6660707 2039583
2.6251602 -1.1749802 3.6603343 2039583
2.6739542 -1.1750264 3.6546965 2039583
2.7068608 -1.174117 3.6509004 2039583
2.2928233 -1.1254761 3.6990476 2039583
2.32567 -1.1248651 3.6952569 2039583
2.3753195 -1.1249933 3.6895201 2039583
2.4247789 -1.1251197 3.6838045 2039583
2.4749124 -1.1249746 3.6780157 2039583
2.5250337 -1.125021 3.672226 2039583
2.5761158 -1.125205 3.666321 2039583
2.6245511 -1.1246424 3.6607299 2039583
2.6742597 -1.1249033 3.6549864 2039583
2.7083445 -1.1244336 3.651051 2039583
2.2941315 -1.0766982 3.6992123 2039583
2.3255341 -1.0747296 3.6955979 2039583
2.3751454 -1.0752243 3.6898634 2039583
2.425503 -1.0748603 3.6840477 2039583
2.4744163 -1.0750983 3.6783946 2039583
2.5260091 -1.0749242 3.6724377 2039583
2.5745459 -1.074981 3.6668289 2039583
2.6242859 -1.0749671 3.661083 2039583
2.6741152 -1.0749285 3.6553259 2039583
2.7099094 -1.0746335 3.6511927 2039583
2.2943981 -1.0253524 3.6995142 2039583
2.324013 -1.0252323 3.6960945 2039583
2.37608 -1.0248823 3.690083 2039583
2.4250772 -1.0250963 3.6844189 2039583
2.47539 -1.0249151 3.6786082 2039583
2.5254853 -1.0250338 3.6728196 2039583
2.5754199 -1.0249549 3.667053 2039583
2.6238873 -1.0249819 3.6614532 2039583
2.674757 -1.0250503 3.655576 2039583
2.7112072 -1.0242203 3.65137 2039583
2.2960186 -0.97481138 3.6996548 2039583
2.3249731 -0.97480333 3.6963103 2039583
2.3743544 -0.97528428 3.6906021 2039583
2.4246774 -0.97474438 3.6847918 2039583
2.4749346 -0.97510636 3.6789834 2039583
2.525728 -0.97530156 3.6731136 2039583
2.574332 -0.97466385 3.6675041 2039583
2.6247146 -0.97502154 3.6616812 2039583
2.6744576 -0.97496879 3.6559346 2039583
2.7130699 -0.97451395 3.6514757 2039583
2.2973058 -0.92818707 3.6998084 2039583
2.3247797 -0.92501354 3.6966548 2039583
2.3748825 -0.92483801 3.6908681 2039583
2.4244101 -0.92518657 3.6851437 2039583
2.475672 -0.92490131 3.6792235 2039583
2.5246789 -0.92513335 3.6735611 2039583
2.5744081 -0.92499101 3.6678171 2039583
2.624316 -0.92501706 3.6620514 2039583
2.6752882 -0.92508096 3.6561627 2039583
2.7141502 -0.92445552 3.6516764 2039583
2.2977479 -0.8951866 3.6999712 2039583
2.3245852 -0.87521392 3.6970003 2039583
2.3748689 -0.87471205 3.6911948 2039583
2.4243977 -0.8751241 3.6854696 2039583
2.475611 -0.87500268 3.6795549 2039583
2.5251882 -0.87499267 3.6738265 2039583
2.5740976 -0.87506956 3.6681752 2039583
2.6251431 -0.8750428 3.6622796 2039583
2.6748407 -0.87497705 3.6565392 2039583
2.716063 -0.87478107 3.6517773 2039583
2.3265874 -0.82502609 3.6970949 2039583
2.3747036 -0.8252008 3.6915345 2039583
2.4250269 -0.82482058 3.6857235 2039583
2.4756036 -0.82501173 3.6798801 2039583
2.5252464 -0.82500708 3.6741457 2039583
2.5747352 -0.82500237 3.6684277 2039583
2.6247444 -0.82502037 3.6626496 2039583
2.6757829 -0.82507932 3.6567521 2039583
2.7172804 -0.82456535 3.6519616 2039583
2.3276498 -0.77541327 3.6972926 2039583
2.3756099 -0.77482343 3.691757 2039583
2.4246545 -0.77523738 3.6860878 2039583
2.4751213 -0.77503401 3.6802585 2039583
2.5242827 -0.77468604 3.674582 2039583
2.5747364 -0.77515835 3.6687498 2039583
2.625572 -0.77503181 3.6628776 2039583
2.6752617 -0.77495456 3.6571374 2039583
2.7189746 -0.77478743 3.6520891 2039583
2.3287961 -0.72565305 3.6974831 2039583
2.3754504 -0.72502625 3.6920969 2039583
2.4255445 -0.72492826 3.686311 2039583
2.4744482 -0.72517943 3.6806605 2039583
2.524332 -0.7247833 3.6748977 2039583
2.5749471 -0.72506034 3.6690509 2039583
2.6252675 -0.72516328 3.6632369 2039583
2.6762419 -0.72504336 3.6573486 2039583
2.7205098 -0.72476375 3.652236 2039583
2.3302722 -0.67565346 3.6976361 2039583
2.3746169 -0.6747523 3.6925199 2039583
2.425401 -0.67508179 3.686651 2039583
2.4753578 -0.67494428 3.680881 2039583
2.5241168 -0.67500323 3.6752458 2039583
2.5751574 -0.67495394 3.6693518 2039583
2.625905 -0.67515284 3.663486 2039583
2.6757197 -0.67490023 3.6577332 2039583
2.7220426 -0.67476434 3.6523826 2039583
2.3306274 -0.62547261 3.6979213 2039583
2.3747623 -0.62472695 3.6928263 2039583
2.4253893 -0.62497711 3.6869771 2039583
2.4752064 -0.62528467 3.6812191 2039583
2.525007 -0.62483597 3.6754689 2039583
2.5753694 -0.62484002 3.6696515 2039583
2.6258299 -0.62527531 3.6638188 2039583
2.6756694 -0.62527573 3.6580613 2039583
2.7225063 -0.62442327 3.6526566 2039583
2.3319719 -0.57563299 3.6980889 2039583
2.3746057 -0.57529259 3.6931658 2039583
2.4258528 -0.57478809 3.6872482 2039583
2.4752347 -0.57484978 3.6815424 2039583
2.524595 -0.57528424 3.675838 2039583
2.5755794 -0.57471722 3.6699514 2039583
2.6258066 -0.57554823 3.6641438 2039583
2.6744378 -0.57446527 3.6585331 2039583
2.7236271 -0.57480997 3.652848 2039583
2.3339269 -0.52505088 3.69819 2039583
2.3748019 -0.52484423 3.6934702 2039583
2.4245751 -0.52555454 3.6877155 2039583
2.4741974 -0.52473855 3.6819878 2039583
2.5253346 -0.52509636 3.6760783 2039583
2.5755804 -0.52483052 3.6702745 2039583
2.6249399 -0.52529269 3.6645696 2039583
2.6742086 -0.52482963 3.6588807 2039583
2.7241812 -0.52516252 3.653106 2039583
2.7506826 -0.51565832 3.6501052 2039583
2.3351445 -0.47512379 3.6983738 2039583
2.3749974 -0.47438845 3.693774 2039583
2.4247742 -0.47517732 3.688019 2039583
2.4740174 -0.47509921 3.6823297 2039583
2.5252788 -0.47520432 3.6764095 2039583
2.5761356 -0.47479102 3.6705365 2039583
2.6250679 -0.47514874 3.6648808 2039583
2.6740124 -0.47465912 3.6592283 2039583
2.7244034 -0.47525799 3.653403 2039583
2.7519517 -0.47135764 3.6502461 2039583
2.3365068 -0.42543629 3.6985378 2039583
2.3751876 -0.42545331 3.6940694 2039583
2.4249737 -0.4247914 3.6883221 2039583
2.4749835 -0.42482653 3.6825442 2039583
2.5254865 -0.42497697 3.6767085 2039583
2.5744421 -0.42501593 3.6710527 2039583
2.6239653 -0.42518044 3.6653306 2039583
2.6745327 -0.42468077 3.6594925 2039583
2.7246253 -0.42534491 3.6537013 2039583
2.7533665 -0.42242876 3.6503992 2039583
2.3384306 -0.37504783 3.6986432 2039583
2.3753824 -0.37498075 3.6943746 2039583
2.4248128 -0.37527692 3.6886609 2039583
2.4748008 -0.37534052 3.6828868 2039583
2.5256929 -0.37474167 3.6770096 2039583
2.5753756 -0.3748951 3.6712708 2039583
2.6241803 -0.37510046 3.6656306 2039583
2.6745183 -0.3745853 3.6598189 2039583
2.7248476 -0.37542406 3.6539993 2039583
2.7548127 -0.37333769 3.6505504 2039583
2.3397212 -0.32523984 3.6988156 2039583
2.3755784 -0.32449982 3.6946783 2039583
2.4257214 -0.32491195 3.6888821 2039583
2.4750042 -0.32501635 3.6831889 2039583
2.5256374 -0.32482323 3.6773415 2039583
2.5752211 -0.32551578 3.671608 2039583
2.624397 -0.32501242 3.6659305 2039583
2.6748967 -0.32458457 3.6600993 2039583
2.7250695 -0.32549492 3.6542964 2039583
2.7562826 -0.32382607 3.650702 2039583
2.341136 -0.27657428 3.6989677 2039583
2.375252 -0.2758705 3.6950316 2039583
2.4250145 -0.27478659 3.6892889 2039583
2.4752076 -0.2746844 3.6834919 2039583
2.5250919 -0.27471095 3.6777284 2039583
2.5741823 -0.27520254 3.6720533 2039583
2.6246088 -0.27491614 3.6662307 2039583
2.6750343 -0.27447948 3.6604075 2039583
2.7252104 -0.2754693 3.6546049 2039583
2.7577293 -0.27441159 3.6508539 2039583
2.3426805 -0.22629894 3.699116 2039583
2.3745403 -0.22505333 3.6954439 2039583
2.4243443 -0.22470312 3.689692 2039583
2.4750929 -0.22542895 3.683825 2039583
2.5248976 -0.22551915 3.6780703 2039583
2.5742357 -0.22516979 3.6723721 2039583
2.6248255 -0.22481161 3.6665301 2039583
2.6752524 -0.22445457 3.6607065 2039583
2.7255929 -0.2255322 3.6548841 2039583
2.7592242 -0.22476736 3.6510048 2039583
2.3441641 -0.17602573 3.6992698 2039583
2.3747358 -0.17454548 3.6957479 2039583
2.4245448 -0.17427388 3.6899958 2039583
2.4759152 -0.17511365 3.6840541 2039583
2.5251052 -0.17524877 3.6783731 2039583
2.5744467 -0.1749773 3.6726739 2039583
2.6250393 -0.17469884 3.666831 2039583
2.6754706 -0.17442143 3.661006 2039583
2.7255216 -0.17539439 3.6552172 2039583
2.760756 -0.17509305 3.6511505 2039583
2.3455746 -0.12742689 3.6994214 2039583
2.3749249 -0.12556025 3.6960433 2039583
2.424737 -0.1253648 3.6902897 2039583
2.4758117 -0.12516437 3.6843901 2039583
2.5253117 -0.12497021 3.6786735 2039583
2.5746565 -0.12477652 3.6729736 2039583
2.6252544 -0.124578 3.66713 2039583
2.6756897 -0.12438014 3.6613045 2039583
2.7261672 -0.12545609 3.6554673 2039583
2.7622674 -0.12537621 3.6512966 2039583
2.3470366 -0.0775401 3.6995764 2039583
2.3751216 -0.07503593 3.6963477 2039583
2.4249368 -0.074919105 3.6905944 2039583
2.4747736 -0.074959502 3.6848361 2039583
2.5242653 -0.074535705 3.6791224 2039583
2.5748687 -0.074567534 3.673274 2039583
2.6254683 -0.074448891 3.6674314 2039583
2.6759079 -0.074330613 3.6616039 2039583
2.7258735 -0.075288281 3.6558254 2039583
2.7637911 -0.075637117 3.651443 2039583
2.3484654 -0.027646264 3.6997347 2039583
2.3753183 -0.024503347 3.6966519 2039583
2.425138 -0.024465196 3.6908967 2039583
2.4748027 -0.02442717 3.6851604 2039583
2.5243137 -0.02438925 3.6794417 2039583
2.5750787 -0.024350367 3.6735768 2039583
2.6256826 -0.024311639 3.6677301 2039583
2.6761267 -0.024273004 3.6619029 2039583
2.7253919 -0.025409477 3.6562042 2039583
2.7640164 -0.025456805 3.651742 2039583
2.3498118 0.019926863 3.6998873 2039583
2.3755078 0.024505956 3.6969483 2039583
2.4253321 0.02446779 3.6911926 2039583
2.4750006 0.024429759 3.6854539 2039583
2.5245147 0.024391837 3.6797338 2039583
2.575284 0.024352955 3.6738689 2039583
2.6258929 0.024314202 3.6680217 2039583
2.6749406 0.02427664 3.6623552 2039583
2.7242141 0.025102871 3.6566682 2039583
2.7654881 0.025944922 3.651906 2039583
1.8993129 0.093058698 3.6823473 2039583
1.9257848 0.093084581 3.683372 2039583
1.9756502 0.09313333 3.6853004 2039583
2.025568 0.093182132 3.6872318 2039583
2.0755382 0.093231007 3.6891651 2039583
2.1255605 0.093279898 3.6910999 2039583
2.1756353 0.093328848 3.693037 2039583
2.2257628 0.093377843 3.6949761 2039583
2.275943 0.09342692 3.6969175 2039583
2.3261762 0.093476027 3.6988611 2039583
2.3756914 0.071991131 3.6972353 2039583
2.4255178 0.071879059 3.6914783 2039583
2.4751916 0.071767285 3.6857386 2039583
2.5247097 0.071655884 3.6800172 2039583
2.5754826 0.071541652 3.6741502 2039583
2.6258242 0.071223632 3.6683326 2039583
2.6748536 0.071530022 3.6626718 2039583
2.7236199 0.072023965 3.6570408 2039583
2.7669621 0.072902814 3.65204 2039583
1.8355411 -1.6631699 3.7483897 2039583
1.8751739 -1.6626906 3.7438145 2039583
1.9243336 -1.6613183 3.7381434 2039583
1.9736233 -1.6599528 3.7324598 2039583
2.0231519 -1.6585963 3.7267468 2039583
2.0740719 -1.6573386 3.7208712 2039583
2.125432 -1.6560261 3.7149467 2039583
2.1740022 -1.6549467 3.709343 2039583
2.2224691 -1.6535436 3.703752 2039583
2.2534242 -1.6525111 3.7001832 2039583
1.8371279 -1.6243764 3.7484579 2039583
1.8750648 -1.6252888 3.7440705 2039583
1.9249599 -1.625072 3.738307 2039583
1.9747531 -1.6249475 3.7325547 2039583
2.0244768 -1.6247333 3.7268128 2039583
2.0751543 -1.6250606 3.7209551 2039583
2.12532 -1.6250528 3.7151606 2039583
2.1742637 -1.6251068 3.7095072 2039583
2.2248137 -1.6249956 3.7036667 2039583
2.2535257 -1.6249909 3.7003498 2039583
1.8385427 -1.5750824 3.7486141 2039583
1.875293 -1.5751446 3.7443693 2039583
1.9252876 -1.5749153 3.7385948 2039583
1.9751681 -1.5747782 3.7328331 2039583
2.0243273 -1.5749962 3.7271509 2039583
2.0747781 -1.5751691 3.721323 2039583
2.1255581 -1.5751146 3.7154562 2039583
2.1748853 -1.5748887 3.7097602 2039583
2.2253821 -1.5749209 3.7039258 2039583
2.2550819 -1.5754628 3.700491 2039583
1.8399589 -1.5257573 3.7487695 2039583
1.8755964 -1.5249927 3.7446582 2039583
1.9256145 -1.5247509 3.7388823 2039583
1.9750128 -1.5249562 3.7331729 2039583
2.0241771 -1.5252489 3.7274919 2039583
2.0752113 -1.5250199 3.7215974 2039583
2.1261792 -1.5248131 3.7157109 2039583
2.175128 -1.5250202 3.7100544 2039583
2.2248936 -1.5249964 3.7043061 2039583
2.2566948 -1.5243783 3.7006357 2039583
1.8414745 -1.4763201 3.7489157 2039583
1.8758994 -1.4748342 3.7449491 2039583
1.9256245 -1.4748464 3.7392037 2039583
1.9748998 -1.475216 3.7335098 2039583
2.0246065 -1.4750507 3.7277691 2039583
2.0746105 -1.4749359 3.7219915 2039583
2.1249611 -1.4747859 3.7161767 2039583
2.1747737 -1.4752226 3.7104185 2039583
2.2253609 -1.474988 3.7045758 2039583
2.2582309 -1.4743786 3.7007823 2039583
1.8428929 -1.4269583 3.7490726 2039583
1.8761277 -1.4246662 3.7452481 2039583
1.9256094 -1.4252049 3.7395275 2039583
1.9752299 -1.425112 3.7337925 2039583
2.0251071 -1.424755 3.7280343 2039583
2.0741622 -1.42493 3.7223678 2039583
2.1244361 -1.4252512 3.7165573 2039583
2.1753049 -1.4249806 3.7106819 2039583
2.2255111 -1.4252092 3.704881 2039583
2.2590859 -1.423678 3.7010126 2039583
1.8443154 -1.377529 3.7492278 2039583
1.8760564 -1.3748482 3.7455781 2039583
1.9256194 -1.3752829 3.73985 2039583
1.9756042 -1.374911 3.7340775 2039583
2.0250759 -1.3748037 3.7283633 2039583
2.0740163 -1.3752337 3.7227066 2039583
2.1249993 -1.3749878 3.7168188 2039583
2.1757126 -1.3748207 3.7109604 2039583
2.2241046 -1.3751554 3.7053685 2039583
2.2598763 -1.3740654 3.7012432 2039583
1.8458017 -1.3266404 3.7493868 2039583
1.8762093 -1.3252997 3.745882 2039583
1.9259473 -1.3250865 3.7401371 2039583
1.9759346 -1.3247001 3.7343671 2039583
2.0249956 -1.3252063 3.728694 2039583
2.0744689 -1.3249972 3.7229791 2039583
2.1254597 -1.3248 3.7170901 2039583
2.1754618 -1.3251786 3.7113116 2039583
2.2244134 -1.3250595 3.7056577 2039583
2.2612112 -1.324196 3.7014115 2039583
1.847136 -1.2765957 3.7495561 2039583
1.875949 -1.2752956 3.7462366 2039583
1.926327 -1.2747923 3.7404199 2039583
1.9758217 -1.2749268 3.7347016 2039583
2.0251107 -1.2752405 3.7290044 2039583
2.0750144 -1.2746661 3.723243 2039583
2.1252272 -1.275104 3.7174389 2039583
2.1755912 -1.2751751 3.7116203 2039583
2.2249994 -1.2747831 3.705915 2039583
2.2624421 -1.2745966 3.7015905 2039583
1.8471451 -1.2272871 3.7498753 2039583
1.8744013 -1.2255213 3.746737 2039583
1.9259839 -1.2242626 3.7407866 2039583
1.9758216 -1.2253286 3.7350214 2039583
2.0255811 -1.224913 3.7292788 2039583
2.0748413 -1.224854 3.7235858 2039583
2.1242135 -1.2255348 3.7178783 2039583
2.1753411 -1.2244499 3.7119777 2039583
2.2247846 -1.2252009 3.7062612 2039583
2.2643478 -1.2241622 3.7016973 2039583
1.8747339 -1.1929619 3.7469099 2039583
1.9324274 -1.1811333 3.7403221 2039583
1.9759332 -1.1752701 3.7353308 2039583
2.0259271 -1.1746657 3.729564 2039583
2.0747869 -1.1753063 3.723913 2039583
2.1245055 -1.1747047 3.7181733 2039583
2.1747117 -1.1750249 3.7123713 2039583
2.2247753 -1.1752541 3.7065864 2039583
2.2656898 -1.1743015 3.7018654 2039583
1.9403744 -1.1251366 3.7397656 2039583
1.9753104 -1.1245786 3.7357349 2039583
2.0258186 -1.1249427 3.7298958 2039583
2.0750332 -1.1251246 3.7242103 2039583
2.1244755 -1.1246833 3.7185009 2039583
2.1745129 -1.1252933 3.7127173 2039583
2.2255943 -1.1247797 3.7068191 2039583
2.2669156 -1.1250474 3.7020433 2039583
1.9399656 -1.0753485 3.7401369 2039583
1.9752883 -1.0745368 3.7360611 2039583
2.0258229 -1.0753953 3.7302196 2039583
2.0757143 -1.0745846 3.7244585 2039583
2.124562 -1.0753794 3.718811 2039583
2.1752865 -1.0748094 3.7129538 2039583
2.2254157 -1.0750828 3.7071609 2039583
2.2688262 -1.0746191 3.7021492 2039583
1.940123 -1.0258476 3.7404392 2039583
1.9748203 -1.0250117 3.7364364 2039583
2.0255609 -1.0250154 3.7305744 2039583
2.0755193 -1.0246456 3.7248049 2039583
2.1243653 -1.025335 3.7191589 2039583
2.1754053 -1.0247293 3.7132652 2039583
2.2252262 -1.0252854 3.7075059 2039583
2.2700658 -1.0245987 3.7023301 2039583
1.9401492 -0.97554547 3.7407625 2039583
1.9738714 -0.97532767 3.7368655 2039583
2.0251753 -0.97465909 3.730943 2039583
2.0756862 -0.97534418 3.7251048 2039583
2.125284 -0.97459334 3.7193804 2039583
2.1753373 -0.97531635 3.713593 2039583
2.2261474 -0.97470224 3.7077272 2039583
2.2715266 -0.97534043 3.7024806 2039583
1.9405769 -0.92452025 3.7410424 2039583
1.9738086 -0.9255814 3.7371981 2039583
2.0251122 -0.92449307 3.7312772 2039583
2.0755124 -0.92547828 3.7254488 2039583
2.1250858 -0.92462248 3.7197275 2039583
2.1739044 -0.92519516 3.7140837 2039583
2.224525 -0.92483956 3.7082384 2039583
2.2731392 -0.92479962 3.7026222 2039583
1.9406034 -0.8742016 3.7413681 2039583
1.974048 -0.87520057 3.7374949 2039583
2.0251908 -0.87500912 3.7315886 2039583
2.0762136 -0.87481833 3.7256954 2039583
2.1252561 -0.87537998 3.7200265 2039583
2.1746814 -0.87460178 3.7143216 2039583
2.224386 -0.87531155 3.7085748 2039583
2.2748029 -0.87435544 3.7027574 2039583
1.9407606 -0.82466811 3.7416697 2039583
1.9747244 -0.82446408 3.7377465 2039583
2.0239959 -0.82572436 3.7320457 2039583
2.0749931 -0.82443911 3.7261634 2039583
2.1250582 -0.82539117 3.7203732 2039583
2.1745157 -0.82487184 3.7146628 2039583
2.2251191 -0.82478219 3.708818 2039583
2.2751026 -0.8253594 3.7030394 2039583
2.3008962 -0.81857318 3.7001045 2039583
1.9409175 -0.77512687 3.741972 2039583
1.9745198 -0.77432394 3.738096 2039583
2.0236917 -0.77548659 3.7324088 2039583
2.0749156 -0.7750082 3.7264922 2039583
2.1259778 -0.77462095 3.7205958 2039583
2.1745338 -0.77550071 3.7149811 2039583
2.2251556 -0.77456278 3.7091393 2039583
2.2750278 -0.77514708 3.7033744 2039583
2.3021712 -0.77214634 3.7002578 2039583
1.9410748 -0.72557735 3.7422745 2039583
1.9746796 -0.72482562 3.7383976 2039583
2.0246077 -0.72454953 3.7326317 2039583
2.0750818 -0.72566378 3.7267926 2039583
2.1257806 -0.72452474 3.7209435 2039583
2.1748109 -0.72504646 3.7152758 2039583
2.2252495 -0.72535962 3.7094481 2039583
2.2757452 -0.72459781 3.7036195 2039583
2.3035858 -0.72255993 3.7004163 2039583
1.9412322 -0.67602009 3.7425768 2039583
1.9748393 -0.67531991 3.7386992 2039583
2.0244005 -0.67428672 3.7329798 2039583
2.0748796 -0.67535424 3.7271426 2039583
2.125952 -0.67524981 3.7212434 2039583
2.1752713 -0.67450154 3.7155509 2039583
2.2250612 -0.67528433 3.7097936 2039583
2.2756591 -0.67518091 3.7039487 2039583
2.305033 -0.67280889 3.7005711 2039583
1.9413204 -0.62515211 3.7428975 2039583
1.9749987 -0.62580526 3.7390032 2039583
2.024564 -0.62484831 3.7332811 2039583
2.0744119 -0.62454265 3.7275264 2039583
2.1244395 -0.62547165 3.7217407 2039583
2.1752269 -0.62501353 3.7158763 2039583
2.2249699 -0.62495357 3.71013 2039583
2.2744493 -0.62489134 3.7044141 2039583
2.3064356 -0.62430912 3.7007229 2039583
1.9416308 -0.57405257 3.7431927 2039583
1.9747862 -0.57553786 3.7393532 2039583
2.0247269 -0.57540178 3.7335851 2039583
2.0741451 -0.57452255 3.727881 2039583
2.1251667 -0.57474595 3.7219863 2039583
2.1753173 -0.57570344 3.7161856 2039583
2.2243593 -0.57492238 3.710525 2039583
2.2749741 -0.57463527 3.7046793 2039583
2.3080142 -0.57393706 3.7008677 2039583
1.9417135 -0.52420044 3.7435074 2039583
1.9757006 -0.52449358 3.739578 2039583
2.0248058 -0.52585232 3.733897 2039583
2.0743117 -0.52514386 3.7281818 2039583
2.1250291 -0.52431911 3.7223287 2039583
2.175662 -0.52494866 3.7164743 2039583
2.2244542 -0.52567887 3.7108328 2039583
2.2747829 -0.5249514 3.7050242 2039583
2.3094594 -0.52378124 3.7010257 2039583
1.9410857 -0.47366795 3.7439067 2039583
1.9754888 -0.47411841 3.7399292 2039583
2.0249267 -0.47511414 3.7342105 2039583
2.0744801 -0.47575676 3.7284806 2039583
2.1252003 -0.47500986 3.7226274 2039583
2.1757622 -0.4742651 3.7167919 2039583
2.2248025 -0.47499344 3.7111223 2039583
2.2746942 -0.47551805 3.7053545 2039583
2.3108711 -0.47513586 3.7011771 2039583
1.9405642 -0.42503151 3.7442825 2039583
1.9756474 -0.42457202 3.740232 2039583
2.0254507 -0.42420572 3.7344811 2039583
2.0743442 -0.42525679 3.7288277 2039583
2.1250236 -0.4259572 3.7229662 2039583
2.1755617 -0.42476177 3.7171366 2039583
2.224906 -0.4243784 3.7114375 2039583
2.2754216 -0.42492059 3.7055984 2039583
2.3123903 -0.42475587 3.7013288 2039583
1.9407215 -0.37542325 3.7445853 2039583
1.9758087 -0.37501714 3.7405338 2039583
2.0253921 -0.37444323 3.7348113 2039583
2.0751374 -0.37434086 3.7290626 2039583
2.1238871 -0.37510312 3.7234271 2039583
2.1746693 -0.37579358 3.717556 2039583
2.2250862 -0.37520528 3.7117355 2039583
2.2753429 -0.37461871 3.7059343 2039583
2.3140111 -0.37416753 3.7014694 2039583
1.940879 -0.32580683 3.7448883 2039583
1.9759685 -0.32545429 3.7408378 2039583
2.0255551 -0.32495618 3.7351131 2039583
2.0749919 -0.32445961 3.7294042 2039583
2.1244981 -0.32424831 3.7236869 2039583
2.1748493 -0.32499599 3.7178652 2039583
2.2249541 -0.32555541 3.7120724 2039583
2.2755258 -0.32551441 3.7062306 2039583
2.315464 -0.32483792 3.7016203 2039583
1.9410361 -0.27618235 3.745193 2039583
1.9761283 -0.27588364 3.7411401 2039583
2.0257196 -0.27546144 3.7354145 2039583
2.07516 -0.27504024 3.7297058 2039583
2.1244488 -0.27462062 3.7240138 2039583
2.1750298 -0.27418989 3.718173 2039583
2.2257545 -0.27486196 3.7123082 2039583
2.274457 -0.27503619 3.7066805 2039583
2.3153846 -0.27463934 3.7019558 2039583
1.9406462 -0.22597177 3.7455628 2039583
1.9753066 -0.22533789 3.7415626 2039583
2.0258827 -0.22595844 3.7357149 2039583
2.0753267 -0.225613 3.7300079 2039583
2.12462 -0.22526875 3.724313 2039583
2.1752048 -0.22491534 3.718472 2039583
2.2256336 -0.22456308 3.7126484 2039583
2.2744684 -0.22422196 3.7070096 2039583
2.3173139 -0.22431695 3.7020586 2039583
1.939896 -0.17381443 3.7459867 2039583
1.9753687 -0.17459328 3.7418838 2039583
2.0260518 -0.17490003 3.7360282 2039583
2.075336 -0.17598675 3.7303259 2039583
2.1247902 -0.17590885 3.7246149 2039583
2.1753798 -0.17563297 3.7187717 2039583
2.225811 -0.17535776 3.7129476 2039583
2.2746518 -0.17509143 3.7073064 2039583
2.3185434 -0.17443031 3.70224 2039583
1.9400539 -0.12416312 3.7462904 2039583
1.9745362 -0.12437847 3.7423065 2039583
2.025564 -0.1234861 3.7364178 2039583
2.0758197 -0.12501618 3.7306006 2039583
2.1249678 -0.12499803 3.7249236 2039583
2.174207 -0.12489223 3.7192366 2039583
2.2242439 -0.12527815 3.7134528 2039583
2.2748306 -0.125953 3.7076032 2039583
2.3199797 -0.12535305 3.7023926 2039583
1.9402118 -0.074503787 3.7465947 2039583
1.973855 -0.074426495 3.7427065 2039583
2.0249276 -0.0743092 3.7368083 2039583
2.0758402 -0.074192226 3.7309318 2039583
2.1251442 -0.074078992 3.7252333 2039583
2.174298 -0.073966101 3.7195542 2039583
2.2251301 -0.074641526 3.7136793 2039583
2.2750223 -0.075270623 3.7079108 2039583
2.3214722 -0.074752264 3.702548 2039583
1.9403681 -0.024836384 3.7468984 2039583
1.9740158 -0.024810622 3.7430117 2039583
2.0250912 -0.024771513 3.7371113 2039583
2.0760074 -0.024732528 3.7312286 2039583
2.125315 -0.024694765 3.7255328 2039583
2.1744733 -0.024657128 3.7198544 2039583
2.2249191 -0.024618499 3.7140269 2039583
2.2752078 -0.024579996 3.7082176 2039583
2.3229475 -0.024220439 3.7027051 2039583
1.9405254 0.024839066 3.7472022 2039583
1.9741745 0.0248133 3.7433147 2039583
2.0244548 0.024425417 3.7375023 2039583
2.0753384 0.02508272 3.7316298 2039583
2.1254864 0.024697421 3.7258322 2039583
2.1746478 0.024659781 3.720155 2039583
2.2250984 0.024621136 3.7143254 2039583
2.2753909 0.024582613 3.7085147 2039583
2.3243783 0.024762496 3.702857 2039583
0.27866432 0.090834863 3.7161918 5131854
0.32501343 0.090879858 3.7180331 6579300
0.37604919 0.090929382 3.7200599 8158332
0.42249331 0.090974487 3.7219048 9145227
1.9406724 0.071417063 3.7474864 2039583
1.9743257 0.07134293 3.7435989 2039583
2.023952 0.071233682 3.7378662 2039583
2.0748789 0.071121551 3.7319825 2039583
2.1256468 0.071009763 3.7261157 2039583
2.1748123 0.070901506 3.7204344 2039583
2.2252653 0.070790403 3.7146046 2039583
2.2755632 0.070679672 3.7087939 2039583
2.3250055 0.070264168 3.7030795 2039583
2.3500469 0.081247605 3.7002578 2039583
1.3944359 -1.6750911 3.7992713 2960685
1.4243528 -1.6741655 3.795821 2960685
1.4739872 -1.6727835 3.7900987 2960685
1.5251309 -1.6714787 3.7841976 2960685
1.5747619 -1.6702558 3.7784712 2960685
1.6237569 -1.66912 3.7728176 3881787
1.6740172 -1.6677322 3.7670207 2039583
1.7243432 -1.6663505 3.7612159 2039583
1.7746969 -1.6650648 3.7554069 2039583
1.8105334 -1.6644483 3.751271 2039583
1.3958201 -1.6256328 3.7994316 2960685
1.4249059 -1.6251601 3.7960751 2960685
1.4744788 -1.6248851 3.7903504 2960685
1.5255156 -1.6248494 3.7844539 2960685
1.5748779 -1.6249796 3.7787516 2960685
1.6240252 -1.6251994 3.7730718 2829099
1.6746198 -1.625072 3.7672272 2039583
1.7250909 -1.6248535 3.7613981 2039583
1.7754688 -1.6248194 3.7555783 2039583
1.8121194 -1.625625 3.7513394 2039583
1.3971856 -1.5764658 3.7995932 2960685
1.4250039 -1.5752578 3.7963872 2960685
1.4746102 -1.574949 3.7906585 2960685
1.5256405 -1.5748072 3.7847645 2960685
1.5750072 -1.5750127 3.7790604 2960685
1.6242237 -1.5752167 3.7733724 2829099
1.6747679 -1.5750736 3.7675343 2039583
1.7252209 -1.5748419 3.7617071 2039583
1.7755075 -1.5747927 3.7558987 2039583
1.8134341 -1.5752968 3.7515135 2039583
1.3984993 -1.5281305 3.7997546 2960685
1.4252105 -1.5253506 3.7966876 2960685
1.4747422 -1.5250052 3.7909656 2960685
1.5257648 -1.5247564 3.7850745 2960685
1.5751351 -1.5250378 3.7793691 2960685
1.6243013 -1.525224 3.7736878 2829099
1.6749269 -1.5249765 3.7678409 2039583
1.7254376 -1.5248228 3.7620065 2039583
1.7755655 -1.525031 3.7562149 2039583
1.8149517 -1.5248567 3.7516649 2039583
1.3995183 -1.4845282 3.7999196 2960685
1.4252722 -1.4754308 3.7970033 2960685
1.4748731 -1.4750534 3.7912769 2960685
1.5258899 -1.4746977 3.7853856 2960685
1.575264 -1.4750541 3.7796783 2960685
1.6244894 -1.4752256 3.7739894 2829099
1.6750751 -1.4748716 3.7681491 2039583
1.7256233 -1.4747043 3.76231 2039583
1.7756238 -1.4752614 3.75653 2039583
1.8165606 -1.4745209 3.7518055 2039583
1.4257507 -1.4256309 3.797271 2960685
1.4750046 -1.4250927 3.791584 2960685
1.5255077 -1.4250181 3.7857502 2960685
1.5749089 -1.4247544 3.780045 2960685
1.6245787 -1.4252161 3.7743037 2829099
1.6752231 -1.4248499 3.7684555 2039583
1.7256016 -1.4247569 3.7626355 2039583
1.7757156 -1.4253011 3.7568436 2039583
1.8181188 -1.4241343 3.7519524 2039583
1.427193 -1.3752619 3.797431 2960685
1.4751805 -1.3752177 3.7918866 2960685
1.5246415 -1.3746531 3.7861781 2960685
1.5740271 -1.3751262 3.7804687 2960685
1.624755 -1.3752017 3.7746079 2829099
1.6754255 -1.3747286 3.7687564 2039583
1.7257423 -1.3749869 3.7629426 2039583
1.7759042 -1.3752422 3.7571456 2039583
1.8196571 -1.3739027 3.7521002 2039583
1.4286405 -1.3248209 3.7975905 2960685
1.4752785 -1.3253326 3.7921999 2960685
1.5247141 -1.3246628 3.7864928 2960685
1.5741564 -1.3251157 3.7807784 2960685
1.6248553 -1.3251753 3.7749202 2829099
1.6755303 -1.3245976 3.7690694 2039583
1.7258829 -1.3252071 3.7632494 2039583
1.7760923 -1.3251766 3.7574484 2039583
1.8209511 -1.3240169 3.752274 2039583
1.4301782 -1.2744198 3.7977393 2960685
1.4754879 -1.275442 3.7924984 2960685
1.524891 -1.2746692 3.786797 2960685
1.5742837 -1.2750976 3.7810872 2960685
1.6250211 -1.2751437 3.7752249 2829099
1.6756781 -1.274552 3.769377 2039583
1.7260233 -1.2754221 3.7635555 2039583
1.7762922 -1.2750108 3.7577503 2039583
1.8223803 -1.2744339 3.7524312 2039583
1.4316154 -1.2243694 3.7978976 2960685
1.4755534 -1.2255402 3.7928147 2960685
1.5249747 -1.2246636 3.7871094 2960685
1.574414 -1.225071 3.7813969 2960685
1.6251537 -1.2251954 3.7755334 2829099
1.6758265 -1.2244972 3.7696841 2039583
1.7260772 -1.2255336 3.7638736 2039583
1.7753179 -1.2250143 3.7581878 2039583
1.8225961 -1.2247027 3.752728 2039583
1.4325682 -1.1929468 3.797991 2960685
1.4742866 -1.1932192 3.79317 2960685
1.5262898 -1.1929903 3.7871637 2960685
1.5730982 -1.1929373 3.7817564 2960685
1.626485 -1.1929947 3.7755885 2829099
1.6745017 -1.1926458 3.7700438 2039583
1.7265387 -1.1928613 3.7640316 2039583
1.775242 -1.192819 3.7584043 2039583
1.8237077 -1.1924883 3.752809 2039583
0.97649306 -1.7105362 3.8473244 2960685
1.0249736 -1.7093605 3.8417311 2960685
1.0740249 -1.7083136 3.8360713 2960685
1.1237732 -1.7069192 3.8303344 2960685
1.1738583 -1.7055663 3.8245559 2960685
1.2231776 -1.7041448 3.8188684 2960685
1.2747672 -1.7028583 3.8129165 2960685
1.3248837 -1.7018523 3.8071334 2960685
1.3551906 -1.700292 3.8036423 2960685
0.97774011 -1.6753945 3.8474085 2960685
1.0247375 -1.6748337 3.8419819 2960685
1.074459 -1.675036 3.8362374 2960685
1.125345 -1.6751916 3.8303578 2960685
1.1757195 -1.6750754 3.8245389 2960685
1.224412 -1.6748723 3.8189147 2960685
1.2745887 -1.6747769 3.8131194 2960685
1.3249413 -1.6751119 3.8073003 2960685
1.3688743 -1.6751924 3.8022242 2960685
0.97952056 -1.6257141 3.8475254 2960685
1.0250229 -1.6249292 3.842274 2960685
1.0741637 -1.6248028 3.8365974 2960685
1.1252762 -1.6250098 3.8306904 2960685
1.176005 -1.6252013 3.8248296 2960685
1.2246754 -1.6250714 3.819207 2960685
1.2748284 -1.6248245 3.8134155 2960685
1.3250505 -1.6247717 3.8076141 2960685
1.370379 -1.6251904 3.8023732 2960685
0.98062664 -1.5752409 3.8477249 2960685
1.0254954 -1.5752221 3.8425412 2960685
1.0744522 -1.5749649 3.8368869 2960685
1.1249804 -1.5748161 3.8310511 2960685
1.175948 -1.5751166 3.825161 2960685
1.2248842 -1.5751638 3.8195069 2960685
1.2749658 -1.574863 3.8137226 2960685
1.3249917 -1.5746171 3.807945 2960685
1.371657 -1.574983 3.8025517 2960685
0.98178518 -1.5247749 3.8479176 2960685
1.0253735 -1.5250989 3.8428798 2960685
1.0748465 -1.5252221 3.8371639 2960685
1.1252553 -1.5249007 3.8313429 2960685
1.1758653 -1.5247257 3.8254962 2960685
1.2250937 -1.5252478 3.8198061 2960685
1.2752061 -1.5250809 3.8140185 2960685
1.3251055 -1.5247514 3.808255 2960685
1.3730948 -1.5246061 3.8027122 2960685
0.98388606 -1.4753644 3.8479946 2960685
1.0250732 -1.4747636 3.8432412 2960685
1.0748899 -1.4751674 3.8374832 2960685
1.1245259 -1.4754071 3.8317478 2960685
1.1746955 -1.4744089 3.8259583 2960685
1.2249587 -1.4750209 3.8201475 2960685
1.2754117 -1.4752897 3.8143165 2960685
1.3253282 -1.47488 3.8085532 2960685
1.3744335 -1.4743695 3.8028836 2960685
0.98503196 -1.4255416 3.8481853 2960685
1.0253761 -1.4249289 3.8435287 2960685
1.074639 -1.4248012 3.8378386 2960685
1.124311 -1.4252787 3.8320966 2960685
1.1745923 -1.4249865 3.8262899 2960685
1.2248912 -1.4246886 3.8204815 2960685
1.2755152 -1.4253041 3.8146296 2960685
1.3255019 -1.4249998 3.8088565 2960685
1.3753227 -1.4246854 3.8031032 2960685
1.4027114 -1.4090086 3.8000405 2960685
0.98647016 -1.3748974 3.8483472 2960685
1.0259045 -1.3752909 3.8437898 2960685
1.0746745 -1.3748279 3.8381584 2960685
1.1241114 -1.3749796 3.8324463 2960685
1.17494 -1.3752171 3.8265724 2960685
1.2249651 -1.3747441 3.820796 2960685
1.2754511 -1.3750286 3.8149624 2960685
1.325718 -1.3752116 3.809155 2960685
1.3754796 -1.3747506 3.8034084 2960685
1.4032714 -1.3727781 3.8002107 2960685
0.98803389 -1.3257658 3.8484852 2960685
1.025618 -1.32503 3.8441477 2960685
1.075205 -1.3252547 3.838418 2960685
1.1239115 -1.3246709 3.8327956 2960685
1.1749768 -1.3252478 3.8268926 2960685
1.2252591 -1.3249949 3.821084 2960685
1.2754661 -1.324652 3.8152874 2960685
1.3259339 -1.325416 3.8094521 2960685
1.3756257 -1.3249007 3.8037145 2960685
1.4045516 -1.32497 3.8003724 2960685
0.98930371 -1.276413 3.848659 2960685
1.025364 -1.2746614 3.8445041 2960685
1.0752405 -1.2752669 3.838738 2960685
1.1242216 -1.27496 3.8330812 2960685
1.1749034 -1.274802 3.8272266 2960685
1.2256318 -1.2753397 3.8213639 2960685
1.2746533 -1.2749752 3.8157027 2960685
1.3250275 -1.2749553 3.8098838 2960685
1.3750771 -1.2754101 3.8040986 2960685
1.4051794 -1.273591 3.8006327 2960685
0.99073815 -1.2254949 3.8488224 2960685
1.0258855 -1.2250986 3.8447642 2960685
1.0751601 -1.2246715 3.8390758 2960685
1.1247549 -1.2254468 3.8333406 2960685
1.1746564 -1.2246215 3.8275812 2960685
1.2255491 -1.225368 3.8216975 2960685
1.2741467 -1.2248405 3.8160865 2960685
1.3243995 -1.2249566 3.8102798 2960685
1.3744947 -1.2251701 3.8044915 2960685
1.4060776 -1.2247744 3.8008459 2960685
0.99210846 -1.1758718 3.8489864 2960685
1.0261077 -1.1753235 3.8450613 2960685
1.0748581 -1.1745563 3.8394349 2960685
1.1244781 -1.1753083 3.8336978 2960685
1.1750606 -1.1750077 3.8278561 2960685
1.2255595 -1.1748964 3.8220234 2960685
1.274498 -1.1752416 3.8163676 2960685
1.3245085 -1.1745394 3.8105946 2960685
1.3683494 -1.1821097 3.805481 2960685
1.4066576 -1.1933988 3.8009822 2960685
0.99354941 -1.126128 3.8491416 2960685
1.0259542 -1.1247326 3.8454077 2960685
1.0756333 -1.1252593 3.8396652 2960685
1.1245718 -1.1245778 3.8340158 2960685
1.1755705 -1.1254827 3.8281183 2960685
1.225492 -1.1245117 3.8223572 2960685
1.2746848 -1.1255325 3.8166678 2960685
1.3189257 -1.1285822 3.8115366 2960685
1.3526292 -1.1475658 3.8075204 2960685
0.99510288 -1.074839 3.8492949 2960685
1.0256393 -1.0746247 3.8457692 2960685
1.0755135 -1.0753323 3.8400025 2960685
1.1242747 -1.0745193 3.8343742 2960685
1.1752869 -1.0753698 3.8284764 2960685
1.22554 -1.0747153 3.8226745 2960685
1.2720712 -1.0777483 3.8172791 2960685
1.3049475 -1.0924592 3.8133857 2960685
0.9966656 -1.024886 3.8494382 2960685
1.0265198 -1.0253435 3.8459868 2960685
1.0755119 -1.0246059 3.8403313 2960685
1.125146 -1.0253834 3.8345926 2960685
1.1753846 -1.0246994 3.8287928 2960685
1.2250746 -1.0262743 3.8230422 2960685
1.25896 -1.0394236 3.819042 2960685
0.99808592 -0.97716546 3.8495839 2960685
1.0262052 -0.97521895 3.846348 2960685
1.0752065 -0.97465426 3.8406901 2960685
1.1248459 -0.97550637 3.8349502 2960685
1.1747202 -0.97482896 3.8291926 2960685
1.2128794 -0.98542011 3.8247161 2960685
0.99886495 -0.93848652 3.8497446 2960685
1.025351 -0.92421931 3.8467777 2960685
1.0760765 -0.92543179 3.8409095 2960685
1.1249393 -0.92474258 3.8352687 2960685
1.1651314 -0.93108571 3.830584 2960685
1.0257093 -0.87544435 3.8470514 2960685
1.0757744 -0.87526512 3.841269 2960685
1.1189468 -0.87918448 3.8362558 2960685
1.1511028 -0.8970663 3.8324254 2960685
1.0260756 -0.83586454 3.8472655 2960685
1.0758445 -0.83553481 3.8415179 2960685
1.1053356 -0.83524859 3.8381133 2960685
0.28314975 0.090164684 3.8182046 2960685
0.32600987 0.090205982 3.8199534 2960685
0.37526628 0.090253435 3.8219633 2960685
0.42457521 0.09030094 3.8239746 2960685
0.45322761 0.090328574 3.825145 2960685
0.53457022 -1.7216128 3.8983052 2960685
0.57426518 -1.721202 3.8937235 2960685
0.62455821 -1.7198207 3.8879242 2960685
0.67492545 -1.7184466 3.8821123 2960685
0.72541243 -1.71708 3.8762891 2960685
0.77607745 -1.7157227 3.8704441 2960685
0.82615322 -1.7147615 3.8646648 2960685
0.87543654 -1.7132975 3.8589809 2960685
0.92505091 -1.7119427 3.8532586 2960685
0.95224983 -1.7114973 3.8501191 2960685
0.5357393 -1.6754205 3.8984711 2960685
0.57396114 -1.6750464 3.8940558 2960685
0.62519944 -1.6749521 3.8881381 2960685
0.67592847 -1.6751543 3.8822763 2960685
0.72590083 -1.675046 3.8765039 2960685
0.7757327 -1.674839 3.8707495 2960685
0.82603496 -1.6750406 3.8649366 2960685
0.87647665 -1.6750464 3.8591094 2960685
0.92606419 -1.6750418 3.8533804 2960685
0.95334727 -1.6706177 3.8502576 2960685
0.53708649 -1.6257054 3.8986394 2960685
0.57461363 -1.6250767 3.8943038 2960685
0.62475425 -1.6249415 3.8885148 2960685
0.6752767 -1.6250138 3.8826773 2960685
0.72625965 -1.6249985 3.8767865 2960685
0.77649587 -1.6251693 3.8709826 2960685
0.82605547 -1.624836 3.8652606 2960685
0.87591082 -1.6249082 3.8594995 2960685
0.92623073 -1.624988 3.8536859 2960685
0.95454246 -1.6225711 3.8504312 2960685
0.53845692 -1.5757273 3.8988047 2960685
0.57419419 -1.5750828 3.8946803 2960685
0.62547332 -1.5750405 3.8887537 2960685
0.67568988 -1.5749828 3.8829527 2960685
0.72562176 -1.5748229 3.8771873 2960685
0.77625602 -1.5749782 3.8713357 2960685
0.8267377 -1.575133 3.8655028 2960685
0.87623513 -1.5749733 3.8597848 2960685
0.92572701 -1.5748173 3.8540688 2960685
0.95599943 -1.5743811 3.8505752 2960685
0.53985876 -1.5256807 3.8989639 2960685
0.57457846 -1.5250938 3.8949609 2960685
0.62474465 -1.5249063 3.889163 2960685
0.67593098 -1.5248407 3.8832495 2960685
0.72648001 -1.5251671 3.8774092 2960685
0.77603388 -1.5248774 3.8716865 2960685
0.82616907 -1.5250014 3.8658926 2960685
0.87669188 -1.5251344 3.8600566 2960685
0.92618626 -1.5250518 3.8543389 2960685
0.957313 -1.5247554 3.8507452 2960685
0.54132193 -1.4753982 3.8991218 2960685
0.57449692 -1.474988 3.8952937 2960685
0.62559938 -1.4750936 3.8893886 2960685
0.67535847 -1.4747753 3.8836417 2960685
0.72589606 -1.4750767 3.8778002 2960685
0.77675909 -1.4751862 3.8719251 2960685
0.82637626 -1.4749748 3.8661942 2960685
0.8761825 -1.4748693 3.8604403 2960685
0.92651433 -1.4751781 3.8546243 2960685
0.95874447 -1.4744376 3.8509059 2960685
0.54278249 -1.424805 3.8992808 2960685
0.57447231 -1.4249749 3.8956201 2960685
0.62490034 -1.4250426 3.8897917 2960685
0.67617679 -1.4250301 3.8838716 2960685
0.72614026 -1.4249932 3.878098 2960685
0.77614814 -1.4249607 3.8723211 2960685
0.82651311 -1.4254655 3.866498 2960685
0.87597489 -1.4246017 3.8607903 2960685
0.92605484 -1.4248804 3.8550031 2960685
0.96041703 -1.4247606 3.8510342 2960685
0.54441708 -1.3747745 3.8994162 2960685
0.57483536 -1.3748621 3.8958998 2960685
0.62565315 -1.3752141 3.8900263 2960685
0.67545444 -1.374943 3.8842769 2960685
0.72655654 -1.3750064 3.8783736 2960685
0.77526355 -1.3752855 3.8727441 2960685
0.8235237 -1.3746597 3.8671734 2960685
0.87539256 -1.3751482 3.8611786 2960685
0.92623901 -1.3748864 3.8553059 2960685
0.96182466 -1.3747535 3.8511953 2960685
0.54564124 -1.326553 3.8995881 2960685
0.57432556 -1.3248212 3.8962808 2960685
0.62517482 -1.325049 3.8904107 2960685
0.67631114 -1.3251852 3.8844991 2960685
0.72591066 -1.3248864 3.878773 2960685
0.77524412 -1.3250678 3.8730729 2960685
0.82349598 -1.3249635 3.8674979 2960685
0.87386227 -1.3251975 3.8616786 2960685
0.92578787 -1.3248885 3.8556821 2960685
0.96327007 -1.3236116 3.8513601 2960685
0.54688776 -1.278764 3.8997529 2960685
0.57498699 -1.274901 3.8965311 2960685
0.62540048 -1.2749914 3.890708 2960685
0.67572117 -1.2749823 3.8848937 2960685
0.72678155 -1.2751961 3.8789952 2960685
0.77470797 -1.2747705 3.8734598 2960685
0.82391828 -1.275106 3.8677733 2960685
0.87342048 -1.2748914 3.8620555 2960685
0.92487478 -1.2749257 3.8561115 2960685
0.96466142 -1.274217 3.8515191 2960685
0.54771948 -1.2376199 3.8999238 2960685
0.57441932 -1.2249422 3.8969221 2960685
0.62562621 -1.2249272 3.8910067 2960685
0.6761744 -1.2250988 3.8851652 2960685
0.72490245 -1.2251084 3.879535 2960685
0.77414203 -1.2249897 3.8738482 2960685
0.8233453 -1.2248144 3.8681664 2960685
0.87400389 -1.2252047 3.8623099 2960685
0.92471266 -1.2247446 3.8564558 2960685
0.96603769 -1.2248631 3.8516805 2960685
0.57556891 -1.175342 3.8971107 2960685
0.62524891 -1.1749381 3.8913748 2960685
0.67616737 -1.1749947 3.885489 2960685
0.72500485 -1.1751031 3.8798485 2960685
0.77362674 -1.1748949 3.8742323 2960685
0.82410598 -1.1752516 3.8683977 2960685
0.87356234 -1.1747835 3.862689 2960685
0.92516494 -1.1755325 3.8567221 2960685
0.96704882 -1.1735926 3.8518963 2960685
0.57649827 -1.1253009 3.8973279 2960685
0.62579799 -1.1250676 3.8916323 2960685
0.67581969 -1.1248719 3.8858552 2960685
0.72507358 -1.1251523 3.8801639 2960685
0.77338147 -1.1248198 3.8745844 2960685
0.82382262 -1.1251508 3.8687563 2960685
0.87373519 -1.1249698 3.8629897 2960685
0.92363918 -1.1249936 3.8572261 2960685
0.96706575 -1.1247255 3.8522108 2960685
0.57838112 -1.0751435 3.8974328 2960685
0.62524951 -1.0749555 3.8920178 2960685
0.67648596 -1.0750728 3.8860993 2960685
0.72467291 -1.0748556 3.8805361 2960685
0.77405185 -1.0751655 3.8748295 2960685
0.8234908 -1.0748388 3.8691213 2960685
0.87411678 -1.075255 3.8632686 2960685
0.92331386 -1.0747315 3.8575892 2960685
0.96891934 -1.0754496 3.8523159 2960685
0.57950741 -1.0250978 3.897624 2960685
0.62600309 -1.0250776 3.8922594 2960685
0.67583787 -1.0249227 3.8864992 2960685
0.72546291 -1.025129 3.8807669 2960685
0.77343982 -1.0248609 3.8752275 2960685
0.82435268 -1.0252578 3.8693423 2960685
0.87370801 -1.0247074 3.8636444 2960685
0.92419106 -1.0252984 3.8578088 2960685
0.97038448 -1.0246542 3.8524759 2960685
0.58130342 -0.97531515 3.897742 2960685
0.62530345 -0.97494233 3.892662 2960685
0.67669475 -0.97511601 3.8867252 2960685
0.72486633 -0.9748072 3.8811619 2960685
0.77426207 -0.97519684 3.8754537 2960685
0.8240245 -0.974729 3.8697066 2960685
0.87426925 -0.97518337 3.8638995 2960685
0.92386532 -0.97502023 3.8581715 2960685
0.97152227 -0.97459286 3.8526688 2960685
0.58250421 -0.92573774 3.8979239 2960685
0.62615919 -0.92505312 3.8928883 2960685
0.67469335 -0.92499548 3.8872845 2960685
0.72415102 -0.92490214 3.881568 2960685
0.77394295 -0.92488539 3.8758161 2960685
0.82391071 -0.92489892 3.8700423 2960685
0.87409073 -0.92532557 3.8642445 2960685
0.92354059 -0.92473203 3.858536 2960685
0.97347379 -0.92502606 3.8527648 2960685
0.58385843 -0.87590331 3.8980944 2960685
0.62540883 -0.87489671 3.8932967 2960685
0.67513138 -0.87498754 3.8875566 2960685
0.72370309 -0.87488383 3.8819451 2960685
0.77382451 -0.87497211 3.8761537 2960685
0.82433128 -0.8752805 3.870317 2960685
0.8737883 -0.87475449 3.8646059 2960685
0.9244172 -0.87527823 3.8587549 2960685
0.97372276 -0.87475955 3.8530614 2960685
1.0000945 -0.8629204 3.8500922 2960685
0.58434898 -0.83572423 3.8982997 2960685
0.62658817 -0.83628345 3.8934145 2960685
0.67487121 -0.83594543 3.8878381 2960685
0.72321051 -0.83511305 3.8822601 2960685
0.77436453 -0.8365038 3.8763394 2960685
0.82421261 -0.83544344 3.8705897 2960685
0.87421912 -0.83539689 3.8648114 2960685
0.92407525 -0.83614993 3.8590481 2960685
0.97378647 -0.83490729 3.8533125 2960685
1.0001414 -0.83424854 3.8502722 2960685
0.44210616 -1.724702 3.9089682 2960685
0.47526434 -1.7234967 3.9051461 2960685
0.51070589 -1.7228268 3.9010537 2960685
0.44214243 -1.6746366 3.9092872 2960685
0.47603327 -1.6751039 3.9053698 2960685
0.51182765 -1.6741472 3.9012399 2960685
0.44217861 -1.6245632 3.9096086 2960685
0.47533131 -1.6251713 3.9057732 2960685
0.51350558 -1.6240664 3.9013724 2960685
0.44213364 -1.5747916 3.9099369 2960685
0.47614226 -1.5751506 3.9060049 2960685
0.51448762 -1.5743148 3.9015796 2960685
0.44233504 -1.5247275 3.9102383 2960685
0.47540921 -1.5250964 3.9064159 2960685
0.51631546 -1.5245142 3.9016938 2960685
0.44216385 -1.4749196 3.9105811 2960685
0.47622022 -1.4750625 3.9066446 2960685
0.51726127 -1.4746281 3.9019065 2960685
0.44244772 -1.4248527 3.9108708 2960685
0.47546601 -1.425091 3.9070563 2960685
0.51919603 -1.4249443 3.9020045 2960685
0.44227469 -1.3753514 3.9112127 2960685
0.47631598 -1.3750441 3.9072826 2960685
0.52024758 -1.3750589 3.9022048 2960685
0.44247615 -1.3252553 3.9115148 2960685
0.47553599 -1.3250526 3.9076965 2960685
0.52221525 -1.3247546 3.9023046 2960685
0.44243124 -1.2754353 3.9118428 2960685
0.47639886 -1.2749925 3.9079216 2960685
0.52298397 -1.2746352 3.902544 2960685
0.44246745 -1.225296 3.9121628 2960685
0.47561821 -1.2249818 3.9083366 2960685
0.5250175 -1.2245539 3.9026322 2960685
0.44250372 -1.1751487 3.9124837 2960685
0.47548369 -1.1753181 3.908673 2960685
0.52410102 -1.1745412 3.9030607 2960685
0.55097032 -1.1584917 3.9000607 2960685
0.44254011 -1.1249932 3.9128048 2960685
0.47420022 -1.1251084 3.9091461 2960685
0.5243265 -1.1249287 3.9033575 2960685
0.55164021 -1.1207314 3.900228 2960685
0.44257635 -1.0748295 3.9131255 2960685
0.47484389 -1.0750128 3.9093976 2960685
0.52367365 -1.075066 3.9037538 2960685
0.55279028 -1.0738362 3.9003997 2960685
0.44261259 -1.0246575 3.9134469 2960685
0.4744018 -1.0250866 3.9097717 2960685
0.52433348 -1.0250345 3.9040053 2960685
0.55427086 -1.0245119 3.9005482 2960685
0.44264898 -0.97447723 3.9137678 2960685
0.47479817 -0.97496653 3.9100513 2960685
0.523817 -0.97505724 3.9043868 2960685
0.55582547 -0.97407138 3.9006963 2960685
0.44256172 -0.92491484 3.914099 2960685
0.47466224 -0.92503542 3.9103882 2960685
0.52436131 -0.92500699 3.9046504 2960685
0.55720723 -0.92337781 3.9008644 2960685
0.44284579 -0.874762 3.9143906 2960685
0.47470123 -0.87488621 3.9107122 2960685
0.52415824 -0.87522513 3.904995 2960685
0.55860949 -0.87329721 3.9010265 2960685
0.4427568 -0.82550716 3.9147201 2960685
0.47117844 -0.82841855 3.9114175 2960685
0.5241918 -0.83645165 3.9052417 2960685
0.55941421 -0.8353464 3.90118 2960685
0.44279313 -0.77529413 3.9150417 2960685
0.46294498 -0.77567631 3.9127111 2960685
0.44282955 -0.72507316 3.9153631 2960685
0.46203232 -0.7246629 3.9131474 2960685
0.44286576 -0.67484367 3.9156849 2960685
0.46198359 -0.67468208 3.9134762 2960685
0.28685665 -0.60468411 3.9341621 2960685
0.32738015 -0.60499215 3.9294786 2960685
0.37390673 -0.60573834 3.9240994 2960685
0.43507022 -0.61880308 3.9169483 2960685
0.46127379 -0.62592113 3.9138746 2960685
0.28687039 -0.57537353 3.9343507 2960685
0.32561392 -0.57471973 3.9298785 2960685
0.37587583 -0.57497686 3.9240706 2960685
0.42512953 -0.57485336 3.9183803 2960685
0.45894551 -0.57570952 3.9144697 2960685
0.28689396 -0.52488828 3.9346745 2960685
0.32524672 -0.5252896 3.9302421 2960685
0.3755641 -0.5251475 3.9244301 2960685
0.42552638 -0.52459008 3.9186618 2960685
0.45898318 -0.5254792 3.9147906 2960685
0.28691766 -0.47439471 3.9349999 2960685
0.32605386 -0.47489107 3.930475 2960685
0.37559518 -0.47478539 3.9247522 2960685
0.42518935 -0.4755002 3.9190192 2960685
0.45902079 -0.47524098 3.9151118 2960685
0.2869406 -0.42552203 3.9353142 2960685
0.3256934 -0.42503825 3.93084 2960685
0.37562594 -0.42441493 3.9250758 2960685
0.42558682 -0.42522201 3.9192979 2960685
0.45905861 -0.42499423 3.9154332 2960685
0.28696421 -0.37501192 3.935638 2960685
0.32547161 -0.37487751 3.9311907 2960685
0.37565586 -0.3756614 3.9253871 2960685
0.42544496 -0.37511128 3.9196398 2960685
0.45909631 -0.3747395 3.9157553 2960685
0.28698796 -0.32449353 3.9359629 2960685
0.32600585 -0.32444355 3.9314559 2960685
0.37568679 -0.32527453 3.9257109 2960685
0.42547974 -0.32479835 3.9199619 2960685
0.45913386 -0.32447633 3.9160759 2960685
0.28701088 -0.27559683 3.9362776 2960685
0.32577312 -0.27528352 3.9318016 2960685
0.37571788 -0.27487966 3.9260337 2960685
0.42551461 -0.27447709 3.9202836 2960685
0.45917156 -0.27420491 3.9163978 2960685
0.28703448 -0.2250621 3.9366021 2960685
0.32541567 -0.22511861 3.9321675 2960685
0.37508109 -0.22446014 3.9264345 2960685
0.42554858 -0.22577125 3.9205961 2960685
0.45920801 -0.22554736 3.9167085 2960685
0.28705817 -0.17451893 3.9369268 2960685
0.3242138 -0.1743287 3.9326355 2960685
0.37442771 -0.17439273 3.9268343 2960685
0.42558354 -0.17543368 3.9209182 2960685
0.45924574 -0.17525972 3.9170299 2960685
0.28708106 -0.12559839 3.9372416 2960685
0.32423973 -0.12546149 3.9329498 2960685
0.37419969 -0.1252774 3.9271801 2960685
