# .PCD v0.7 - Point Cloud Data file format
VERSION 0.7
FIELDS x y z rgb
SIZE 4 4 4 4
TYPE F F F U
COUNT 1 1 1 1
WIDTH 1169
HEIGHT 1
VIEWPOINT 0 0 0 1 0 0 0
POINTS 1169
DATA ascii
-1.0250179 0.10502287 2.0280159 2960685
-0.97311103 0.10521329 2.0174003 2960685
-0.92513508 0.10534836 2.018012 2960685
-0.8752324 0.10548133 2.0205593 6842472
-0.82480031 0.10561474 2.0233779 10197915
-0.77464563 0.10574836 2.025938 10197915
-0.72478092 0.10588221 2.0282385 10197915
-0.67478752 0.10601446 2.0310359 10197915
-0.62508142 0.10614692 2.0335739 10197915
-0.57596326 0.10633317 2.021992 10197915
-0.52481568 0.10647324 2.0236447 10197915
-0.47510397 0.10660578 2.0261643 10197915
-0.42122737 0.10677369 2.0227237 10197915
-0.37508863 0.10693009 2.0165648 10197915
-0.32536539 0.10706274 2.0190666 10197915
-0.27510709 0.10719775 2.021354 10197915
-0.22472014 0.10733124 2.0241299 10197915
-0.17504391 0.10746472 2.0263793 10197915
-0.12524495 0.10759661 2.0291345 10197915
-0.074899547 0.10773091 2.0316679 10197915
-0.026051829 0.10786538 2.0330679 10197915
0.025134496 0.10805598 2.0218859 10197915
0.075486861 0.10819037 2.0244012 10197915
0.125122 0.10832287 2.02688 10197915
0.17830509 0.10851157 2.0176373 10197915
0.22524396 0.1086479 2.0171716 10197915
0.2748805 0.10877854 2.0201237 10197915
0.32464674 0.10891335 2.0221007 10197915
0.37496096 0.10904675 2.0248411 10197915
0.42539334 0.10918239 2.0270956 10197915
0.47510317 0.1093142 2.0298073 10197915
0.52493334 0.10944823 2.0320313 10197915
0.57229578 0.10958165 2.0326235 10197915
0.62512022 0.10977223 2.0226409 10197915
0.67538464 0.10990652 2.0251157 10197915
0.7276482 0.11005973 2.0242369 10197915
0.77494544 0.11022856 2.0157709 10197915
0.82480013 0.11036281 2.017966 10197915
0.87475967 0.11049542 2.0206506 10197915
0.92442268 0.11062819 2.023078 10197915
0.97960216 0.10672149 2.0396934 10197915
1.0252016 0.10599305 2.0327523 10197915
1.0750706 0.10626975 2.0220559 10197915
1.1246247 0.10580074 2.0108628 9935001
1.1596892 0.10535128 2.0023205 9343122
0.74811167 -0.719405 2.0997405 2039583
0.7752322 -0.71947068 2.0931354 2039583
0.82503867 -0.71938121 2.0810049 2039583
0.87507892 -0.71930194 2.0688176 2039583
0.92526883 -0.71923894 2.0565948 2039583
0.95132059 -0.71943617 2.0502486 2039583
0.74896181 -0.67502224 2.0996852 1778475
0.77528751 -0.67504746 2.0932736 1778733
0.8251071 -0.67501122 2.08114 1779248
0.87512827 -0.67493492 2.0689578 1779508
0.92537528 -0.67500281 2.0567203 1780280
0.95138359 -0.6753121 2.050384 1846074
0.74901766 -0.62548584 2.0998414 1257290
0.77530843 -0.62503946 2.0934393 1257291
0.82517111 -0.62499541 2.081296 1256778
0.87474191 -0.62516892 2.0692205 1388619
0.92490286 -0.62477988 2.0570064 1651790
0.95181328 -0.62271762 2.0504591 1848912
0.74905956 -0.58811176 2.0999589 1257804
0.775002 -0.5751943 2.093684 1389133
0.82482135 -0.57477641 2.081553 1388876
0.87451816 -0.57498688 2.0694485 1520462
0.92478311 -0.57497972 2.0572062 1651791
0.95228964 -0.57511139 2.0505066 1783376
0.77469516 -0.52500111 2.0939312 1520975
0.82452118 -0.52497053 2.0817959 1520719
0.87459761 -0.52495182 2.0695999 1718096
0.92477423 -0.52501869 2.0573792 1849425
0.95236099 -0.5250302 2.0506606 1915219
0.77475339 -0.47505799 2.0940876 1586511
0.82459641 -0.4749293 2.081949 1586511
0.87460572 -0.47501606 2.0697682 1586512
0.92483896 -0.47502354 2.0575349 1586255
0.95317584 -0.47469312 2.0506337 1586512
0.77555323 -0.42503783 2.0940635 1323341
0.82465148 -0.4248808 2.0821071 1323341
0.87470639 -0.42509905 2.0699143 1323341
0.92495215 -0.4249717 2.0576768 1454670
0.9532671 -0.42480692 2.050782 1454670
0.77564019 -0.37497953 2.0942135 1059144
0.82471669 -0.37487853 2.082262 1058887
0.87478727 -0.3750948 2.070066 1124680
0.92500615 -0.37501234 2.0578349 1256779
0.9538033 -0.3733497 2.050828 1388621
0.77622503 -0.32522354 2.0942421 1125706
0.82477176 -0.32492226 2.0824189 1191242
0.87482566 -0.32503068 2.0702281 1191499
0.92515689 -0.3250213 2.0579708 1322828
0.95415181 -0.32524726 2.0509074 1323084
0.77658397 -0.274988 2.0943258 1191498
0.82486314 -0.27504024 2.0825672 1191499
0.8748129 -0.27503777 2.0704021 1191499
0.92498094 -0.27499652 2.0581841 1191499
0.95438409 -0.27456889 2.051024 1191499
0.77659273 -0.22485435 2.0944958 1059913
0.82491213 -0.22515084 2.0827258 1059914
0.87487072 -0.22506393 2.0705585 1125450
0.92526311 -0.22493942 2.058286 1389390
0.95507848 -0.22517405 2.0510235 1389390
0.77731985 -0.1747781 2.0944893 1059913
0.82492232 -0.17517203 2.0828941 1059913
0.87500995 -0.17494975 2.0706966 1125193
0.92538339 -0.17497879 2.0584271 1257548
0.95514995 -0.17505404 2.0511773 1257292
0.77760828 -0.12517783 2.094589 1059912
0.82498449 -0.1251322 2.08305 993863
0.87525332 -0.12469777 2.0708089 1059400
0.92521119 -0.12523817 2.058639 1059400
0.95577371 -0.12413046 2.0511999 1454925
0.77809858 -0.075628638 2.0946386 993092
0.82504606 -0.07508485 2.0832064 927300
0.87512827 -0.074645236 2.0710101 993350
0.92550242 -0.074930072 2.0587406 1059143
0.95605659 -0.074784607 2.0512996 1323339
0.77841765 -0.025166539 2.0947335 1191753
0.82510793 -0.025029918 2.0833623 1191753
0.87519312 -0.024883393 2.0711648 1191497
0.92488462 -0.024878105 2.0590625 1191497
0.95576251 -0.023473212 2.0515471 1191754
0.77855575 0.025081832 2.094872 1059911
0.8251701 0.02503245 2.083518 1125703
0.87525851 0.024885861 2.0713198 1125190
0.92476362 0.024740998 2.0592618 1191496
0.95619816 0.024649011 2.0516052 1257033
0.77940482 0.075407334 2.0948367 1979982
0.82523215 0.075102352 2.0836747 1782605
0.87532359 0.074662544 2.0714736 1518664
0.92495924 0.074924059 2.0593863 1518921
0.95626992 0.074801996 2.051759 1321286
-1.6554301 0.10297763 2.088784 2960685
-1.6221993 0.10311908 2.0770149 2960685
-1.5750575 0.10325499 2.0768065 2960685
-1.5249574 0.10338699 2.0797455 2960685
-1.4747374 0.10352138 2.0821645 2960685
-1.4253709 0.10371064 2.0700006 2960685
-1.374918 0.10384875 2.0716364 2960685
-1.325109 0.1039811 2.0742769 2960685
-1.2751735 0.1041138 2.0769236 2960685
-1.2251112 0.10424692 2.0795791 2960685
-1.1727167 0.10444228 2.0680664 2960685
-1.1246175 0.10457575 2.0691688 2960685
-1.0749705 0.10470881 2.0715132 2960685
-1.0251981 0.10484008 2.0743983 2960685
-0.97487676 0.10497388 2.0770459 2960685
-0.92485565 0.10510792 2.0794091 2960685
-0.8751201 0.10524012 2.0820241 7303023
-0.82810378 0.10540548 2.0741906 10197915
-0.7750147 0.10556747 2.0716796 10197915
-0.72528392 0.10569976 2.0742762 10197915
-0.67458278 0.10583465 2.0769227 10197915
-0.62460071 0.10596763 2.0795321 10197915
-0.5744766 0.10616184 2.0666671 10197915
-0.52503699 0.1062924 2.0694919 10197915
-0.47505653 0.10642751 2.0715566 10197915
-0.42494529 0.1065609 2.074152 10197915
-0.37514254 0.10669243 2.0769966 10197915
-0.32520765 0.10682637 2.0793197 10197915
-0.27515811 0.10695856 2.0821776 10197915
-0.22963864 0.10710967 2.0769265 10197915
-0.17508602 0.10728644 2.0717268 10197915
-0.12460312 0.1074209 2.0743227 10197915
-0.074852049 0.10755339 2.0768816 10197915
-0.022875246 0.10770305 2.0766962 10197915
0.024835791 0.10787883 2.0667539 10197915
0.075013064 0.10801355 2.0690565 10197915
0.12531883 0.10814662 2.0718837 10197915
0.17488426 0.10827973 2.0741456 10197915
0.22457138 0.10841108 2.0769508 10197915
0.2748169 0.10854499 2.0795159 10197915
0.32474419 0.1086791 2.0817955 10197915
0.37045276 0.10882092 2.0790293 10197915
0.42486855 0.10900537 2.0717711 10197915
0.47523534 0.10913967 2.0743234 10197915
0.52485436 0.10927196 2.076838 10197915
0.57831663 0.10943746 2.0737052 10197915
0.62506181 0.1095982 2.0668824 10197915
0.6751129 0.10973278 2.0691366 10197915
0.72485906 0.10986553 2.0716395 10197915
0.7777977 0.10645124 2.0887842 10197915
0.82525545 0.10594022 2.0809786 10197915
0.87530237 0.10544106 2.0706162 10197915
0.92426896 0.10562682 2.0596585 10197915
0.95658618 0.10552518 2.0517876 10197915
0.54579222 -0.71955574 2.1490152 2039583
0.575032 -0.71976888 2.1418917 2039583
0.62472934 -0.71976036 2.1297891 2697513
0.67459136 -0.7195636 2.1176457 2763306
0.72317582 -0.71958649 2.1058125 2039583
0.54608345 -0.67617106 2.149092 2039583
0.57499743 -0.6749438 2.1420546 2039583
0.62472636 -0.67501181 2.1299431 2697513
0.67476177 -0.67497903 2.1177568 2632236
0.72413236 -0.67499202 2.1057324 1778217
0.54667801 -0.62502956 2.1491225 2039583
0.57508123 -0.62496901 2.142205 2039583
0.62476856 -0.62496746 2.1301041 2697513
0.67467451 -0.62498719 2.11795 2239542
0.72404474 -0.62499428 2.1059248 1191498
0.54671878 -0.57521248 2.1492822 2039583
0.57514083 -0.57498765 2.1423614 2039583
0.62491065 -0.57497531 2.1302395 2697513
0.67484987 -0.57501674 2.1180778 2239285
0.72462261 -0.57478011 2.1059563 1323083
0.54744494 -0.52631813 2.1492732 2039583
0.57523078 -0.52496952 2.1425111 2039583
0.62485445 -0.52503216 2.130424 2697513
0.67478496 -0.52498156 2.1182647 2305078
0.72509432 -0.52499199 2.1060107 1520718
0.54763913 -0.47551101 2.1493993 2039583
0.57519037 -0.47497132 2.1426911 2039583
0.62491995 -0.47499469 2.1305795 2763306
0.67494041 -0.47502539 2.1183965 2371128
0.72507578 -0.47495538 2.1061864 1520718
0.54785496 -0.42754173 2.1495113 2039583
0.57526511 -0.42505622 2.1428432 2039583
0.62494904 -0.42492166 2.1307437 2763306
0.67495745 -0.42500252 2.1185651 2239799
0.72518533 -0.42502752 2.1063309 1192012
0.75084305 -0.42544836 2.10008 1257548
0.54854524 -0.37534651 2.1495218 2039583
0.57537895 -0.37507403 2.142987 2039583
0.62504917 -0.37501469 2.1308904 2763306
0.6749475 -0.37497479 2.1187375 2239542
0.72513545 -0.37506217 2.1065137 1059657
0.75089973 -0.37501442 2.100239 1059400
0.54861635 -0.32462594 2.149678 2039583
0.57540137 -0.32505566 2.1431527 2039583
0.62514091 -0.32504338 2.1310389 2763306
0.67513585 -0.32502204 2.1188638 2173750
0.72536069 -0.32500452 2.1066296 1125193
0.75153023 -0.32053214 2.1002719 1125706
0.54918265 -0.27776104 2.1496999 2039583
0.5752759 -0.27508768 2.1433544 2039583
0.62496489 -0.27503386 2.1312523 2763306
0.67497307 -0.27497825 2.1190729 2173236
0.72527528 -0.27496827 2.1068218 1059143
0.75181252 -0.27496821 2.1003587 1125962
0.54952252 -0.22444001 2.1497996 2039583
0.57533967 -0.22511201 2.1435094 2039583
0.62527353 -0.22490168 2.1313481 2763306
0.67533034 -0.22507079 2.1191566 2173750
0.72525436 -0.2249791 2.1069977 1059656
0.75194925 -0.22460133 2.100498 1059913
0.5495584 -0.18081079 2.1499398 2039583
0.57544112 -0.17501095 2.1436558 2039583
0.62526846 -0.17493714 2.1315205 2763306
0.67498475 -0.17500697 2.1194122 2173750
0.72561681 -0.175101 2.1070795 1059656
0.75272542 -0.17491055 2.1004784 1059657
0.57571113 -0.1247008 2.1437619 2039583
0.62513506 -0.12528494 2.1317227 2763306
0.67542297 -0.12497563 2.1194763 2108214
0.72545773 -0.12484245 2.1072903 993862
0.75278246 -0.12444813 2.1006374 1059399
0.57554317 -0.074610397 2.1439729 2039583
0.62538242 -0.074956633 2.1318343 2763306
0.67509711 -0.074892931 2.1197262 2173493
0.72551262 -0.075085498 2.1074474 993092
0.75337875 -0.073233098 2.1006668 993349
0.57617646 -0.025043918 2.1439896 2039583
0.62533081 -0.024731243 2.132019 2763306
0.67551225 -0.024850309 2.119797 2174006
0.72556627 -0.02532118 2.1076052 1125960
0.75369442 -0.025238886 2.1007543 1125960
0.5764643 0.024871904 2.1440887 2039583
0.62537628 0.024733696 2.1321774 2763306
0.67556298 0.024852775 2.1199548 2108213
0.72562146 0.025323762 2.107765 927812
0.75385302 0.02581141 2.1008902 927813
0.57665205 0.074492499 2.1442142 3223857
0.62556106 0.074916109 2.1323032 4539717
0.67524844 0.074910372 2.1202021 4410453
0.7256754 0.07510297 2.1079221 1913676
0.75460768 0.074851863 2.1008739 1782348
-1.6678824 0.10281484 2.1211314 2960685
-1.624863 0.10292887 2.1234837 2960685
-1.5749789 0.10306108 2.1262116 2960685
-1.524967 0.10319363 2.1289463 2960685
-1.4748256 0.10332652 2.1316879 2960685
-1.424361 0.10352442 2.1181264 2960685
-1.3752012 0.10365708 2.1202204 2960685
-1.3250666 0.10379001 2.1229393 2960685
-1.2752384 0.1039211 2.125926 2960685
-1.2252729 0.10405474 2.1283548 2960685
-1.1751914 0.10418647 2.1313539 2960685
-1.1288254 0.1043527 2.1228693 2960685
-1.0750366 0.10451797 2.1200285 2960685
-1.0245292 0.10465203 2.1227472 2960685
-0.97475123 0.10478415 2.1254265 2960685
-0.92484742 0.10491657 2.128113 2960685
-0.8748163 0.10504921 2.1308041 10197915
-0.82252735 0.10524614 2.1188083 10197915
-0.77453721 0.10537965 2.1198299 10197915
-0.72495019 0.10551246 2.122191 10197915
-0.67523426 0.10564335 2.1251342 10197915
-0.62495887 0.10577685 2.1278205 10197915
-0.57500196 0.10591064 2.1302001 10197915
-0.52869254 0.10604765 2.1291049 10197915
-0.47500098 0.10623988 2.1193359 10197915
-0.42461067 0.10637378 2.1220069 10197915
-0.37496543 0.10650568 2.1246383 10197915
-0.32519621 0.10663791 2.1272764 10197915
-0.27530399 0.10677048 2.129921 10197915
-0.22189347 0.10696249 2.1200058 10197915
-0.17513031 0.10710111 2.1188309 10197915
-0.12480885 0.10723378 2.1217611 10197915
-0.074797682 0.10736675 2.1243925 10197915
-0.025109841 0.10749995 2.1267219 10197915
0.025151456 0.10763359 2.1293654 10197915
0.075085342 0.10776526 2.1322765 10197915
0.12310228 0.10794819 2.1207302 10197915
0.17488989 0.10809448 2.1212699 10197915
0.22526102 0.10822848 2.1238999 10197915
0.27487054 0.10836045 2.1264899 10197915
0.32460123 0.10849275 2.129086 10197915
0.37892541 0.10868075 2.1208603 10197915
0.42475957 0.10882163 2.1184452 10197915
0.47448429 0.10895393 2.121022 10197915
0.52477288 0.10908891 2.1233487 10197915
0.5768311 0.10545459 2.1389174 10197915
0.62473643 0.10561655 2.1296132 10197915
0.67548817 0.10531867 2.1194608 10197915
0.72570735 0.10479905 2.1080153 10197915
0.754641 0.10444869 2.1009672 10197915
0.34311867 -0.72054571 2.1983724 2039583
0.37484252 -0.72010261 2.1906474 2039583
0.42508489 -0.7200315 2.1784115 2039583
0.4747375 -0.71993107 2.1663184 2039583
0.52049261 -0.71985799 2.1551754 2039583
0.34339735 -0.67503363 2.1984613 2039583
0.37480256 -0.67502052 2.1908102 2039583
0.4250831 -0.67501491 2.178566 2039583
0.47477868 -0.67500955 2.1664624 2039583
0.52090979 -0.6747793 2.1552279 2039583
0.3433685 -0.62498242 2.1986387 2039583
0.3749572 -0.62499183 2.1909444 2039583
0.42519009 -0.62501693 2.1787117 2039583
0.47486272 -0.6250425 2.1666136 2039583
0.52145356 -0.6249963 2.1552663 2039583
0.34432596 -0.57489884 2.1985779 2039583
0.37481105 -0.57498586 2.1911521 2039583
0.425172 -0.5749808 2.1788862 2039583
0.47491327 -0.57509851 2.1667717 2039583
0.52151245 -0.57500196 2.1554224 2039583
0.34428245 -0.52498531 2.1987581 2039583
0.37498504 -0.52503741 2.1912789 2039583
0.42512095 -0.52493525 2.1790695 2039583
0.47487453 -0.52508438 2.1669521 2039583
0.52228242 -0.52487153 2.155406 2039583
0.3446807 -0.47594121 2.1988287 2039583
0.37497512 -0.47495317 2.1914542 2039583
0.42529884 -0.47504058 2.1791975 2039583
0.47492337 -0.47500125 2.1671109 2039583
0.52244002 -0.47495234 2.1555386 2039583
0.34521568 -0.42504859 2.198873 2039583
0.37495232 -0.42495772 2.1916277 2039583
0.42519268 -0.42507473 2.179394 2039583
0.47497776 -0.42494142 2.1672692 2039583
0.52275813 -0.42476487 2.1556327 2039583
0.34531817 -0.37498635 2.1990178 2039583
0.37499306 -0.37501606 2.1917918 2039583
0.42534688 -0.37500665 2.179527 2039583
0.47507223 -0.37493658 2.167417 2039583
0.52336895 -0.37495992 2.1556544 2039583
0.34595206 -0.32624564 2.1990309 2039583
0.37510869 -0.32494235 2.1919348 2039583
0.42539197 -0.32496464 2.179687 2039583
0.47512919 -0.32495555 2.1675739 2039583
0.52341044 -0.32503632 2.1558144 2039583
0.34620935 -0.27514538 2.1991432 2039583
0.3749612 -0.27501687 2.1921418 2039583
0.425179 -0.27494401 2.1799109 2039583
0.4749772 -0.2749038 2.1677828 2039583
0.52405983 -0.27493903 2.1558278 2039583
0.34636277 -0.22602281 2.1992729 2039583
0.37527287 -0.2249622 2.1922357 2039583
0.42547119 -0.22510546 2.1800101 2039583
0.47501487 -0.22484405 2.1679444 2039583
0.52427441 -0.22508197 2.1559458 2039583
0.34713912 -0.17493601 2.1992588 2039583
0.37489626 -0.17498536 2.1924977 2039583
0.42550406 -0.1751031 2.1801727 2039583
0.47507104 -0.17490138 2.1681013 2039583
0.52452981 -0.17491254 2.1560562 2039583
0.3471652 -0.12483343 2.1994243 2039583
0.37534013 -0.12504579 2.1925585 2039583
0.42539945 -0.12468527 2.180371 2039583
0.47539029 -0.12529853 2.1681938 2039583
0.52519482 -0.12505217 2.1560645 2039583
0.34763509 -0.077263176 2.1994717 2039583
0.37494385 -0.075049117 2.192831 2039583
0.42549154 -0.075010963 2.1805177 2039583
0.47520119 -0.075460747 2.1684096 2039583
0.52523416 -0.075036734 2.1562259 2039583
0.34809482 -0.024603274 2.1995401 2039583
0.3754051 -0.025099864 2.1928885 2039583
0.42549261 -0.025295813 2.1806874 2039583
0.47523668 -0.025155269 2.1685722 2039583
0.52527308 -0.025013914 2.1563869 2039583
0.55136949 -0.017814692 2.1500564 2039583
0.34812054 0.024605678 2.199702 5855577
0.37544036 0.025071248 2.1930494 5855577
0.42552486 0.02529835 2.1808527 5197647
0.47527257 0.025157796 2.168736 2039583
0.52531272 0.02501641 2.1565485 2039583
0.55140489 0.024942696 2.1501937 2039583
0.34902424 0.074726112 2.1996534 10197915
0.37502176 0.075034991 2.1933217 10197915
0.42555651 0.074996479 2.181016 9013641
0.47533795 0.075448252 2.1688931 3684408
0.52535152 0.075054213 2.1567101 3487029
0.55170268 0.077935256 2.1503024 4342338
-1.7161831 0.10244723 2.179471 2960685
-1.6752328 0.1025936 2.1720858 2960685
-1.6251281 0.10272607 2.1749024 2960685
-1.5744672 0.10285892 2.1780379 2960685
-1.5245392 0.1029922 2.1805251 2960685
-1.4751445 0.10318649 2.1670964 2960685
-1.4249668 0.10332394 2.1687064 2960685
-1.3754948 0.1034549 2.1714549 2960685
-1.3250263 0.1035885 2.1742589 2960685
-1.275301 0.10372012 2.1770215 2960685
-1.2254488 0.10385206 2.1797915 2960685
-1.1754702 0.10398436 2.1825681 2960685
-1.1230763 0.10418312 2.170193 2960685
-1.0751051 0.10431921 2.1705413 2960685
-1.0251391 0.10445157 2.173295 2960685
-0.97505873 0.1045818 2.1766634 2960685
-0.92484307 0.1047172 2.1788223 6052956
-0.877648 0.10485074 2.1792426 10197915
-0.8251192 0.10504852 2.1672137 10197915
-0.77492219 0.10518157 2.1699584 10197915
-0.72548163 0.10531263 2.1726618 10197915
-0.67503119 0.10544633 2.1754205 10197915
-0.62445319 0.1055804 2.1781862 10197915
-0.57463664 0.10571244 2.1809103 10197915
-0.5207231 0.1058905 2.1749101 10197915
-0.47494924 0.10604468 2.1690466 10197915
-0.4247019 0.1061768 2.1720715 10197915
-0.37523022 0.10630926 2.1744454 10197915
-0.32517877 0.10644192 2.177171 10197915
-0.27456489 0.10657497 2.180217 10197915
-0.2285928 0.10672153 2.176445 10197915
-0.17428231 0.10690831 2.1685135 10197915
-0.12502396 0.10703908 2.1711652 10197915
-0.07564424 0.10717011 2.1738236 10197915
-0.02524272 0.10730386 2.1765368 10197915
0.025284776 0.10743795 2.1792564 10197915
0.075032704 0.10756998 2.1819346 10197915
0.12570049 0.10776781 2.1685393 10197915
0.17489515 0.10790209 2.1702425 10197915
0.22507691 0.10803413 2.1732278 10197915
0.27538472 0.10816892 2.1756096 10197915
0.32656714 0.10799522 2.1800218 10197915
0.37518299 0.10514385 2.1886301 10197915
0.42542976 0.10465511 2.1788988 10197915
0.4751021 0.10508473 2.1687346 10197915
0.52537519 0.10454404 2.1568065 10197915
0.55230868 0.10422603 2.1502445 10197915
0.17623119 -0.72042197 2.2390187 2565927
0.22510704 -0.72027153 2.2271149 2039583
0.27526307 -0.72022122 2.2148995 2039583
0.31845263 -0.72008288 2.2043817 2039583
0.17625873 -0.67505133 2.2391667 2565927
0.2251116 -0.67500824 2.2272694 2039583
0.27523184 -0.67497641 2.2150624 2039583
0.31873581 -0.67496002 2.2044675 2039583
0.17628093 -0.6251117 2.2393327 2565927
0.2251405 -0.62502939 2.2274327 2039583
0.27533299 -0.62497717 2.2152088 2039583
0.31874776 -0.624951 2.2046354 2039583
0.17626159 -0.57509267 2.2395084 2565927
0.22518943 -0.57501078 2.2275925 2039583
0.27539301 -0.57493937 2.2153647 2039583
0.31969324 -0.57506543 2.2045763 2039583
0.1762708 -0.52506649 2.2396772 2565927
0.22522983 -0.52495199 2.2277534 2039583
0.27534527 -0.52499002 2.2155478 2039583
0.31965849 -0.52503979 2.2047539 2039583
0.17573927 -0.47481391 2.2399783 2565927
0.22522309 -0.47488597 2.2279265 2039583
0.27539253 -0.47509918 2.2157073 2039583
0.32003167 -0.47474805 2.2048354 2039583
0.17538646 -0.42500055 2.2402346 2565927
0.22519608 -0.42491007 2.2281046 2039583
0.27541146 -0.42500618 2.2158728 2039583
0.32074234 -0.42503104 2.2048333 2039583
0.1754023 -0.37497967 2.2404017 2565927
0.22520933 -0.374993 2.2282712 2039583
0.27533686 -0.37493697 2.2160625 2039583
0.32047805 -0.37501758 2.2050683 2039583
0.17542265 -0.32498598 2.2405679 2565927
0.22523688 -0.32500267 2.2284353 2039583
0.27543014 -0.32499117 2.2162118 2039583
0.32145208 -0.32475859 2.2050018 2039583
0.17545845 -0.27505371 2.2407298 2565927
0.22527517 -0.2749719 2.2285976 2039583
0.2756516 -0.27487603 2.2163279 2039583
0.32164356 -0.27509823 2.2051258 2039583
0.17551686 -0.22518378 2.2408862 2565927
0.2253737 -0.22483627 2.228745 2039583
0.27546275 -0.22498029 2.2165449 2039583
0.3215622 -0.22498024 2.2053192 2039583
0.1755704 -0.17534077 2.2410426 2565927
0.22540484 -0.17465997 2.2289076 2039583
0.27537075 -0.17527233 2.216737 2039583
0.32268545 -0.17490599 2.2052145 2039583
0.17546764 -0.12534967 2.2412388 2565927
0.22530787 -0.12467095 2.2291036 2039583
0.27543074 -0.12503423 2.2168949 2039583
0.32251129 -0.12517416 2.2054265 2039583
0.1754808 -0.075215288 2.2414074 2500134
0.22532468 -0.074808054 2.229269 2039583
0.27571127 -0.074665017 2.2169979 2039583
0.32307875 -0.074685067 2.205462 2039583
0.17549409 -0.025073448 2.2415752 2500134
0.22534168 -0.024937667 2.2294357 2039583
0.27554569 -0.024800912 2.2172084 2039583
0.32344064 -0.02467043 2.205544 2039583
0.17550725 0.02507595 2.2417438 4868682
0.22535852 0.024940144 2.2296019 6052956
0.27556592 0.024803352 2.2173736 5987163
0.32346451 0.024672847 2.2057071 5855577
0.17552036 0.075232908 2.2419124 10197915
0.22537529 0.074825406 2.2297685 10197915
0.27575806 0.074649118 2.2174973 10197915
0.3243697 0.074930109 2.2056589 10197915
-1.7588044 0.10215978 2.2215424 2960685
-1.7253172 0.1022482 2.2234647 2960685
-1.6749855 0.10238105 2.2263539 2960685
-1.6254085 0.10251191 2.2291996 2960685
-1.5757052 0.10264312 2.2320528 2960685
-1.5249828 0.10277703 2.2349646 2960685
-1.4743916 0.10298368 2.2192652 2960685
-1.4251688 0.10311239 2.2224009 2960685
-1.3753613 0.10324395 2.2252362 2960685
-1.3254272 0.1033759 2.2280796 2960685
-1.277892 0.10351468 2.2274115 2960685
-1.2243826 0.10371505 2.2154446 2960685
-1.1744763 0.10384696 2.2182624 2960685
-1.1244423 0.10397923 2.2210877 2960685
-1.0742812 0.10411183 2.2239201 2960685
-1.0248913 0.10424241 2.2267091 2960685
-0.97537667 0.10437325 2.2295051 2960685
-0.92483366 0.10450683 2.2323582 9211020
-0.87113422 0.10467786 2.2279932 10197915
-0.82493842 0.10484155 2.2200201 10197915
-0.77486998 0.10497527 2.2224979 10197915
-0.7246846 0.10510673 2.2256362 10197915
-0.6748178 0.10523869 2.2284296 10197915
-0.62764633 0.1053736 2.2284896 10197915
-0.57468766 0.10557462 2.2159467 10197915
-0.52485085 0.10570654 2.2187159 10197915
-0.47488859 0.10583879 2.2214913 10197915
-0.42480189 0.10597138 2.2242746 10197915
-0.3755033 0.10610189 2.2270136 10197915
-0.32516643 0.10623514 2.2298102 10197915
-0.27470362 0.10636871 2.232614 10197915
-0.22104076 0.10655818 2.2235229 10197915
-0.17522518 0.10670283 2.2201247 10197915
-0.12524979 0.10683393 2.2232006 10197915
-0.075146995 0.10696792 2.2256401 10197915
-0.024924973 0.10709968 2.2287309 10197915
0.022158321 0.10723481 2.2286763 10197915
0.074381538 0.10743269 2.2164004 10197915
0.12504056 0.10756697 2.2191703 10197915
0.17558755 0.10476414 2.2379963 10197915
0.22546384 0.10431301 2.2288213 10197915
0.27461404 0.10402191 2.2178764 10197915
0.32438388 0.10417528 2.2057555 10197915
-0.064002678 -1.0137837 2.2967317 2039583
-0.025601754 -1.0117266 2.287389 2039583
0.024080496 -1.0090178 2.2753019 2039583
0.064174905 -1.0086586 2.2735279 2039583
-0.062894531 -0.97520298 2.2965863 2039583
-0.02464794 -0.97499669 2.2872746 2039583
0.025493758 -0.97503805 2.2750664 2039583
0.063124478 -0.97499251 2.2717168 2039583
-0.062821329 -0.9249987 2.2967305 2039583
-0.024609281 -0.92502254 2.2874286 2039583
0.025416868 -0.92500812 2.2752476 2039583
0.063060895 -0.92490947 2.27195 2039583
-0.062781431 -0.87496984 2.2968833 2039583
-0.024647351 -0.87500334 2.2875967 2039583
0.025463408 -0.8750087 2.275398 2039583
0.063073285 -0.87495363 2.2725332 2039583
-0.061855748 -0.82498842 2.2968187 2039583
-0.024669709 -0.82494307 2.287765 2039583
0.025467509 -0.82499969 2.275558 2039583
0.06312371 -0.82505387 2.2727757 2039583
-0.061781757 -0.77505004 2.296962 2039583
-0.024596581 -0.77498239 2.2879095 2039583
0.025432929 -0.77498502 2.2757277 2039583
0.063096777 -0.77499002 2.2731431 2039583
-0.061745074 -0.72534204 2.2971137 2039583
-0.024676085 -0.72501689 2.2880893 2039583
0.025452821 -0.724998 2.2758846 2039583
0.062093098 -0.72503608 2.2714777 2039583
-0.06095868 -0.67503583 2.297085 2039583
-0.024656976 -0.67500657 2.2882466 2039583
0.025504602 -0.67496884 2.2760327 2039583
0.062224962 -0.67511243 2.2717657 2039583
-0.060838956 -0.6248824 2.2972181 2039583
-0.024608685 -0.62502742 2.2883961 2039583
0.025382936 -0.62500173 2.2762251 2039583
0.062079437 -0.62486434 2.2720103 2039583
-0.060643177 -0.57535863 2.2973306 2039583
-0.02470755 -0.57503676 2.2885823 2039583
0.02552378 -0.57499522 2.2763522 2039583
0.062155832 -0.57491767 2.2726111 2039583
-0.060024306 -0.52519321 2.2973418 2039583
-0.024629107 -0.52497184 2.2887249 2039583
0.025439253 -0.52497721 2.2765353 2039583
0.062162042 -0.52512038 2.2728338 2039583
-0.059988324 -0.47504467 2.2974946 2039583
-0.024653945 -0.47500521 2.2888918 2039583
0.025443528 -0.47499222 2.2766967 2039583
0.062168758 -0.47474396 2.2733533 2039583
-0.059510946 -0.42536435 2.2975392 2039583
-0.024601063 -0.42499596 2.2890408 2039583
0.02558494 -0.4249948 2.276824 2039583
0.062197175 -0.42490682 2.2737193 2039583
-0.059018549 -0.37503284 2.2975821 2039583
-0.024792219 -0.37494421 2.2892492 2039583
0.025307849 -0.37502995 2.277051 2039583
0.062138505 -0.37512514 2.2740242 2039583
-0.059099227 -0.32526836 2.2977622 2039583
-0.024514077 -0.32492158 2.2893441 2039583
0.025688155 -0.32502106 2.2771196 2039583
0.062230263 -0.32501152 2.2746413 2039583
-0.058433529 -0.27549452 2.297761 2039583
-0.024712939 -0.27503648 2.289552 2039583
0.025211636 -0.27500269 2.2773974 2039583
0.062171839 -0.27520359 2.2747869 2039583
-0.058072537 -0.22466376 2.297838 2039583
-0.024800682 -0.22503406 2.289736 2039583
0.025692102 -0.22501935 2.2774429 2039583
0.061196577 -0.22480874 2.2730489 2039583
-0.058076613 -0.17517391 2.2979982 2039583
-0.024474559 -0.17488609 2.2898185 2039583
0.02521817 -0.17498164 2.2777205 2039583
0.061260607 -0.17492701 2.2734785 2039583
-0.05752917 -0.1261003 2.2980242 2039583
-0.024688616 -0.12523244 2.2900307 2039583
0.025693383 -0.12498922 2.2777653 2039583
0.061183158 -0.12511376 2.273701 2039583
-0.057072591 -0.074981429 2.2980785 2039583
-0.024690395 -0.074954875 2.2901943 2039583
0.025221743 -0.074967206 2.2780414 2039583
0.061316192 -0.075197756 2.2742732 2039583
-0.057130378 -0.024755327 2.2982545 2039583
-0.024692126 -0.024670251 2.2903566 2039583
0.02569703 -0.024965717 2.2780881 2039583
0.061203953 -0.025273215 2.2744253 2039583
-0.056380946 0.024220623 2.2982302 3158064
-0.024693877 0.024672564 2.2905166 3092271
0.02569388 0.024932984 2.2782493 3092271
0.06119616 0.025195124 2.2748291 3092271
-0.05611816 0.074822307 2.2983294 10197915
-0.02469562 0.074971415 2.2906797 10197915
0.025232714 0.074948929 2.2785239 10197915
0.0613712 0.075152501 2.2755134 10197915
-1.8119463 0.10172004 2.2946708 2960685
-1.7738063 0.1018937 2.2782946 2960685
-1.7292452 0.10203704 2.2743027 2960685
-1.6751138 0.10223293 2.2639244 2960685
-1.6246997 0.10236583 2.2668672 2960685
-1.5750585 0.10249666 2.2697651 2960685
-1.5252889 0.10262787 2.2726698 2960685
-1.4753932 0.10275939 2.2755828 2960685
-1.4253691 0.10289129 2.2785037 2960685
-1.3752176 0.10302356 2.2814326 2960685
-1.3249351 0.10315609 2.2843673 2960685
-1.2704585 0.10333383 2.2788653 2960685
-1.2249964 0.1034942 2.2711935 2960685
-1.1752102 0.10362692 2.2737296 2960685
-1.1252956 0.10375721 2.2769644 2960685
-1.076925 0.10389218 2.2778931 2960685
-1.0250201 0.10409681 2.2636645 2960685
-0.97559935 0.10422722 2.2665007 4079166
-0.92513549 0.10436042 2.269397 10197915
-0.87454349 0.10449399 2.2723012 10197915
-0.82474488 0.10462546 2.2751601 10197915
-0.77482074 0.10475724 2.2780259 10197915
-0.72477072 0.10488936 2.2808988 10197915
-0.67459416 0.10502181 2.2837794 10197915
-0.62096417 0.10519008 2.2800663 10197915
-0.57523632 0.10535894 2.2704387 10197915
-0.52509212 0.10549136 2.2733059 10197915
-0.47436351 0.10562403 2.2765346 10197915
-0.42443541 0.10575731 2.2790232 10197915
-0.37791157 0.10593297 2.2682483 10197915
-0.32577685 0.10609046 2.2661855 10197915
-0.27542394 0.10622355 2.2690291 10197915
-0.22494446 0.10635701 2.2718794 10197915
-0.17527668 0.10648829 2.274684 10197915
-0.12548538 0.10661993 2.2774959 10197915
-0.066173181 0.1051384 2.2889259 10197915
-0.024669567 0.10430562 2.288877 10197915
0.026581556 0.10404322 2.2768414 10197915
0.070140742 0.10543321 2.2705414 10197915
0.12525381 0.10735509 2.2732453 10197915
0.15150063 0.10740039 2.2808559 10197915
0.088594966 -1.0504831 2.3499858 2039583
-0.11304484 -1.0163532 2.3086636 2039583
-0.088825464 -1.0152313 2.3027709 2039583
0.082293451 -1.0201524 2.3245788 2039583
-0.11288007 -0.9748677 2.3087578 2039583
-0.087848447 -0.97480685 2.3026638 2039583
0.081798807 -0.97484779 2.3232589 2039583
-0.11288005 -0.92499024 2.3089187 2039583
-0.087811701 -0.92492765 2.3028157 2039583
0.081829995 -0.92457896 2.3241756 2039583
-0.11286697 -0.87503743 2.3090765 2039583
-0.087750688 -0.87490547 2.3029618 2039583
0.081897087 -0.87504566 2.3252299 2039583
-0.11285377 -0.82507807 2.3092349 2039583
-0.086808167 -0.82504338 2.3028939 2039583
0.081895106 -0.82508731 2.3260059 2039583
-0.11290424 -0.7749753 2.3094094 2039583
-0.086729996 -0.77504617 2.3030365 2039583
0.081944562 -0.77489918 2.3269973 2039583
-0.11354569 -0.7245124 2.3097284 2039583
-0.086726427 -0.72466946 2.3031993 2039583
0.080877043 -0.72477072 2.3233998 2039583
-0.11391421 -0.67499906 2.3099787 2039583
-0.085920826 -0.67493743 2.3031628 2039583
0.08088737 -0.67482388 2.3242257 2039583
-0.11390255 -0.62502378 2.3101368 2039583
-0.085879691 -0.62495583 2.3033152 2039583
0.080883346 -0.62483859 2.3249941 2039583
-0.11387605 -0.57497871 2.3102918 2039583
-0.085542172 -0.57457405 2.3033953 2039583
0.080972552 -0.57497662 2.326143 2039583
-0.11383983 -0.52486324 2.3104451 2039583
-0.08487384 -0.52497834 2.3033922 2039583
0.080075502 -0.52590793 2.3232296 2039583
-0.1138872 -0.47486734 2.3106184 2039583
-0.08500763 -0.47513348 2.3035867 2039583
0.079904683 -0.47546971 2.3233194 2039583
-0.11392987 -0.42505518 2.3107893 2039583
-0.084598243 -0.42476222 2.3036494 2039583
0.079885401 -0.42520061 2.3240297 2039583
-0.11393791 -0.37530065 2.3109527 2039583
-0.083966196 -0.37495151 2.3036563 2039583
0.079967946 -0.37489831 2.3251586 2039583
-0.11403477 -0.32534423 2.3111374 2039583
-0.083889678 -0.3247534 2.3037999 2039583
0.079999357 -0.32493511 2.3260727 2039583
-0.11399851 -0.27519315 2.3112905 2039583
-0.083436534 -0.27451873 2.3038514 2039583
0.079944775 -0.274939 2.3266323 2039583
-0.1139375 -0.22490925 2.3114386 2039583
-0.083049521 -0.2252582 2.3039169 2039583
0.078927971 -0.22505866 2.3232391 2039583
-0.11386206 -0.17455623 2.3115828 2039583
-0.083167776 -0.17540802 2.3041062 2039583
0.078980483 -0.17491804 2.3242414 2039583
-0.11397833 -0.12450588 2.3117726 2039583
-0.08229658 -0.12450847 2.304059 2039583
0.078954309 -0.12489814 2.3249202 2039583
-0.11398637 -0.07470867 2.3119354 2039583
-0.082105339 -0.074457861 2.3041739 2039583
0.079006091 -0.075002156 2.3259158 2039583
-0.11411298 -0.024736308 2.3121283 2039583
-0.082111135 -0.024820838 2.3043363 2039583
0.078429073 -0.026147351 2.3243127 2039583
-0.11497312 0.024909325 2.3124979 3289650
-0.081332125 0.025025722 2.3043084 3223857
0.077977709 0.025026625 2.3232627 2829099
-0.11498118 0.074732669 2.3126607 10197915
-0.081160821 0.074466571 2.304426 10197915
0.078008331 0.075106077 2.3241749 10197915
-1.8523054 0.10145647 2.3323197 2960685
-1.8246199 0.10152922 2.3339922 2960685
-1.7746949 0.10166044 2.3370085 2960685
-1.7206898 0.10185093 2.3279045 2960685
-1.6748604 0.10200327 2.3225591 2960685
-1.6249794 0.10213452 2.3255324 2960685
-1.5775265 0.10226591 2.3266957 2960685
-1.5256076 0.1024737 2.3116722 2960685
-1.4757783 0.10260486 2.3146307 2960685
-1.4258226 0.10273644 2.3175991 2960685
-1.3757377 0.10286828 2.320574 2960685
-1.3255235 0.10300045 2.3235548 2960685
-1.2751802 0.10313293 2.3265438 2960685
-1.2247075 0.10326579 2.3295407 2960685
-1.175043 0.10339652 2.3324895 2960685
-1.1252519 0.10352756 2.3354459 2960685
-1.0724839 0.10368715 2.333313 2960685
-1.0252219 0.10386848 2.3216238 2960685
-0.9750064 0.10400219 2.3242059 7631988
-0.92466688 0.10413332 2.327543 10197915
-0.87902045 0.1042882 2.3214121 10197915
-0.82523727 0.10447326 2.3135357 10197915
-0.77541244 0.10460457 2.3164442 10197915
-0.72546124 0.10473626 2.31936 10197915
-0.67538506 0.10486829 2.3222833 10197915
-0.62518156 0.10500059 2.3252141 10197915
-0.57485193 0.10513325 2.3281515 10197915
-0.52534795 0.10526376 2.3310416 10197915
-0.47572082 0.10539459 2.3339384 10197915
-0.42501184 0.10552825 2.3368983 10197915
-0.37261683 0.10573801 2.3217242 10197915
-0.3243427 0.10587004 2.3233311 10197915
-0.27511585 0.10600138 2.3257985 10197915
-0.22527927 0.10613281 2.3286972 10197915
-0.17435805 0.10634236 2.3124957 10197915
-0.11836368 0.10387771 2.3129601 10197915
-0.081164092 0.10311136 2.3045187 10197915
0.082215875 0.10491863 2.3248658 10197915
0.1254773 0.10713388 2.3297079 10197915
0.15356833 0.10720804 2.3313203 10197915
0.095399797 -1.0571755 2.3778317 2039583
0.10034284 -1.0610508 2.3980742 2039583
0.093278117 -1.0248686 2.3696237 2039583
0.10037177 -1.0245856 2.3987656 2039583
0.093314737 -0.97518438 2.3705544 2039583
0.10040776 -0.97922295 2.3996253 2039583
0.093351372 -0.92546088 2.3714859 2039583
0.093333498 -0.87511462 2.3722026 2039583
0.093425669 -0.8249253 2.3733702 2039583
0.09342546 -0.77488983 2.3741543 2039583
0.093498886 -0.7252062 2.3752372 2039583
0.093517855 -0.67509115 2.3761008 2039583
0.093554549 -0.62493902 2.377039 2039583
0.093554653 -0.57494247 2.3778248 2039583
0.092641756 -0.52467191 2.3748636 2039583
0.09251821 -0.47524178 2.3751326 2039583
0.091590852 -0.42569384 2.3721018 2039583
0.091394216 -0.37500647 2.3720901 2039583
0.091466926 -0.32501715 2.3731728 2039583
0.091447465 -0.27518186 2.3738761 2039583
0.091483757 -0.22511047 2.3748107 2039583
0.091537654 -0.1750014 2.3758197 2039583
0.091592506 -0.12505095 2.3768287 2039583
0.091628008 -0.074861206 2.377763 2039583
0.090847977 -0.023792163 2.3753607 2039583
0.090478487 0.024929794 2.3746078 2565927
0.090204783 0.073812835 2.3742514 10197915
-1.8687078 0.10125049 2.3727801 2960685
-1.8255266 0.10136379 2.3754354 2960685
-1.7747155 0.10149711 2.3785596 2960685
-1.7247155 0.10162829 2.3816338 2960685
-1.6755327 0.10175733 2.3846579 2960685
-1.6252753 0.10188919 2.3877482 2960685
-1.5716783 0.10205629 2.3843033 2960685
-1.5251588 0.10223562 2.3725986 2960685
-1.4754363 0.1023647 2.3760259 2960685
-1.4295535 0.10251403 2.3714838 2960685
-1.3753313 0.10271005 2.3611374 2960685
-1.3251847 0.10284184 2.3641665 2960685
-1.2749102 0.10297395 2.3672042 2960685
-1.2254584 0.10310391 2.3701916 2960685
-1.1749262 0.10323672 2.3732443 2960685
-1.1242647 0.10336984 2.3763051 2960685
-1.0744314 0.10350081 2.3793154 2960685
-1.0244715 0.10363206 2.3823328 4079166
-0.97438484 0.10376366 2.3853583 10197915
-0.92513818 0.10389308 2.3883336 10197915
-0.87161529 0.10409522 2.3759212 10197915
-0.82504719 0.10423691 2.3738248 10197915
-0.77488744 0.10436881 2.3768289 10197915
-0.72916853 0.1045284 2.3695564 10197915
-0.67524016 0.10471197 2.3621645 10197915
-0.62513834 0.10484385 2.3651395 10197915
-0.57491022 0.10497605 2.3681221 10197915
-0.52455527 0.10510859 2.3711116 10197915
-0.47504547 0.10523891 2.3740516 10197915
-0.42541185 0.10536954 2.3769987 10197915
-0.37467843 0.10550307 2.3800111 10197915
-0.32479602 0.10563438 2.382973 10197915
-0.27478847 0.10576599 2.3859422 10197915
-0.22465698 0.10589795 2.3889189 10197915
-0.17536706 0.10610856 2.3712626 10197915
-0.14204888 0.10619944 2.372431 10197915
0.090507634 0.10423815 2.3700321 10197915
0.12464809 0.10697718 2.3689845 10197915
0.15419877 0.10705507 2.3707092 10197915
0.10819122 -1.0687556 2.4301903 2039583
1.8466153 -1.072722 2.4491231 2039583
1.8743579 -1.0714117 2.4423723 2039583
1.9153243 -1.0691652 2.4324052 2039583
0.10768166 -1.0252974 2.4287796 2039583
1.8467684 -1.0250988 2.4492393 2039583
1.8749348 -1.0250013 2.4423819 2039583
1.9157279 -1.0250275 2.4324496 2039583
0.10686737 -0.97598809 2.4262087 2039583
1.8472596 -0.97694927 2.4492757 2039583
1.8750752 -0.97495127 2.4425101 2039583
1.9158427 -0.97506726 2.4325838 2039583
0.10527579 -0.92538005 2.4204667 2039583
1.847769 -0.94265658 2.4492626 2039583
1.8751999 -0.94305837 2.4425826 2039583
1.9158487 -0.94311672 2.4326863 2039583
0.10533667 -0.8751899 2.4215045 2039583
0.10539779 -0.8249554 2.4225445 2039583
0.10543961 -0.77487898 2.423502 2039583
0.10540283 -0.72496653 2.4241347 2039583
0.10552268 -0.67501408 2.4254117 2039583
0.10556427 -0.62501949 2.4263678 2039583
0.10560586 -0.57498527 2.4273243 2039583
0.10562816 -0.52471381 2.4282043 2039583
0.10558979 -0.47480285 2.4288309 2039583
0.098450035 -0.41965476 2.4003708 2039583
0.10461994 -0.42544571 2.4256225 2039583
0.098484591 -0.3750357 2.4012134 2039583
0.10454085 -0.37489459 2.426091 2039583
0.098523006 -0.32542288 2.4021497 2039583
0.10458207 -0.32476756 2.4270475 2039583
0.098561481 -0.27577138 2.4030874 2039583
0.10463553 -0.27484956 2.428051 2039583
0.098600715 -0.22508675 2.4040444 2039583
0.10462681 -0.22515237 2.4287953 2039583
0.09864001 -0.174362 2.4050021 2039583
0.10470503 -0.17515634 2.4299014 2039583
0.098678544 -0.12459251 2.405942 2039583
0.10473392 -0.12512363 2.4308059 2039583
0.098717116 -0.07478407 2.4068823 2039583
0.10474991 -0.075307988 2.4316533 2039583
0.098755725 -0.024936687 2.4078236 2039583
0.1048283 -0.025194954 2.4327624 2039583
0.098794349 0.024949692 2.4087658 2500134
0.10486977 0.025208227 2.4337242 2500134
0.098203123 0.079007797 2.4071856 10197915
0.10457221 0.073823594 2.4332654 10197915
-1.9095228 0.10097481 2.4131775 2960685
-1.8751956 0.10106473 2.4153266 2960685
-1.8255098 0.10119486 2.4184365 2960685
-1.7756963 0.10132535 2.421555 2960685
-1.7257537 0.10145616 2.4246812 2960685
-1.6756821 0.10158733 2.4278159 2960685
-1.6254809 0.10171882 2.4309585 2960685
-1.5751501 0.10185066 2.434109 2960685
-1.5246898 0.10198294 2.4372706 2960685
-1.4750713 0.10211291 2.4403765 2960685
-1.4213326 0.10231061 2.4292541 2960685
-1.3756665 0.10246042 2.4244225 2960685
-1.3296227 0.10260242 2.4218602 2960685
-1.2755971 0.10280678 2.4092517 2960685
-1.2252662 0.10293882 2.4123461 2960685
-1.1748062 0.10307122 2.4154487 2960685
-1.1251907 0.1032014 2.4184992 2960685
-1.0754483 0.10333186 2.4215569 2960685
-1.0246007 0.10346515 2.42468 6645093
-0.97460496 0.10359632 2.4277544 10197915
-0.92546552 0.10372524 2.4307756 10197915
-0.8752172 0.10385711 2.4338653 10197915
-0.82484168 0.10398927 2.4369628 10197915
-0.77532887 0.1041192 2.440007 10197915
-0.72197765 0.10432465 2.4266293 10197915
-0.67501217 0.10446642 2.4248099 10197915
-0.62758368 0.10460461 2.424217 10197915
-0.57497048 0.10481334 2.4094887 10197915
-0.52472186 0.10494541 2.4125245 10197915
-0.47533497 0.10507519 2.4155076 10197915
-0.42483395 0.10520789 2.4185586 10197915
-0.37420601 0.10534094 2.4216175 10197915
-0.32444587 0.10547172 2.4246235 10197915
-0.27456212 0.10560282 2.4276376 10197915
-0.2245542 0.10573424 2.4306586 10197915
-0.17442161 0.10586599 2.4336872 10197915
-0.14328152 0.10594781 2.4355683 10197915
0.097648114 0.10362422 2.4050651 10197915
0.11883707 0.10582345 2.4158115 10197915
0.15585375 0.10689949 2.4115121 10197915
0.12260254 -1.107466 2.4887767 2039583
1.6434853 -1.1089342 2.4984634 2039583
1.6741763 -1.1072714 2.4909956 2039583
1.7226485 -1.1046034 2.4792037 2039583
1.7685965 -1.1020843 2.4680238 2039583
0.11887205 -1.0749444 2.4739647 2039583
1.6441145 -1.0764105 2.4984152 2039583
1.6754215 -1.0748433 2.4907982 2039583
1.7251846 -1.0749329 2.4786849 2039583
1.7749929 -1.0750365 2.4665537 2039583
1.8213629 -1.0742512 2.4552662 2039583
0.11901008 -1.0248622 2.4753175 2039583
1.6438346 -1.0248089 2.4986496 2039583
1.674982 -1.0250086 2.4910653 2039583
1.7252592 -1.0249292 2.4788222 2039583
1.7750798 -1.0250229 2.4666946 2039583
1.8218824 -1.025019 2.4552989 2039583
0.11816827 -0.97368401 2.4726636 2039583
1.6439252 -0.97517478 2.4987881 2039583
1.6750705 -0.97495776 2.4912059 2039583
1.7254263 -0.97499216 2.4789455 2039583
1.7751642 -0.97500306 2.4668345 2039583
1.8223391 -0.97478813 2.4553499 2039583
0.11774281 -0.92489123 2.4716818 2039583
1.6437773 -0.94361347 2.4989264 2039583
1.6750998 -0.94335246 2.4913006 2039583
1.7251333 -0.94330233 2.4791186 2039583
1.7751743 -0.94325006 2.4669356 2039583
1.8228885 -0.94311357 2.455318 2039583
0.11783095 -0.87485868 2.4728298 2039583
0.11785567 -0.82519078 2.4737115 2039583
0.1178818 -0.77527893 2.4746017 2039583
0.11797007 -0.72512406 2.4757521 2039583
0.11797511 -0.67492998 2.4765606 2039583
0.11804193 -0.62489927 2.4776218 2039583
0.11784361 -0.5760619 2.4775729 2039583
0.1168735 -0.52484453 2.4743934 2039583
0.11691958 -0.47480106 2.4753678 2039583
0.11572383 -0.4248665 2.4712405 2039583
0.11576954 -0.37503657 2.4722104 2039583
0.11577319 -0.32498279 2.4730108 2039583
0.11579856 -0.27488834 2.4739017 2039583
0.11584345 -0.22495785 2.4748702 2039583
0.11595128 -0.17499013 2.4760978 2039583
0.11593442 -0.12498404 2.4768138 2039583
0.11602145 -0.074935861 2.4779568 2039583
0.11556041 -0.026160939 2.4768288 2039583
0.11479618 0.024867827 2.4744916 2236962
0.11446218 0.076035582 2.473923 10197915
-1.9753829 0.1004632 2.4953573 2960685
-1.9255912 0.10075799 2.4566419 2960685
-1.8751206 0.10088996 2.4598596 2960685
-1.8245177 0.10102227 2.4630857 2960685
-1.7747589 0.10115239 2.466258 2960685
-1.7248714 0.10128282 2.4694388 2960685
-1.6748558 0.10141362 2.4726272 2960685
-1.6247098 0.10154473 2.4758241 2960685
-1.5744361 0.10167626 2.4790313 2960685
-1.5250206 0.10180552 2.4821827 2960685
-1.475479 0.10193508 2.4853413 2960685
-1.4258107 0.10206494 2.488508 2960685
-1.3750185 0.10219777 2.4917459 2960685
-1.3200098 0.10239585 2.4814477 2960685
-1.2751863 0.10254946 2.4750385 2960685
-1.2274361 0.10274317 2.4605601 2960685
-1.1746818 0.10289975 2.4591808 2960685
-1.1251578 0.10302947 2.4622812 2960685
-1.0755078 0.10315937 2.4653862 2960685
-1.025733 0.10328972 2.4685009 9079434
-0.97583276 0.10342042 2.4716249 10197915
-0.92580622 0.10355146 2.4747567 10197915
-0.87565261 0.10368285 2.477896 10197915
-0.82537162 0.10381454 2.4810438 10197915
-0.77496266 0.10394658 2.4841993 10197915
-0.72442544 0.10407898 2.4873633 10197915
-0.67477411 0.10420903 2.4904711 10197915
-0.62085545 0.10438837 2.4841435 10197915
-0.57506555 0.10455742 2.4745171 10197915
-0.52963758 0.10470115 2.4710655 10197915
-0.47563428 0.10490553 2.4584351 10197915
-0.42524445 0.10503772 2.4615333 10197915
-0.37472755 0.10517028 2.4646394 10197915
-0.32509753 0.10530051 2.4676907 10197915
-0.27534366 0.10543105 2.4707506 10197915
-0.22546704 0.1055619 2.4738169 10197915
-0.17546564 0.10569309 2.476892 10197915
-0.14479661 0.10577355 2.4787769 10197915
0.12624496 0.1055501 2.4709451 10197915
0.15851276 0.10664944 2.4770689 10197915
0.13220266 -1.115182 2.5280876 2039583
1.4406161 -1.1202102 2.5478208 2039583
1.4743646 -1.1181899 2.5396097 2039583
1.5247151 -1.1153387 2.52736 2039583
1.5745268 -1.1127282 2.5152402 2039583
1.6180013 -1.1102923 2.5046637 2039583
0.13063736 -1.075006 2.522289 2039583
1.4407701 -1.0749185 2.5479281 2039583
1.4750301 -1.0750387 2.5395868 2039583
1.5255492 -1.0749093 2.527288 2039583
1.5754851 -1.0750706 2.5151293 2039583
1.6193318 -1.0747406 2.5044539 2039583
0.13062395 -1.024843 2.5230212 2039583
1.4409293 -1.0250133 2.5480528 2039583
1.4748914 -1.0251235 2.5397828 2039583
1.5253035 -1.0247837 2.5275092 2039583
1.5755525 -1.0250746 2.5152738 2039583
1.6197044 -1.0249963 2.5045242 2039583
0.13074102 -0.9746325 2.5242913 2039583
1.441534 -0.97579813 2.5480626 2039583
1.474342 -0.97492194 2.5400777 2039583
1.5248227 -0.97501445 2.5277882 2039583
1.5750315 -0.97525954 2.5155623 2039583
1.6191703 -0.97472262 2.5048168 2039583
0.13079253 -0.92479879 2.5252852 2039583
1.4419876 -0.9437325 2.5480564 2039583
1.4744685 -0.94365841 2.5401485 2039583
1.5249512 -0.94355643 2.5278578 2039583
1.5750836 -0.94356567 2.5156522 2039583
1.6190107 -0.94348693 2.5049562 2039583
0.13084404 -0.87492597 2.526279 2039583
0.13080691 -0.82502067 2.5269105 2039583
0.1300638 -0.77621377 2.5246251 2039583
0.12960662 -0.72508502 2.5235496 2039583
0.12971307 -0.67516536 2.524771 2039583
0.12976421 -0.62520438 2.5257661 2039583
0.12939504 -0.57379568 2.5250564 2039583
0.12855111 -0.52456284 2.5223634 2039583
0.12860174 -0.47459015 2.523356 2039583
0.12860747 -0.42478591 2.5241609 2039583
0.12868021 -0.37515771 2.5252392 2039583
0.12875278 -0.32527649 2.5263214 2039583
0.12876019 -0.27494106 2.5271409 2039583
0.12797499 -0.22587797 2.5246859 2039583
0.12756024 -0.1748693 2.5237837 2039583
0.12762399 -0.12499269 2.524828 2039583
0.1276322 -0.075080216 2.5256453 2039583
0.12710747 -0.023729309 2.5242972 2039583
0.12646392 0.025081834 2.5224199 2105376
0.12646905 0.075062439 2.5232241 10197915
-2.0117152 0.10016406 2.5449891 2960685
-1.9704798 0.10032126 2.5350485 2960685
-1.929189 0.10052614 2.5130243 2960685
-1.8750432 0.10070861 2.5060658 2960685
-1.8244814 0.1008406 2.5093501 2960685
-1.7747819 0.10097031 2.5125778 2960685
-1.7249544 0.10110037 2.5158148 2960685
-1.6749982 0.10123077 2.5190592 2960685
-1.6249133 0.10136149 2.5223119 2960685
-1.5746984 0.10149255 2.5255735 2960685
-1.5243536 0.10162397 2.5288436 2960685
-1.4748898 0.10175306 2.5320563 2960685
-1.425299 0.1018825 2.5352774 2960685
-1.3745666 0.10201491 2.5385723 2960685
-1.3247209 0.10214502 2.5418103 2960685
-1.2747471 0.10227546 2.5450561 2960685
-1.2237886 0.10249681 2.5258973 2960685
-1.1764629 0.10270984 2.5062127 2960685
-1.1251237 0.10285115 2.5076764 2960685
-1.0745567 0.10298321 2.5108967 4737096
-1.024877 0.10311314 2.5140646 10197915
-0.97507066 0.10324335 2.5172396 10197915
-0.92513937 0.10337394 2.5204232 10197915
-0.8750807 0.10350483 2.5236144 10197915
-0.82489604 0.10363608 2.5268142 10197915
-0.77561146 0.10376494 2.5299561 10197915
-0.72517318 0.10389682 2.5331721 10197915
-0.67460734 0.10402904 2.5363958 10197915
-0.6249482 0.1041589 2.5395615 10197915
-0.57516479 0.10428908 2.5427361 10197915
-0.52070063 0.10448841 2.5317185 10197915
-0.47736087 0.10464602 2.5232165 10197915
-0.42567036 0.10486153 2.5060654 10197915
-0.37526843 0.10499356 2.5092208 10197915
-0.32474029 0.1051259 2.5123837 10197915
-0.27511916 0.1052559 2.5154905 10197915
-0.22537519 0.10538619 2.5186043 10197915
-0.17550795 0.10551682 2.5217259 10197915
-0.14636658 0.10559313 2.5235498 10197915
0.13160218 0.10431454 2.5305312 10197915
0.16012157 0.10639596 2.5427368 10197915
0.14815108 -1.154995 2.5929708 2039583
1.2377778 -1.1560112 2.5970907 2039583
1.2730191 -1.1540486 2.5885165 2039583
1.3164885 -1.1516702 2.5779405 2039583
0.14388011 -1.1253664 2.5758932 2039583
1.2384214 -1.1250838 2.597034 2039583
1.2758337 -1.1249689 2.5879247 2039583
1.3254051 -1.1250182 2.5758555 2039583
1.3749377 -1.1235704 2.5637996 2039583
1.4162128 -1.121104 2.5537586 2039583
0.14282638 -1.0749665 2.5723555 2039583
1.2383533 -1.0760584 2.5972097 2039583
1.2752999 -1.0747815 2.5882177 2039583
1.3254485 -1.0750057 2.5760067 2039583
1.3754921 -1.0749848 2.5638218 2039583
1.4166962 -1.0749977 2.5537908 2039583
0.14280935 -1.0250261 2.5730705 2039583
1.2384548 -1.0249803 2.5973492 2039583
