# .PCD v0.7 - Point Cloud Data file format
VERSION 0.7
FIELDS x y z rgb
SIZE 4 4 4 4
TYPE F F F U
COUNT 1 1 1 1
WIDTH 1158
HEIGHT 1
VIEWPOINT 0 0 0 1 0 0 0
POINTS 1158
DATA ascii
0.42495799 0.10628577 0.67338562 10197915
0.47500816 0.10627037 0.6732496 10197915
0.51917225 0.10620295 0.6774748 10197915
0.55178809 0.10596416 0.69579875 10197915
-0.56565613 0.10591006 0.73078132 10197915
-0.52501416 0.10597271 0.7246303 10197915
-0.47499409 0.10595723 0.72449732 10197915
-0.42496577 0.10594133 0.72440815 10197915
-0.37492967 0.10592534 0.72432333 10197915
-0.32495371 0.10590971 0.72421163 10197915
-0.27501631 0.10589433 0.72408658 10197915
-0.22500102 0.10587839 0.72399139 10197915
-0.17497748 0.10586269 0.72388381 10197915
-0.12499195 0.1058471 0.72376555 10197915
-0.075021394 0.1058314 0.72366452 10197915
-0.025019413 0.10581575 0.72355819 10197915
0.025014466 0.10579999 0.72345203 10197915
0.075009711 0.10578417 0.72336191 10197915
0.1249903 0.10576922 0.72320104 10197915
0.17500207 0.10575272 0.72313315 10197915
0.22499929 0.10573712 0.72303259 10197915
0.27498156 0.1057217 0.72290146 10197915
0.32499546 0.10570621 0.72277671 10197915
0.37503931 0.10568967 0.72274852 10197915
0.42547938 0.10566394 0.72342795 10197915
0.47499374 0.10563533 0.72437561 10197915
0.52499038 0.10561992 0.72424853 10197915
0.56584525 0.10551792 0.73133802 10197915
0.51423287 -0.35263675 0.79403776 2899797
0.55107206 -0.35721925 0.79985958 3294295
0.52149141 -0.32499641 0.78934127 2768468
0.52202404 -0.27517745 0.78964853 2308690
0.55026317 -0.27960366 0.79964715 2506068
0.52255833 -0.2251125 0.79000789 1782349
0.52280664 -0.17508052 0.79025817 1783632
0.52338403 -0.12519658 0.79062027 1652303
0.52381766 -0.075122774 0.79093939 1388619
0.52414888 -0.025165532 0.79122287 1125449
0.52470881 0.024812156 0.79158676 1191497
0.52508777 0.074894227 0.79187053 5332846
-0.61106211 0.10527457 0.78317946 10197915
-0.5749023 0.10535882 0.77540559 10197915
-0.52500767 0.10534421 0.77522099 10197915
-0.47502193 0.10532814 0.77513826 10197915
-0.42502469 0.10531262 0.7750175 10197915
-0.37506819 0.10529716 0.77490103 10197915
-0.32504675 0.10528177 0.77475411 10197915
-0.27498651 0.10526639 0.77463454 10197915
-0.22499463 0.10525019 0.77456117 10197915
-0.17501767 0.10523475 0.77443731 10197915
-0.12502868 0.10521898 0.77433443 10197915
-0.0750008 0.10520387 0.77418089 10197915
-0.024988458 0.10518777 0.77410424 10197915
0.02498354 0.10517209 0.77398956 10197915
0.074992932 0.1051571 0.77383751 10197915
0.12501492 0.10514113 0.77373928 10197915
0.17499509 0.10512577 0.77361166 10197915
0.2249871 0.10510998 0.77351761 10197915
0.27499104 0.1050943 0.77340764 10197915
0.3250601 0.10507821 0.77332693 10197915
0.37508789 0.10506375 0.77311957 10197915
0.42448118 0.10503642 0.77397072 10197915
0.47501838 0.1050052 0.77509451 10197915
0.52463895 0.10416652 0.77912468 10197915
0.57500696 0.1049737 0.774894 10197915
0.61177069 0.10484882 0.78393757 10197915
0.44247448 -0.36396524 0.84484661 2374740
0.4717218 -0.35935783 0.8241381 2571604
0.50269079 -0.35446754 0.80221021 2768469
0.56813538 -0.3582786 0.82388157 2966102
0.44300112 -0.32537258 0.84496123 2243411
0.47553474 -0.3249512 0.8218689 2440276
0.50314021 -0.32464138 0.80226916 2637140
0.56844306 -0.32828951 0.82467288 2702932
0.4434374 -0.27519783 0.84528661 1585484
0.47552913 -0.27506083 0.82250386 1914191
0.50364429 -0.27428648 0.80254841 2242897
0.56667513 -0.27121562 0.82286459 2111312
0.44390231 -0.22549191 0.84558713 1651791
0.47558159 -0.22494698 0.82309705 1782863
0.5041275 -0.22465739 0.80285627 1651020
0.56939727 -0.22940435 0.82719803 1848655
0.44427872 -0.17523544 0.84595543 1586512
0.47548252 -0.17503962 0.82380337 1783376
0.50448531 -0.17455265 0.80321473 1914961
0.56704283 -0.17530322 0.82452834 1783632
0.44479293 -0.12547033 0.84622037 1586254
0.47561181 -0.12496981 0.82434261 1652303
0.50519329 -0.12467045 0.80345029 1652303
0.56452668 -0.12070974 0.82163602 1652303
0.44518667 -0.075238101 0.84657764 1322827
0.47547543 -0.075005613 0.82507348 1388619
0.5053938 -0.074741058 0.80383331 1388619
0.5683794 -0.078368932 0.82756865 1388619
0.4456788 -0.025548492 0.84685683 1125449
0.47557545 -0.025030678 0.82563478 1125705
0.50609589 -0.024621857 0.80411553 1125705
0.56506109 -0.022482527 0.82356203 1059912
0.44602275 0.024602629 0.84724838 1125191
0.47549152 0.02499643 0.82632679 1191241
0.50661588 0.02528581 0.8044166 1191497
0.5672586 0.023126626 0.82720208 1125705
0.44659179 0.074357241 0.84747446 3951968
0.47557724 0.074968562 0.82690179 4543846
0.50676614 0.075391717 0.8047604 5201261
0.56688428 0.074635617 0.8272903 4675432
-0.65906203 0.10458705 0.83984041 10197915
-0.6239602 0.10475606 0.82527882 10197915
-0.57501692 0.10472918 0.82609349 10197915
-0.52497053 0.10471343 0.82599914 10197915
-0.47497287 0.10469812 0.82585394 10197915
-0.42495599 0.10468199 0.82577789 10197915
-0.37488589 0.10466718 0.82560062 10197915
-0.32493252 0.10465097 0.82553685 10197915
-0.27496064 0.1046361 0.82536799 10197915
-0.22496839 0.1046202 0.82527477 10197915
-0.17499158 0.10460506 0.82512283 10197915
-0.12496103 0.10458902 0.82503939 10197915
-0.074979343 0.1045739 0.82488757 10197915
-0.025012957 0.1045584 0.82478023 10197915
0.025007995 0.10454272 0.82465756 10197915
0.074979022 0.10452756 0.82450461 10197915
0.12496954 0.10451138 0.82444417 10197915
0.17497939 0.10449663 0.82425791 10197915
0.22497469 0.10448101 0.82414478 10197915
0.27498895 0.10446496 0.82406312 10197915
0.32491991 0.10444943 0.82394683 10197915
0.37490526 0.10443488 0.82375312 10197915
0.42681074 0.10420973 0.82576793 10197915
0.47345358 0.1031046 0.82236427 10197915
0.50704211 0.102576 0.80479103 10197915
0.5804795 0.10439379 0.81954396 10197915
0.62384742 0.10434428 0.82422489 10197915
0.65819395 0.10416584 0.83764356 10197915
0.38612944 -0.3728781 0.88474214 2046291
0.41702354 -0.36799082 0.86286718 2177619
0.59590274 -0.36994469 0.86285406 2900053
0.61495626 -0.37893471 0.88958472 2900053
0.38656196 -0.3251085 0.88503945 1848912
0.41817564 -0.32485157 0.8625955 2046034
0.58861995 -0.3082622 0.85333246 2571604
0.60944206 -0.32525507 0.88245887 2571604
0.38667631 -0.27497932 0.88559365 1585999
0.4186995 -0.27493063 0.86285621 1585742
0.59547472 -0.28463781 0.8632701 2111312
0.60988951 -0.27386424 0.88370281 1979983
0.38656297 -0.22509715 0.88630545 1586256
0.41918132 -0.22485389 0.86314636 1652048
0.59016472 -0.21678472 0.85660106 1849168
0.61264896 -0.22544919 0.8881678 1848912
0.38655919 -0.17500374 0.88694274 1454926
0.41953051 -0.17493473 0.86353362 1586255
0.59741467 -0.19074054 0.86712414 1651790
0.60566515 -0.16834715 0.87901258 1783633
0.38677895 -0.12500659 0.88742065 1586511
0.42011812 -0.12495111 0.86374909 1586511
0.59154564 -0.12526162 0.85963917 1652303
0.61433202 -0.12996754 0.89167905 1652303
0.38649058 -0.075110145 0.88825667 1322570
0.42050087 -0.074877411 0.86411089 1322570
0.58979601 -0.068561539 0.85785216 1257291
0.60575521 -0.072136335 0.88028872 1257034
0.38663068 -0.024998657 0.88879126 1125448
0.42097291 -0.024931278 0.86440867 1059656
0.59428281 -0.027870633 0.86465812 1125705
0.61293668 -0.030291608 0.89090407 1059913
0.38678774 0.024893016 0.88931155 1059399
0.42147514 0.025121462 0.86468476 1124935
0.58771431 0.033025388 0.8561331 1257803
0.60789192 0.025005145 0.8844586 1191497
0.38652226 0.075013436 0.89013481 3031127
0.42185742 0.075073868 0.86504716 3689054
0.5956552 0.066955522 0.8677237 1322825
0.60898459 0.075532682 0.88660139 5398895
-0.70547682 0.10393069 0.89394951 10197915
-0.67222428 0.10411538 0.87816572 10197915
-0.62497699 0.10412884 0.87579256 10197915
-0.57498389 0.10411437 0.87558341 10197915
-0.525006 0.104098 0.87553334 10197915
-0.47500208 0.10408347 0.87533373 10197915
-0.42505392 0.10406686 0.87530071 10197915
-0.37516049 0.10405262 0.87508261 10197915
-0.32507965 0.10403632 0.87501687 10197915
-0.27497414 0.10402124 0.87485951 10197915
-0.22496426 0.1040059 0.87472039 10197915
-0.17496869 0.10399041 0.87460029 10197915
-0.12502828 0.10397458 0.87450564 10197915
-0.07502228 0.10396003 0.87430584 10197915
-0.024991103 0.10394415 0.87421137 10197915
0.024986187 0.10392871 0.87408143 10197915
0.074987672 0.10391381 0.87391794 10197915
0.1249745 0.10389732 0.87387502 10197915
0.17498702 0.10388294 0.8736583 10197915
0.22502452 0.10386684 0.87358159 10197915
0.27500722 0.10385166 0.87343341 10197915
0.32509559 0.10383601 0.87332273 10197915
0.37737691 0.10324684 0.87693173 10197915
0.42029303 0.10256083 0.8633092 10197915
0.59315968 0.10379443 0.85666031 10197915
0.62642467 0.10374487 0.87114131 10197915
0.67157727 0.10369472 0.87519777 10197915
0.70451063 0.1034815 0.89146078 10197915
0.64124507 -0.40638128 0.92628622 3097175
0.63561088 -0.37459359 0.9187296 2768468
0.65392119 -0.36821979 0.94459695 2768724
0.63748538 -0.3253068 0.9219588 2374483
0.63272399 -0.27511337 0.91585147 1914190
0.65336972 -0.27518508 0.94493133 1848911
0.63976473 -0.22516812 0.92636508 1783375
0.63074917 -0.17724141 0.91423875 1717584
0.65303642 -0.1813613 0.94558245 1783889
0.63850409 -0.12196457 0.9258219 1586511
0.63066125 -0.076502815 0.91531789 1257290
0.65259391 -0.087783821 0.94607681 1322827
0.63664621 -0.021109214 0.92441005 1059656
0.65029335 -0.00078200712 0.94387543 1058630
0.63168508 0.024806904 0.91797024 1191497
0.65247899 0.0070694024 0.94704777 1058886
0.63469589 0.076555282 0.92282921 2834775
0.65083224 0.096391946 0.945795 10197915
-0.7519964 0.10327679 0.94786084 10197915
-0.71954513 0.10348985 0.92981756 10197915
-0.67504102 0.10352838 0.92549908 10197915
-0.62500584 0.10351215 0.92543316 10197915
-0.57503361 0.10349778 0.92521918 10197915
-0.52502781 0.10348111 0.9251889 10197915
-0.47494143 0.10346652 0.92499322 10197915
-0.42491719 0.1034518 0.92480177 10066329
-0.37486041 0.10343621 0.92469031 6447714
-0.32486537 0.10341994 0.92462867 7237230
-0.27498245 0.10340575 0.92440289 8224125
-0.2250175 0.10339009 0.92429656 9145227
-0.17501967 0.10337482 0.92414844 10132122
-0.12498894 0.10335895 0.92406273 10197915
-0.075020805 0.10334449 0.92385697 10197915
-0.025020007 0.10332865 0.92376083 10197915
0.025015056 0.10331329 0.92362338 10197915
0.075033985 0.1032981 0.92347533 10197915
0.12503861 0.10328267 0.92334944 10197915
0.17502809 0.10326806 0.92315328 10197915
0.22500312 0.103252 0.92307556 10197915
0.27496281 0.10323642 0.92296237 10197915
0.32486013 0.10322133 0.92280805 10197915
0.36653343 0.10317779 0.92517412 10197915
0.63852483 0.10319049 0.91324729 10197915
0.67479563 0.10310096 0.92199308 10197915
0.71834719 0.10304188 0.92647314 10197915
0.75021702 0.10281765 0.94364697 10197915
0.67064273 -0.41484621 0.96759355 2900053
0.68128836 -0.37271905 0.98309129 2637396
0.66827208 -0.32501617 0.96532732 2242641
0.67824668 -0.27166227 0.98001385 1848655
0.66931581 -0.22486755 0.96799326 1783375
0.6760636 -0.17201287 0.97812915 1717840
0.67002028 -0.12530237 0.97017449 1586511
0.67405307 -0.072949134 0.97648078 1191498
0.67072803 -0.025287051 0.97236651 1059912
0.67221409 0.025920734 0.97507066 1257290
0.67143935 0.075181514 0.97456771 2177361
-0.76486629 0.10287712 0.98038405 10197915
-0.72489136 0.10293833 0.97436053 10197915
-0.67496562 0.10292213 0.97429609 10197915
-0.62499779 0.10290766 0.97408825 10197915
-0.57498699 0.10289229 0.97396094 10197915
-0.5249905 0.10287723 0.97379977 10197915
-0.47506714 0.1028612 0.97371978 10197915
-0.42498451 0.10284694 0.97349793 7697781
-0.37491775 0.10283171 0.97335118 2039583
-0.32497975 0.10281571 0.97327167 2039583
-0.27500007 0.10280149 0.97304755 2039583
-0.22503512 0.10278542 0.9729681 2105376
-0.17496948 0.10277002 0.97283959 10000536
-0.1249187 0.10275475 0.9726941 8422794
-0.074940227 0.10274104 0.97242469 3228504
-0.024977386 0.10272429 0.97240663 4412260
0.02502997 0.10270926 0.97224641 5530480
0.075020827 0.10269459 0.97205597 6713209
0.12579829 0.10265911 0.97352266 7436417
0.17499107 0.10262167 0.97518706 7962245
0.22500548 0.10260566 0.97510505 8882574
0.27500567 0.10259122 0.97489756 9803415
0.32504025 0.10257474 0.97485024 10197915
0.37450254 0.1025544 0.975137 10197915
0.40510905 0.10235847 0.99006557 10197915
0.68321854 0.10253209 0.96785653 10197915
0.72499138 0.10245366 0.97363853 10197915
0.76536036 0.10234085 0.98161274 10197915
0.72734386 -0.46190295 1.046898 3162967
0.69712502 -0.43948662 1.0046004 3097174
0.70580959 -0.41584966 1.0171157 2834260
0.69322276 -0.35013345 1.0001715 2702932
0.71997744 -0.37728927 1.0375323 2571604
0.69668722 -0.34020516 1.0051697 2177104
0.70536804 -0.31532612 1.0176947 1979983
0.69277835 -0.25124061 1.0007267 1717582
0.71914047 -0.27585626 1.0375648 1848911
0.69661498 -0.23969087 1.0062685 1980754
0.70492077 -0.21468595 1.0182667 1652047
0.69221002 -0.15262544 1.001104 1717839
0.71803087 -0.175217 1.0372043 1718096
0.69641787 -0.13934758 1.0071896 1652304
0.70554495 -0.11623986 1.0203212 1520718
0.69176465 -0.053529907 1.0016601 1059913
0.71665877 -0.075478695 1.0364624 1191241
0.83319342 -0.072087571 1.0480176 1191498
0.69647008 -0.037998747 1.0084735 1060169
0.70697725 -0.017952299 1.0235127 1059656
0.82984686 -0.025099382 1.043808 1125448
0.69119591 0.045252409 1.0020387 1323596
0.71555173 0.024984598 1.036103 1191497
0.82874131 0.028804649 1.0428284 1191497
0.69627297 0.062749714 1.0093989 1191753
0.70769387 0.081018038 1.0257043 1585483
0.82629532 0.075158924 1.0398808 1256520
-0.81209618 0.10219986 1.0361956 10197915
-0.77483511 0.10232614 1.0250105 10197915
-0.72498232 0.1023117 1.0248073 10197915
-0.67497033 0.10229813 1.0245259 10197915
-0.62497163 0.10228209 1.0244492 10197915
-0.57498848 0.10226811 1.0242045 10197915
-0.52501988 0.10225178 1.0241462 10197915
-0.475005 0.1022376 1.0239197 10197915
-0.42506683 0.10222085 1.0238979 4210752
-0.37520325 0.10220712 1.0236356 2039583
-0.32517168 0.10219129 1.0235403 2039583
-0.27503479 0.10217681 1.0233341 2039583
-0.22497343 0.10216098 1.0232358 2960685
-0.17498726 0.10214557 1.0231023 10197915
-0.12501574 0.10213044 1.0229515 7107710
-0.074998386 0.10211712 1.0226532 927811
-0.024996836 0.10210015 1.0226481 862276
0.024991892 0.10208505 1.0224965 928325
0.074963816 0.10207174 1.0221987 861763
0.12402993 0.10203611 1.0237218 927042
0.17501649 0.10199332 1.0257684 992835
0.22498834 0.10197765 1.0256592 794174
0.27501574 0.10196289 1.0254749 860737
0.32502916 0.10194872 1.0252464 1649993
0.3750256 0.10193186 1.0252348 2964821
0.41294053 0.10188542 1.0279328 3162456
0.69706839 0.10204814 1.0070485 10197915
0.72814685 0.10184858 1.0218879 10197915
0.77496958 0.10181091 1.0240065 10197915
0.81082499 0.10166723 1.0327046 10197915
0.73073351 -0.45316535 1.0517766 2900052
0.76229185 -0.48124465 1.0958931 3162711
0.86548841 -0.46902004 1.0892444 3031638
0.74099284 -0.42671895 1.0665433 2768724
0.75075114 -0.40156388 1.0805891 2637653
0.86324418 -0.42282641 1.0865785 2768724
0.72919881 -0.35219151 1.0508211 2045263
0.75788325 -0.38317862 1.0908546 2440018
0.8622914 -0.3750101 1.0857493 2440019
0.73901129 -0.32548523 1.0649611 1914447
0.84972548 -0.30420128 1.0688118 2177362
0.85922885 -0.32629114 1.0819588 2111825
0.74385351 -0.28606072 1.0722529 1980498
0.75656021 -0.27772281 1.0902501 1848911
0.84766042 -0.27520841 1.0662144 1783119
0.86229122 -0.27399465 1.0868322 1783119
0.73689693 -0.22496752 1.0631839 1717840
0.84448528 -0.22369035 1.0622952 1783633
0.85931271 -0.22548623 1.0831574 1783632
0.74785888 -0.19355182 1.0789996 1783633
0.75611752 -0.16988301 1.0909153 1652303
0.844235 -0.1751989 1.062462 1717840
0.86126858 -0.17240675 1.0864806 1652303
0.73492044 -0.12436987 1.0616015 1520718
0.84062195 -0.12514903 1.0579102 1520461
0.85955387 -0.12507069 1.0845723 1520461
0.74655694 -0.089338146 1.0784103 1256777
0.75478697 -0.064561121 1.0902989 1125706
0.84384644 -0.076242611 1.0629754 1257034
0.85995507 -0.074307822 1.0856819 1257034
0.73322427 -0.023206634 1.0604205 1059912
0.76051015 -0.047331732 1.0985659 1257547
0.84086651 -0.025033338 1.0593277 1125448
0.85993344 -0.024917591 1.086181 1125448
0.74525845 0.014766432 1.0778251 1124935
0.75316834 0.039725725 1.0892644 1389132
0.84273672 0.023167383 1.0624778 1125448
0.85971791 0.023995919 1.0864013 1125448
0.73167092 0.078190126 1.0594435 1125448
0.75843829 0.056354664 1.096886 1257802
0.84107852 0.074907638 1.0606968 993605
0.85928744 0.076951861 1.0863627 927556
-0.85871869 0.10154067 1.0905361 10197915
-0.82385451 0.10168996 1.077564 10197915
-0.77491117 0.10168678 1.0764769 10197915
-0.72507715 0.10167132 1.0763575 10197915
-0.6750325 0.10165628 1.0761983 10197915
-0.62500429 0.10164026 1.0761131 10197915
-0.57498997 0.10162646 1.0758548 10197915
-0.52499032 0.10161018 1.0757949 10197915
-0.4750067 0.10159607 1.075561 8750469
-0.42503619 0.10158106 1.0754019 2039583
-0.37485921 0.10156637 1.0752069 2039583
-0.32476941 0.10155042 1.075119 2039583
-0.27491885 0.10153554 1.0749489 2039583
-0.22493444 0.10152098 1.0747521 4079166
-0.174964 0.10150579 1.0746051 10197915
-0.12508373 0.10148986 1.0745209 5924467
-0.0750686 0.10147663 1.0742143 927555
-0.02499556 0.10146022 1.0741651 862019
0.024990626 0.10144514 1.0740061 796484
0.075033933 0.10143148 1.0737362 927299
0.12506379 0.10141504 1.0736872 927299
0.17500414 0.10139938 1.0735776 992836
0.22500342 0.10138571 1.0733083 794430
0.27498829 0.10137057 1.0731598 926529
0.32488391 0.1013549 1.0730504 927043
0.37491411 0.10134076 1.0728189 926530
0.42228448 0.10130468 1.0744252 860993
0.45179629 0.10105374 1.0938181 728382
0.74073666 0.10136545 1.0600277 4346725
0.77553415 0.10122446 1.071203 3294811
0.82316983 0.10117745 1.0730743 3886176
0.85558128 0.10091003 1.0879228 861250
0.79822612 -0.50808841 1.1461881 3294296
0.8003394 -0.50324708 1.1492224 3097174
0.89403665 -0.50271398 1.1290883 3228760
0.90363258 -0.50554287 1.142572 3163224
0.77022982 -0.46192178 1.107305 2768724
0.88584203 -0.47332454 1.1178622 2965846
0.90270674 -0.47402966 1.141606 2900053
0.78537172 -0.42506331 1.1290731 2702932
0.88639712 -0.42624074 1.1191487 2768725
0.90600002 -0.42522404 1.1467668 2703189
0.77908987 -0.37230173 1.120855 2177104
0.88571399 -0.37499395 1.1187365 2308690
0.90223932 -0.37520072 1.1420066 2242897
0.78039169 -0.32515699 1.1232518 1914191
0.88583159 -0.3244428 1.1194441 2045776
0.90556872 -0.32116395 1.1472747 1979984
0.78548223 -0.2781646 1.1309834 1914704
0.88585496 -0.27599993 1.1199955 1783376
0.90312451 -0.27498445 1.1443274 1848912
0.77592278 -0.22502328 1.1181532 1717840
0.88560742 -0.22352837 1.1202091 1783632
0.90256888 -0.228678 1.1440409 1783376
0.78958124 -0.18017505 1.1379272 1652303
0.88476902 -0.17675081 1.1195297 1652047
0.90404993 -0.17484166 1.1467038 1652047
0.77180541 -0.12492189 1.1135495 1520462
0.88539928 -0.12320492 1.1209909 1454925
0.90106684 -0.13589932 1.14292 1520718
0.78877288 -0.076292783 1.1380298 1125705
0.88407874 -0.07533963 1.1196443 1257034
0.90442294 -0.067090333 1.1483836 1257034
0.76876801 -0.022470713 1.1104949 1059656
0.885059 -0.0237452 1.1215779 1059912
0.90154588 -0.029889544 1.1447304 1059912
0.78452688 0.02497155 1.1332586 1191241
0.88451803 0.025068687 1.1213387 1191240
0.9043895 0.046195254 1.1495507 1389388
0.77210563 0.07598 1.116372 1191496
0.88338929 0.073487245 1.1202685 993349
0.9021365 0.075041801 1.1466872 993349
-0.90417248 0.10091854 1.1418643 10197915
-0.8718949 0.10109203 1.127014 10197915
-0.82505894 0.10110629 1.1245811 10197915
-0.77518469 0.10109008 1.1245178 10197915
-0.72504306 0.10107469 1.1243851 10197915
-0.67501211 0.10106181 1.1240485 10197915
-0.62508732 0.1010452 1.1240187 10197915
-0.57499135 0.10103146 1.1237513 10197915
-0.52491039 0.10101523 1.1236849 10197915
-0.47493666 0.10100197 1.123383 5395026
-0.42497984 0.10098492 1.1233866 2039583
-0.37494302 0.1009712 1.1231195 2039583
-0.32492003 0.1009554 1.1230196 2039583
-0.27500692 0.10094128 1.1227866 2039583
-0.22510774 0.10092597 1.1226528 5131854
-0.17513056 0.10091143 1.1224545 10197915
-0.12507418 0.10089687 1.1222543 4806760
-0.074853308 0.10087763 1.1224269 795970
-0.02497045 0.10081022 1.1264834 862019
0.024965512 0.10079532 1.1263167 862020
0.074962102 0.1007784 1.1263063 861507
0.12502225 0.10076485 1.126027 795457
0.17506735 0.10075022 1.1258297 992835
0.2250208 0.10073373 1.1257911 860737
0.27495828 0.10072108 1.1254394 794944
0.32503638 0.10070449 1.1254007 993349
0.37502342 0.10069065 1.1251471 926273
0.4250713 0.10067515 1.1250247 794687
0.4594391 0.10058404 1.1314149 794431
0.78600049 0.10065922 1.1162908 993349
0.82515973 0.10055608 1.1236435 993349
0.86919034 0.10048313 1.128244 927043
0.90057135 0.10016906 1.1459054 728638
0.80131894 -0.50100285 1.1506289 3031382
0.92808181 -0.51365954 1.1769168 3097175
0.81263959 -0.47506723 1.1668844 2768724
0.92458463 -0.47493392 1.1724067 2834261
0.82959378 -0.43622458 1.1912292 2637396
0.92759162 -0.42493561 1.1771777 2637396
0.80799544 -0.3699913 1.161598 1979726
0.92382467 -0.374845 1.1724089 2111568
0.82533729 -0.32777697 1.1865294 1848655
0.92567664 -0.32487217 1.1755527 1914191
0.79945374 -0.27601865 1.1506888 1849937
0.80471629 -0.26245293 1.1582634 1783632
0.9250139 -0.27494967 1.1751548 1849168
0.81921154 -0.22508714 1.1791271 1717840
0.92190027 -0.2257838 1.171297 1718096
0.79901034 -0.16218606 1.1514239 1718096
0.8177976 -0.17585151 1.1777235 1652303
0.92615378 -0.17508078 1.17783 1652303
0.81264615 -0.12507389 1.1710737 1454669
0.92230481 -0.12514079 1.1729455 1454669
0.79759431 -0.051011447 1.1507572 1257547
0.82722121 -0.08540497 1.1920774 1191242
0.92317057 -0.074852459 1.1747024 1191241
0.79906172 -0.046805829 1.1528745 1191754
0.80766946 -0.022136975 1.1652932 1059656
0.92346251 -0.024858395 1.1756502 1059912
0.82349259 0.023210883 1.1881227 1191241
0.9201712 0.024120554 1.1715399 1191240
-0.10589042 0.099924751 1.1999817 862020
-0.075061619 0.099915624 1.1998721 927555
-0.024851538 0.09990073 1.1996932 993605
0.024846656 0.099886008 1.1995164 928325
0.07907825 0.099916279 1.1955912 861763
0.12514752 0.099920213 1.1940124 860994
0.17483442 0.099906109 1.1937857 926787
0.22500111 0.099890605 1.1936588 860993
0.27515316 0.099876374 1.1934302 860225
0.32504454 0.099861577 1.1932533 1059141
0.3749162 0.099845529 1.1931784 860480
0.4247776 0.099832013 1.1929001 794430
0.47196084 0.099814549 1.1930124 860480
0.79812819 0.065918297 1.1529058 1126217
0.82777345 0.096344382 1.1791836 1190727
0.87508422 0.099761784 1.1862127 993349
0.92108226 0.083861493 1.1803297 927042
-0.91826552 0.10048498 1.1771485 10197915
-0.87505645 0.10052976 1.1723578 10197915
-0.8251068 0.10051636 1.1720678 10197915
-0.77497536 0.10050142 1.1718971 10197915
-0.72486109 0.10048655 1.17172 10197915
-0.67495447 0.10047074 1.1716253 10197915
-0.62496608 0.10045684 1.1713741 10197915
-0.57499272 0.10044148 1.1712413 10197915
-0.52503395 0.10042713 1.1710272 9803157
-0.47509024 0.10041129 1.1709327 2500134
-0.42496595 0.10039735 1.1706833 2039583
-0.37495515 0.10038251 1.1705067 2039583
-0.32505426 0.10036668 1.1704118 2039583
-0.27507305 0.10035374 1.1700852 2039583
-0.22510585 0.10033695 1.1700655 6118749
-0.17495951 0.1003225 1.1698546 10197915
-0.12482825 0.10030715 1.1697173 3689054
-0.075096183 0.10029238 1.169543 861763
-0.025055246 0.10021643 1.1742837 993605
0.02505029 0.10020155 1.1741093 993861
0.073175609 0.10021785 1.1714809 927812
0.12492857 0.10023282 1.1688554 861251
0.17509985 0.10021871 1.1686177 926786
0.22493285 0.10020388 1.1684448 860993
0.27491465 0.10018979 1.1682091 794431
0.32520089 0.10017325 1.1681609 1124934
0.37515306 0.10015921 1.167924 794687
0.4249267 0.10014441 1.1677516 794173
0.46696177 0.10012177 1.1684203 860223
0.82678783 0.10008982 1.1611339 1059142
0.87490207 0.10007171 1.1612726 926786
0.90466189 0.10005938 1.1614493 794687
0.91505659 -0.55309224 1.2430835 3294553
0.8437441 -0.5243535 1.2101085 3031382
0.85251063 -0.50552195 1.2226812 2768468
0.92818075 -0.5246259 1.2339648 2965589
0.95267797 -0.52226096 1.2167016 3096918
0.8631984 -0.48256272 1.23801 2768724
0.92875844 -0.47523078 1.2341121 2768724
0.95263588 -0.47453469 1.2171645 2768724
0.84041506 -0.4114325 1.206768 2308176
0.92920709 -0.42499095 1.2345852 2374226
0.95257556 -0.42570481 1.2174523 2440275
0.84766197 -0.3948299 1.2171737 2111568
0.85861987 -0.36972535 1.2329082 1914191
0.92969525 -0.37511268 1.234648 2045776
0.95272243 -0.3745403 1.2185506 2111569
0.8356747 -0.30261353 1.2013904 1717069
0.86884636 -0.34629568 1.2475929 1979985
0.93005162 -0.3250888 1.2351791 1782862
0.95260531 -0.32504839 1.2185248 1782606
0.84341609 -0.28376865 1.21252 1915217
0.85367966 -0.25878534 1.2272749 1520462
0.93063676 -0.2751058 1.2352809 1849425
0.95275074 -0.27439627 1.2198484 1783633
0.86326808 -0.23544489 1.2410594 1783632
0.93106526 -0.22507152 1.2354693 1718096
0.95275587 -0.22503456 1.2200302 1783632
0.84099233 -0.16894057 1.2104772 1652304
0.93139613 -0.17509291 1.2361159 1652303
0.95268607 -0.17496429 1.2207313 1586511
0.84917116 -0.14785752 1.2222493 1586511
0.85869032 -0.12331896 1.2359507 1454412
0.93195772 -0.12511605 1.2361188 1388876
0.95287955 -0.124993 1.2214803 1388876
0.83640587 -0.060405321 1.2053133 1125705
0.86797893 -0.099374935 1.24932 1256777
0.93225569 -0.075247325 1.2365549 1191497
0.95267171 -0.07473205 1.2217402 1191241
0.84507698 -0.036803786 1.2178086 1125705
0.85429639 -0.011711044 1.2310944 1059143
0.93281674 -0.025060674 1.2368162 1059656
0.95293915 -0.02482296 1.2228554 1059656
0.83223027 0.04825272 1.2007294 1257546
0.86296022 0.011869595 1.2435795 1058886
0.93317139 0.024887253 1.2370151 1125448
0.95277047 0.025533447 1.2229652 1191240
-0.96704191 0.099756099 1.2371585 10197915
-0.92503691 0.099769995 1.2348906 10197915
-0.87493896 0.099753343 1.2348574 10197915
-0.82485437 0.099739492 1.2345991 10197915
-0.77491903 0.099793062 1.2289183 10197915
-0.72504294 0.099776588 1.2288764 10197915
-0.67505604 0.0997639 1.2285281 10197915
-0.62495339 0.099748775 1.2283733 10197915
-0.57499456 0.099731974 1.228358 10197915
-0.52505016 0.099719301 1.2280097 6316128
-0.47486627 0.099703759 1.2278841 2039583
-0.4248226 0.099690035 1.2276173 2039583
-0.3742058 0.099689856 1.226246 2039583
-0.32520047 0.099726118 1.2219815 2039583
-0.2750439 0.099713475 1.2216254 2039583
-0.22500259 0.09969651 1.2216185 7171437
-0.1750775 0.099682309 1.2213925 10197915
-0.12606588 0.099655017 1.2222488 2637140
-0.075070262 0.099586748 1.2263464 861762
-0.025021398 0.099570572 1.2262756 927812
0.025016451 0.099555798 1.2260933 928325
0.075035587 0.099542402 1.2258005 862276
0.12504311 0.099526249 1.2257297 794945
0.17503394 0.099512883 1.2254368 860994
0.22501029 0.099496737 1.2253661 860993
0.27497205 0.099481314 1.2252384 860737
0.32479098 0.099468328 1.2249192 992836
0.37472457 0.099452868 1.2247944 926786
0.42489585 0.099437363 1.2246664 860736
0.47492266 0.099424303 1.2243462 926530
0.50524634 0.099313118 1.2324665 927043
0.84219933 0.081856564 1.2128605 1191496
0.87609291 0.099316522 1.2220289 994118
0.93295443 0.076192863 1.2363296 1125447
0.95287353 0.074303351 1.2239382 1125191
-0.95635885 0.10008772 1.2101717 10197915
-0.92494768 0.10010216 1.2081488 10197915
-0.87501675 0.10008806 1.2079177 10197915
-0.82510191 0.10007259 1.2077924 10197915
-0.77508223 0.10012302 1.2023625 10197915
-0.72516274 0.10010822 1.2021849 10197915
-0.6752578 0.10009342 1.2020074 10197915
-0.62536764 0.10007865 1.2018299 10197915
-0.57499379 0.10006373 1.2016505 10197915
-0.52463472 0.10004881 1.2014716 8092539
-0.47478908 0.10003404 1.2012943 2039583
-0.42495814 0.10001928 1.2011169 2039583
-0.38012272 0.100006 1.2009574 2039583
0.89093047 -0.55692828 1.2601649 3162711
0.90241629 -0.55505782 1.2520342 3228761
0.89162588 -0.52503312 1.2600758 2834260
0.90289879 -0.52425778 1.2520821 2834261
0.8916223 -0.47487313 1.2604344 2702932
0.90344244 -0.47403938 1.2523313 2768468
0.89149326 -0.425046 1.2613789 2242897
0.90372843 -0.42459279 1.2527549 2242897
0.89182448 -0.37499291 1.2618362 1979984
0.9043026 -0.37485734 1.2529769 2045776
0.89132386 -0.32507366 1.262422 1783119
0.9046374 -0.32474306 1.2533731 1717326
0.891725 -0.27504474 1.2631714 1849169
0.90520537 -0.27487674 1.2536025 1783889
0.89149022 -0.22498477 1.2635726 1717840
0.90560472 -0.22435133 1.2539585 1718096
0.89159131 -0.17505151 1.2644624 1652303
0.90604496 -0.17468499 1.2542738 1586767
0.89183176 -0.12521194 1.264994 1388876
0.90657496 -0.12436681 1.2545339 1454412
0.89127409 -0.075075865 1.2654742 1191242
0.90688527 -0.07462886 1.2549461 1191498
0.89182639 -0.025114674 1.2662647 1125192
0.90746385 -0.024812195 1.2551653 1059656
0.89137274 0.025284359 1.2666914 1191240
0.90773225 0.025034199 1.2556033 1125448
-1.011008 0.099180579 1.2846918 10197915
-0.97508514 0.099290416 1.2748637 10197915
-0.92503858 0.099277318 1.2745498 10197915
-0.87500781 0.09926106 1.2744862 10197915
-0.82485867 0.099246725 1.2742665 10197915
-0.77485543 0.099232808 1.2740144 10197915
-0.72486955 0.099217363 1.2738892 10197915
-0.6747632 0.099202208 1.2737312 10197915
-0.62480652 0.099189103 1.2734181 10197915
-0.57499576 0.09917181 1.2734473 10132122
-0.52506691 0.099158719 1.2731363 3223857
-0.47515556 0.099144801 1.2728845 2039583
-0.42525494 0.099129379 1.2727596 2039583
-0.37497512 0.099114247 1.2726009 2039583
-0.32484365 0.099101819 1.2722272 2039583
-0.27485776 0.099085204 1.2721927 2236962
-0.2248853 0.099070147 1.2720351 8092539
-0.17492929 0.099055864 1.271816 10197915
-0.12485545 0.099041931 1.2715646 1388105
-0.074929677 0.099026106 1.2714697 861506
-0.025017517 0.099011831 1.271251 927812
0.025012568 0.098997116 1.2710618 993861
0.075027123 0.098981723 1.2709351 862533
0.12502509 0.098967806 1.2706848 860481
0.1750094 0.098955393 1.2703128 794944
0.22497982 0.098938443 1.2703084 860993
0.27546793 0.098855965 1.275564 795201
0.32494316 0.098836884 1.2757403 860994
0.37488973 0.098821014 1.2756519 1058885
0.42502728 0.098808751 1.2752646 926786
0.47515476 0.098791569 1.2752724 926787
0.51503056 0.09873084 1.2790695 860994
0.89133298 0.075634882 1.2669863 1192010
0.90835071 0.074763261 1.2557216 1257290
-1.0577084 0.098521978 1.3389871 10197915
-1.0236224 0.098685622 1.32488 10197915
-0.97508895 0.098686598 1.3234706 10197915
-0.92506051 0.098672889 1.3232055 10197915
-0.87504476 0.098658256 1.3230097 10197915
-0.82490855 0.098645777 1.3226415 10197915
-0.77492577 0.098628663 1.3226527 10197915
-0.72509271 0.098614514 1.3224229 10197915
-0.67513669 0.098599918 1.3222272 10197915
-0.62505943 0.098584898 1.3220661 10197915
-0.57499731 0.098571591 1.3217676 7895160
-0.52494979 0.098555692 1.3216742 2039583
-0.47491723 0.098541513 1.3214438 2039583
-0.42503479 0.098526977 1.3212485 2039583
-0.37489593 0.098513134 1.3209854 2039583
-0.32476929 0.098497674 1.3208562 2039583
-0.27493232 0.098482244 1.3207303 2434341
-0.22497471 0.098469824 1.3203636 8947848
-0.17489356 0.098453499 1.3203038 9540501
-0.12496458 0.098439388 1.3200742 928068
-0.07504873 0.098426037 1.319777 927042
-0.025014408 0.098409779 1.3197173 862020
0.025009463 0.098395169 1.3195214 993861
0.075014062 0.098382249 1.3191899 928325
0.12500753 0.098365985 1.3191301 795201
0.17498402 0.098353103 1.3187984 860737
0.22508213 0.098335475 1.3188422 860737
0.27435723 0.098255672 1.3239148 860994
0.32505336 0.09822993 1.3245976 860737
0.37511992 0.098215356 1.3244008 1058885
0.42620543 0.098180577 1.3258041 927042
0.47482702 0.098106891 1.3303995 926274
0.52402812 0.098083116 1.3309636 860737
0.5539189 0.097886376 1.3459836 861250
-1.1055003 0.097816512 1.3970857 10197915
-1.0717955 0.098026253 1.3792775 10197915
-1.0249754 0.098051764 1.3759429 10197915
-0.97509313 0.098035835 1.3758558 10197915
-0.9250825 0.098023236 1.3754984 10197915
-0.87508816 0.098006845 1.3754489 10197915
-0.82525063 0.097992875 1.3752072 10197915
-0.77528346 0.09797933 1.374928 10197915
-0.72518963 0.097962394 1.3749182 10197915
-0.67511249 0.097950287 1.3745207 10197915
-0.62504762 0.097934365 1.3744317 10197915
-0.5749988 0.097922213 1.3740361 4276545
-0.52496457 0.097905315 1.3740242 2039583
-0.47480339 0.097890735 1.3738234 2039583
-0.42479706 0.09787678 1.3735775 2039583
-0.37495133 0.097863264 1.3732995 2039583
-0.32497427 0.097847342 1.3732104 2039583
-0.27515811 0.097834803 1.372854 2631720
-0.22506915 0.097818345 1.3728069 9868950
-0.17499696 0.097803853 1.3726003 8422538
-0.12507984 0.097791784 1.3722056 928324
-0.075038403 0.097773433 1.3723108 861763
-0.025010329 0.097761795 1.3718756 796484
0.025005393 0.097747296 1.3716722 993861
0.075003788 0.097729929 1.3717003 928582
0.1249859 0.097719267 1.3711883 795458
0.17495629 0.097703822 1.3710622 860994
0.22490963 0.097686455 1.3710903 860994
0.27484971 0.097674876 1.3706558 860737
0.32505727 0.097659312 1.3705302 992579
0.37525204 0.097645767 1.3702472 927044
0.42394164 0.097615622 1.3713365 1058628
0.47491696 0.097532846 1.3766041 926273
0.52484155 0.097517118 1.3765026 926274
0.56047207 0.097473964 1.3789983 927043
-1.1185275 0.097422868 1.4291321 10197915
-1.0751202 0.097451925 1.4256032 10197915
-1.0249611 0.097437471 1.4253919 10197915
-0.97501659 0.097421646 1.4252958 10197915
-0.92488998 0.097408637 1.4249703 10197915
-0.87477487 0.097395644 1.4246416 10197915
-0.82507342 0.097378433 1.4246643 10197915
-0.77518517 0.097365491 1.4243391 10197915
-0.72492075 0.097351007 1.4241278 10197915
-0.67486537 0.097335197 1.4240316 10197915
-0.62502432 0.097322255 1.4237062 9013641
-0.57500041 0.097309276 1.4233792 2039583
-0.52499139 0.097293429 1.4232845 2039583
-0.47519428 0.097277634 1.4231894 2039583
-0.42521274 0.09726467 1.4228641 2039583
-0.37505251 0.097250216 1.4226524 2039583
-0.32510069 0.097235814 1.422442 2039583
-0.27497035 0.097221375 1.4222311 3421236
-0.22485159 0.09720695 1.4220195 10197915
-0.17494707 0.09719114 1.4219229 7239295
-0.12505691 0.097178176 1.4215989 993861
-0.07498277 0.097163767 1.4213881 861506
-0.02492656 0.097149327 1.421177 862020
0.024921644 0.097134948 1.4209664 994118
0.074948162 0.097120538 1.420756 1059911
0.12496295 0.097106136 1.4205452 927044
0.17531788 0.09708593 1.4207911 861507
0.22487149 0.096985474 1.4275194 927044
0.27494982 0.096971594 1.4272637 860738
0.32516202 0.09695825 1.4269629 861506
0.37520882 0.096942201 1.4268823 927300
0.42524311 0.096928336 1.426627 993093
0.47526401 0.096913397 1.4264584 992579
0.52511907 0.096901231 1.4260716 926786
0.57095766 0.096851148 1.4288467 1058629
-1.1623932 0.0968372 1.4774749 10197915
-1.1248542 0.096903913 1.4710767 10197915
-1.0751264 0.096888058 1.4709884 10197915
-1.025009 0.096876852 1.4705176 10197915
-0.97510689 0.096860982 1.4704255 10197915
-0.92521977 0.096845113 1.4703366 10197915
-0.87514257 0.096833907 1.4698653 10197915
-0.82508481 0.096816428 1.4699014 10197915
-0.77503473 0.096802101 1.4696834 10197915
-0.72500831 0.09679091 1.4692132 10197915
-0.67498863 0.096773453 1.4692484 10197915
-0.62498868 0.096762255 1.468778 5855577
-0.57500136 0.096744791 1.4688138 2039583
-0.52502865 0.09673363 1.4683435 2039583
-0.47329968 0.096667945 1.4722128 2039583
-0.42494494 0.096607149 1.4757824 2039583
-0.37505916 0.096591711 1.4756575 2039583
-0.32518449 0.096578605 1.4753462 2105376
-0.27502242 0.096560679 1.475414 4473924
-0.22502747 0.096550539 1.4748594 10197915
-0.17504613 0.096534461 1.4747834 6055539
-0.12492666 0.096521288 1.4744707 927811
-0.074976467 0.096504018 1.4744923 795713
-0.02504085 0.096492708 1.474034 927813
0.025035908 0.09647841 1.473816 994118
0.074941956 0.096461162 1.4738375 994375
0.12498532 0.096450381 1.473332 927300
0.17472768 0.09643025 1.4735912 927300
0.22516015 0.096320912 1.48101 993093
0.27522415 0.096308216 1.4806596 861251
0.32486233 0.096294031 1.4804412 861251
0.37489745 0.096279681 1.4802246 993092
0.4251186 0.096265376 1.4800009 927043
0.47492003 0.096251115 1.4797822 1124678
0.52490854 0.096235245 1.4796925 992579
0.5750857 0.096224077 1.4792148 1058885
0.60761398 0.096141808 1.4849458 1124677
-1.2093402 0.096180744 1.5316068 10197915
-1.174126 0.096311726 1.5200983 10197915
-1.1246001 0.096304625 1.5193113 10197915
-1.0747175 0.096290424 1.5190873 10197915
-1.0248461 0.096276224 1.5188632 10197915
-0.97499263 0.096262008 1.5186394 10197915
-0.92494047 0.096247777 1.5184145 10197915
-0.87490696 0.096231788 1.5183307 10197915
-0.82488626 0.096219294 1.5179653 10197915
-0.77487838 0.096205071 1.5177408 10197915
-0.72509855 0.096190922 1.5175171 10197915
-0.67512029 0.09617494 1.5174328 9934743
-0.62494946 0.096162401 1.5170676 2697513
-0.57500279 0.096149884 1.5167054 2039583
-0.52507108 0.096133962 1.516619 2039583
-0.4773345 0.096084774 1.5192701 2039583
-0.42288685 0.095972635 1.5268053 2039583
-0.37506664 0.095883191 1.5326948 2039583
-0.32527623 0.095868997 1.5324726 2302755
-0.27508047 0.095854737 1.5322442 3947580
-0.2251078 0.095840544 1.5320175 6974058
-0.17494187 0.095826291 1.5317897 3753559
-0.12500107 0.095810331 1.5317059 927299
-0.075073123 0.095797919 1.5313362 795457
-0.024951767 0.095783658 1.5311085 862020
0.024946833 0.095769487 1.5308814 994118
0.075038426 0.095755257 1.5306544 994375
0.1251187 0.095741041 1.5304266 927556
0.17497016 0.095725112 1.5303421 993092
0.22480632 0.095712736 1.5299742 1058885
0.27484208 0.095698483 1.5297471 927557
0.3248595 0.095684275 1.5295197 860994
0.3748655 0.095670082 1.5292928 861507
0.42485321 0.095655888 1.5290656 926786
0.47482991 0.09564168 1.528839 1190470
0.52478772 0.095627502 1.528612 1058885
0.57494414 0.095611468 1.5285271 1058629
0.61715275 0.095572598 1.5305007 1058885
-1.2570293 0.095478915 1.5894141 10197915
-1.2229943 0.095669612 1.5731295 10197915
-1.1748292 0.09568096 1.5708951 10197915
-1.124985 0.095662996 1.5709733 10197915
-1.0751487 0.095650822 1.5705882 10197915
-1.0251098 0.095636666 1.5703557 10197915
-0.97508764 0.09562064 1.5702759 10197915
-0.92508101 0.095608369 1.5698911 10197915
-0.87508583 0.09559425 1.5696591 10197915
-0.82489222 0.095580056 1.5694263 10197915
-0.77470976 0.095565878 1.569193 10197915
-0.72476017 0.095549859 1.5691134 10197915
-0.67482954 0.095537603 1.5687294 7039851
-0.62490857 0.095523492 1.5684975 2039583
-0.5750047 0.095511317 1.5681101 2039583
-0.52511555 0.095495276 1.5680343 2039583
-0.47502181 0.095481113 1.5678017 2039583
-0.42647207 0.095451139 1.568884 2039583
-0.37516195 0.095339924 1.5764314 2039583
-0.32483646 0.095328592 1.5759634 2434341
-0.27484119 0.09531302 1.5758463 2434341
-0.22487095 0.095300354 1.5754967 2039583
-0.17490631 0.095284797 1.5753796 1188406
-0.12496462 0.095272124 1.5750302 927043
-0.075030692 0.095256582 1.5749134 795458
-0.025117438 0.095243923 1.5745637 862020
0.02511245 0.095229715 1.5743293 994375
0.074996069 0.095214188 1.5742124 994375
0.12487078 0.095201544 1.5738631 927813
0.17505172 0.09518449 1.5738612 927812
0.22521673 0.095173195 1.5733945 1058885
0.27504754 0.095157675 1.5732777 1059142
0.32485673 0.095145062 1.5729293 860994
0.37740293 0.095081158 1.576633 861507
0.42500928 0.095002607 1.5816516 926787
0.47494885 0.094992436 1.5811013 1058629
0.52509642 0.094976321 1.5810246 1125447
0.57501072 0.09496028 1.5809468 1124678
0.62469625 0.094946265 1.5807132 1124422
0.65561301 0.09478794 1.5926121 1124421
-1.3045712 0.094791107 1.646078 10197915
-1.2712488 0.09498281 1.6297332 10197915
-1.2249982 0.095006078 1.6265911 10197915
-1.1754122 0.094994336 1.6261778 10197915
-1.1253889 0.094980232 1.6259416 10197915
-1.0751563 0.094964027 1.6258692 10197915
-1.0251678 0.094954275 1.6252866 10197915
-0.97518891 0.094935946 1.6253887 10197915
-0.9250012 0.094926126 1.6248068 10197915
-0.87483114 0.094907805 1.6249068 10197915
-0.8246733 0.094895802 1.6244966 10197915
-0.77475321 0.094881848 1.624252 10197915
-0.7248522 0.094867781 1.6240168 10132122
-0.67473686 0.094851598 1.6239445 3223857
-0.62486565 0.094841853 1.6233628 2039583
-0.57500595 0.094823606 1.6234652 2039583
-0.5249368 0.094811641 1.6230558 2039583
-0.47510937 0.094797708 1.6228119 2039583
-0.42529258 0.094783671 1.6225766 2039583
-0.37482187 0.094769493 1.6223344 2039583
-0.32481048 0.094755523 1.6220891 2631720
-0.27504212 0.094741471 1.6218545 2302755
-0.22506121 0.094725348 1.621783 2039583
-0.17509606 0.094713405 1.6213741 1057338
-0.1249216 0.094701461 1.6209618 861506
-0.074989207 0.094683215 1.6210616 795201
-0.025068235 0.094671309 1.6206534 862020
0.025063271 0.094657265 1.6204129 1060167
0.074954718 0.094641156 1.6203419 1125704
0.12482793 0.094631381 1.6197623 993606
0.17491333 0.094615214 1.6196926 927812
0.22498539 0.094601132 1.6194519 1058885
0.27503806 0.094585001 1.6193784 1059654
0.32507828 0.094573036 1.618971 992580
0.37292138 0.094529092 1.6211958 860994
0.4252542 0.094427265 1.6279604 926787
0.47543341 0.094411604 1.6278454 1058115
0.52492172 0.094399355 1.6274751 1191240
0.5747357 0.094385341 1.6272378 1191240
0.6248641 0.094369702 1.6271229 1124678
0.66284734 0.09434028 1.6284508 1058885
-1.3177338 0.094395086 1.6783183 10197915
-1.2752756 0.094412602 1.6757449 10197915
-1.2251086 0.09439861 1.6754963 10197915
-1.1753097 0.094386488 1.675108 10197915
-1.1251709 0.094372436 1.6748633 10197915
-1.0747051 0.094356649 1.6747516 10197915
-1.0245976 0.094342671 1.6745037 10197915
-0.97485501 0.094330549 1.6741153 10197915
-0.92512661 0.094314933 1.6740113 10197915
-0.87506342 0.094300956 1.6737634 10197915
-0.82501584 0.094290465 1.6732353 10197915
-0.77498978 0.094273023 1.6732677 10197915
-0.72497094 0.094259091 1.67302 7960953
-0.67496693 0.094245128 1.6727728 2039583
-0.62497783 0.094231203 1.6725253 2039583
-0.57500756 0.094220728 1.6719979 2039583
-0.52505213 0.094203323 1.6720301 2039583
-0.47510731 0.094189383 1.6717829 2039583
-0.42517722 0.094175451 1.6715357 2039583
-0.37491971 0.094163142 1.6711487 2039583
-0.32467264 0.094147414 1.671038 2829099
-0.2751365 0.094135351 1.6706511 2171169
-0.22526439 0.094121389 1.6704075 2039583
-0.17506842 0.094105676 1.6702971 926526
-0.12522705 0.094091766 1.6700501 861250
-0.075055093 0.094079487 1.669664 729665
-0.024900943 0.094063766 1.6695534 927557
0.027310546 0.093960054 1.6764714 1060167
0.075125873 0.093913585 1.6789012 1059911
0.12519641 0.093894951 1.6790283 993606
0.17524737 0.093885697 1.6784022 928069
0.22528479 0.093867064 1.6785299 1059141
0.27507716 0.093855567 1.6780909 1059655
0.32508305 0.093841568 1.6778467 1059142
0.37507826 0.09382771 1.6775928 926530
0.42505437 0.093813732 1.677349 860994
0.47502005 0.093799859 1.6770954 992322
0.52496648 0.093785889 1.6768513 1322568
0.57513231 0.093769602 1.6767869 1322826
0.62505162 0.093760386 1.676162 1190726
0.67249197 0.093718849 1.6782044 1124422
0.70216018 0.093480788 1.6965564 1190728
-1.3624074 0.093693741 1.7360018 10197915
-1.3250998 0.093783528 1.7277526 10197915
-1.274799 0.093764499 1.7279042 10197915
-1.2247503 0.093753211 1.7274415 10197915
-1.1751992 0.09373948 1.7271876 10197915
-1.1251795 0.093725562 1.7269391 10197915
-1.0749398 0.093711719 1.7266769 10197915
-1.02495 0.093695283 1.7266287 10197915
-0.97497743 0.093684003 1.726166 10197915
-0.92501909 0.09367267 1.7257099 10197915
-0.87507755 0.093653746 1.7258655 10197915
-0.82538754 0.093642578 1.7254024 10197915
-0.77523226 0.093628593 1.7251527 10197915
-0.72509646 0.093614779 1.7248908 4342338
-0.6752094 0.093598381 1.7248434 2039583
-0.62510359 0.093589582 1.7241789 2039583
-0.57500917 0.093570627 1.7243315 2039583
-0.5249297 0.093561806 1.7236679 2039583
-0.47486842 0.093542881 1.72382 2039583
-0.42505518 0.093531653 1.723359 2039583
-0.37502325 0.093517728 1.7231097 2105376
-0.32500157 0.093503937 1.7228487 2829099
-0.27499923 0.093489997 1.7225987 2039583
-0.2247701 0.093473591 1.7225435 1974048
-0.17479555 0.093464799 1.7218804 795714
-0.12483688 0.093445912 1.722033 795713
-0.074888341 0.09343712 1.7213707 729665
-0.024962833 0.093418203 1.721523 862020
0.022570284 0.093338907 1.7266035 928581
0.074964471 0.093260229 1.7315027 994118
0.124805 0.093244471 1.7314032 928069
0.17498998 0.09323059 1.731145 993605
0.22479463 0.093218744 1.7307332 1059398
0.27495107 0.093204819 1.7304796 1059654
0.32544613 0.093188971 1.7303724 1059654
0.37521365 0.093177132 1.7299603 993092
0.42496136 0.093161419 1.7298616 729152
0.47505695 0.093147568 1.729604 860737
0.52477688 0.093135767 1.7291921 1322055
0.57448375 0.093120061 1.7290934 1454154
0.62489045 0.093108021 1.728682 1256776
0.67528141 0.093092196 1.7285757 1124678
0.70945197 0.093049176 1.7311007 1125191
-1.4114603 0.09304978 1.7891781 10197915
-1.3760611 0.09315712 1.7795686 10197915
-1.3247226 0.093091503 1.7834423 10197915
-1.2750319 0.093077824 1.7831806 10197915
-1.2253556 0.093064167 1.7829189 10197915
-1.1753292 0.093052521 1.7824851 10197915
-1.1253115 0.093036637 1.7823926 10197915
-1.0753125 0.093025014 1.7819579 10197915
-1.0253251 0.093009166 1.7818654 10197915
-0.97498244 0.092995316 1.7816001 10197915
-0.92503154 0.092983685 1.7811656 10197915
-0.87508559 0.092967831 1.7810738 10197915
-0.82516295 0.092956208 1.7806406 10197915
-0.77524757 0.092940368 1.7805467 8684676
-0.72535324 0.092928775 1.7801142 2039583
-0.67546892 0.092912942 1.780022 2039583
-0.62522984 0.092899114 1.7797574 2039583
-0.57501048 0.092889473 1.7791567 2039583
-0.52480614 0.092871487 1.7792277 2039583
-0.47461197 0.092857689 1.7789636 2039583
-0.42480165 0.09284611 1.7785314 2039583
-0.37501043 0.0928303 1.7784382 2302755
-0.32486072 0.092816524 1.7781745 2697513
-0.27509809 0.092804931 1.7777418 2039583
-0.2253477 0.092789143 1.7776504 1843236
-0.17524242 0.09277536 1.7773862 861506
-0.12479061 0.092763528 1.7769551 796226
-0.074713811 0.092749819 1.7766864 795458
-0.025025371 0.092734091 1.7765951 795971
0.025020424 0.09272033 1.7763309 928581
0.075051375 0.092706591 1.776068 994118
0.12506083 0.092696972 1.7754698 928070
0.17505935 0.092679076 1.7755411 928069
0.22504577 0.09266533 1.7752781 1059398
0.27501741 0.092651583 1.7750148 1059911
0.32533544 0.092639804 1.774585 1125447
0.37527868 0.092626117 1.774317 1059397
0.42483386 0.092610374 1.7742255 795457
0.47474626 0.09259665 1.7739631 794688
0.52500737 0.092584863 1.7735329 1190470
0.57525533 0.092569008 1.7734338 1454154
0.62512326 0.092555292 1.7731704 1322825
0.67533612 0.092543527 1.772741 1190728
0.71852821 0.092511952 1.7740989 1125191
-1.4285691 -0.65375656 1.8315562 2039583
-1.4291242 -0.6250608 1.8311125 2039583
-1.429389 -0.57505196 1.8313394 2039583
-1.4296137 -0.52505904 1.8316154 2039583
-1.4299244 -0.47517496 1.8317717 2039583
-1.4304078 -0.42503762 1.8316883 2039583
-1.4306545 -0.37501171 1.8319401 2039583
-1.430861 -0.32497135 1.8322434 2039583
-1.4312853 -0.27513039 1.8322381 2039583
-1.4316782 -0.22502798 1.8322811 2039583
-1.4318658 -0.17502151 1.832611 2039583
-1.4321245 -0.12493239 1.8328441 2039583
-1.4327152 -0.075004682 1.8326083 2039583
-1.4328754 -0.025058918 1.8329779 2039583
-1.4330959 0.025064101 1.8332624 2039583
-1.432778 0.07219857 1.8329968 8158332
-1.3749542 0.0925221 1.8306561 10197915
-1.3250847 0.092510775 1.8302007 10197915
-1.2752304 0.092494845 1.8301165 10197915
-1.2250078 0.092481129 1.8298451 10197915
-1.175186 0.092469797 1.82939 10197915
-1.1253723 0.092453882 1.829306 10197915
-1.0748187 0.092442304 1.8288534 10197915
-1.0246539 0.092428669 1.8285764 10197915
-0.9748925 0.092412777 1.8284925 10197915
-0.92475861 0.092399053 1.8282213 10197915
-0.87502074 0.092387773 1.8277674 10197915
-0.82530004 0.092371881 1.8276837 10197915
-0.77521086 0.092358194 1.8274127 5395026
-0.72476184 0.092346638 1.8269602 2039583
-0.67470074 0.092333019 1.8266845 2039583
-0.62504196 0.092317142 1.8266008 2039583
-0.57501215 0.092303477 1.8263301 2039583
-0.52499688 0.092289813 1.8260596 2039583
-0.47499847 0.092280664 1.8254253 2039583
-0.42502099 0.092262484 1.8255188 2039583
-0.37505034 0.092248827 1.8252486 2500134
-0.3250944 0.092235163 1.8249786 2565927
-0.27477869 0.092223644 1.8245271 2039583
-0.22447553 0.092207655 1.8244344 1712425
-0.17494443 0.092196435 1.8239819 861763
-0.12542845 0.092180587 1.8238988 862276
-0.075169325 0.092169076 1.8234476 861250
-0.024928629 0.092153147 1.8233557 730435
0.024923719 0.092139527 1.8230861 994375
0.075134568 0.092128031 1.822636 1059911
0.12533401 0.092112087 1.8225431 993862
0.17514199 0.09209846 1.8222736 928069
