# .PCD v0.7 - Point Cloud Data file format
VERSION 0.7
FIELDS x y z rgb
SIZE 4 4 4 4
TYPE F F F U
COUNT 1 1 1 1
WIDTH 1156
HEIGHT 1
VIEWPOINT 0 0 0 1 0 0 0
POINTS 1156
DATA ascii
-1.0809968 0.097114764 3.8428464 6513507
0.081885263 0.099205114 3.8009412 6513507
0.12605655 0.099267177 3.8033185 6513507
0.17502314 0.099335976 3.8059542 6513507
0.22405839 0.099404857 3.8085935 6513507
0.27474639 0.099476062 3.811322 6513507
0.3255071 0.099547364 3.8140538 6513507
0.37475061 0.09961655 3.8167048 6513507
0.438499 0.079278834 3.8429086 6513507
0.47527277 0.07619261 3.8361948 6513507
0.52551818 0.075980894 3.820863 6513507
0.57038397 0.076090321 3.8064675 6513507
-1.6687169 -1.7175006 3.8780499 6513507
0.2784732 -1.7210658 3.8935468 11711154
0.32366666 -1.7177283 3.8790081 11711154
0.37335348 -1.7142369 3.8630242 11711154
0.40670928 -1.7117746 3.8522956 11711154
-1.6697375 -1.6749413 3.875283 6513507
0.27918586 -1.6750878 3.8934929 11711154
0.32474768 -1.6749625 3.8788252 11711154
0.37458166 -1.6751316 3.8627796 11711154
0.40709269 -1.6751513 3.8523138 11711154
-1.6697873 -1.6249858 3.875598 6513507
0.27898058 -1.6250316 3.8937507 11711154
0.32447436 -1.6250256 3.8791049 11711154
0.3743825 -1.6251018 3.8630352 11711154
0.40699372 -1.624789 3.8525383 11711154
-1.6698895 -1.5750272 3.8757546 6513507
0.27993882 -1.5755656 3.8936334 11711154
0.32469067 -1.5750817 3.8792269 11711154
0.37453064 -1.5750647 3.8631794 11711154
0.4068931 -1.5747393 3.8527629 11711154
-1.670009 -1.5249335 3.8758557 6513507
0.28070614 -1.525017 3.8935802 11711154
0.32470018 -1.5250338 3.8794162 11711154
0.37466612 -1.5250229 3.8633299 11711154
0.40738016 -1.5247793 3.8527977 11711154
-1.6700754 -1.4749613 3.8761249 6513507
0.2806437 -1.4749568 3.8937929 11711154
0.32459643 -1.4749788 3.8796408 11711154
0.37438062 -1.4749765 3.8636141 11711154
0.40851429 -1.475044 3.8526235 11711154
-1.6705513 -1.4270632 3.8751013 6513507
0.28072491 -1.4250104 3.8939583 11711154
0.32481343 -1.4250236 3.8797634 11711154
0.3746222 -1.4250276 3.8637269 11711154
0.40854937 -1.4248369 3.8528049 11711154
-1.6767302 -1.3777986 3.8563738 6513507
0.28067079 -1.375074 3.8941679 11711154
0.32453981 -1.3750565 3.8800426 11711154
0.37463954 -1.3748721 3.8639152 11711154
0.40878412 -1.3751677 3.852921 11711154
-1.6771849 -1.3249614 3.8554602 6513507
0.28112945 -1.3253285 3.8942101 11711154
0.32486981 -1.3250934 3.8801291 11711154
0.37449029 -1.3248078 3.8641543 11711154
0.40865445 -1.324942 3.8531544 11711154
-1.6772513 -1.2747114 3.8557303 6513507
0.28212461 -1.2750536 3.894084 11711154
0.32465285 -1.2750173 3.8803926 11711154
0.37469545 -1.2750481 3.8642805 11711154
0.40852496 -1.2747099 3.85339 11711154
-1.6773174 -1.2244536 3.8560009 6513507
0.28250775 -1.2250978 3.8941526 11711154
0.32473144 -1.2250416 3.8805587 11711154
0.37466913 -1.2249725 3.8644807 11711154
0.41006073 -1.2245357 3.8530874 11711154
-1.6774478 -1.1750019 3.8560634 6513507
0.28217134 -1.1749973 3.8944535 11711154
0.3247906 -1.1749618 3.8807318 11711154
0.37458792 -1.1749977 3.8646982 11711154
0.41025642 -1.1749067 3.8532155 11711154
-1.6779251 -1.1224533 3.8550785 6513507
0.28251749 -1.1250358 3.8945341 11711154
0.32473755 -1.1248682 3.8809428 11711154
0.37464973 -1.1251229 3.8648705 11711154
0.41010472 -1.1247811 3.8534567 11711154
-1.6783091 -1.083178 3.8542576 6513507
0.28219858 -1.0750685 3.8948276 11711154
0.3247973 -1.074985 3.8811135 11711154
0.37477243 -1.0748324 3.865025 11711154
0.41046578 -1.0753622 3.8535302 11711154
0.28375575 -1.0256447 3.8945155 11711154
0.32485652 -1.0248803 3.8812876 11711154
0.37464851 -1.0249461 3.8652556 11711154
0.41031575 -1.0249987 3.8537724 11711154
0.28375894 -0.97503507 3.8947096 11711154
0.32477191 -0.97488594 3.8815055 11711154
0.37466046 -0.97505182 3.8654432 11711154
0.41081873 -0.97387624 3.8538067 11711154
0.28419974 -0.92507124 3.8947606 11711154
0.32490012 -0.92487592 3.8816571 11711154
0.37493408 -0.92494881 3.8655477 11711154
0.41209686 -0.92519301 3.8535821 11711154
0.28378633 -0.87508029 3.8950853 11711154
0.32479692 -0.8749662 3.8818822 11711154
0.37455982 -0.87505066 3.8658602 11711154
0.41191769 -0.87493485 3.8538332 11711154
0.28422707 -0.82511044 3.8951352 11711154
0.32485622 -0.82505047 3.8820541 11711154
0.37483853 -0.82503879 3.8659616 11711154
0.41173851 -0.8246696 3.8540843 11711154
0.28427371 -0.77567625 3.8953094 6710886
0.32504243 -0.77492964 3.8821893 7237230
0.37490687 -0.77502555 3.866133 7960953
0.41215643 -0.77523452 3.8541386 8487297
-1.6789199 -0.70926857 3.8558969 6513507
0.28582165 -0.72509134 3.8950062 6513507
0.32468551 -0.7250036 3.8824933 6513507
0.37457669 -0.72500616 3.8664312 6513507
0.41219097 -0.72460341 3.8543227 6513507
-1.6789514 -0.6746738 3.8561256 6513507
0.28547463 -0.67490077 3.8953102 6513507
0.32527956 -0.67497796 3.8824952 6513507
0.37512407 -0.67508644 3.8664467 6513507
0.41331759 -0.67468071 3.8541527 6513507
-1.6790967 -0.62519854 3.8561437 6513507
0.2858046 -0.62492317 3.895396 6513507
0.3245149 -0.62493473 3.8829336 6513507
0.3746888 -0.62495464 3.8667796 6513507
0.41377985 -0.62523937 3.8541934 6513507
-1.6791545 -0.57516301 3.856436 6513507
0.28550196 -0.57490176 3.8956871 6513507
0.32533896 -0.57510716 3.882859 6513507
0.3747541 -0.57492125 3.866951 6513507
0.41357949 -0.57486701 3.8544507 6513507
-1.6792141 -0.5245865 3.8567293 6513507
0.28583232 -0.52491736 3.8957725 6513507
0.32460749 -0.52494866 3.8832884 6513507
0.37521315 -0.52499282 3.8669941 6513507
0.41339788 -0.5248428 3.8547018 6513507
-1.679304 -0.48999617 3.8567789 6513507
0.28689307 -0.47522056 3.8956211 6513507
0.32531756 -0.47511575 3.88325 6513507
0.37451813 -0.47483358 3.8674109 6513507
0.41381609 -0.47538975 3.8547566 6513507
0.2874316 -0.42488313 3.8956411 6513507
0.3248094 -0.42494753 3.8836071 6513507
0.37528756 -0.42520681 3.8673532 6513507
0.41482589 -0.42429155 3.8546278 6513507
0.28720355 -0.37464476 3.8959074 6513507
0.32517859 -0.37510037 3.8836794 6513507
0.37492687 -0.37494406 3.8676622 6513507
0.415039 -0.3749527 3.8547487 6513507
0.28739548 -0.3246434 3.8960373 6513507
0.32501316 -0.32503057 3.8839262 6513507
0.37463897 -0.32487527 3.8679488 6513507
0.41537765 -0.32548624 3.854831 6513507
0.2872313 -0.27460149 3.8962829 6513507
0.32502869 -0.27516291 3.8841102 6513507
0.37525895 -0.27523753 3.8679397 6513507
0.41524148 -0.27470258 3.8550694 6513507
0.28810662 -0.22538599 3.8961902 6513507
0.32504433 -0.2252903 3.8842993 6513507
0.37480989 -0.22455013 3.8682792 6513507
0.41526142 -0.22520295 3.8552523 6513507
0.28883833 -0.17454359 3.8961501 6513507
0.32506004 -0.175413 3.884485 6513507
0.37517878 -0.174896 3.8683517 6513507
0.41589448 -0.1751131 3.8552418 6513507
0.28902665 -0.12453533 3.8962815 6513507
0.3250756 -0.12553088 3.88467 6513507
0.37501699 -0.12501137 3.8685935 6513507
0.4168435 -0.12457623 3.85513 6513507
0.28895155 -0.074256346 3.8964984 6513507
0.32509118 -0.075643927 3.8848577 6513507
0.37503508 -0.075330876 3.8687789 6513507
0.41686368 -0.075068705 3.8553126 6513507
0.2889654 -0.024215065 3.8966856 6513507
0.32510677 -0.025752228 3.8850439 6513507
0.37505302 -0.025645632 3.8689654 6513507
0.4168835 -0.025556372 3.8554971 6513507
0.28906983 0.023998886 3.8968389 6513507
0.32512298 0.025753926 3.8852365 6513507
0.37507156 0.02564732 3.8691545 6513507
0.41690397 0.025558047 3.8556876 6513507
-0.91285384 0.097349875 3.8521497 6513507
-0.87502497 0.097402759 3.8542423 6513507
-0.82452589 0.097473368 3.8570368 6513507
-0.78660572 0.097526401 3.8591354 6513507
-0.70429945 0.097641513 3.8636899 6513507
-0.68527657 0.097668096 3.8647416 6513507
-0.45461214 0.09799061 3.8775043 6513507
-0.42427105 0.098033048 3.8791833 6513507
-0.37471598 0.098102346 3.8819249 6513507
-0.32829466 0.098167256 3.8844936 6513507
-0.21920305 0.098319791 3.8905296 6513507
-0.19027023 0.098360248 3.8921306 6513507
-0.061385084 0.098540463 3.8992615 6513507
0.29057035 0.074257664 3.8965485 6513507
0.32513854 0.075655341 3.8854253 6513507
0.37508944 0.075342186 3.8693404 6513507
0.41692376 0.075079933 3.8558707 6513507
-1.6528064 -1.7536829 3.9271283 6513507
-1.6478169 -1.7568778 3.9425962 6513507
0.12373213 -1.7571741 3.9432273 11711154
0.17066154 -1.7537696 3.9281306 11711154
0.20607708 -1.7508487 3.9167402 11711154
-1.6556861 -1.7247553 3.918458 6513507
-1.6479819 -1.7247471 3.9423888 6513507
0.12664591 -1.7255797 3.9424105 11711154
0.17572977 -1.7250674 3.9266088 11711154
0.22494835 -1.7244989 3.9107647 11711154
0.25376517 -1.7230204 3.9014935 11711154
-1.6558182 -1.6749139 3.9185174 6513507
-1.6480665 -1.6752906 3.9425924 6513507
0.12726876 -1.6751541 3.9424033 11711154
0.17567986 -1.6750277 3.9268172 11711154
0.22515456 -1.6749902 3.9108889 11711154
0.2537095 -1.6751328 3.901695 11711154
-1.65591 -1.6248738 3.9187062 6513507
-1.6481528 -1.6252854 3.9427984 6513507
0.12743253 -1.624952 3.9425416 11711154
0.1757275 -1.6250781 3.9269946 11711154
0.22526155 -1.6249502 3.9110467 11711154
0.25385791 -1.6251296 3.9018395 11711154
-1.6560187 -1.5750353 3.918839 6513507
-1.64824 -1.5747312 3.9430058 6513507
0.12746209 -1.5749794 3.9427254 11711154
0.1757618 -1.575127 3.9271753 11711154
0.22521764 -1.5750123 3.9112525 11711154
0.25466502 -1.5734625 3.9017785 11711154
-1.6561052 -1.5251952 3.9190428 6513507
-1.6483247 -1.5252596 3.9432101 6513507
0.12728706 -1.5251117 3.942975 11711154
0.17564693 -1.5250689 3.9274051 11711154
0.22517399 -1.5250685 3.9114587 11711154
0.25549853 -1.5251232 3.9016955 11711154
-1.6561974 -1.4751388 3.9192307 6513507
-1.6484106 -1.4752389 3.9434156 6513507
0.12748876 -1.4750141 3.9431 11711154
0.17586316 -1.4749066 3.9275281 11711154
0.22539105 -1.475016 3.9115806 11711154
0.25530654 -1.4750583 3.9019499 11711154
-1.6567651 -1.4354337 3.9178436 6513507
-1.6486589 -1.4413127 3.9429669 6513507
0.12903079 -1.4250022 3.9427974 11711154
0.17559782 -1.4249376 3.9278047 11711154
0.22514088 -1.4249533 3.9118545 11711154
0.2555232 -1.4250426 3.902072 11711154
0.12908609 -1.3751801 3.9429698 11711154
0.17581508 -1.3749686 3.9279273 11711154
0.22535764 -1.3748927 3.9119775 11711154
0.25533122 -1.3749659 3.9023261 11711154
0.12899478 -1.3251064 3.9431911 11711154
0.17578511 -1.3249947 3.9281285 11711154
0.22523066 -1.3250326 3.91221 11711154
0.25590855 -1.3239708 3.9023364 11711154
0.12904942 -1.2749083 3.9433689 11711154
0.17565018 -1.2750086 3.9283631 11711154
0.22532374 -1.2749659 3.9123719 11711154
0.2569173 -1.2748524 3.9022007 11711154
0.12910485 -1.2250721 3.943541 11711154
0.17587335 -1.2249279 3.9284856 11711154
0.22528002 -1.2249875 3.9125783 11711154
0.25717479 -1.2248214 3.9023089 11711154
0.12998383 -1.1755271 3.9434483 11711154
0.17576478 -1.1751382 3.9287107 11711154
0.22535904 -1.1750164 3.9127443 11711154
0.256982 -1.1750619 3.9025631 11711154
0.13050103 -1.1249461 3.9434762 11711154
0.17575352 -1.1250392 3.928906 11711154
0.22531572 -1.1250336 3.9129505 11711154
0.25715795 -1.1250142 3.902698 11711154
0.130693 -1.0750315 3.9436071 11711154
0.17577511 -1.074842 3.9290931 11711154
0.22536674 -1.074939 3.9131272 11711154
0.25709006 -1.0752579 3.9029105 11711154
0.13098022 -1.024979 3.9437072 11711154
0.17589541 -1.0251369 3.9292436 11711154
0.22526824 -1.0248426 3.9133503 11711154
0.25834119 -1.0242355 3.9027042 11711154
0.13046679 -0.97505558 3.944061 11711154
0.17579801 -0.97512907 3.9294682 11711154
0.22552709 -0.97505909 3.9134581 11711154
0.25869748 -0.97497505 3.9027791 11711154
0.1306683 -0.92499298 3.9441917 11711154
0.17570896 -0.92501491 3.9296896 11711154
0.2251668 -0.92506427 3.9137659 11711154
0.25871003 -0.92489666 3.9029677 11711154
0.13260409 -0.87472922 3.9437609 11711154
0.17612855 -0.87509376 3.9297469 11711154
0.22557665 -0.87505597 3.913826 11711154
0.25872239 -0.8748135 3.9031546 11711154
0.13224518 -0.82500201 3.9440668 9671571
0.1755625 -0.82507378 3.9301212 10329501
0.22521552 -0.82504719 3.914134 10987431
0.25865158 -0.82498568 3.9033697 11447982
0.13215894 -0.77512521 3.9442875 6513507
0.17583266 -0.77504355 3.9302249 6513507
0.22548789 -0.77492434 3.9142389 6513507
0.25940692 -0.77401847 3.903322 6513507
0.13264073 -0.72466862 3.9443247 6513507
0.17620091 -0.72511327 3.9302993 6513507
0.22547126 -0.72501332 3.9144361 6513507
0.2601983 -0.7248891 3.9032564 6513507
0.13236189 -0.6749258 3.9446049 6513507
0.17543967 -0.67507041 3.9307368 6513507
0.22524951 -0.67498642 3.9147 6513507
0.2605027 -0.67481875 3.9033511 6513507
0.13289085 -0.62598395 3.9446259 6513507
0.1760855 -0.62482929 3.930722 6513507
0.22577009 -0.62496519 3.9147243 6513507
0.26019129 -0.62514955 3.9036419 6513507
0.13420904 -0.57473981 3.9443974 6513507
0.17605184 -0.57508749 3.9309239 6513507
0.22506252 -0.57513392 3.9151435 6513507
0.26055411 -0.57507753 3.9037182 6513507
0.13399926 -0.52458584 3.9446571 6513507
0.17546032 -0.52522635 3.9313066 6513507
0.22581331 -0.52489579 3.9150944 6513507
0.26024428 -0.52516574 3.9040101 6513507
0.13400561 -0.47558141 3.9448433 6513507
0.17629752 -0.47477999 3.9312289 6513507
0.22527407 -0.47505426 3.9154599 6513507
0.26196185 -0.47471055 3.90365 6513507
0.13392064 -0.42509601 3.9450629 6513507
0.17589167 -0.4251152 3.9315515 6513507
0.22554836 -0.42490554 3.9155641 6513507
0.26199958 -0.42535201 3.903827 6513507
0.13421266 -0.37461221 3.9451652 6513507
0.17551479 -0.37523803 3.931864 6513507
0.22557689 -0.37485376 3.9157474 6513507
0.26201224 -0.37523356 3.904016 6513507
0.13564298 -0.32522988 3.9448924 6513507
0.17630011 -0.32478565 3.9318054 6513507
0.22512165 -0.32510054 3.9160848 6513507
0.26202494 -0.32511035 3.9042039 6513507
0.13544318 -0.275105 3.9451501 6513507
0.17591695 -0.27530587 3.9321172 6513507
0.22587228 -0.27485332 3.9160366 6513507
0.26203758 -0.27498212 3.9043922 6513507
0.13586694 -0.2244879 3.9452081 6513507
0.17583118 -0.22491418 3.9323394 6513507
0.22551078 -0.22552654 3.916343 6513507
0.26283523 -0.22412233 3.9043312 6513507
0.13566263 -0.1748976 3.9454648 6513507
0.1760339 -0.17442946 3.9324701 6513507
0.22552171 -0.17523769 3.9165332 6513507
0.26364508 -0.17468853 3.9042604 6513507
0.13566905 -0.12586679 3.9456506 6513507
0.17433824 -0.12546968 3.9332016 6513507
0.22393721 -0.1249603 3.9172361 6513507
0.26365766 -0.12455245 3.9044492 6513507
0.13653842 -0.075955033 3.9455612 6513507
0.17434664 -0.074959487 3.9333942 6513507
0.22394805 -0.074655145 3.9174263 6513507
0.26367044 -0.074411422 3.9046376 6513507
0.13730016 -0.024518501 3.9455147 6513507
0.17435518 -0.024444358 3.9335847 6513507
0.22395886 -0.024345132 3.9176164 6513507
0.2636832 -0.024265649 3.9048259 6513507
0.13730668 0.02452004 3.9457009 6513507
0.17436345 0.024445897 3.9337683 6513507
0.22396925 0.024346646 3.9177995 6513507
0.26381189 0.024433251 3.9049709 6513507
-1.4594983 0.096105389 3.9318173 6579300
-1.4243834 0.09615425 3.9338164 6513507
-1.3748471 0.096223183 3.9366357 6513507
-1.3252383 0.09629219 3.9394596 6513507
-1.2771636 0.096359082 3.9421964 6513507
-1.1421987 0.096546888 3.9498796 6513507
-0.024241272 0.098592415 3.9013169 6513507
0.024263481 0.098660231 3.9040005 6513507
0.074455604 0.098730415 3.9067779 6513507
0.13591373 0.076367393 3.9418516 6513507
0.17441685 0.075035721 3.9325221 6513507
0.2240625 0.074564658 3.9177454 6513507
0.26529017 0.074412845 3.9046879 6513507
-1.6368353 -1.7647537 3.9766328 6513507
-0.051365983 -1.7696408 3.9995537 11711154
-0.025692098 -1.7677813 3.9912951 11711154
0.023682291 -1.7642504 3.9754112 11711154
0.073951401 -1.7606978 3.9592404 11711154
-1.6379559 -1.7250528 3.9735281 6513507
-0.051368196 -1.7249769 3.9997256 11711154
-0.024774933 -1.7249243 3.9911647 11711154
0.024643632 -1.724955 3.9752522 11711154
0.075393967 -1.7248991 3.9589138 11711154
0.10309676 -1.7117335 3.9500453 11711154
-1.6380328 -1.6748582 3.9737608 6513507
-0.05137058 -1.6770003 3.9999106 11711154
-0.024820136 -1.6750703 3.9913683 11711154
0.024731545 -1.6750791 3.9754157 11711154
0.075451143 -1.6749543 3.9590878 11711154
0.10310049 -1.6741557 3.9501884 11711154
-1.6381099 -1.6249548 3.9739957 6513507
-0.024792138 -1.625101 3.9915526 11711154
0.024775559 -1.6249797 3.9755943 11711154
0.075488128 -1.6251087 3.9592671 11711154
0.10310537 -1.625137 3.9503753 11711154
-1.6382642 -1.5750489 3.9739885 6513507
-0.024778893 -1.5750165 3.9917405 11711154
0.024777466 -1.5749871 3.9757864 11711154
0.075598553 -1.5751561 3.9594231 11711154
0.10311024 -1.5761136 3.950562 11711154
-1.63823 -1.5249828 3.9745717 6513507
-0.024721585 -1.5249276 3.9919159 11711154
0.024605319 -1.5250953 3.9760325 11711154
0.075315416 -1.5250959 3.9597068 11711154
0.10311528 -1.5254513 3.9507549 11711154
-1.6386256 -1.4757546 3.973805 6513507
-0.024810202 -1.4750513 3.992135 11711154
0.024678595 -1.4750909 3.9762025 11711154
0.07541877 -1.4750308 3.9598656 11711154
0.10312032 -1.4747841 3.9509478 11711154
-1.6429384 -1.4453845 3.9606969 6513507
-0.024899203 -1.425172 3.9923558 11711154
0.024694154 -1.4249734 3.9763889 11711154
0.075509094 -1.4249624 3.9600296 11711154
0.10474806 -1.4255582 3.9506128 11711154
-0.024024161 -1.3756526 3.9922631 11711154
0.024810154 -1.3747423 3.9765439 11711154
0.075553499 -1.3749914 3.9602067 11711154
0.10475318 -1.3748881 3.9508064 11711154
-0.023130314 -1.3251356 3.9921691 11711154
0.024682092 -1.3248322 3.9767783 11711154
0.075322688 -1.3251128 3.9604716 11711154
0.10475828 -1.3242128 3.9509993 11711154
-0.023154726 -1.274992 3.9923704 11711154
0.024712374 -1.2751369 3.9769588 11711154
0.075506613 -1.2750312 3.9606051 11711154
0.10476323 -1.2751675 3.9511864 11711154
-0.023163659 -1.2248427 3.9925663 11711154
0.024670057 -1.2252158 3.9771636 11711154
0.075550199 -1.2248436 3.9607842 11711154
0.10471592 -1.2252787 3.9513929 11711154
-0.023196017 -1.1748021 3.9927692 11711154
0.024671301 -1.1750747 3.9773567 11711154
0.07546749 -1.1749508 3.9610023 11711154
0.10581386 -1.1720171 3.9512439 11711154
-0.023181416 -1.124995 3.992955 11711154
0.024787366 -1.1248224 3.9775121 11711154
0.075470954 -1.1251571 3.9611931 11711154
0.10640119 -1.1245846 3.9512367 11711154
-0.021616017 -1.0751503 3.9926434 11711154
0.024659162 -1.074777 3.9777451 11711154
0.075534336 -1.0750557 3.9613643 11711154
0.10640622 -1.075527 3.9514248 11711154
-0.021482736 -1.0250748 3.9927936 11711154
0.024718339 -1.0249479 3.9779181 11711154
0.075438082 -1.0249518 3.9615879 11711154
0.1064114 -1.0248291 3.951617 11711154
-0.021399856 -0.97511554 3.9929552 11711154
0.02477745 -0.97511441 3.9780908 11711154
0.075461939 -0.97504044 3.9617724 11711154
0.1064166 -0.97412634 3.9518104 11711154
-0.021333745 -0.92502481 3.9931293 11711154
0.024922444 -0.92516685 3.9782352 11711154
0.075646125 -0.92512536 3.9619043 11711154
0.10642165 -0.92505461 3.9519966 11711154
-0.021621266 -0.87505442 3.9934139 11711154
0.024620406 -0.87510723 3.9785247 11711154
0.075561948 -0.87500465 3.9621246 11711154
0.10796947 -0.87543887 3.9516888 11711154
-0.020871127 -0.82575685 3.9933617 7566195
0.024535334 -0.82503939 3.9787445 8158332
0.075311512 -0.82498091 3.9623966 8882055
0.10813186 -0.82475674 3.9518318 9276813
-0.020008421 -0.77533352 3.9932768 6513507
0.024666553 -0.77496725 3.9788947 6513507
0.075443193 -0.77505243 3.9625471 6513507
0.10805979 -0.77443618 3.9520488 6513507
-0.019936435 -0.72518778 3.9934461 6513507
0.024797594 -0.72489172 3.9790461 6513507
0.075733304 -0.72491622 3.9626455 6513507
0.10806493 -0.72535217 3.9522352 6513507
-0.019864516 -0.6750375 3.9936152 6513507
0.024928443 -0.67481279 3.9791954 6513507
0.075692296 -0.67498064 3.9628508 6513507
0.1079654 -0.6754241 3.9524589 6513507
-0.019729685 -0.62474781 3.9937651 6513507
0.024815047 -0.62494612 3.9794238 6513507
0.075186074 -0.62513584 3.9632053 6513507
0.1090954 -0.62328422 3.9522958 6513507
-0.019684551 -0.57445168 3.9939437 6513507
0.024612369 -0.57529086 3.9796801 6513507
0.07540416 -0.57508796 3.9633265 6513507
0.10970306 -0.57472193 3.952286 6513507
-0.018447014 -0.52475262 3.9937365 6513507
0.024498997 -0.52541095 3.979908 6513507
0.075753614 -0.52483529 3.9634087 6513507
0.10970826 -0.52562517 3.9524727 6513507
-0.018209493 -0.47487152 3.9938521 6513507
0.024645535 -0.47509342 3.9800539 6513507
0.075706899 -0.47477725 3.9636157 6513507
0.10971361 -0.47488704 3.9526668 6513507
-0.018210363 -0.42525372 3.9940429 6513507
0.025004219 -0.42456001 3.9801321 6513507
0.075521901 -0.42532498 3.9638646 6513507
0.10971899 -0.42414409 3.9528594 6513507
-0.018211229 -0.37563109 3.9942343 6513507
0.024821034 -0.37444511 3.9803841 6513507
0.075127244 -0.37544778 3.964184 6513507
0.10985226 -0.37472782 3.9530058 6513507
-0.018212108 -0.3260037 3.9944236 6513507
0.024720374 -0.32487619 3.9806066 6513507
0.075824432 -0.32467985 3.964154 6513507
0.11135164 -0.32587445 3.9527113 6513507
-0.017990317 -0.27632666 3.9945452 6513507
0.024721555 -0.27541557 3.9807973 6513507
0.075634293 -0.27439055 3.9644091 6513507
0.11135707 -0.27512351 3.9529054 6513507
-0.016427509 -0.22472903 3.9942389 6513507
0.024722734 -0.22595051 3.9809864 6513507
0.075536467 -0.22502221 3.9646297 6513507
0.11136248 -0.22436759 3.9530983 6513507
-0.016457239 -0.17393418 3.9944451 6513507
0.024373854 -0.17536205 3.9812934 6513507
0.075334452 -0.17593753 3.9648826 6513507
0.11112067 -0.17478454 3.9533665 6513507
-0.016556725 -0.12412061 3.9946675 6513507
0.025082862 -0.12427697 3.9812615 6513507
0.07391309 -0.12485826 3.9655371 6513507
0.10965681 -0.1258864 3.9540255 6513507
-0.016557505 -0.074475788 3.9948592 6513507
0.024726355 -0.074228019 3.9815676 6513507
0.073916726 -0.073932819 3.9657316 6513507
0.11080888 -0.074285306 3.9538529 6513507
-0.016558306 -0.024826318 3.995048 6513507
0.024727525 -0.02474373 3.9817576 6513507
0.073920213 -0.024645302 3.96592 6513507
0.11138192 -0.024570348 3.9538584 6513507
-0.015377798 0.024300952 3.9948595 6513507
0.024728686 0.024745297 3.9819472 6513507
0.073923707 0.024646865 3.9661078 6513507
0.11138724 0.024571899 3.9540465 6513507
-1.1196508 0.096578233 3.9511616 6513507
-1.0954801 0.096611857 3.9525378 6513507
-0.95009142 0.096814156 3.960814 6513507
-0.92417794 0.096850194 3.9622889 6513507
-0.87554324 0.096917868 3.9650567 6513507
-0.8252157 0.096987881 3.9679217 6513507
-0.79758954 0.097026356 3.9694955 6513507
-0.71456796 0.09714184 3.97422 6513507
-0.69500566 0.097169057 3.9753337 6513507
-0.46103308 0.097494587 3.9886513 6513507
-0.42489591 0.097544871 3.9907081 6513507
-0.37556091 0.097613506 3.9935167 6513507
-0.33274907 0.097673066 3.9959536 6513507
-0.014901238 0.074476898 3.9948978 6513507
0.024729868 0.07423903 3.982137 6513507
0.073927231 0.073943727 3.9662962 6513507
0.11139246 0.073718809 3.9542325 6513507
-1.6164533 -1.8038955 4.0395727 6513507
-0.20488095 -1.8055862 4.04884 11711154
-0.18029554 -1.8040611 4.0409312 11711154
-0.14355347 -1.8010811 4.0291128 11711154
-1.6214712 -1.7739129 4.0242691 6513507
-0.20458449 -1.7755505 4.0488605 11711154
-0.17573939 -1.7751848 4.0395746 11711154
-0.12536056 -1.7746869 4.0233569 11711154
-0.076994173 -1.7715721 4.0077977 11711154
-1.6218573 -1.7252208 4.0235314 6513507
-0.20465305 -1.7261291 4.0490723 11711154
-0.17574789 -1.7250621 4.0397716 11711154
-0.12497193 -1.7250894 4.0234218 11711154
-0.076447211 -1.7250102 4.0077996 11711154
-1.6219506 -1.6751492 4.0237136 6513507
-0.20466296 -1.6758856 4.0492682 11711154
-0.17571095 -1.6750451 4.0399504 11711154
-0.12503757 -1.6750543 4.0236359 11711154
-0.076206513 -1.6749343 4.007915 11711154
-1.6220263 -1.6250734 4.0239544 6513507
-0.20405188 -1.6298218 4.0492487 11711154
-0.1757649 -1.6250243 4.0401597 11711154
-0.12508826 -1.6250125 4.0238433 11711154
-0.074701324 -1.6250018 4.0076222 11711154
-1.6221381 -1.5749928 4.0240812 6513507
-0.20297734 -1.5751711 4.0491128 11711154
-0.17577335 -1.5748866 4.0403547 11711154
-0.12497515 -1.5748559 4.0240002 11711154
-0.074675515 -1.5748268 4.0078058 11711154
-1.6222404 -1.5247581 4.0242348 6513507
-0.20298718 -1.5249201 4.0493088 11711154
-0.17578183 -1.5249672 4.0405483 11711154
-0.12505573 -1.5248058 4.0242186 11711154
-0.074737944 -1.5248667 4.0080185 11711154
-1.6233184 -1.4841969 4.0212731 6513507
-0.20299703 -1.4746641 4.0495048 11711154
-0.17579027 -1.4750425 4.0407443 11711154
-0.12506171 -1.4748607 4.0244112 11711154
-0.074653305 -1.4749027 4.0081825 11711154
-0.20300682 -1.4244033 4.0497012 11711154
-0.17572288 -1.4250028 4.0409141 11711154
-0.12497842 -1.4248009 4.0245776 11711154
-0.074745141 -1.4249327 4.0084043 11711154
-0.2030167 -1.3741378 4.0498972 11711154
-0.17571615 -1.3750687 4.0411034 11711154
-0.12507378 -1.374736 4.0248008 11711154
-0.074748695 -1.3750688 4.0085974 11711154
-0.048058052 -1.3621972 4.0000534 11711154
-0.17586121 -1.3251301 4.0413427 11711154
-0.1250798 -1.3247766 4.0249949 11711154
-0.074737489 -1.3250896 4.0087857 11711154
-0.04805981 -1.3241307 4.0001998 11711154
-0.17571793 -1.2751874 4.0414891 11711154
-0.12498158 -1.2747031 4.0251555 11711154
-0.074755959 -1.2752173 4.0089827 11711154
-0.04806212 -1.2744746 4.0003915 11711154
-0.17586294 -1.225239 4.0417266 11711154
-0.12509185 -1.224623 4.025383 11711154
-0.074729897 -1.2253383 4.0091667 11711154
-0.048064414 -1.2248137 4.0005827 11711154
-0.17584103 -1.1751736 4.0419111 11711154
-0.12509793 -1.1746491 4.0255766 11711154
-0.074718766 -1.1753446 4.0093536 11711154
-0.04806672 -1.1751481 4.0007749 11711154
-0.17586477 -1.125104 4.0421124 11711154
-0.125104 -1.1246706 4.0257711 11711154
-0.074811041 -1.1252348 4.0095763 11711154
-0.048069019 -1.1254779 4.0009661 11711154
-0.17531694 -1.0753995 4.0421257 11711154
-0.12506488 -1.0747983 4.0259509 11711154
-0.074696459 -1.075123 4.0097322 11711154
-0.046465103 -1.0748647 4.0006442 11711154
-0.17415796 -1.0249313 4.0419459 11711154
-0.12511599 -1.0249221 4.0261579 11711154
-0.074774116 -1.0250046 4.0099492 11711154
-0.046409924 -1.0259857 4.0008144 11711154
-0.1693635 -0.98410654 4.0405607 11711154
-0.12492532 -0.97514606 4.0262876 11711154
-0.074674159 -0.97488248 4.0101099 11711154
-0.046412148 -0.97630787 4.0010056 11711154
-0.11479542 -0.93974811 4.0231624 11711154
-0.073010236 -0.92685121 4.0097585 11711154
-0.046414446 -0.9249689 4.0012035 11711154
-0.19289029 -0.85374659 4.0486364 6513507
-0.063082933 -0.87479556 4.006762 11711154
-0.046416745 -0.87362504 4.0014019 11711154
-0.1929732 -0.82411712 4.0487766 6513507
-0.063085943 -0.82503676 4.0069551 6908265
-0.04547495 -0.82136387 4.0012999 6908265
-0.19176863 -0.77769595 4.0485678 6513507
-0.063088976 -0.77527273 4.0071478 6513507
-0.044757679 -0.77413172 4.0012498 6513507
-0.19121018 -0.72626221 4.0485854 6513507
-0.063091986 -0.7255041 4.0073404 6513507
-0.044759825 -0.72443628 4.001442 6513507
-0.19121942 -0.67597651 4.0487814 6513507
-0.063095011 -0.67573041 4.0075312 6513507
-0.044761971 -0.67473608 4.0016327 6513507
-0.19122872 -0.62568593 4.0489779 6513507
-0.06309808 -0.62595266 4.0077238 6513507
-0.044764105 -0.62503129 4.0018249 6513507
-0.19123799 -0.57539064 4.0491734 6513507
-0.063197702 -0.57595426 4.0079479 6513507
-0.044766255 -0.5753215 4.002017 6513507
-0.19118835 -0.5258975 4.0493479 6513507
-0.063213579 -0.52554238 4.0081468 6513507
-0.043277182 -0.52480149 4.0017309 6513507
-0.18955295 -0.4747209 4.0490179 6513507
-0.063120991 -0.47513497 4.0083108 6513507
-0.043107159 -0.47582409 4.001864 6513507
-0.18956211 -0.42441764 4.0492139 6513507
-0.0630555 -0.42472127 4.0084834 6513507
-0.04310922 -0.42610684 4.0020561 6513507
-0.18957131 -0.37410957 4.0494099 6513507
-0.06294924 -0.37409997 4.0086432 6513507
-0.043193135 -0.37595224 4.0022755 6513507
-0.1895805 -0.3237966 4.0496063 6513507
-0.063116416 -0.32386264 4.0088902 6513507
-0.043034177 -0.32460326 4.0024219 6513507
-0.18958937 -0.27515611 4.0497961 6513507
-0.063119426 -0.27405074 4.0090823 6513507
-0.042475924 -0.27232221 4.0024428 6513507
-0.18959643 -0.23657601 4.0499468 6513507
-0.063122474 -0.22423409 4.009274 6513507
-0.041454412 -0.22384402 4.0023003 6513507
-0.063125499 -0.17441258 4.0094671 6513507
-0.041456386 -0.17410918 4.0024929 6513507
-0.063128524 -0.12458633 4.0096593 6513507
-0.041458372 -0.12436964 4.0026841 6513507
-0.063131556 -0.074755318 4.0098519 6513507
-0.041460361 -0.074625246 4.0028758 6513507
-0.063134588 -0.024919499 4.0100446 6513507
-0.041462347 -0.024876144 4.003067 6513507
-0.063137613 0.024921101 4.0102363 6513507
-0.040188089 0.025723048 4.002851 6513507
-1.5050725 0.095533565 4.0455608 6513507
-1.4738908 0.095576726 4.047389 6513507
-1.4393994 0.095624469 4.0494099 6513507
-0.22218063 0.097826906 4.0022473 6513507
-0.19241887 0.097868323 4.0039415 6513507
-0.063139565 0.074764982 4.0103693 6513507
-0.039803226 0.074626394 4.0029154 6513507
-1.6057431 -1.8110684 4.072772 6513507
-1.5983229 -1.8164103 4.0957708 6513507
-0.35649535 -1.8164227 4.0976114 11711154
-0.32586601 -1.8145442 4.0877571 11711154
-0.27621016 -1.8109474 4.0717835 11711154
-0.22970565 -1.8074926 4.0568252 11711154
-1.6068386 -1.7750469 4.0697098 6513507
-1.5984322 -1.7749045 4.0958233 6513507
-0.35659856 -1.7744696 4.0978055 11711154
-0.32526314 -1.7750051 4.0877151 11711154
-0.27504009 -1.7750552 4.0715451 11711154
-0.2285623 -1.7748452 4.0565815 11711154
-1.6068994 -1.7251174 4.069993 6513507
-1.5985421 -1.7249326 4.0959544 6513507
-0.35652682 -1.7249045 4.0979729 11711154
-0.3252798 -1.7250091 4.0879121 11711154
-0.2750223 -1.7249846 4.071732 11711154
-0.22855417 -1.7247909 4.0567751 11711154
-1.6069607 -1.6751833 4.0702748 6513507
-1.5985992 -1.6749657 4.0962501 6513507
-0.35645506 -1.6753358 4.0981402 11711154
-0.3251186 -1.6751298 4.0880523 11711154
-0.2749427 -1.6750218 4.0718989 11711154
-0.22865152 -1.6748708 4.0569954 11711154
-1.6070559 -1.6250553 4.0704536 6513507
-1.5986561 -1.6249913 4.0965466 6513507
-0.35538405 -1.6262679 4.0979834 11711154
-0.32518476 -1.6251262 4.0882654 11711154
-0.27497154 -1.6250544 4.0720997 11711154
-0.22773634 -1.6244851 4.0568967 11711154
-1.6071175 -1.5749202 4.0707364 6513507
-1.598766 -1.5750049 4.0966783 6513507
-0.35491073 -1.574368 4.098031 11711154
-0.32512528 -1.5749958 4.0884385 11711154
-0.27495384 -1.5749695 4.0722852 11711154
-0.22683544 -1.5749346 4.0567946 11711154
-1.6072923 -1.5251632 4.0706644 6513507
-1.5988749 -1.5267106 4.0967965 6513507
-0.35476694 -1.5252382 4.0981731 11711154
-0.32531691 -1.5248569 4.0886941 11711154
-0.27493584 -1.5249927 4.0724726 11711154
-0.22688153 -1.524976 4.0570016 11711154
-1.6097137 -1.4942261 4.063437 6513507
-0.35486516 -1.4754895 4.0983963 11711154
-0.3253243 -1.474959 4.0888872 11711154
-0.27502692 -1.4748967 4.0726943 11711154
-0.22685684 -1.4751427 4.0571876 11711154
-0.35488257 -1.4246216 4.098598 11711154
-0.32516333 -1.4250581 4.0890274 11711154
-0.27518025 -1.4249077 4.0729356 11711154
-0.22695646 -1.4251722 4.0574112 11711154
-0.35481629 -1.3753551 4.0987649 11711154
-0.32524627 -1.3750306 4.0892463 11711154
-0.27508417 -1.3750298 4.0730958 11711154
-0.22694977 -1.3750681 4.0575981 11711154
-0.35310936 -1.3252567 4.0984082 11711154
-0.32530418 -1.3248731 4.0894566 11711154
-0.27497306 -1.3250349 4.0732522 11711154
-0.22522663 -1.3248816 4.0572352 11711154
-0.35318661 -1.2752063 4.0986247 11711154
-0.3253029 -1.2748302 4.0896492 11711154
-0.27506411 -1.2751479 4.073473 11711154
-0.22522111 -1.274757 4.0574269 11711154
-0.35320389 -1.224326 4.0988259 11711154
-0.32533523 -1.2250328 4.0898509 11711154
-0.27512404 -1.2251394 4.0736842 11711154
-0.22532222 -1.2247472 4.057652 11711154
-0.35322073 -1.1751369 4.0990205 11711154
-0.32534257 -1.1751081 4.0900459 11711154
-0.2751067 -1.1749026 4.0738726 11711154
-0.22520919 -1.1749749 4.0578074 11711154
-0.35323748 -1.1259434 4.099215 11711154
-0.32539222 -1.1250522 4.0902534 11711154
-0.27505797 -1.1246605 4.0740499 11711154
-0.22526148 -1.1251979 4.0580182 11711154
-0.35149997 -1.0986496 4.0987606 11711154
-0.31887141 -1.0870568 4.0883002 11711154
-0.27510959 -1.0790157 4.0742416 11711154
-0.22536269 -1.0751735 4.0582409 11711154
-0.19966763 -1.0587418 4.0500307 11711154
-0.22138284 -1.0284793 4.0571394 11711154
-0.19967408 -1.0252172 4.0501618 11711154
-0.20707327 -0.99786448 4.052649 11711154
-0.1996799 -0.99504346 4.0502791 11711154
-0.2230693 -0.85467237 4.0583487 6513507
-0.19970702 -0.85420895 4.0508294 6513507
-0.22348581 -0.82507491 4.0585961 6513507
-0.1997128 -0.82402492 4.0509472 6513507
-0.22355038 -0.77505708 4.0588107 6513507
-0.19828041 -0.77078861 4.0506907 6513507
-0.22366719 -0.72477454 4.0590425 6513507
-0.19802685 -0.72497863 4.0507846 6513507
-0.22387297 -0.6746127 4.0592995 6513507
-0.19803613 -0.67634273 4.0509744 6513507
-0.22381289 -0.6247102 4.0594721 6513507
-0.19804576 -0.62602496 4.0511708 6513507
-0.22375309 -0.57493246 4.0596433 6513507
-0.19805534 -0.57570231 4.0513673 6513507
-0.22360326 -0.5252834 4.0597863 6513507
-0.1979001 -0.52461064 4.0515132 6513507
-0.22345306 -0.47563168 4.0599279 6513507
-0.19636972 -0.47497809 4.0512114 6513507
-0.33254793 -0.40210563 4.0953345 6513507
-0.22373162 -0.42557022 4.0602112 6513507
-0.19637921 -0.4246476 4.0514073 6513507
-0.33255658 -0.37496886 4.0954413 6513507
-0.22374254 -0.37512559 4.0604076 6513507
-0.19638874 -0.37431228 4.0516043 6513507
-0.33257288 -0.32408386 4.095643 6513507
-0.22375333 -0.32467604 4.060605 6513507
-0.19639829 -0.32397202 4.0518007 6513507
-0.33258873 -0.27489048 4.0958357 6513507
-0.22376424 -0.27422148 4.0608034 6513507
-0.19640778 -0.27362686 4.0519967 6513507
-0.33218339 -0.22632907 4.0958929 6513507
-0.22404252 -0.22413431 4.0610838 6513507
-0.19556499 -0.22326262 4.0519185 6513507
-0.33087721 -0.17476892 4.0956702 6513507
-0.22350794 -0.17538485 4.0610986 6513507
-0.19472152 -0.1762553 4.0518284 6513507
-0.33089346 -0.1238713 4.09587 6513507
-0.22379611 -0.12619346 4.0613823 6513507
-0.19473097 -0.12590271 4.0520239 6513507
-0.3309091 -0.074665666 4.0960646 6513507
-0.22380699 -0.075719662 4.0615788 6513507
-0.19474038 -0.075545207 4.0522213 6513507
-0.33092496 -0.025455261 4.0962582 6513507
-0.22406173 -0.025018957 4.0618539 6513507
-0.19474986 -0.025182819 4.0524182 6513507
-0.33241749 0.024980644 4.0969329 6513507
-0.22554424 0.025246039 4.0625262 6513507
-0.19475928 0.025184449 4.0526137 6513507
-1.4147394 0.0956586 4.0508556 6513507
-1.3752452 0.095713243 4.0531702 6513507
-1.3258168 0.095781647 4.056067 6513507
-1.2961289 0.095822759 4.0578074 6513507
-1.1638588 0.096005805 4.0655584 6513507
-1.1356868 0.096044794 4.0672097 6513507
-0.96450508 0.096281715 4.0772424 6513507
-0.92449486 0.09633708 4.079587 6513507
-0.87441975 0.09640637 4.0825214 6513507
-0.83430964 0.096461892 4.0848727 6513507
-0.72879475 0.096607931 4.0910568 6513507
-0.33165184 0.073661618 4.0968742 6513507
-0.22555496 0.074058115 4.062717 6513507
-0.19476843 0.073877417 4.0528045 6513507
-1.582783 -1.8523035 4.1437001 6513507
-0.51160234 -1.8526731 4.1474099 11711154
-0.49239716 -1.8512003 4.1412325 11711154
-1.5886002 -1.8226277 4.1259112 6513507
-0.51012516 -1.8253046 4.1470394 11711154
-0.47659913 -1.8247077 4.1362481 11711154
-0.42573029 -1.8215672 4.1198812 11711154
-0.38140169 -1.8183974 4.1056209 11711154
-1.5891056 -1.7750788 4.1247921 6513507
-0.51039565 -1.7752087 4.1473188 11711154
-0.47634065 -1.7750956 4.1363549 11711154
-0.42491287 -1.7749501 4.1197982 11711154
-0.38100353 -1.7749211 4.1056614 11711154
-1.5892893 -1.7251005 4.1246934 6513507
-0.5103237 -1.7251272 4.1474881 11711154
-0.47647697 -1.7251158 4.1365924 11711154
-0.4251906 -1.7250828 4.120079 11711154
-0.38103423 -1.7248234 4.1058621 11711154
-1.5892986 -1.6749479 4.1251388 6513507
-0.50949287 -1.6763437 4.1474075 11711154
-0.47629941 -1.6751318 4.1367254 11711154
-0.42489022 -1.6750947 4.1201739 11711154
-0.38098025 -1.6748894 4.1060371 11711154
-1.5894296 -1.6249589 4.1252055 6513507
-0.50867724 -1.6249596 4.1473427 11711154
-0.47656614 -1.6250188 4.1370049 11711154
-0.42507112 -1.6251026 4.1204252 11711154
-0.37976259 -1.6246915 4.1058388 11711154
-1.5895009 -1.5751414 4.1254535 6513507
-0.50851643 -1.5752292 4.1474824 11711154
-0.47655505 -1.5749027 4.1371932 11711154
-0.42518768 -1.574991 4.1206551 11711154
-0.37935901 -1.5749916 4.1059003 11711154
-1.5903914 -1.5328983 4.1230888 6513507
-0.50875545 -1.5250179 4.1477518 11711154
-0.47639513 -1.524907 4.1373343 11711154
-0.42501557 -1.5249897 4.1207924 11711154
-0.37922597 -1.5248032 4.1060505 11711154
-0.50853312 -1.4752872 4.1478715 11711154
-0.47661823 -1.4748957 4.1375971 11711154
-0.42502096 -1.4749826 4.120986 11711154
-0.37943941 -1.4750842 4.1063104 11711154
-0.50868136 -1.4246478 4.1481137 11711154
-0.47649249 -1.4251397 4.1377487 11711154
-0.42529833 -1.4249681 4.1212659 11711154
-0.37945682 -1.4251986 4.1065054 11711154
-0.5075379 -1.3762459 4.1479316 11711154
-0.47656885 -1.3749987 4.1379652 11711154
-0.42502853 -1.3751845 4.1213708 11711154
-0.37909025 -1.374718 4.1065812 11711154
-0.5069406 -1.3249173 4.1479354 11711154
-0.47668773 -1.3249784 4.138196 11711154
-0.42519444 -1.325047 4.1216159 11711154
-0.37771699 -1.324947 4.1063328 11711154
-0.50696486 -1.2751437 4.1481347 11711154
-0.47660589 -1.2750837 4.138361 11711154
-0.42535985 -1.2749016 4.1218629 11711154
-0.37773526 -1.2751124 4.1065278 11711154
-0.5068931 -1.2293316 4.1482882 11711154
-0.47613934 -1.2246513 4.1384039 11711154
-0.42474386 -1.2253691 4.1218553 11711154
-0.37768409 -1.225121 4.1067047 11711154
-0.4644306 -1.1886139 4.1347733 11711154
-0.4221065 -1.1764971 4.1211934 11711154
-0.37752378 -1.1749861 4.1068459 11711154
-0.40889499 -1.1437178 4.1170659 11711154
-0.37497973 -1.1317439 4.1061921 11711154
-0.46412754 -0.40240726 4.1376963 6513507
-0.42380288 -0.40157291 4.1247168 6513507
-0.38240442 -0.40070039 4.1113915 6513507
-0.34824187 -0.40260157 4.1003857 6513507
-0.46803498 -0.37538624 4.1390576 6513507
-0.42415676 -0.37471506 4.1249337 6513507
-0.37409544 -0.37537053 4.1088138 6513507
-0.34825096 -0.37543127 4.1004925 6513507
-0.46847585 -0.32471222 4.1393952 6513507
-0.42348072 -0.32520267 4.1249051 6513507
-0.3745369 -0.32515272 4.1091504 6513507
-0.34826806 -0.32448366 4.1006942 6513507
-0.46787354 -0.27503461 4.1393919 6513507
-0.42385462 -0.27515349 4.1252193 6513507
-0.3748346 -0.27444592 4.1094384 6513507
-0.34828454 -0.27522957 4.1008883 6513507
-0.4682115 -0.22466822 4.1396937 6513507
-0.4242951 -0.22484763 4.1255541 6513507
-0.37428221 -0.2251137 4.1094503 6513507
-0.34756711 -0.22202499 4.100862 6513507
-0.46823376 -0.17494076 4.1398921 6513507
-0.42347923 -0.17533642 4.1254816 6513507
-0.37459084 -0.17536934 4.1097422 6513507
-0.34657177 -0.17498446 4.1007218 6513507
-0.46825653 -0.12520868 4.1400909 6513507
-0.42391583 -0.12477696 4.1258163 6513507
-0.37460935 -0.12429692 4.1099429 6513507
-0.34658879 -0.12402413 4.1009231 6513507
-0.46827883 -0.075471804 4.1402884 6513507
-0.42393595 -0.075211585 4.1260128 6513507
-0.3746272 -0.074922204 4.1101403 6513507
-0.34660527 -0.074757762 4.1011181 6513507
-0.4683013 -0.025730101 4.1404858 6513507
-0.4239563 -0.025641387 4.1262107 6513507
-0.37464491 -0.025542727 4.1103354 6513507
-0.34662166 -0.025486661 4.1013122 6513507
-0.4694308 0.026267292 4.1410503 6513507
-0.4239772 0.025643073 4.1264153 6513507
-0.37466332 0.025544407 4.1105366 6513507
-0.34663868 0.02548833 4.1015139 6513507
-0.46997738 0.075305268 4.1391444 6513507
-0.42398679 0.075303704 4.1252575 6513507
-0.37466842 0.074930243 4.1105986 6513507
-0.34538156 0.076827407 4.1013055 6513507
-1.5715467 -1.8596931 4.1785316 6513507
-0.66249776 -1.8637122 4.1959491 11711154
-0.62545574 -1.8610345 4.1840343 11711154
-0.57667243 -1.8574581 4.1683412 11711154
-0.53691936 -1.8547567 4.1555529 11711154
-1.5733737 -1.8248992 4.1731873 6513507
-0.66239536 -1.8250395 4.1960645 11711154
-0.62396133 -1.8249931 4.1836901 11711154
-0.57507002 -1.82488 4.1679516 11711154
-0.53529179 -1.8251017 4.1551433 11711154
-1.5733837 -1.7750269 4.1736274 6513507
-0.66235459 -1.7749604 4.1962442 11711154
-0.62401843 -1.7749379 4.1839013 11711154
-0.57498276 -1.7748908 4.1681156 11711154
-0.53545421 -1.775079 4.1553864 11711154
-1.5735486 -1.7251478 4.1735878 6513507
-0.66148943 -1.7259517 4.1961536 11711154
-0.62397647 -1.7250029 4.1840792 11711154
-0.57502943 -1.7250278 4.1683211 11711154
-0.53542501 -1.7250445 4.1555696 11711154
-1.5735865 -1.675089 4.1739421 6513507
-0.66075635 -1.6752098 4.1961122 11711154
-0.62418652 -1.6750603 4.184339 11711154
-0.57513404 -1.67503 4.1685472 11711154
-0.53448159 -1.6743714 4.1554599 11711154
-1.5736359 -1.6250304 4.174263 6513507
-0.66045141 -1.6248859 4.1962075 11711154
-0.62389213 -1.625118 4.1844363 11711154
-0.57508498 -1.6250253 4.1687245 11711154
-0.53371888 -1.6249515 4.1554055 11711154
-1.5737512 -1.5749588 4.1743774 6513507
-0.6607576 -1.5748277 4.1964984 11711154
-0.624291 -1.5750387 4.1847577 11711154
-0.57507527 -1.5748868 4.1689119 11711154
-0.5336079 -1.5749274 4.1555614 11711154
-1.5768148 -1.5425484 4.1651688 6513507
-0.66074467 -1.5250638 4.1966853 11711154
-0.62400681 -1.5249655 4.1848569 11711154
-0.57525617 -1.5248692 4.1691651 11711154
-0.53383201 -1.5250788 4.1558266 11711154
-0.6605432 -1.4750147 4.1968126 11711154
-0.6243431 -1.4749988 4.1851587 11711154
-0.57513076 -1.4748557 4.1693149 11711154
-0.53357333 -1.4750434 4.1559329 11711154
-0.65986383 -1.4264604 4.1967812 11711154
-0.62405866 -1.4249158 4.1852579 11711154
-0.57519543 -1.4249613 4.169529 11711154
-0.53398198 -1.4250141 4.1562576 11711154
-0.65884584 -1.3749208 4.196651 11711154
-0.62425864 -1.3750671 4.1855159 11711154
-0.57499951 -1.3748244 4.1696558 11711154
-0.53213257 -1.3746938 4.1558542 11711154
-0.65897661 -1.3249043 4.1968865 11711154
-0.62436068 -1.3250901 4.1857409 11711154
-0.57352924 -1.3249745 4.1693745 11711154
-0.53043073 -1.3250761 4.155498 11711154
-0.65899867 -1.2901731 4.1970263 11711154
-0.62340033 -1.2894156 4.1855674 11711154
-0.57102895 -1.2777075 4.1687527 11711154
-0.52997535 -1.2750386 4.1555457 11711154
-0.55526417 -1.245268 4.1638002 11711154
-0.52788067 -1.2359043 4.1550202 11711154
-1.5533617 0.094927654 4.1660805 6513507
-1.5246522 0.094967216 4.1678162 6513507
-1.4739342 0.095036998 4.1708798 6513507
-1.4248364 0.095104553 4.1738443 6513507
-1.3756679 0.095172212 4.1768136 6513507
-1.3400227 0.095221289 4.1789675 6513507
-1.2072933 0.095403939 4.1869831 6513507
-1.1782953 0.095443837 4.1887341 6513507
-1.0038115 0.09568394 4.1992717 6513507
-0.99523604 0.095695771 4.199791 6513507
-1.5572592 -1.8696351 4.222816 6513507
-1.5497597 -1.8751915 4.2460594 6513507
-0.81620479 -1.8746641 4.2453933 11711154
-0.7756483 -1.8718351 4.2323475 11711154
-0.72544199 -1.8681418 4.216197 11711154
-0.68816441 -1.8656408 4.204205 11711154
-1.558061 -1.8249967 4.2207475 6513507
-1.5498394 -1.8260306 4.2462773 6513507
-0.81625944 -1.8248447 4.2456026 11711154
-0.77508485 -1.8249135 4.2323456 11711154
-0.72500134 -1.8250477 4.2162204 11711154
-0.68808633 -1.8251534 4.2043357 11711154
-1.5581428 -1.7751552 4.2209678 6513507
-1.5499216 -1.7751087 4.2465034 6513507
-0.81531698 -1.7758459 4.2454886 11711154
-0.77509439 -1.7747759 4.232542 11711154
-0.72499526 -1.7750154 4.2164106 11711154
-0.68804657 -1.7749757 4.204515 11711154
-1.5577366 -1.724447 4.2227092 6513507
-1.5499815 -1.7382312 4.2466669 6513507
-0.81429261 -1.7251346 4.2453518 11711154
-0.77495396 -1.7248852 4.232688 11711154
-0.72481233 -1.7248478 4.216547 11711154
-0.68694693 -1.7240884 4.2043567 11711154
-1.5574657 -1.6748875 4.2240157 6513507
-0.81418222 -1.6749653 4.2455101 11711154
-0.77504748 -1.6751152 4.2329092 11711154
-0.72510618 -1.6750711 4.2168307 11711154
-0.68651545 -1.6749631 4.2044063 11711154
-1.5575482 -1.6249218 4.224237 6513507
-0.8145225 -1.6250389 4.245811 11711154
-0.77530825 -1.6250861 4.2331848 11711154
-0.72504085 -1.6251589 4.217 11711154
-0.68626088 -1.6249626 4.2045174 11711154
-1.5584642 -1.5806231 4.2218099 6513507
-0.81456053 -1.575109 4.2460146 11711154
-0.77520669 -1.5749321 4.233345 11711154
-0.7249772 -1.5749803 4.2171755 11711154
-0.68626207 -1.5749587 4.2047091 11711154
-0.81444985 -1.5249259 4.2461724 11711154
-0.77509481 -1.5248991 4.2335024 11711154
-0.72505057 -1.5250514 4.2173886 11711154
-0.68651879 -1.5249505 4.2049837 11711154
-0.81334364 -1.4755919 4.2460051 11711154
-0.77528089 -1.4751066 4.2337527 11711154
-0.72530466 -1.4751256 4.2176638 11711154
-0.6862641 -1.4749385 4.2050953 11711154
-0.8126902 -1.424841 4.2459903 11711154
-0.77540207 -1.4251816 4.2339835 11711154
-0.7250821 -1.424933 4.2177839 11711154
-0.68531585 -1.4241741 4.2049851 11711154
-0.81283927 -1.3753537 4.2462296 11711154
-0.77519882 -1.374887 4.2341113 11711154
-0.72515565 -1.3749906 4.217999 11711154
-0.68472242 -1.3748732 4.2049832 11711154
-0.81285518 -1.3252823 4.2464261 11711154
-0.77547812 -1.324834 4.2343946 11711154
-0.72523117 -1.325048 4.2182159 11711154
-0.68449926 -1.3249991 4.2051029 11711154
-0.81228399 -1.2904696 4.2463756 11711154
-0.77521318 -1.2897837 4.2344427 11711154
-0.72517467 -1.2900143 4.2183328 11711154
-0.68504661 -1.2900029 4.2054133 11711154
-0.7630229 -0.40168124 4.2339301 6513507
-0.74071389 -0.40100008 4.2267499 6513507
-1.5608038 -0.36487564 4.2260447 6513507
-0.76304203 -0.37537956 4.2340374 6513507
-0.74073249 -0.37474298 4.2268577 6513507
-1.5612589 -0.32503828 4.2250085 6513507
-0.76330024 -0.32550359 4.2343125 6513507
-0.74076772 -0.32572648 4.227057 6513507
-1.5613405 -0.27498886 4.2252274 6513507
-0.7628969 -0.27469453 4.2343774 6513507
-0.74080378 -0.27495462 4.227263 6513507
-1.5615754 -0.22477221 4.2249737 6513507
-0.7631529 -0.22455862 4.234652 6513507
-0.74084014 -0.22417776 4.2274709 6513507
-1.5615199 -0.17506197 4.2256165 6513507
-0.76318944 -0.17544468 4.2348533 6513507
-0.74087495 -0.1751471 4.2276697 6513507
-1.5614808 -0.12550896 4.2262063 6513507
-0.76344532 -0.12529577 4.2351284 6513507
-0.74091011 -0.12611179 4.2278695 6513507
-1.5618001 -0.074775614 4.2256942 6513507
-0.76304203 -0.074473888 4.2351933 6513507
-0.74094617 -0.07532037 4.228076 6513507
-1.5617657 -0.024512341 4.2262788 6513507
-0.76329988 -0.024565659 4.2354679 6513507
-0.74098259 -0.024523983 4.2282834 6513507
-1.5618454 0.02451401 4.2264938 6513507
-0.76333618 0.024567205 4.2356687 6513507
-0.74101746 0.024525529 4.2284822 6513507
-1.5619224 0.071794167 4.2267013 6513507
-0.97121048 0.095728815 4.2012415 6513507
-0.92483127 0.095792644 4.204042 6513507
-0.87494934 0.095861301 4.2070546 6513507
-0.84740019 0.095899209 4.2087193 6513507
-0.76323408 0.073438451 4.2345047 6513507
-0.7409988 0.073874295 4.2275348 6513507
-1.5381976 -1.9079866 4.2816625 6513507
-0.96879387 -1.9106464 4.2943821 11711154
-0.92595536 -1.9075675 4.2806025 11711154
-0.87849367 -1.904116 4.2653346 11711154
-0.84048158 -1.9012105 4.253108 11711154
-1.5405436 -1.8749667 4.2746887 6513507
-0.96770883 -1.8749254 4.2941699 11711154
-0.92373258 -1.8750582 4.2800131 11711154
-0.8742708 -1.8748912 4.2640867 11711154
-0.84050274 -1.8748277 4.2532163 11711154
-1.5407361 -1.8249459 4.2745647 6513507
-0.96728539 -1.8254576 4.2942247 11711154
-0.92377752 -1.8250889 4.2802186 11711154
-0.8745172 -1.8249708 4.264358 11711154
-0.84064937 -1.8252199 4.2534542 11711154
-1.5407805 -1.7750982 4.2748952 6513507
-0.96585679 -1.7748026 4.2939587 11711154
-0.92392558 -1.7751144 4.2804565 11711154
-0.87466204 -1.7751809 4.264596 11711154
-0.83962035 -1.7741177 4.2533188 11711154
-1.5408556 -1.725067 4.2751379 6513507
-0.96602416 -1.7248749 4.2942042 11711154
-0.92407376 -1.7251323 4.2806964 11711154
-0.8746013 -1.7251147 4.2647696 11711154
-0.83874363 -1.7250559 4.2532248 11711154
-1.540983 -1.6748575 4.2752156 6513507
-0.96613109 -1.6749457 4.2944317 11711154
-0.92397255 -1.6751482 4.2808557 11711154
-0.87464368 -1.6750457 4.264976 11711154
-0.83871764 -1.6749208 4.2534089 11711154
-1.5410348 -1.6248153 4.2755299 6513507
-0.96614772 -1.624813 4.2946281 11711154
-0.92410082 -1.625159 4.2810898 11711154
-0.87468582 -1.6249725 4.2651811 11711154
-0.83871394 -1.6250734 4.2535996 11711154
-1.5434939 -1.5910825 4.2682095 6513507
-0.96616393 -1.5748726 4.2948265 11711154
-0.92410386 -1.57503 4.2812843 11711154
-0.87462538 -1.5748936 4.2653542 11711154
-0.83897561 -1.5752113 4.2538753 11711154
-0.96558046 -1.5255847 4.294827 11711154
-0.92410702 -1.5248955 4.2814775 11711154
