# .PCD v0.7 - Point Cloud Data file format
VERSION 0.7
FIELDS x y z rgb
SIZE 4 4 4 4
TYPE F F F U
COUNT 1 1 1 1
WIDTH 1197
HEIGHT 1
VIEWPOINT 0 0 0 1 0 0 0
POINTS 1197
DATA ascii
0.46777377 -1.3750788 3.7390096 2960685
0.43084514 -1.3250782 3.7137611 2960685
0.4677974 -1.3251382 3.7392709 2960685
0.43082464 -1.2751662 3.7139921 2960685
0.46619532 -1.2751578 3.7384109 2960685
0.43080392 -1.2252487 3.7142217 2960685
0.46622908 -1.2251691 3.7386799 2960685
0.43092939 -1.1751925 3.7145557 2960685
0.46630901 -1.1748292 3.7389815 2960685
0.43094331 -1.1250055 3.7148123 2960685
0.46624929 -1.1248251 3.7391863 2960685
0.42936993 -1.0746938 3.713973 2960685
0.4663763 -1.0749861 3.7395201 2960685
0.42935285 -1.0250371 3.7142055 2960685
0.46629301 -1.0251415 3.7397075 2960685
0.42930466 -0.97515386 3.714417 2960685
0.46632692 -0.97511762 3.7399759 2960685
0.42939922 -0.92491478 3.7147312 2960685
0.46643004 -0.92508417 3.7402928 2960685
0.42944542 -0.87478507 3.715008 2960685
0.46605384 -0.87571549 3.7402759 2960685
0.42946067 -0.82500064 3.7152634 2960685
0.4647595 -0.82519037 3.7396317 2960685
0.42939675 -0.77509171 3.7154644 2960685
0.46485862 -0.775087 3.7399473 2960685
0.42941135 -0.72505826 3.7157209 2960685
0.4647741 -0.72498113 3.7401342 2960685
0.42910823 -0.67461449 3.7157609 2960685
0.46496499 -0.67505693 3.7405114 2960685
0.42791611 -0.62489206 3.7151823 2960685
0.46497208 -0.62512523 3.7407618 2960685
0.42782983 -0.57480466 3.7153678 2960685
0.46496597 -0.57499355 3.7410038 2960685
0.42797744 -0.52492374 3.7157149 2960685
0.46496025 -0.52485567 3.7412462 2960685
0.42789748 -0.47514588 3.7159042 2960685
0.46487677 -0.47471416 3.741436 2960685
0.42797425 -0.42503574 3.7162054 2960685
0.46416718 -0.42550275 3.741188 2960685
0.4282245 -0.37491676 3.7166245 2960685
0.46340185 -0.37505439 3.7409062 2960685
0.42812234 -0.32500806 3.7167981 2960685
0.4634349 -0.32548362 3.7411733 2960685
0.42778245 -0.27477074 3.7168109 2960685
0.46355817 -0.2756767 3.7415035 2960685
0.42699164 -0.22443803 3.7165103 2960685
0.46359062 -0.225426 3.7417727 2960685
0.42581937 -0.17591736 3.7159407 2960685
0.46249855 -0.17364694 3.7412732 2960685
0.42522451 -0.12532669 3.7157779 2960685
0.46187678 -0.12399078 3.7410882 2960685
0.42456132 -0.074567877 3.7155704 2960685
0.46190974 -0.07439962 3.7413549 2960685
0.42494041 -0.024632115 3.7160773 2960685
0.46194261 -0.024801444 3.7416215 2960685
0.42497036 0.024634475 3.7163405 2960685
0.46063253 0.024270762 3.7409589 2960685
0.42500046 0.073907994 3.7166021 4342338
0.46211556 0.076113746 3.7406683 4868682
0.52518129 0.097599998 3.7394423 10197915
0.57635152 0.097607851 3.7397435 10197915
0.62597883 0.09761548 3.7400353 10197915
0.67561412 0.097623102 3.7403274 10197915
0.72525698 0.097630709 3.7406192 10197915
0.77490777 0.097638354 3.7409117 10197915
0.8245663 0.097645961 3.7412035 10197915
0.87423259 0.097653612 3.7414966 10197915
0.92390811 0.097661391 3.7417946 10197915
0.97514254 0.097669251 3.7420959 10197915
1.0263854 0.097677127 3.7423975 10197915
1.0760832 0.097684763 3.7426898 10197915
1.1257889 0.097692393 3.7429824 10197915
1.1755023 0.09770003 3.7432749 3289650
1.2252233 0.097707652 3.7435675 2039583
1.2749524 0.097715296 3.7438598 2039583
0.49204645 -1.665576 3.7543378 2960685
0.52616811 -1.6700516 3.7778723 2960685
0.55374956 -1.6744397 3.796891 2960685
0.491476 -1.6252831 3.7541411 2960685
0.52419609 -1.6251422 3.7767313 2960685
0.55373251 -1.6250137 3.7971225 2960685
0.49148509 -1.5752372 3.7543945 2960685
0.52413386 -1.5750818 3.7769346 2960685
0.55377251 -1.5747886 3.7973974 2960685
0.49154672 -1.5251865 3.7546828 2960685
0.52421433 -1.524913 3.7772372 2960685
0.55375546 -1.5253508 3.7976279 2960685
0.49150339 -1.4751245 3.7548993 2960685
0.52430975 -1.4748384 3.7775476 2960685
0.55385137 -1.4758863 3.7979374 2960685
0.49161765 -1.4250619 3.7552238 2960685
0.52426022 -1.424965 3.77776 2960685
0.55389142 -1.4256394 3.7982125 2960685
0.49173218 -1.3749895 3.7555487 2960685
0.52438486 -1.3750851 3.7780907 2960685
0.55393142 -1.375385 3.7984867 2960685
0.49155742 -1.3245283 3.7556767 2960685
0.52440822 -1.3249892 3.7783539 2960685
0.55356491 -1.3286526 3.7984633 2960685
0.49001533 -1.2749622 3.7548556 2960685
0.52438891 -1.2747831 3.7785866 2960685
0.55226189 -1.2744502 3.7978303 2960685
0.49009272 -1.2249614 3.7551541 2960685
0.52435267 -1.2248809 3.7788064 2960685
0.55230182 -1.2241901 3.798105 2960685
0.49008599 -1.1749504 3.7553952 2960685
0.52453595 -1.1750771 3.7791791 2960685
0.55234176 -1.1739227 3.7983797 2960685
0.49012113 -1.1249344 3.7556667 2960685
0.52457356 -1.1250577 3.7794511 2960685
0.55238175 -1.1236479 3.7986543 2960685
0.49015641 -1.0749108 3.7559369 2960685
0.52461147 -1.0750296 3.7797213 2960685
0.55242044 -1.0749376 3.7989204 2960685
0.49014926 -1.0248802 3.7561789 2960685
0.52456307 -1.0248916 3.7799349 2960685
0.55245918 -1.0262201 3.7991865 2960685
0.49022689 -0.97484237 3.7564766 2960685
0.52462906 -0.97484851 3.7802272 2960685
0.55249906 -0.97592402 3.7994614 2960685
0.49017772 -0.92479885 3.7566893 2960685
0.52472478 -0.92490458 3.780539 2960685
0.55253905 -0.92562062 3.7997365 2960685
0.48981014 -0.8739289 3.7566845 2960685
0.52476233 -0.87484854 3.7808104 2960685
0.55256778 -0.88946086 3.7999341 2960685
0.48853624 -0.82499701 3.7560472 2960685
0.52464104 -0.82488924 3.7809722 2960685
0.48865962 -0.77499837 3.7563779 2960685
0.52483779 -0.77492398 3.7813542 2960685
0.48869455 -0.72525126 3.7566462 2960685
0.52478844 -0.72495055 3.7815661 2960685
0.48881778 -0.67523462 3.7569768 2960685
0.52481151 -0.67507476 3.7818279 2960685
0.48876473 -0.62521613 3.7571869 2960685
0.52495092 -0.62508744 3.7821684 2960685
0.48885274 -0.57518554 3.7574928 2960685
0.52498871 -0.57498783 3.7824404 2960685
0.48883501 -0.52515262 3.7577274 2960685
0.52502656 -0.52498531 3.7827134 2960685
0.488888 -0.47510922 3.7580092 2960685
0.52506411 -0.47497576 3.7829859 2960685
0.48787501 -0.42395452 3.7575617 2960685
0.52391255 -0.42533329 3.7824349 2960685
0.48720261 -0.37470293 3.7573407 2960685
0.52336258 -0.37506282 3.7823012 2960685
0.48720756 -0.32447249 3.7575908 2960685
0.52338433 -0.32516766 3.7825615 2960685
0.4872126 -0.27423534 3.7578397 2960685
0.52340639 -0.27526584 3.7828233 2960685
0.48733833 -0.22420278 3.7581728 2960685
0.52332586 -0.22547203 3.7830124 2960685
0.48737305 -0.17439242 3.7584414 2960685
0.52355129 -0.17555103 3.7834117 2960685
0.48740795 -0.12457484 3.7587111 2960685
0.52358907 -0.12540255 3.783685 2960685
0.48744297 -0.074750148 3.7589798 2960685
0.5236268 -0.075246818 3.7839577 2960685
0.48747763 -0.024918301 3.759249 2960685
0.52366459 -0.025083875 3.7842307 2960685
0.48609239 0.025398912 3.7585404 2960685
0.52219582 0.024869487 3.7834628 2960685
0.48583889 0.073185988 3.7586005 4144959
0.52200085 0.073672116 3.7835681 4210752
0.58637935 -1.7042428 3.8192704 2960685
0.61705697 -1.7090582 3.8404245 2960685
0.5782041 -1.67509 3.8137712 2960685
0.6156143 -1.6750016 3.8395958 2960685
0.57835728 -1.6249075 3.8141224 2960685
0.61558211 -1.6252764 3.8398192 2960685
0.5783236 -1.5749838 3.8143466 2960685
0.61463255 -1.575662 3.8394079 2960685
0.57844049 -1.5250515 3.8146687 2960685
0.61399829 -1.5247155 3.8392203 2960685
0.578408 -1.4748498 3.8148944 2960685
0.61395657 -1.4751228 3.8394341 2960685
0.57848668 -1.4249028 3.8151948 2960685
0.61400151 -1.4251176 3.8397121 2960685
0.57853687 -1.3750817 3.815475 2960685
0.61405957 -1.3749083 3.8399994 2960685
0.57788879 -1.3247825 3.8152754 2960685
0.61404693 -1.3248916 3.8402357 2960685
0.57688791 -1.2750411 3.8148284 2960685
0.61426157 -1.2748686 3.8406291 2960685
0.57692969 -1.2249199 3.8151021 2960685
0.61424917 -1.224836 3.8408675 2960685
0.57686806 -1.1750345 3.8153071 2960685
0.6141358 -1.1749965 3.8410344 2960685
0.5769608 -1.1250223 3.8156168 2960685
0.61313492 -1.1255994 3.8405862 2960685
0.57705444 -1.0750005 3.8159266 2960685
0.61256194 -1.0748607 3.84044 2960685
0.57704437 -1.0248511 3.8161666 2960685
0.61257309 -1.0251632 3.8406925 2960685
0.57718867 -0.97481406 3.8165104 2960685
0.6126821 -0.97499758 3.8410139 2960685
0.57709301 -0.92489421 3.8166909 2960685
0.61266148 -0.92482251 3.8412464 2960685
0.57615107 -0.87451977 3.816287 2960685
0.61267197 -0.87509722 3.8414977 2960685
0.57551736 -0.8250283 3.8160942 2960685
0.61284631 -0.82514083 3.8418643 2960685
0.57552707 -0.77494472 3.8163476 2960685
0.61285859 -0.77494574 3.8421195 2960685
0.57544863 -0.72496814 3.8165388 2960685
0.61277264 -0.72497147 3.8423059 2960685
0.57553017 -0.67498505 3.8168404 2960685
0.61171943 -0.67573178 3.8418214 2960685
0.57563567 -0.62487853 3.8171616 2960685
0.61124337 -0.62495059 3.8417423 2960685
0.57577217 -0.57476681 3.8175013 2960685
0.61113501 -0.57512915 3.8419108 2960685
0.57569289 -0.52498662 3.8176911 2960685
0.61116081 -0.52503127 3.8421752 2960685
0.57574296 -0.47520223 3.81797 2960685
0.61139321 -0.47464785 3.8425848 2960685
0.54944319 -0.41719878 3.8000994 2960685
0.5758962 -0.42506751 3.8183236 2960685
0.61134303 -0.42506897 3.842793 2960685
0.54947668 -0.37471449 3.8003314 2960685
0.57585025 -0.37503871 3.8185372 2960685
0.61129224 -0.37548575 3.8430009 2960685
0.54951644 -0.32435611 3.8006058 2960685
0.57574749 -0.32511842 3.8187103 2960685
0.61143094 -0.32481918 3.8433468 2960685
0.5495562 -0.27399045 3.8008809 2960685
0.57576519 -0.27507979 3.8189697 2960685
0.61164802 -0.27466509 3.8437421 2960685
0.54959595 -0.22361752 3.801156 2960685
0.57599813 -0.22468953 3.8193781 2960685
0.60999256 -0.22612932 3.842839 2960685
0.54963452 -0.17481187 3.8014228 2960685
0.57630318 -0.17439716 3.8198359 2960685
0.60977179 -0.17512879 3.8429382 2960685
0.54967308 -0.12599924 3.8016889 2960685
0.57600743 -0.12513509 3.8198733 2960685
0.60981649 -0.12419125 3.8432186 2960685
0.54971284 -0.075604901 3.8019643 2960685
0.57593006 -0.075750127 3.8200631 2960685
0.60985965 -0.074838415 3.8434908 2960685
0.54975259 -0.025203254 3.8022399 2960685
0.57616317 -0.025324101 3.8204715 2960685
0.6099028 -0.025478497 3.8437641 2960685
0.54816121 0.026667627 3.8013959 2960685
0.57620513 0.025326561 3.820749 2960685
0.60994756 0.025480974 3.8440444 2960685
0.54808193 0.07402277 3.801574 4342338
0.57624573 0.074401371 3.8210192 4408131
0.61275673 0.077471323 3.8440447 5131854
0.67512739 0.097129121 3.8434141 10197915
0.72454435 0.097136661 3.8437128 10197915
0.77396899 0.097144209 3.8440118 10197915
0.82499611 0.097152017 3.8443205 10197915
0.87603152 0.09715981 3.844629 10197915
0.92548078 0.097167484 3.8449326 10197915
0.97493732 0.097175099 3.8452334 10197915
1.0259968 0.0971829 3.8455422 10197915
1.0754684 0.097190462 3.8458416 10197915
1.124948 0.097198009 3.8461406 10132122
1.1760315 0.097205825 3.8464496 8355711
1.2255265 0.097213387 3.8467486 2039583
1.2750292 0.097220942 3.8470478 2039583
1.3181504 0.097227529 3.8473091 2039583
0.64108419 -1.7128751 3.8569939 2960685
0.67715168 -1.718515 3.8818667 2960685
0.70275354 -1.7221498 3.8995225 2960685
0.64071155 -1.6752284 3.8569219 2960685
0.67518812 -1.6751698 3.8807223 2960685
0.70280087 -1.6754124 3.8997848 2960685
0.64080435 -1.6251698 3.8572321 2960685
0.67538691 -1.6249849 3.8811066 2960685
0.70283186 -1.644788 3.8999567 2960685
0.63966346 -1.5741059 3.8566947 2960685
0.67527676 -1.5749117 3.8812759 2960685
0.63901693 -1.5252888 3.8564887 2960685
0.67539293 -1.5249418 3.8816028 2960685
0.63912094 -1.475064 3.8568072 2960685
0.67552465 -1.4749683 3.8819394 2960685
0.63922441 -1.4248356 3.8571267 2960685
0.67542237 -1.4249854 3.8821154 2960685
0.63921255 -1.3751364 3.8573618 2960685
0.67555523 -1.3749962 3.8824527 2960685
0.63925898 -1.3251538 3.8576398 2960685
0.67568684 -1.3249991 3.8827889 2960685
0.63936234 -1.2749027 3.8579595 2960685
0.67558533 -1.2749988 3.8829641 2960685
0.63933164 -1.224916 3.8581831 2960685
0.67574275 -1.2250975 3.8833179 2960685
0.63941628 -1.1749144 3.8584874 2960685
0.67454553 -1.1754894 3.882735 2960685
0.63817543 -1.1241945 3.8578796 2960685
0.67390734 -1.1249658 3.8825445 2960685
0.63763994 -1.074932 3.8577523 2960685
0.67404652 -1.0750543 3.8828857 2960685
0.63771939 -1.02477 3.8580542 2960685
0.67404026 -1.025139 3.883127 2960685
0.63779724 -0.9750641 3.8583512 2960685
0.67414379 -0.97496593 3.8834441 2960685
0.63787585 -0.92512256 3.8586519 2960685
0.67413664 -0.92490882 3.8836849 2960685
0.63785678 -0.8747142 3.858886 2960685
0.67425883 -0.8749727 3.8840144 2960685
0.63786882 -0.82475692 3.8591406 2960685
0.67417943 -0.82502383 3.8842065 2960685
0.63808042 -0.77502334 3.8595302 2960685
0.67439145 -0.77507168 3.8845987 2960685
0.63792861 -0.72505015 3.8596711 2960685
0.67318922 -0.72541875 3.884012 2960685
0.63676298 -0.67425162 3.859117 2960685
0.67264062 -0.67498249 3.8838813 2960685
0.63636059 -0.62491298 3.8590817 2960685
0.67260051 -0.62502104 3.8840995 2960685
0.63614583 -0.57499534 3.8591797 2960685
0.67262107 -0.57477111 3.8843608 2960685
0.63658017 -0.52486408 3.8597248 2960685
0.6727953 -0.52479076 3.8847284 2960685
0.63645422 -0.47493184 3.8598843 2960685
0.6727466 -0.47493231 3.8849387 2960685
0.63632762 -0.4249973 3.8600416 2960685
0.67284244 -0.42493513 3.8852499 2960685
0.63676226 -0.3748332 3.8605881 2960685
0.67289215 -0.37506387 3.8855293 2960685
0.63637096 -0.32529786 3.8605618 2960685
0.67278373 -0.32492086 3.8857017 2960685
0.63663667 -0.27512443 3.860992 2960685
0.67223811 -0.27563238 3.8855669 2960685
0.63546544 -0.22432947 3.8604324 2960685
0.67101443 -0.22505099 3.8849702 2960685
0.63466901 -0.17522559 3.8601248 2960685
0.67144901 -0.1751502 3.8855145 2960685
0.63497281 -0.12475234 3.8605816 2960685
0.67111057 -0.12528011 3.8855276 2960685
0.63501805 -0.075176574 3.860857 2960685
0.67160952 -0.075207241 3.8861182 2960685
0.63506341 -0.025593622 3.8611319 2960685
0.67114252 -0.025338857 3.8860402 2960685
0.6351099 0.025596133 3.8614159 2960685
0.67119139 0.025341317 3.8863237 2960685
0.63515371 0.073593266 3.8616829 4144959
0.67177147 0.07361231 3.886961 4210752
0.74021143 -1.752869 3.9252305 2960685
0.7637375 -1.7567624 3.9414527 2960685
0.72706121 -1.7245032 3.91629 2960685
0.76239097 -1.7251716 3.9406786 2960685
0.72683924 -1.6749866 3.9163821 2960685
0.76248133 -1.6751505 3.9409864 2960685
0.7254734 -1.6247048 3.9156852 2960685
0.76257139 -1.6251215 3.9412935 2960685
0.72526193 -1.5749334 3.9157846 2960685
0.76255554 -1.575315 3.9415281 2960685
0.7251479 -1.5248775 3.9159524 2960685
0.76264602 -1.5252708 3.9418378 2960685
0.72525519 -1.4749403 3.9162726 2960685
0.76222813 -1.4756995 3.9417915 2960685
0.72525126 -1.425122 3.9165146 2960685
0.76082796 -1.424848 3.9410748 2960685
0.72539669 -1.3751674 3.9168599 2960685
0.76094389 -1.3751483 3.9413991 2960685
0.72541153 -1.325088 3.9171157 2960685
0.76099813 -1.3251626 3.9416828 2960685
0.72535193 -1.2751204 3.9173214 2960685
0.76099223 -1.2749112 3.941927 2960685
0.72558987 -1.225024 3.9177325 2960685
0.7610876 -1.2249148 3.9422379 2960685
0.69962496 -1.1665801 3.9000936 2960685
0.72547513 -1.1749177 3.9178987 2960685
0.7611838 -1.1749102 3.9425497 2960685
0.69966722 -1.124638 3.9003289 2960685
0.7256394 -1.1249309 3.9182572 2960685
0.76115644 -1.1249094 3.9427772 2960685
0.69971752 -1.0746236 3.9006093 2960685
0.72563547 -1.0749359 3.9184995 2960685
0.76125193 -1.0748903 3.9430888 2960685
0.69976783 -1.0246021 3.9008901 2960685
0.72570592 -1.0250611 3.9187942 2960685
0.76113856 -1.025382 3.9432542 2960685
0.69981825 -0.97457337 3.901171 2960685
0.72583282 -0.97517252 3.9191265 2960685
0.75947481 -0.9750607 3.9423528 2960685
0.69986856 -0.92453742 3.9014511 2960685
0.72575557 -0.92503613 3.9193206 2960685
0.75957823 -0.92482215 3.9426706 2960685
0.69991893 -0.87449431 3.901732 2960685
0.72586238 -0.87501019 3.9196405 2960685
0.75953442 -0.87490481 3.9428871 2960685
0.69996935 -0.824444 3.9020128 2960685
0.72595268 -0.82498026 3.9199479 2960685
0.75953925 -0.82530767 3.9431334 2960685
0.69999701 -0.79699427 3.9021673 2960685
0.72427011 -0.77468377 3.9190331 2960685
0.75983965 -0.77536571 3.9435861 2960685
0.69639039 -0.7157793 3.9000766 2960685
0.72399372 -0.72485614 3.9190874 2960685
0.75960308 -0.72478497 3.9436707 2960685
0.69643086 -0.67542458 3.9003026 2960685
0.72438246 -0.67491794 3.9196007 2960685
0.75980264 -0.67483121 3.9440548 2960685
0.69648099 -0.62537831 3.900584 2960685
0.72425318 -0.62497437 3.9197576 2960685
0.76000369 -0.62519312 3.9444387 2960685
0.69653106 -0.57532465 3.9008646 2960685
0.72424394 -0.575023 3.9199977 2960685
0.75976706 -0.57459801 3.944524 2960685
0.69658118 -0.52526402 3.9011452 2960685
0.72441781 -0.52494419 3.9203646 2960685
0.75823474 -0.52483535 3.9437103 2960685
0.69663137 -0.475196 3.9014258 2960685
0.72448665 -0.47486797 3.9206579 2960685
0.75813413 -0.47546569 3.9438837 2960685
0.69668138 -0.42512092 3.9017069 2960685
0.72429615 -0.42500436 3.9207706 2960685
0.75827837 -0.42524081 3.9442306 2960685
0.69673169 -0.37503853 3.9019873 2960685
0.72470349 -0.37502697 3.9212987 2960685
0.75815123 -0.37464005 3.9443905 2960685
0.69678175 -0.324949 3.9022679 2960685
0.72461617 -0.32492158 3.9214833 2960685
0.7582978 -0.32521671 3.9447353 2960685
0.69560772 -0.27048558 3.9017255 2960685
0.72432137 -0.2750484 3.9215264 2960685
0.75847369 -0.27537066 3.9451017 2960685
0.69503909 -0.22467503 3.9015584 2960685
0.72513491 -0.22514723 3.9223337 2960685
0.75828552 -0.22476341 3.9452202 2960685
0.6950891 -0.17458005 3.901839 2960685
0.72436321 -0.17481174 3.9220474 2960685
0.75846165 -0.17490289 3.9455872 2960685
0.69513911 -0.12447805 3.9021196 2960685
0.72482502 -0.12513168 3.9226091 2960685
0.75851494 -0.12587348 3.9458647 2960685
0.69518936 -0.074368708 3.9024007 2960685
0.72487754 -0.074759237 3.922894 2960685
0.75739413 -0.076885045 3.9453316 2960685
0.69523925 -0.024252234 3.9026816 2960685
0.72492969 -0.024379607 3.9231789 2960685
0.75673938 -0.024516067 3.9451373 2960685
0.69528782 0.024254488 3.9029534 2960685
0.72498083 0.024381878 3.9234524 2960685
0.7567926 0.024518354 3.9454153 2960685
0.69533622 0.072767958 3.9032257 4276545
0.72503138 0.07315021 3.9237287 4342338
0.75684595 0.073559694 3.9456925 4342338
0.78765213 -1.7606684 3.9579434 2960685
0.82517654 -1.7662114 3.9838209 2960685
0.78694177 -1.7254239 3.9576271 2960685
0.82350868 -1.7248986 3.9828732 2960685
0.78716379 -1.675265 3.9580255 2960685
0.8233732 -1.6750122 3.9830241 2960685
0.78713799 -1.6250962 3.9582543 2960685
0.82347214 -1.6249875 3.9833388 2960685
0.78711206 -1.5749224 3.9584835 2960685
0.82345271 -1.5749587 3.9835725 2960685
0.78723055 -1.5250095 3.9588094 2960685
0.82327253 -1.5253379 3.9836898 2960685
0.7867949 -1.474317 3.9587586 2960685
0.82168418 -1.4750118 3.9828401 2960685
0.78546661 -1.4249724 3.9580851 2960685
0.82176495 -1.4250615 3.9831424 2960685
0.78545231 -1.3749413 3.9583199 2960685
0.82184452 -1.3751059 3.9834442 2960685
0.78557956 -1.3251363 3.958653 2960685
0.82191533 -1.3250072 3.9837382 2960685
0.785707 -1.2753222 3.9589863 2960685
0.82199496 -1.2750353 3.9840393 2960685
0.78569263 -1.2252702 3.9592233 2960685
0.8220855 -1.2251937 3.9843481 2960685
0.78567803 -1.1752131 3.9594584 2960685
0.8220821 -1.174934 3.984591 2960685
0.78576982 -1.1251404 3.9597681 2960685
0.82202476 -1.124806 3.9847991 2960685
0.78589797 -1.0750661 3.9601035 2960685
0.82228476 -1.0749422 3.9852235 2960685
0.78574359 -1.0247861 3.960243 2960685
0.82045323 -1.0252995 3.9842033 2960685
0.78403157 -0.97495842 3.9593055 2960685
0.82039666 -0.97525811 3.9844105 2960685
0.78411841 -0.92499077 3.9596109 2960685
0.82029617 -0.92505407 3.9845858 2960685
0.78417522 -0.87501788 3.9598973 2960685
0.82053798 -0.8749935 3.9849994 2960685
0.7842164 -0.82484239 3.9601715 2960685
0.82068938 -0.82507288 3.9853489 2960685
0.78436559 -0.7748571 3.9605207 2960685
0.82070237 -0.77499646 3.9856048 2960685
0.7843439 -0.72506839 3.9607506 2960685
0.82064533 -0.72506422 3.9858112 2960685
0.78429109 -0.67527384 3.9609578 2960685
0.82063693 -0.67497599 3.9860513 2960685
0.78455037 -0.62506455 3.9613841 2960685
0.82087964 -0.62487799 3.9864657 2960685
0.78459156 -0.57484537 3.9616599 2960685
0.81981623 -0.57548112 3.9859743 2960685
0.78277194 -0.52470821 3.9606497 2960685
0.81900924 -0.52491897 3.9856656 2960685
0.78249705 -0.47478154 3.9607053 2960685
0.81897944 -0.47492194 3.9858904 2960685
0.78280073 -0.42503452 3.9611595 2960685
0.81893748 -0.42475569 3.9861088 2960685
0.7831046 -0.37527376 3.9616146 2960685
0.81919855 -0.37490687 3.9865341 2960685
0.78291303 -0.3249743 3.9617295 2960685
0.81925696 -0.3253828 3.9868176 2960685
0.78272212 -0.27467415 3.9618447 2960685
0.81951851 -0.27551284 3.9872444 2960685
0.78302574 -0.22488976 3.9622984 2960685
0.81947571 -0.22531582 3.9874597 2960685
0.78308111 -0.17565624 3.96258 2960685
0.81933397 -0.17478976 3.9876099 2960685
0.78332549 -0.12512419 3.9629972 2960685
0.8186931 -0.1248174 3.9874144 2960685
0.78160638 -0.073731966 3.9620621 2960685
0.81762391 -0.074327797 3.9869254 2894892
0.78135419 -0.024621654 3.9621294 2894892
0.81768179 -0.024777498 3.9872079 2894892
0.78140968 0.024623971 3.96241 2894892
0.8177399 0.024779843 3.9874909 2894892
0.78143984 0.074011035 3.9619634 4473924
0.81843597 0.075238533 3.984098 4737096
0.87465358 0.096637733 3.9535954 10197915
0.92550319 0.096645445 3.9539118 10197915
0.97472042 0.096652918 3.9542174 10197915
1.0239452 0.096660405 3.954524 10132122
1.074819 0.096668124 3.9548404 10132122
1.1257006 0.09667588 3.9551568 10132122
1.1749489 0.096683346 3.9554627 10132122
1.2242047 0.096690841 3.9557688 6052956
1.2751102 0.09669856 3.956085 2039583
1.3260242 0.096706301 3.9564018 2039583
1.3621613 0.096711807 3.9566264 2039583
0.89339083 -1.8018075 4.0307374 2960685
0.91292745 -1.8046873 4.0442109 2960685
0.87477469 -1.7734144 4.0180249 2960685
0.90998763 -1.776213 4.0423212 2960685
0.87387317 -1.725011 4.017642 2960685
0.90930992 -1.725167 4.0421042 2960685
0.8739357 -1.675197 4.01793 2960685
0.90937561 -1.6750499 4.0423956 2960685
0.87387943 -1.6252471 4.018136 2960685
0.90944111 -1.6249255 4.0426888 2960685
0.87400174 -1.5751659 4.0184679 2960685
0.90950674 -1.5747939 4.0429797 2960685
0.84681201 -1.5063642 4.0000343 2960685
0.87412471 -1.5250757 4.0187969 2960685
0.90957254 -1.5246556 4.0432711 2960685
0.84685028 -1.4749446 4.0002155 2960685
0.87418753 -1.4751055 4.0190883 2960685
0.90963805 -1.4745096 4.0435638 2960685
0.8469128 -1.4236751 4.0005107 2960685
0.87417072 -1.4251273 4.019321 2960685
0.90964991 -1.4246868 4.0438161 2960685
0.84697324 -1.3740523 4.0007968 2960685
0.87431359 -1.3751446 4.0196662 2960685
0.9097687 -1.3748651 4.0441437 2960685
0.84703386 -1.3244225 4.0010824 2960685
0.87443602 -1.3251514 4.0199952 2960685
0.90950233 -1.3255717 4.0442014 2960685
0.8470943 -1.2747854 4.0013676 2960685
0.87441921 -1.2750249 4.0202289 2960685
0.90791446 -1.2747612 4.0433559 2960685
0.8471548 -1.2251414 4.0016537 2960685
0.87440294 -1.2248933 4.0204659 2960685
0.90808016 -1.2250137 4.0437145 2960685
0.84721529 -1.17549 4.0019388 2960685
0.87456501 -1.174879 4.0208235 2960685
0.90804458 -1.1752592 4.0439343 2960685
0.84727585 -1.125832 4.0022249 2960685
0.87450898 -1.1248592 4.0210304 2960685
0.90810996 -1.12508 4.0442266 2960685
0.84733635 -1.0761666 4.0025105 2960685
0.87469131 -1.0748317 4.0214014 2960685
0.90817571 -1.0748934 4.0445185 2960685
0.84552443 -1.0253642 4.0015101 2960685
0.87471414 -1.0247974 4.0216641 2960685
0.90824115 -1.0246994 4.0448093 2960685
0.84558052 -0.97564393 4.0017934 2960685
0.87481719 -0.97475487 4.0219812 2960685
0.90833992 -0.97491521 4.0451236 2960685
0.84551775 -0.92435092 4.0020022 2960685
0.87488002 -0.92483354 4.0222688 2960685
0.90837127 -0.92512661 4.0453892 2960685
0.84564173 -0.87382889 4.002336 2960685
0.87488204 -0.87503338 4.0225167 2960685
0.90843695 -0.87491107 4.045682 2960685
0.84570211 -0.82414412 4.0026221 2960685
0.87494534 -0.82509792 4.0228047 2960685
0.90693754 -0.82671446 4.0448833 2960685
0.84576255 -0.77445239 4.0029087 2960685
0.87506855 -0.77502757 4.0231366 2960685
0.90658146 -0.77587146 4.044888 2960685
0.84582293 -0.72475344 4.0031939 2960685
0.87513137 -0.72507733 4.0234261 2960685
0.90664709 -0.72565132 4.0451794 2960685
0.84588343 -0.67504746 4.00348 2960685
0.87511474 -0.67499244 4.0236602 2960685
0.90671235 -0.67542392 4.0454721 2960685
0.84594381 -0.62533432 4.0037665 2960685
0.87525743 -0.62490028 4.0240049 2960685
0.90677798 -0.62518919 4.045764 2960685
0.84466398 -0.57318825 4.0031395 2960685
0.87522072 -0.57480162 4.0242262 2960685
0.90684348 -0.57494754 4.0460558 2960685
0.8441245 -0.525711 4.0030003 2960685
0.87530273 -0.52482218 4.024529 2960685
0.90690899 -0.5246985 4.0463495 2960685
0.84418494 -0.47599319 4.0032864 2960685
0.8753261 -0.47483835 4.0247908 2960685
0.90697461 -0.47444212 4.0466413 2960685
0.84433043 -0.42569742 4.003634 2960685
0.87540776 -0.42484468 4.0250926 2960685
0.90704006 -0.42417854 4.0469341 2960685
0.84430772 -0.37487751 4.0038686 2960685
0.87545013 -0.37510276 4.0253663 2960685
0.90649211 -0.37619075 4.0467916 2960685
0.84428489 -0.32405236 4.0041032 2960685
0.87563485 -0.32522377 4.0257401 2960685
0.90525424 -0.32433242 4.0461917 2960685
0.84443045 -0.27373403 4.0044503 2960685
0.87569785 -0.27520907 4.0260277 2960685
0.90518075 -0.27579063 4.0463796 2960685
0.84449071 -0.22398014 4.0047369 2960685
0.87576038 -0.22518721 4.0263176 2894892
0.90531331 -0.2263279 4.0467138 2894892
0.84455115 -0.17421916 4.005023 2960685
0.87582326 -0.1751581 4.026608 2894892
0.90537894 -0.17604545 4.0470066 2894892
0.84383756 -0.1227776 4.0047822 2894892
0.87588602 -0.12512183 4.026897 2894892
0.9054442 -0.12575576 4.0472989 2894892
0.84273189 -0.074650891 4.0042558 2894892
0.8759495 -0.075078376 4.0271864 2894892
0.90550959 -0.075458795 4.0475912 2894892
0.84279197 -0.024885213 4.0045428 2894892
0.87601256 -0.025027722 4.0274754 2894892
0.9055751 -0.025154544 4.047884 2894892
0.84285235 0.024887588 4.0048289 2894892
0.87607503 0.025030121 4.0277648 2894892
0.90564054 0.025156967 4.0481763 2894892
0.84291065 0.073008023 4.005105 4144959
0.87613642 0.073426165 4.0280447 4276545
0.90570372 0.073798306 4.0484595 4342338
0.9382332 -1.808706 4.0616612 2960685
0.97492725 -1.8142399 4.0869656 2960685
0.93574709 -1.7741292 4.0601149 2960685
0.97178781 -1.7752819 4.084991 2960685
0.93534088 -1.7248856 4.0600772 2960685
0.97131377 -1.7250217 4.0849099 2960685
0.93518806 -1.6751816 4.0602164 2960685
0.97154766 -1.6750481 4.0853176 2960685
0.93533981 -1.625043 4.0605655 2960685
0.97157621 -1.6248969 4.0855837 2960685
0.9352895 -1.5748991 4.0607781 2960685
0.97160524 -1.5747399 4.0858493 2960685
0.93554235 -1.5251733 4.0611968 2960685
0.97155225 -1.5249143 4.0860572 2960685
0.93554157 -1.4752218 4.0614424 2960685
0.97195023 -1.4749122 4.0865793 2960685
0.93555897 -1.4250566 4.0617008 2960685
0.97180158 -1.4249039 4.0867224 2960685
0.93572706 -1.3750938 4.0620623 2960685
0.97191179 -1.3750558 4.0870438 2960685
0.93522054 -1.3245993 4.0619612 2960685
0.97129905 -1.3257471 4.0868621 2960685
0.93381453 -1.2747866 4.0612364 2960685
0.96997571 -1.2749239 4.0861979 2960685
0.93388128 -1.2249596 4.0615253 2960685
0.97004515 -1.2247878 4.0864935 2960685
0.93370712 -1.1754403 4.0616493 2960685
0.96987414 -1.174713 4.0866222 2960685
0.93196237 -1.1248311 4.0606937 2960685
0.96818453 -1.1251118 4.0857 2960685
0.93207932 -1.0750712 4.0610194 2960685
0.96829522 -1.074917 4.0860205 2960685
0.93214619 -1.0250922 4.0613112 2960685
0.96830976 -1.024884 4.086278 2960685
0.93214506 -0.97510958 4.0615563 2960685
0.9683249 -0.97484535 4.0865331 2960685
0.93228012 -0.92511433 4.0618949 2960685
0.96861321 -0.92479676 4.0869803 2960685
0.93236458 -0.87490422 4.0622005 2960685
0.96855986 -0.87491125 4.0871882 2960685
0.93075526 -0.82433903 4.0613375 2960685
0.96685463 -0.8254618 4.0862527 2960685
0.93042648 -0.7747336 4.0613551 2960685
0.96671498 -0.77517676 4.0864053 2960685
0.93058282 -0.72486931 4.0617089 2960685
0.96672356 -0.72500312 4.0866561 2960685
0.93058932 -0.67518818 4.0619569 2960685
0.96667123 -0.67482263 4.0868688 2960685
0.93068659 -0.62512028 4.0622702 2960685
0.96698415 -0.62501729 4.087328 2960685
0.93081355 -0.57486022 4.0626049 2960685
0.96702248 -0.57501036 4.0876012 2960685
0.93085092 -0.52496624 4.0628757 2960685
0.96703207 -0.52499747 4.0878534 2960685
0.93085766 -0.47506595 4.0631256 2960685
0.96694887 -0.4751685 4.0880408 2960685
0.93080372 -0.42516184 4.063333 2960685
0.96704966 -0.42495546 4.088357 2960685
0.9300524 -0.37455493 4.0630651 2960685
0.96695644 -0.37528273 4.0885372 2894892
0.92909312 -0.32483923 4.0626464 2894892
0.96533406 -0.324927 4.0876656 2894892
0.92916054 -0.27436581 4.0629396 2894892
0.96509117 -0.27543154 4.0877409 2894892
0.9295128 -0.22437574 4.0634294 2894892
0.96542031 -0.22526158 4.0882144 2894892
0.92929369 -0.17507787 4.0635219 2894892
0.96549064 -0.17446338 4.0885134 2894892
0.92907339 -0.12578046 4.0636125 2894892
0.96582371 -0.12469308 4.0889878 2894892
0.92942566 -0.075766563 4.0640988 2894892
0.96536803 -0.075619996 4.0889139 2894892
0.92949313 -0.025257146 4.0643959 2894892
0.96569741 -0.025412461 4.0893888 2894892
0.92956042 0.025259592 4.0646906 2894892
0.96576804 0.025414933 4.0896859 2894892
0.92973769 0.074252672 4.0648923 4473924
0.96713787 0.075789869 4.0873947 4868682
1.0251516 0.096107937 4.0698843 10132122
1.0741314 0.096115343 4.0701971 10132122
1.1248081 0.096123002 4.0705214 10132122
1.1754928 0.096130654 4.0708461 10132122
1.2261856 0.096138328 4.0711703 10132122
1.2751961 0.096145704 4.0714841 3421236
1.3242143 0.096153125 4.0717969 2039583
1.3749311 0.096160784 4.0721221 2039583
1.4070554 0.09616565 4.0723276 2039583
1.0587542 -1.852041 4.1446505 2960685
0.99772078 -1.8169732 4.1026883 2960685
1.0258435 -1.822052 4.1220765 2960685
1.0575444 -1.8249451 4.1439481 2960685
0.99581796 -1.7731882 4.1015897 2960685
1.0242893 -1.7750105 4.1212358 2960685
1.0576563 -1.7748599 4.1442719 2960685
0.99581164 -1.7248261 4.1018233 2960685
1.0246568 -1.7251954 4.1217351 2960685
1.05766 -1.7251866 4.1445189 2960685
0.9959538 -1.6748065 4.1021667 2960685
1.0246371 -1.6752254 4.1219654 2960685
1.0578076 -1.6755179 4.144865 2960685
0.99588335 -1.6256566 4.1023602 2960685
1.0246171 -1.6252514 4.1221981 2960685
1.0578136 -1.6249751 4.1451168 2960685
0.9960255 -1.5756228 4.1027045 2960685
1.0247502 -1.575125 4.1225367 2960685
1.0579255 -1.5748608 4.1454406 2960685
0.99609852 -1.5247434 4.1030049 2960685
1.0248822 -1.5249953 4.1228743 2960685
1.0566947 -1.5269786 4.1448259 2960685
0.99624079 -1.4746928 4.1033487 2960685
1.0248615 -1.4750012 4.123106 2960685
1.0560855 -1.4755199 4.144659 2960685
0.99617028 -1.4255195 4.1035423 2960685
1.0249946 -1.4248536 4.1234436 2960685
1.0560673 -1.4252582 4.1448936 2960685
0.99631256 -1.3754544 4.1038871 2960685
1.024997 -1.3748411 4.1236925 2960685
1.0560489 -1.3749919 4.1451273 2960685
0.99551392 -1.3224137 4.1035957 2960685
1.0251653 -1.3251108 4.1240525 2960685
1.0563147 -1.3247041 4.1455593 2960685
0.99441582 -1.2748889 4.1030712 2960685
1.0251921 -1.2750834 4.1243162 2960685
1.0561987 -1.275001 4.1457224 2960685
0.9943943 -1.2251215 4.1033015 2960685
1.0251374 -1.2249087 4.124526 2960685
1.0564657 -1.2252666 4.146152 2960685
0.99455899 -1.1747677 4.103663 2960685
1.0255749 -1.1750109 4.1250734 2960685
1.0564476 -1.1749729 4.1463861 2960685
0.99472386 -1.1244043 4.1040235 2960685
1.0252839 -1.1251085 4.1251187 2960685
1.0564291 -1.1246743 4.1466203 2960685
0.99460673 -1.0751913 4.1041851 2960685
1.0254879 -1.0749124 4.1255074 2960685
1.0565989 -1.0754954 4.1469793 2960685
0.99477285 -1.0253791 4.1045442 2960685
1.0255846 -1.0248473 4.1258202 2960685
1.0545895 -1.02539 4.1458392 2960685
0.99484569 -0.97443688 4.1048455 2960685
1.0256813 -0.97506851 4.1261311 2960685
1.0547382 -0.97477424 4.1461902 2960685
0.99501204 -0.92460722 4.1052051 2960685
1.0256623 -0.92498952 4.1263638 2960685
1.0546699 -0.92506367 4.1463885 2960685
0.99489439 -0.87537217 4.1053662 2960685
1.0257578 -0.87490672 4.1266761 2960685
1.0548185 -0.87443346 4.146739 2960685
0.99323183 -0.82394838 4.1044712 2960685
1.0259739 -0.82510245 4.12707 2960685
1.0548939 -0.82467204 4.1470366 2960685
0.99323195 -0.77456301 4.1047144 2960685
1.0258712 -0.77514744 4.1272435 2960685
1.0549694 -0.77490354 4.1473331 2960685
0.99302059 -0.7253232 4.1048102 2960685
1.0259112 -0.72490251 4.1275187 2960685
1.055045 -0.72512805 4.1476293 2960685
0.99323308 -0.675192 4.1052032 2960685
1.0261717 -0.67478514 4.1279435 2960685
1.0551205 -0.67534518 4.1479268 2960685
0.99340898 -0.62462932 4.1055732 2960685
1.0261273 -0.62495917 4.1281581 2960685
1.0552691 -0.62467438 4.1482787 2960685
0.99337631 -0.57493061 4.1057949 2960685
1.0262257 -0.57482809 4.1284709 2960685
1.0547464 -0.57828516 4.1481452 2960685
0.99334335 -0.52522725 4.1060176 2960685
1.0262734 -0.52497935 4.1287513 2894892
1.0532651 -0.52405494 4.1473899 2894892
0.99351954 -0.4746421 4.1063867 2960685
1.0265127 -0.47512567 4.1291633 2894892
1.0533406 -0.47426075 4.147687 2894892
0.99369806 -0.42489636 4.1067538 2894892
1.0261868 -0.42497697 4.1291828 2894892
1.053416 -0.42445931 4.147984 2894892
0.9929176 -0.3744131 4.1064653 2894892
1.0267428 -0.37496424 4.1298122 2894892
1.0534915 -0.37465081 4.1482806 2894892
0.9916932 -0.32489255 4.1058621 2894892
1.0266297 -0.32508716 4.1299791 2894892
1.0535668 -0.32483515 4.1485772 2894892
0.99193281 -0.27454162 4.1062756 2894892
1.026387 -0.27506885 4.1300578 2894892
1.0536422 -0.27501237 4.1488743 2894892
0.99047166 -0.22653945 4.1055026 2894892
1.0258323 -0.22432286 4.1299238 2894892
1.0537175 -0.22518243 4.1491714 2894892
0.9898634 -0.17518117 4.1053352 2894892
1.0243497 -0.17517075 4.1291428 2894892
1.0537931 -0.17534541 4.1494684 2894892
0.98993587 -0.12416653 4.1056356 2894892
1.0248646 -0.1248957 4.129746 2894892
1.0538685 -0.12550117 4.149766 2894892
0.99000603 -0.074845321 4.1059265 2894892
1.0249374 -0.075284868 4.1300392 2894892
1.053918 -0.092841037 4.1499605 2894892
0.9900763 -0.025517045 4.1062183 2894892
1.0250105 -0.025666902 4.1303334 2894892
0.99014884 0.025519537 4.1065187 2894892
1.0250863 0.025669428 4.1306381 2894892
0.99021667 0.073160358 4.1067996 4144959
1.0240828 0.073131315 4.1301799 4210752
1.0500182 0.084207758 4.1481385 5460819
1.0853431 -1.8563226 4.1629858 2960685
1.1202801 -1.8617532 4.187077 2960685
1.0825784 -1.8250366 4.1612306 2960685
1.1185449 -1.8250037 4.18606 2960685
1.0827461 -1.774954 4.1615915 2960685
1.1187555 -1.7748418 4.1864514 2960685
1.0827701 -1.7248652 4.1618562 2960685
1.1185745 -1.7248621 4.1865726 2960685
1.0829569 -1.6749804 4.1622291 2960685
1.1189499 -1.6750664 4.187077 2960685
1.0829257 -1.6250949 4.1624527 2960685
1.1188352 -1.6248801 4.187243 2960685
1.082986 -1.5749779 4.1627412 2960685
1.1191118 -1.5746841 4.1876822 2960685
1.0817051 -1.5243968 4.1621051 2960685
1.1189622 -1.5248691 4.1878242 2960685
1.0811162 -1.4749857 4.1619406 2960685
1.1183052 -1.4757018 4.1876116 2960685
1.0811299 -1.4248993 4.1621971 2960685
1.1171035 -1.4252189 4.1870308 2960685
1.081208 -1.3747956 4.1624975 2960685
1.1172211 -1.3750181 4.1873593 2960685
1.0814142 -1.3248857 4.1628861 2960685
1.117246 -1.3250194 4.1876206 2960685
1.081363 -1.2749591 4.163096 2960685
1.1173637 -1.2752337 4.1879487 2960685
1.0815697 -1.2250329 4.1634851 2960685
1.1174439 -1.2250063 4.1882501 2960685
1.0815189 -1.1750942 4.163693 2960685
1.117395 -1.1749886 4.1884613 2960685
1.0816287 -1.1249604 4.1640158 2960685
1.1176784 -1.1249635 4.1889038 2960685
1.0816109 -1.0748223 4.1642504 2960685
1.1176298 -1.0749356 4.189116 2960685
1.0797627 -1.0250216 4.1632204 2960685
1.1178211 -1.0251061 4.1894927 2960685
1.0796083 -0.97507185 4.1633582 2960685
1.1163576 -0.97578365 4.1887245 2960685
1.0799614 -0.92494452 4.1638489 2960685
1.1157956 -0.92490304 4.1885877 2960685
1.0798649 -0.87498498 4.1640282 2960685
1.1157918 -0.87488848 4.1888313 2960685
1.0801167 -0.82501119 4.1644473 2960685
1.1160825 -0.82487381 4.1892772 2960685
1.0800197 -0.77504009 4.1646261 2960685
1.1159084 -0.77509081 4.1894016 2960685
1.0801435 -0.72487944 4.164958 2960685
1.1162419 -0.72505885 4.1898775 2960685
1.0803066 -0.67489141 4.1653166 2960685
1.1160706 -0.67477024 4.1900063 2960685
1.0802257 -0.62506223 4.1655054 2960685
1.1162773 -0.62496954 4.1903934 2960685
1.0797575 -0.57451439 4.1654301 2894892
1.1164832 -0.57515854 4.1907806 2894892
1.0782429 -0.5249874 4.1646271 2894892
1.1161848 -0.52510667 4.1908207 2894892
1.0786088 -0.47483096 4.1651273 2894892
1.1149191 -0.4755308 4.1901913 2894892
1.0783172 -0.42497888 4.1651726 2894892
1.114275 -0.42473361 4.1899977 2894892
1.0788679 -0.37495804 4.1657982 2894892
1.114548 -0.37498549 4.1904287 2894892
1.078337 -0.32510203 4.1656761 2894892
1.1147476 -0.32494241 4.1908131 2894892
1.0791522 -0.27505252 4.1664853 2894892
1.1145836 -0.27463448 4.1909475 2894892
1.0784923 -0.2250385 4.1662755 2894892
1.1149129 -0.2254317 4.1914172 2894892
1.0780805 -0.17557773 4.1662345 2894892
1.1133959 -0.17414519 4.1906209 2894892
1.0765626 -0.12496695 4.1654363 2894892
1.1128249 -0.12499613 4.1904688 2894892
1.0758039 -0.074331515 4.1651616 2894892
1.1129053 -0.074655689 4.1907716 2894892
1.0746008 -0.024808003 4.1645732 2894892
1.1127193 -0.024742005 4.1908889 2894892
1.0746775 0.024810355 4.1648684 2894892
1.1109347 0.024301827 4.189898 2894892
1.0755154 0.073080383 4.1656861 4342338
1.1131697 0.074876048 4.1903529 4868682
1.1743313 0.095544688 4.1931601 10132122
1.2248067 0.095552251 4.1934919 10132122
1.2752898 0.095559835 4.1938252 9803157
1.3240401 0.095567174 4.1941471 2039583
1.3745389 0.095574737 4.194479 2039583
1.4250457 0.095582329 4.1948123 2039583
1.4529152 0.095586523 4.1949959 2039583
1.1443156 -1.8657057 4.2036514 2960685
1.1756834 -1.8702631 4.2252831 2960685
1.204777 -1.8748765 4.2453461 2960685
1.144218 -1.8251714 4.2037821 2960685
1.1745287 -1.8249875 4.2247095 2960685
1.2049649 -1.8251768 4.2457194 2960685
1.1443008 -1.7747951 4.2040868 2960685
1.1744761 -1.7749947 4.2249188 2960685
1.2049502 -1.7748798 4.2459569 2960685
1.1442832 -1.7249886 4.20432 2960685
1.1744223 -1.7251574 4.2251263 2960685
1.2050366 -1.7251636 4.2462606 2960685
1.1445646 -1.6751778 4.2047596 2960685
1.1746724 -1.675308 4.225544 2960685
1.2050211 -1.6754398 4.2464948 2960685
1.1445469 -1.6253577 4.2049928 2960685
1.1748117 -1.625293 4.2258863 2960685
1.2049886 -1.6267065 4.2467108 2960685
1.1445293 -1.5755326 4.205224 2960685
1.1747867 -1.575117 4.2261157 2960685
1.2031837 -1.5751092 4.2457194 2960685
1.1448096 -1.5251161 4.205667 2960685
1.1749257 -1.5250871 4.2264562 2960685
1.2031949 -1.5251005 4.2459731 2960685
1.1436603 -1.4731003 4.2051287 2960685
1.1747912 -1.4750504 4.2266126 2960685
1.2032061 -1.4750862 4.2462268 2960685
1.1427341 -1.4249283 4.2047262 2960685
1.1752059 -1.4250124 4.2271423 2960685
1.2033682 -1.4250401 4.2465844 2960685
1.1428536 -1.3749462 4.2050548 2960685
1.1750977 -1.3749609 4.227313 2960685
1.2035304 -1.3749851 4.2469425 2960685
1.1427503 -1.3249539 4.2052293 2960685
1.1751825 -1.3249054 4.2276192 2960685
1.2035414 -1.3249496 4.2471957 2960685
1.1430935 -1.27496 4.2057114 2960685
1.175348 -1.275159 4.2279778 2960685
1.2035526 -1.274909 4.2474499 2960685
1.1430628 -1.2249545 4.205936 2960685
1.1754063 -1.2252436 4.2282619 2960685
1.2037147 -1.2248317 4.247808 2960685
1.1430322 -1.1749449 4.2061605 2960685
1.1754634 -1.1750115 4.2285504 2960685
1.2038001 -1.1756399 4.2481084 2960685
1.1433752 -1.124922 4.2066431 2960685
1.1756858 -1.1249253 4.2289481 2960685
1.2036186 -1.1287137 4.2482142 2960685
1.143272 -1.0748993 4.2068181 2960685
1.1755217 -1.0749886 4.2290826 2960685
1.2017859 -1.0750966 4.2472129 2960685
1.1432781 -1.0253049 4.2070661 2960685
1.1757722 -1.0250503 4.2295008 2960685
1.201874 -1.0241443 4.2475243 2960685
1.1420258 -0.97410929 4.2064543 2960685
1.1759663 -0.9749437 4.2298794 2960685
1.201959 -0.97494161 4.2478242 2960685
1.1405658 -0.92625153 4.2056808 2960685
1.1748542 -0.92431659 4.2293606 2960685
1.2020441 -0.92573208 4.2481256 2960685
1.1392368 -0.8749854 4.2050157 2960685
1.1737995 -0.8749668 4.2288756 2960685
1.2021323 -0.87475765 4.2484365 2960685
1.1395794 -0.82494199 4.2054977 2960685
1.1739351 -0.82509661 4.2292147 2960685
1.2022203 -0.82377583 4.2487478 2960685
1.1393659 -0.77449435 4.2055998 2960685
1.1741328 -0.77506912 4.2295971 2960685
1.2023056 -0.77454501 4.2490487 2960685
1.1395953 -0.72487789 4.2060008 2960685
1.1739774 -0.72503841 4.2297359 2960685
1.2023907 -0.72530711 4.2493496 2960685
1.1398246 -0.67525077 4.2064028 2960685
1.174112 -0.67514729 4.2300725 2960685
1.2024758 -0.67606217 4.24965 2960685
1.1396115 -0.62478864 4.2065029 2960685
1.1741704 -0.62523979 4.2303596 2960685
1.2025456 -0.63560605 4.249898 2960685
1.1398407 -0.57514715 4.2069063 2960685
1.1744208 -0.57518744 4.2307777 2960685
1.1400317 -0.52506405 4.207284 2894892
1.174505 -0.52498579 4.2310829 2894892
1.1379262 -0.47401762 4.2060814 2894892
1.1745 -0.47491258 4.2313271 2894892
1.1379452 -0.42520252 4.2063351 2894892
1.1743571 -0.42498359 4.2314739 2894892
1.1381433 -0.37502947 4.206718 2894892
1.1748227 -0.37504703 4.2320395 2894892
1.1379892 -0.3245379 4.206861 2894892
1.174982 -0.3250995 4.2323956 2894892
1.1381902 -0.27539521 4.2072415 2894892
1.1746879 -0.27486271 4.2324405 2894892
1.1382726 -0.2248642 4.2075472 2894892
1.1747063 -0.22476335 4.2326994 2894892
1.1383553 -0.17432602 4.2078505 2894892
1.1750448 -0.17537506 4.2331758 2894892
1.1384354 -0.12552342 4.2081466 2894892
1.1745929 -0.12598491 4.2331061 2894892
1.1385177 -0.074970663 4.2084522 2894892
1.1726329 -0.074621543 4.2320051 2894892
1.1382445 -0.023829244 4.2085147 2894892
1.1731241 -0.024548875 4.2325916 2894892
1.1365393 0.024404353 4.2075753 2894892
1.1732072 0.024551177 4.2328897 2894892
1.1366163 0.071474142 4.20786 4013373
1.1732864 0.071904182 4.2331781 4144959
1.2361784 -1.9043589 4.2668786 2960685
1.2679487 -1.9095567 4.2887859 2960685
1.2310861 -1.8748667 4.2635088 2960685
1.2665581 -1.8752074 4.2879944 2960685
1.2313483 -1.8249506 4.2639346 2960685
1.266875 -1.8250902 4.2884598 2960685
1.2312284 -1.7750294 4.2640986 2960685
1.2668308 -1.774966 4.2886763 2960685
1.2313197 -1.7249024 4.2644081 2960685
1.2667874 -1.7248377 4.2888937 2960685
1.2315108 -1.6749673 4.2647848 2960685
1.2670132 -1.674949 4.2892928 2960685
1.2311996 -1.6245461 4.2648182 2960685
1.2670596 -1.6250542 4.2895703 2960685
1.2294089 -1.5748035 4.2638249 2960685
1.2672862 -1.574904 4.2899742 2960685
1.2296999 -1.5249238 4.2642732 2960685
1.2672869 -1.524994 4.2902198 2960685
1.2295392 -1.4748584 4.2644076 2960685
1.2672876 -1.4750786 4.2904668 2960685
1.2296906 -1.424787 4.2647562 2960685
1.2658423 -1.4255365 4.2897115 2960685
1.2297935 -1.3748844 4.2650747 2960685
1.2651945 -1.3746113 4.2895145 2960685
1.2298979 -1.3249716 4.2653913 2960685
1.2654161 -1.3246485 4.2899132 2960685
1.2300169 -1.275232 4.265718 2960685
1.2655067 -1.274977 4.2902198 2960685
1.2289745 -1.2260469 4.2652397 2960685
1.2642822 -1.2239529 4.2896252 2960685
1.2279836 -1.1749567 4.2648063 2960685
1.2634612 -1.1748521 4.289299 2960685
1.2273678 -1.1241997 4.2646327 2960685
1.263552 -1.1249229 4.289607 2960685
1.22607 -1.0749009 4.2639771 2960685
1.2636425 -1.0749865 4.2899165 2960685
1.2260015 -1.02516 4.264174 2960685
1.263733 -1.0252966 4.2902236 2960685
1.2261361 -0.97523391 4.2645135 2960685
1.2637788 -0.97534412 4.2905002 2960685
1.2260255 -0.92495054 4.2646842 2960685
1.2621372 -0.92564452 4.2896113 2960685
1.226329 -0.87483531 4.2651401 2960685
1.261772 -0.87494057 4.2896085 2960685
1.2263856 -0.82506341 4.2654238 2960685
1.261732 -0.82494438 4.2898264 2960685
1.2264423 -0.77528512 4.265708 2960685
1.2619535 -0.77494133 4.290225 2960685
1.2266394 -0.72532368 4.266089 2960685
1.2620441 -0.72522622 4.2905326 2960685
1.2265272 -0.67500639 4.2662587 2960685
1.262266 -0.67520428 4.2909317 2960685
1.2258432 -0.62421703 4.266037 2960685
1.262225 -0.62518162 4.2911487 2960685
1.2246997 -0.57495636 4.2654901 2960685
1.2623154 -0.57544512 4.2914543 2960685
1.224759 -0.52503127 4.2657762 2894892
1.2624851 -0.52540141 4.2918186 2894892
1.2247342 -0.47493926 4.2660055 2894892
1.2625239 -0.47506028 4.2920923 2894892
1.2247095 -0.42484292 4.2662344 2894892
1.260726 -0.42577019 4.2910938 2894892
1.2248532 -0.37490001 4.2665815 2894892
1.2604454 -0.37510812 4.2911487 2894892
1.2250828 -0.32526749 4.2669806 2894892
1.2603521 -0.32430819 4.2913351 2894892
1.2253127 -0.27562457 4.2673864 2894892
1.2606291 -0.27381641 4.2917757 2894892
1.2255114 -0.22549035 4.2677698 2894892
1.2607197 -0.2240476 4.2920823 2894892
1.2252905 -0.17488457 4.2678652 2894892
1.2608094 -0.17427169 4.2923884 2960685
1.1990763 -0.11092769 4.2500825 2894892
1.2251 -0.12427723 4.2679825 2894892
1.2608993 -0.12448855 4.292695 2960685
1.19914 -0.073955476 4.250308 2960685
1.2255247 -0.074272417 4.2685208 2960685
1.2609895 -0.074698374 4.2930036 2960685
1.1992248 -0.024653379 4.2506089 2960685
1.2256116 -0.024759032 4.2688251 2960685
1.2610798 -0.024901042 4.2933092 2960685
1.1993099 0.024655705 4.2509098 2960685
1.2256989 0.024761373 4.2691274 2960685
1.26117 0.024903411 4.2936177 2960685
1.1993917 0.072210327 4.2512007 4144959
1.2257833 0.072519824 4.2694216 4276545
1.2596312 0.071945004 4.2927852 4276545
1.2915138 -1.9127716 4.3050389 2960685
1.3268987 -1.9185753 4.3294382 2894892
1.3525176 -1.9216194 4.3471098 2039583
1.2912854 -1.8744974 4.3050685 2960685
1.3252354 -1.8750743 4.3285041 2894892
1.3526084 -1.8749201 4.3474021 2039583
1.2913778 -1.8246893 4.305377 2960685
1.3253317 -1.8249952 4.3288159 2894892
1.352703 -1.8264191 4.3477063 2039583
1.2914705 -1.774874 4.3056865 2960685
1.3253974 -1.7750717 4.3291059 2894892
1.3528012 -1.7761137 4.3480206 2039583
1.2915628 -1.7250512 4.3059959 2960685
1.3254026 -1.7253045 4.3293557 2894892
1.3528992 -1.7258017 4.3483357 2039583
1.2916555 -1.6752218 4.3063045 2960685
1.3256173 -1.6753657 4.3297482 2894892
1.3529971 -1.6754819 4.3486505 2039583
1.2917484 -1.6253847 4.3066134 2960685
1.3257129 -1.6252576 4.33006 2894892
1.3530952 -1.6251552 4.3489656 2039583
1.2918023 -1.5750941 4.3068981 2960685
1.3258083 -1.5751415 4.3303742 2894892
1.3531932 -1.5748211 4.3492808 2039583
1.2919353 -1.5247997 4.3072367 2960685
1.3259044 -1.525019 4.3306875 2894892
1.3532912 -1.5244795 4.349596 2039583
1.2920282 -1.4749418 4.3075461 2960685
1.3258506 -1.475054 4.3308954 2894892
1.3533788 -1.4795258 4.3498774 2039583
1.2902772 -1.4242182 4.3065867 2960685
1.3260348 -1.4252439 4.3312674 2894892
1.2899659 -1.3752426 4.306613 2960685
1.3260436 -1.3750986 4.3315191 2894892
1.2900585 -1.3253806 4.3069215 2960685
1.3262864 -1.3247852 4.3319349 2894892
1.2900881 -1.2751524 4.307189 2960685
1.3263818 -1.2746269 4.3322458 2894892
1.2902445 -1.2249235 4.3075447 2960685
1.3264176 -1.2247832 4.3325186 2829099
1.2903374 -1.17504 4.3078537 2960685
1.3265724 -1.1749398 4.3328691 2894892
1.2904303 -1.1251493 4.3081627 2960685
1.3266679 -1.1247591 4.3331819 2894892
1.2905229 -1.0752511 4.3084717 2960685
1.3266444 -1.0747341 4.3334122 2829099
1.2904896 -1.02499 4.3086963 2960685
1.3268586 -1.0247037 4.3338056 2894892
1.2907096 -0.97472262 4.3090944 2960685
1.3266519 -0.97496861 4.3339062 2894892
1.2889724 -0.92429048 4.3081436 2960685
1.3247674 -0.92480576 4.3328528 2960685
1.2886473 -0.87515497 4.3081603 2960685
1.3250101 -0.87478489 4.3332658 2960685
1.2877408 -0.82593781 4.3077774 2960685
1.3238791 -0.82439703 4.3327332 2960685
1.2865822 -0.77444398 4.3072295 2960685
1.3227836 -0.77501637 4.3322201 2960685
1.2866743 -0.72453189 4.3075385 2960685
1.3227897 -0.72497803 4.3324699 2960685
1.2867665 -0.67461258 4.307848 2960685
1.3228544 -0.67509586 4.3327589 2960685
1.2868588 -0.62468606 4.308157 2960685
1.3229196 -0.62520701 4.3330498 2894892
1.2869513 -0.57475227 4.3084664 2894892
1.3232529 -0.57531142 4.3335252 2894892
1.2870438 -0.52481163 4.3087764 2894892
1.3232585 -0.52524197 4.3337741 2894892
1.2871362 -0.47486353 4.3090844 2894892
1.3233546 -0.47500432 4.3340878 2894892
1.2852579 -0.42425328 4.3080382 2894892
1.3213968 -0.4250522 4.3329821 2894892
1.2850758 -0.37481135 4.3081536 2894892
1.3212805 -0.37500662 4.333149 2894892
