# .PCD v0.7 - Point Cloud Data file format
VERSION 0.7
FIELDS x y z rgb
SIZE 4 4 4 4
TYPE F F F U
COUNT 1 1 1 1
WIDTH 1175
HEIGHT 1
VIEWPOINT 0 0 0 1 0 0 0
POINTS 1175
DATA ascii
0.37539905 -0.17533924 2.9805002 2894892
0.41690412 -0.17503183 2.9946697 2894892
0.29359859 -0.12477813 2.9528205 2894892
0.32539231 -0.12523668 2.9636729 2894892
0.37544265 -0.12551424 2.9807558 2894892
0.41642067 -0.12400888 2.99475 2894892
0.29273811 -0.073765345 2.9527738 2894892
0.32541996 -0.074902654 2.9639237 2894892
0.37387174 -0.07468494 2.9804654 2894892
0.4146792 -0.074812599 2.9943941 2894892
0.29238281 -0.024466606 2.9528904 2894892
0.32544768 -0.024560127 2.9641771 2894892
0.37420207 -0.024698006 2.9808185 2894892
0.41436833 -0.024811616 2.9945288 2894892
0.2913563 0.023958594 2.9527738 2894892
0.32438448 0.024717055 2.9640517 2894892
0.37423334 0.024700759 2.9810679 2894892
0.41440323 0.024814386 2.994781 2894892
0.2908273 0.075369664 2.9528422 2894892
0.324229 0.074911416 2.964241 2894892
0.37397212 0.074639313 2.9812191 2894892
0.41419461 0.074109554 2.994947 2894892
-2.3176208 0.10151055 2.9520974 6513507
-2.2745619 0.10149924 2.9517684 6513507
-2.2253628 0.10148629 2.9513919 6513507
-2.1749463 0.10147303 2.9510059 6513507
-2.1245437 0.10145978 2.9506207 6513507
-2.0753827 0.10144683 2.9502447 6513507
-2.047121 0.10143942 2.9500287 6513507
0.38460177 0.1001677 2.9849718 2894892
0.42416209 0.10045862 2.9936414 2894892
0.47503635 0.10046471 2.9938235 2894892
0.52581912 0.10045139 2.9934261 2894892
0.57535046 0.10043842 2.9930389 2894892
0.62486875 0.10042544 2.9926524 2894892
0.6743744 0.10041245 2.9922662 2894892
0.72510433 0.10039915 2.9918694 2894892
0.77582085 0.10038584 2.9914725 2894892
0.82528752 0.10037287 2.991086 2894892
0.85867089 0.10036413 2.9908257 2894892
0.44399798 -0.57458329 3.0019877 2894892
0.47558901 -0.57500213 3.0127697 2894892
0.52458471 -0.57490128 3.0294957 2894892
0.56612217 -0.57490408 3.0436738 2894892
0.44403544 -0.52488017 3.0022409 2894892
0.47558782 -0.52511984 3.01301 2894892
0.52469307 -0.52509034 3.0297716 2894892
0.56634772 -0.52479845 3.0439935 2894892
0.44407275 -0.47516853 3.0024934 2894892
0.47558653 -0.47503296 3.0132504 2894892
0.52477849 -0.47499222 3.0300438 2894892
0.56637508 -0.4748798 3.0442431 2894892
0.44308618 -0.4245888 3.0024011 2894892
0.47564763 -0.42493802 3.013515 2894892
0.52481586 -0.42495507 3.0302982 2894892
0.56567323 -0.42558327 3.0442417 2894892
0.44283825 -0.37566411 3.002553 2894892
0.47562587 -0.37483516 3.0137496 2894892
0.52485287 -0.37490952 3.0305536 2894892
0.56484509 -0.3754234 3.0442009 2894892
0.44292995 -0.32572064 3.0028255 2894892
0.47570753 -0.32472283 3.0140195 2894892
0.52490109 -0.32492524 3.0308099 2894892
0.56507528 -0.32541761 3.0445218 2894892
0.44258684 -0.27445757 3.0029559 2894892
0.47580987 -0.27473262 3.0142961 2894892
0.52491575 -0.27500305 3.0310552 2894892
0.56512368 -0.27498847 3.0447819 2894892
0.44153261 -0.22447452 3.0028377 2894892
0.47585046 -0.22480021 3.0145512 2894892
0.52486998 -0.22521399 3.0312803 2894892
0.56396925 -0.22472554 3.0446315 2894892
0.44168016 -0.17418218 3.0031309 2894892
0.4758904 -0.17485936 3.0148048 2894892
0.52479392 -0.17555864 3.0314949 2894892
0.56402063 -0.17441235 3.0448909 2894892
0.4417173 -0.1244262 3.0033836 2894892
0.47593102 -0.12490995 3.0150607 2894892
0.52504838 -0.12560447 3.0318232 2894892
0.56376618 -0.12524721 3.0450423 2894892
0.4407416 -0.074051969 3.0032938 2894892
0.47597125 -0.074952178 3.0153155 2894892
0.52509296 -0.075368933 3.0320797 2894892
0.56358743 -0.07619144 3.0452173 2894892
0.44048268 -0.024885461 3.0034428 2894892
0.47601157 -0.024985943 3.0155697 2894892
0.5251376 -0.0251249 3.0323377 2894892
0.56266606 -0.025231019 3.0451496 2894892
0.44051996 0.024888253 3.0036957 2894892
0.47605166 0.024988757 3.0158248 2894892
0.52518237 0.025127726 3.0325971 2894892
0.56271404 0.025233896 3.0454092 2894892
0.44027013 0.075152971 3.0038533 2894892
0.47609183 0.074971899 3.0160809 2894892
0.52522713 0.075388893 3.0328555 2894892
0.56276208 0.075707406 3.0456693 2894892
-2.3678174 0.10121012 3.016036 6513507
-2.3250763 0.10119891 3.015702 6513507
-2.2760627 0.10118606 3.0153193 6513507
-2.2258039 0.10117289 3.0149264 6513507
-2.1755586 0.10115973 3.0145338 6513507
-2.1253266 0.10114654 3.0141416 6513507
-2.0751078 0.10113337 3.0137491 6513507
-2.0249019 0.10112021 3.0133569 6513507
-1.9747088 0.10110705 3.0129642 6513507
-1.9245287 0.10109389 3.0125723 6513507
-1.8743618 0.10108073 3.0121803 6513507
-1.824208 0.10106759 3.0117884 6513507
-1.7740675 0.10105444 3.0113969 6513507
-1.7239399 0.10104128 3.0110054 6513507
-1.673825 0.10102816 3.0106134 6513507
-1.6249759 0.10101534 3.0102317 6513507
-1.5761391 0.10100255 3.00985 6513507
-1.5260627 0.10098942 3.009459 6513507
-1.4759996 0.10097629 3.009068 6513507
-1.4259495 0.10096316 3.0086763 6513507
-1.3759121 0.10095004 3.0082858 6513507
-1.325888 0.10093693 3.007895 6513507
-1.2758769 0.10092381 3.007504 6513507
-1.2258787 0.10091071 3.0071135 6513507
-1.1758935 0.1008976 3.0067229 6513507
-1.1259212 0.10088448 3.0063329 6513507
-1.0934455 0.10087595 3.006078 6513507
0.69730526 -0.60006636 3.0883324 2894892
0.59192425 -0.57453847 3.0524836 2894892
0.62447214 -0.57494986 3.0635917 2894892
0.67392474 -0.57506657 3.0804722 2894892
0.71561778 -0.57500386 3.0947046 2894892
0.59178841 -0.52528042 3.0526748 2894892
0.62435192 -0.52486002 3.063792 2894892
0.67376763 -0.52498233 3.0806599 2894892
0.71387661 -0.52503324 3.0943518 2894892
0.59193158 -0.47556683 3.0529635 2894892
0.62466967 -0.47490448 3.0641427 2894892
0.67404264 -0.47496432 3.080996 2894892
0.71432585 -0.47494873 3.0947459 2894892
0.59125465 -0.42400512 3.0529821 2894892
0.62472326 -0.42500883 3.0644016 2894892
0.6740222 -0.42507836 3.0812299 2894892
0.71399665 -0.42499653 3.0948758 2894892
0.59067941 -0.37438995 3.0530252 2894892
0.62443984 -0.37517926 3.0645454 2894892
0.67382622 -0.37497437 3.0814052 2894892
0.71398377 -0.37556866 3.0951095 2894892
0.59078974 -0.32490197 3.0533016 2894892
0.62467158 -0.32498512 3.064868 2894892
0.67445451 -0.32492247 3.0818598 2894892
0.71274102 -0.32505152 3.094929 2894892
0.59071982 -0.27560434 3.0535169 2894892
0.62508714 -0.27477506 3.0652514 2894892
0.67387444 -0.27516466 3.0819039 2894892
0.7131502 -0.27491948 3.0953116 2894892
0.58959568 -0.22487773 3.0533776 2894892
0.62454075 -0.22528389 3.0653045 2894892
0.67431599 -0.22481187 3.0822964 2894892
0.71286839 -0.22494988 3.0954568 2894892
0.58952588 -0.1745791 3.0535967 2894892
0.62489474 -0.17526907 3.0656664 2894892
0.67423898 -0.17502956 3.0825114 2894892
0.71231902 -0.1755382 3.0955079 2894892
0.58968121 -0.12492453 3.0538895 2894892
0.62494832 -0.12447713 3.0659306 2894892
0.67436415 -0.12516178 3.0827963 2894892
0.71160895 -0.12498142 3.09551 2894892
0.58908051 -0.074971303 3.0539258 2894892
0.62500095 -0.074946463 3.0661874 2894892
0.67442089 -0.075358748 3.083055 2894892
0.71196991 -0.07480216 3.0958753 2894892
0.58832163 -0.025303584 3.0539052 2894892
0.62505329 -0.025407463 3.0664449 2894892
0.67447805 -0.025547246 3.0833147 2894892
0.71161312 -0.025070583 3.0959933 2894892
0.58837211 0.025306474 3.0541677 2894892
0.62510693 0.025410375 3.0667088 2894892
0.67453641 0.025550185 3.0835814 2894892
0.71042061 0.024865173 3.0958273 2894892
0.58826786 0.075376943 3.0543737 2894892
0.62515962 0.074966125 3.0669651 2894892
0.67459315 0.075378649 3.083842 2894892
0.71074849 0.07486292 3.0961807 2894892
-2.4202402 0.10089653 3.0828102 6513507
-2.3752625 0.10088478 3.0824509 6513507
-2.3251565 0.10087169 3.0820506 6513507
-2.275064 0.10085859 3.081651 6513507
-2.2249844 0.10084551 3.0812509 6513507
-2.1749177 0.10083242 3.0808513 6513507
-2.1248639 0.10081934 3.0804513 6513507
-2.0748231 0.10080627 3.0800519 6513507
-2.0247951 0.10079318 3.0796525 6513507
-1.9747807 0.10078011 3.0792527 6513507
-1.9247786 0.10076704 3.0788531 6513507
-1.8747898 0.10075398 3.0784545 6513507
-1.8248138 0.10074092 3.0780551 6513507
-1.7748511 0.10072786 3.0776563 6513507
-1.7249011 0.10071482 3.0772574 6513507
-1.674964 0.10070176 3.0768588 6513507
-1.6250398 0.1006887 3.0764599 6513507
-1.5751286 0.10067566 3.0760612 6513507
-1.5252303 0.10066261 3.0756629 6513507
-1.4753453 0.10064957 3.0752647 6513507
-1.4254726 0.10063654 3.0748665 6513507
-1.3756133 0.10062353 3.0744681 6513507
-1.3244885 0.10061016 3.0740602 6513507
-1.2746553 0.10059712 3.0736618 6513507
-1.2248348 0.1005841 3.0732636 6513507
-1.1750271 0.10057109 3.0728662 6513507
-1.1303389 0.10055941 3.0725095 6513507
0.59521985 0.10004744 3.0568666 2894892
0.62594366 0.1001004 3.0584846 2894892
0.67527336 0.1000875 3.0580907 2894892
0.72459036 0.10007461 3.0576968 2894892
0.77515864 0.1000614 3.0572932 2894892
0.82571363 0.10004818 3.0568893 2894892
0.86867505 0.10003694 3.0565464 2894892
0.73628902 -0.60008198 3.1016395 2894892
0.77561027 -0.60009784 3.115062 2894892
0.81669635 -0.60020685 3.1290865 2894892
0.85671806 -0.6002233 3.1427479 2894892
0.74045926 -0.57489187 3.1031849 2894892
0.77411032 -0.57508081 3.1146715 2894892
0.82522094 -0.57498318 3.1321185 2894892
0.86387759 -0.57480335 3.1453159 2894892
0.73930669 -0.52503836 3.1030324 2894892
0.77440292 -0.52508956 3.1150112 2894892
0.82550383 -0.52485478 3.1324582 2894892
0.86401731 -0.52518314 3.145602 2894892
0.73912317 -0.47496152 3.1032114 2894892
0.77441561 -0.4750146 3.1152582 2894892
0.82542074 -0.47493187 3.1326704 2894892
0.86420685 -0.47540671 3.1459072 2894892
0.73943281 -0.42502093 3.1035583 2894892
0.77416188 -0.42507711 3.1154125 2894892
0.82521665 -0.42485955 3.1328406 2894892
0.86311942 -0.42562729 3.1457763 2894892
0.73871249 -0.37412265 3.1035583 2894892
0.77483028 -0.37512514 3.1158822 2894892
0.82571447 -0.37499028 3.13325 2894892
0.8626591 -0.37454942 3.1458664 2894892
0.73803556 -0.32529935 3.1035631 2894892
0.77427703 -0.32481799 3.115937 2894892
0.8258481 -0.32511234 3.1335411 2894892
0.86287135 -0.3245523 3.1461794 2894892
0.73809826 -0.27517757 3.1038265 2894892
0.77464998 -0.27499279 3.1163044 2894892
0.82458061 -0.27510962 3.133348 2894892
0.86185807 -0.27453727 3.1460752 2894892
0.73816109 -0.22504744 3.1040897 2894892
0.77502322 -0.22515412 3.116673 2894892
0.82423097 -0.2247407 3.1334713 2894892
0.86014026 -0.22545965 3.1457262 2894892
0.73721188 -0.17426945 3.1040115 2894892
0.77447039 -0.17483175 3.1167271 2894892
0.8244319 -0.17526853 3.1337795 2894892
0.86032492 -0.17561477 3.1460299 2894892
0.73688769 -0.12474242 3.1041396 2894892
0.77484667 -0.12526301 3.1170943 2894892
0.82481188 -0.12531996 3.13415 2894892
0.86017811 -0.12481641 3.1462255 2894892
0.73695034 -0.074594438 3.1044033 2894892
0.77491236 -0.074905731 3.1173596 2894892
0.8242628 -0.074715264 3.1342056 2894892
0.85987359 -0.075055152 3.1463616 2894892
0.73685175 -0.02418514 3.1046133 2894892
0.7749787 -0.024539964 3.1176271 2894892
0.82464194 -0.024673402 3.1345811 2894892
0.85899413 -0.024765708 3.1463041 2894892
0.73567623 0.0244369 3.1044466 2894892
0.77504313 0.024542691 3.1178854 2894892
0.82471102 0.024676155 3.1348388 2894892
0.85906625 0.024768468 3.1465683 2894892
0.73573846 0.074602544 3.1047101 2894892
0.77510887 0.074925467 3.1181498 2894892
0.82478458 0.075460352 3.1345768 2894892
0.86124438 0.077629298 3.144011 2894892
0.90367174 0.099688716 3.1250205 2894892
-2.1532483 0.10048493 3.1499801 6513507
-2.1256924 0.10047775 3.1497555 6513507
-2.0758374 0.10046478 3.1493478 6513507
-2.0259957 0.10045178 3.1489415 6513507
-1.9761667 0.10043881 3.1485343 6513507
-1.9250399 0.10042548 3.1481166 6513507
-1.8739263 0.10041218 3.1476994 6513507
-1.8241369 0.10039921 3.1472929 6513507
-1.7743601 0.10038624 3.1468866 6513507
-1.7245959 0.10037329 3.1464801 6513507
-1.674845 0.10036033 3.1460738 6513507
-1.6251067 0.10034737 3.1456678 6513507
-1.5753813 0.10033442 3.145262 6513507
-1.5256687 0.10032147 3.144856 6513507
-1.475969 0.10030852 3.1444502 6513507
-1.4249747 0.10029525 3.1440339 6513507
-1.3739936 0.10028196 3.1436176 6513507
-1.324333 0.10026903 3.1432121 6513507
-1.2746851 0.10025611 3.1428065 6513507
-1.2250502 0.10024317 3.1424015 6513507
-1.175428 0.10023023 3.1419959 6513507
-1.1427879 0.10022172 3.1417291 6513507
0.89709079 -0.60023987 3.1565289 2894892
0.88848954 -0.57520157 3.1537142 2894892
0.90873247 -0.57483041 3.1606262 2894892
0.88844377 -0.5247879 3.1539423 2894892
0.90880907 -0.5251171 3.1608915 2894892
0.88853747 -0.47452196 3.1542163 2894892
0.90888572 -0.47539541 3.1611586 2894892
0.88751155 -0.42421159 3.1541095 2894892
0.90896231 -0.42566529 3.1614246 2894892
0.8873086 -0.37504542 3.1542776 2894892
0.90910238 -0.37570158 3.1617134 2894892
0.88738298 -0.32541505 3.1545432 2894892
0.90916687 -0.3253009 3.1619792 2894892
0.88737452 -0.27563748 3.1547801 2894892
0.90908331 -0.2744737 3.1621962 2894892
0.8862679 -0.22555929 3.1546445 2894892
0.90927273 -0.22404179 3.162504 2894892
0.8859883 -0.17462958 3.1547947 2894892
0.90934956 -0.17426938 3.1627717 2894892
0.88624102 -0.12417703 3.1551247 2894892
0.90942609 -0.12448849 3.163038 2894892
0.88575226 -0.073951423 3.155201 2894892
0.90950263 -0.074699238 3.1633034 2894892
0.88494623 -0.024835432 3.155163 2894892
0.90957922 -0.02490161 3.1635711 2894892
0.8850202 0.024838204 3.1554275 2894892
0.90965629 0.024904408 3.1638384 2894892
0.88509482 0.074520193 3.1556928 2894892
0.90973276 0.074718826 3.1641045 2894892
-2.4724078 0.10056806 3.152586 6513507
-2.4250917 0.10055575 3.1522002 6513507
-2.3751597 0.10054275 3.1517923 6513507
-2.3252404 0.10052973 3.1513846 6513507
-2.2753336 0.10051674 3.1509771 6513507
-2.2254405 0.10050374 3.1505697 6513507
-2.178185 0.10049143 3.1501837 6513507
-2.5408356 -1.451332 3.2467058 11711154
-2.5619411 -1.424724 3.239629 11711154
-2.5407867 -1.4250726 3.2468495 11711154
-2.5623081 -1.3748944 3.2397451 11711154
-2.541101 -1.3750842 3.2469828 11711154
-2.562366 -1.3249471 3.2399659 11711154
-2.5422752 -1.3249435 3.2468243 11711154
-2.5625162 -1.2749916 3.2401567 11711154
-2.5423665 -1.2749109 3.2470345 11711154
-2.562207 -1.2243302 3.2405059 11711154
-2.54215 -1.2259487 3.2473445 11711154
-2.5617571 -1.17494 3.2408988 11711154
-2.5417268 -1.1755023 3.2477343 11711154
-2.5619028 -1.1249914 3.241091 11711154
-2.542949 -1.1252394 3.2475588 11711154
-2.5622048 -1.0749247 3.24123 11711154
-2.5430214 -1.0750661 3.2477767 11711154
-2.5621412 -1.024966 3.2414923 11711154
-2.5430939 -1.0248859 3.2479947 11711154
-2.5623915 -0.97499973 3.241648 11711154
-2.5436974 -0.97610599 3.2480235 11711154
-2.5626931 -0.92491788 3.2417872 11711154
-2.5444872 -0.92469025 3.2480023 11711154
-2.5599949 -0.87588555 3.2429447 9408399
-2.5447278 -0.87496871 3.2481606 9539985
-2.5596702 -0.82500726 3.2433016 6513507
-2.5448303 -0.82495064 3.2483668 6513507
-2.5599079 -0.7750442 3.2434614 6513507
-2.545506 -0.77650446 3.2483706 6513507
-2.5598443 -0.72490674 3.2437251 6513507
-2.54619 -0.72536802 3.2483845 6513507
-2.5602477 -0.67524207 3.2438266 6513507
-2.546283 -0.67492735 3.2485955 6513507
-2.5601192 -0.62534189 3.244112 6513507
-2.5465462 -0.62519604 3.2487469 6513507
-2.5592752 -0.57497454 3.244643 6513507
-2.5473547 -0.57621938 3.2487071 6513507
-2.5592282 -0.52464741 3.2449024 6513507
-2.5475793 -0.52694553 3.2488682 6513507
-2.5586038 -0.47461286 3.2453582 6513507
-2.5469372 -0.47519472 3.2493382 6513507
-2.558753 -0.42489058 3.2455478 6513507
-2.5470865 -0.4254117 3.249527 6513507
-2.5589025 -0.37516257 3.2457356 6513507
-2.5480886 -0.37776774 3.2494152 6513507
-2.5589375 -0.32496804 3.2459671 6513507
-2.54845 -0.32444584 3.2495492 6513507
-2.5593154 -0.27525347 3.2460771 6513507
-2.5485988 -0.27465066 3.2497389 6513507
-2.5593536 -0.22459918 3.246309 6513507
-2.5487356 -0.22888787 3.249913 6513507
-2.5595033 -0.17484789 3.2464976 6513507
-2.5596538 -0.1250907 3.2466881 6513507
-2.5598021 -0.075327747 3.2468774 6513507
-2.5602582 -0.026194584 3.2469583 6513507
-2.5608051 0.024780413 3.2470179 6513507
-2.5602553 0.075341508 3.2474504 6513507
-1.655972 0.09999831 3.2183185 6513507
-1.6251765 0.099990323 3.2180614 6513507
-1.5743068 0.099977128 3.2176361 6513507
-1.5247886 0.099964269 3.2172229 6513507
-1.4752836 0.099951416 3.2168093 6513507
-1.4244535 0.099938229 3.2163844 6513507
-1.3749737 0.099925376 3.2159712 6513507
-1.3255072 0.099912547 3.2155578 6513507
-1.2747164 0.099899366 3.2151337 6513507
-1.2252753 0.099886522 3.2147207 6513507
-1.1811898 0.099875085 3.2143526 6513507
-2.5512052 0.10023069 3.2257972 6513507
-2.5243011 0.10022368 3.2255716 6513507
-2.4745388 0.10021077 3.2251561 6513507
-2.4247885 0.10019786 3.2247403 6513507
-2.3750515 0.10018495 3.2243249 6513507
-2.3253276 0.10017204 3.2239096 6513507
-2.2742727 0.10015879 3.2234831 6513507
-2.2245743 0.10014589 3.223068 6513507
-2.1748893 0.10013299 3.2226532 6513507
-2.1252165 0.1001201 3.2222378 6513507
-2.0755568 0.10010721 3.2218235 6513507
-2.0245683 0.10009398 3.2213976 6513507
-1.9749342 0.10008111 3.2209828 6513507
-1.925313 0.10006821 3.2205679 6513507
-1.8743641 0.10005499 3.2201426 6513507
-1.8247689 0.10004213 3.2197285 6513507
-1.7751864 0.10002925 3.2193139 6513507
-1.7242773 0.10001604 3.218889 6513507
-1.680077 0.10000457 3.2185197 6513507
-2.5136642 -1.4533585 3.2559707 11711154
-2.472141 -1.456531 3.2701299 11711154
-2.4231572 -1.4603059 3.2868316 11711154
-2.3918583 -1.4626905 3.2975054 11711154
-2.5153019 -1.4249718 3.2555485 11711154
-2.474689 -1.4250356 3.2694106 11711154
-2.4249282 -1.424983 3.2863994 11711154
-2.3921318 -1.4248973 3.2975938 11711154
-2.5155709 -1.3750623 3.2556977 11711154
-2.4747372 -1.3750598 3.2696376 11711154
-2.4249535 -1.3750403 3.2866323 11711154
-2.3930454 -1.3756157 3.2975204 11711154
-2.5166442 -1.325043 3.2555737 11711154
-2.4749429 -1.3250191 3.2698121 11711154
-2.4251621 -1.3250358 3.2868006 11711154
-2.3935084 -1.3251739 3.2976058 11711154
-2.5169575 -1.2751343 3.2557075 11711154
-2.4751241 -1.2749708 3.2699864 11711154
-2.4253142 -1.2749664 3.2869899 11711154
-2.3935711 -1.2751499 3.2978261 11711154
-2.5169969 -1.2250439 3.2559354 11711154
-2.475152 -1.2249777 3.2702191 11711154
-2.425467 -1.2250062 3.287178 11711154
-2.3938704 -1.2246841 3.2979662 11711154
-2.5174046 -1.1748241 3.2560399 11711154
-2.4754453 -1.1749761 3.2703605 11711154
-2.4255629 -1.1749849 3.2873869 11711154
-2.3947432 -1.1758171 3.2979052 11711154
-2.5183821 -1.124981 3.2559474 11711154
-2.4754181 -1.124972 3.2706134 11711154
-2.4257054 -1.1250137 3.2875836 11711154
-2.3950939 -1.1252947 3.2980294 11711154
-2.518496 -1.0749748 3.2561488 11711154
-2.4757605 -1.0750182 3.2707419 11711154
-2.4259555 -1.075038 3.2877345 11711154
-2.3953781 -1.0748237 3.2981765 11711154
-2.5186951 -1.0250459 3.2563221 11711154
-2.4756885 -1.0250009 3.2710068 11711154
-2.4258921 -1.024997 3.2880008 11711154
-2.3954473 -1.0248636 3.2983942 11711154
-2.5192261 -0.97471887 3.2563827 11711154
-2.4753094 -0.97479767 3.2713785 11711154
-2.4251828 -0.97493154 3.2884831 11711154
-2.396239 -0.97718072 3.2983549 11711154
-2.5200176 -0.92508537 3.2563567 11711154
-2.4748812 -0.92502499 3.2717617 11711154
-2.4240143 -0.92498755 3.2891247 11711154
-2.3957686 -0.92477578 3.2987683 11711154
-2.5202377 -0.8749907 3.2565203 9803157
-2.4752519 -0.87498456 3.2718747 10329501
-2.4242396 -0.8750369 3.28929 10921638
-2.39587 -0.8747043 3.2989752 11250603
-2.519582 -0.82468843 3.2569897 6513507
-2.4745605 -0.82521945 3.2723572 6513507
-2.4244597 -0.82502347 3.2894557 6513507
-2.3960481 -0.82598448 3.29915 6513507
-2.520117 -0.7746594 3.2570465 6513507
-2.474371 -0.77500296 3.2726572 6513507
-2.4245446 -0.77511489 3.2896678 6513507
-2.3972454 -0.77493638 3.2989874 6513507
-2.5205534 -0.72502357 3.2571421 6513507
-2.4745467 -0.72505146 3.2728453 6513507
-2.4246964 -0.72497177 3.2898588 6513507
-2.397388 -0.72441006 3.2991829 6513507
-2.5208664 -0.67499876 3.2572708 6513507
-2.4746253 -0.67504454 3.2730527 6513507
-2.424763 -0.67487824 3.2900789 6513507
-2.397527 -0.67524379 3.2993731 6513507
-2.520864 -0.62497127 3.2575145 6513507
-2.4748371 -0.62502563 3.2732267 6513507
-2.4251323 -0.62507284 3.2901924 6513507
-2.3977909 -0.62710834 3.299516 6513507
-2.5219414 -0.57482165 3.2573874 6513507
-2.4749663 -0.57506216 3.273421 6513507
-2.4249585 -0.57502961 3.2904928 6513507
-2.3989065 -0.57409698 3.2993906 6513507
-2.522284 -0.52497333 3.2575116 6513507
-2.4750261 -0.52497536 3.2736452 6513507
-2.4251993 -0.52497673 3.2906532 6513507
-2.3990445 -0.52491885 3.2995806 6513507
-2.5223987 -0.47500259 3.2577128 6513507
-2.4754562 -0.4750599 3.2737389 6513507
-2.4257021 -0.47498077 3.2907226 6513507
-2.3991826 -0.47573513 3.2997713 6513507
-2.5227437 -0.42490235 3.2578411 6513507
-2.4750986 -0.4250744 3.2741015 6513507
-2.4252539 -0.42503169 3.2911167 6513507
-2.399302 -0.43337807 3.2999353 6513507
-2.5235605 -0.37489378 3.2578008 6513507
-2.4758472 -0.37497741 3.2740908 6513507
-2.4256625 -0.37496445 3.2912188 6513507
-2.5241613 -0.32497856 3.2578323 6513507
-2.4753394 -0.32503143 3.2745008 6513507
-2.4260685 -0.32489526 3.2913218 6513507
-2.5238342 -0.2749815 3.2581906 6513507
-2.476126 -0.27487049 3.2744777 6513507
-2.4257472 -0.27521878 3.2916722 6513507
-2.524663 -0.22491083 3.2581508 6513507
-2.4752228 -0.22499925 3.2750244 6513507
-2.4260583 -0.22533762 3.291806 6513507
-2.5251904 -0.17511153 3.2582107 6513507
-2.4750168 -0.17504415 3.2753375 6513507
-2.4262352 -0.17457034 3.2919915 6513507
-2.5257916 -0.12514152 3.2582443 6513507
-2.4751041 -0.12489904 3.2755475 6513507
-2.4263754 -0.12547953 3.2921798 6513507
-2.5243661 -0.075141177 3.2589726 6513507
-2.4742305 -0.074648246 3.2760937 6513507
-2.4265189 -0.07501927 3.2923748 6513507
-2.5515196 -0.0080786645 3.2500293 6513507
-2.525131 -0.025217775 3.2589524 6513507
-2.4743764 -0.02443161 3.2762847 6513507
-2.4273152 -0.024838245 3.2923443 6513507
-2.5516202 0.025583781 3.2501571 6513507
-2.5252964 0.02516431 3.2591407 6513507
-2.4745183 0.024433482 3.2764709 6513507
-2.4278929 0.024552176 3.2923875 6513507
-2.551769 0.075408705 3.2503471 6513507
-2.5247939 0.075097814 3.2595508 6513507
-2.4746635 0.074661799 3.2766662 6513507
-2.4280369 0.0750245 3.292582 6513507
-2.3212926 0.099796429 3.2998161 6513507
-2.2745371 0.099784344 3.2994165 6513507
-2.2250428 0.099771544 3.2989931 6513507
-2.1755612 0.099758752 3.2985702 6513507
-2.1260924 0.099745952 3.2981474 6513507
-2.0752625 0.099732801 3.2977126 6513507
-2.024446 0.099719673 3.2972782 6513507
-1.9750162 0.099706903 3.2968554 6513507
-1.925599 0.099694103 3.2964334 6513507
-1.8748223 0.099680983 3.2959988 6513507
-1.824059 0.099667855 3.2955647 6513507
-1.7746804 0.099655084 3.2951427 6513507
-1.725314 0.099642314 3.2947202 6513507
-1.6759609 0.099629559 3.2942989 6513507
-1.6252499 0.099616446 3.2938654 6513507
-1.5745519 0.099603355 3.2934315 6513507
-1.5252372 0.0995906 3.2930098 6513507
-1.4759351 0.099577852 3.2925887 6513507
-1.4252768 0.099564753 3.2921555 6513507
-1.3746315 0.099551648 3.2917225 6513507
-1.3253679 0.099538907 3.2913013 6513507
-1.2747492 0.099525809 3.2908685 6513507
-1.2241436 0.099512726 3.2904358 6513507
-1.1940593 0.09950494 3.2901778 6513507
-2.3662806 -1.4646255 3.3062272 11711154
-2.3239217 -1.4678177 3.3206716 11711154
-2.2748721 -1.4715644 3.3373964 11711154
-2.2440839 -1.4741302 3.3478932 11711154
-2.3668268 -1.4250261 3.306232 11711154
-2.3248892 -1.4250009 3.3205476 11711154
-2.2758744 -1.4249046 3.3372791 11711154
-2.2447381 -1.4264413 3.3478994 11711154
-2.3677881 -1.3746375 3.3061464 11711154
-2.3249881 -1.3750563 3.3207545 11711154
-2.2749276 -1.3747593 3.3378441 11711154
-2.2446234 -1.3761805 3.3481827 11711154
-2.3683343 -1.3249321 3.3062 11711154
-2.3251741 -1.3249829 3.3209338 11711154
-2.2748916 -1.3249664 3.3380971 11711154
-2.2445166 -1.3251455 3.3484654 11711154
-2.3683529 -1.27505 3.3064346 11711154
-2.325254 -1.2749041 3.321147 11711154
-2.2750363 -1.2750151 3.338289 11711154
-2.2446654 -1.2749362 3.3486569 11711154
-2.3684857 -1.2250025 3.3066304 11711154
-2.3253779 -1.2248801 3.3213465 11711154
-2.275218 -1.224998 3.3384676 11711154
-2.2453368 -1.2270082 3.3486581 11711154
-2.3696144 -1.174675 3.306488 11711154
-2.3255138 -1.1749171 3.3215423 11711154
-2.2752802 -1.1750904 3.3386879 11711154
-2.2460563 -1.1750523 3.3486638 11711154
-2.3699327 -1.1249896 3.3066189 11711154
-2.3246236 -1.1250995 3.3220863 11711154
-2.2743559 -1.1250923 3.3392453 11711154
-2.2461889 -1.1247133 3.3488617 11711154
-2.3700182 -1.0751238 3.3068311 11711154
-2.3247433 -1.0750777 3.3222866 11711154
-2.2744994 -1.0751009 3.3394382 11711154
-2.2463636 -1.0743804 3.3490453 11711154
-2.3701842 -1.0250288 3.3070157 11711154
-2.3247633 -1.0249896 3.3225224 11711154
-2.2745881 -1.0251034 3.339649 11711154
-2.2470942 -1.0263262 3.3490281 11711154
-2.3713827 -0.97471726 3.3068504 11711154
-2.3249743 -0.97501481 3.3226914 11711154
-2.2746644 -0.97510004 3.3398643 11711154
-2.247716 -0.97401017 3.3490684 11711154
-2.3715417 -0.9249354 3.3070362 11711154
-2.3251464 -0.92503446 3.3228736 11711154
-2.2748108 -0.92509055 3.3400562 11711154
-2.2478478 -0.92411488 3.3492641 11711154
-2.3717616 -0.87515754 3.3072019 11513775
-2.3253367 -0.87487108 3.3230503 11711154
-2.2750332 -0.87507552 3.3402207 11711154
-2.2479796 -0.87421399 3.3494601 11711154
-2.3719156 -0.82502389 3.3073928 6513507
-2.3253624 -0.82487774 3.3232839 6842472
-2.275099 -0.82505554 3.3404405 7500402
-2.2487385 -0.82817191 3.3494236 8487297
-2.3730652 -0.77495688 3.3072419 6513507
-2.3255305 -0.77505887 3.3234675 6513507
-2.2752917 -0.77496618 3.3406165 6513507
-2.2493718 -0.77430534 3.3494675 6513507
-2.3721609 -0.72493553 3.3077922 6513507
-2.3246801 -0.72523004 3.3239982 6513507
-2.2754545 -0.72480971 3.3408043 6513507
-2.2495034 -0.72439259 3.349664 6513507
-2.3723671 -0.67511463 3.3079619 6513507
-2.3247428 -0.67507291 3.3242178 6513507
-2.275481 -0.67477065 3.341037 6513507
-2.2496352 -0.67447394 3.34986 6513507
-2.3726814 -0.62481993 3.3080983 6513507
-2.3247466 -0.62490708 3.3244593 6513507
-2.2756195 -0.62485135 3.3412297 6513507
-2.2497153 -0.64396548 3.3499799 6513507
-2.3734798 -0.57491148 3.3080661 6513507
-2.3248751 -0.5749191 3.3246574 6513507
-2.2757592 -0.57492703 3.3414242 6513507
-2.3737559 -0.52498144 3.3082125 6513507
-2.3250613 -0.52498889 3.3248353 6513507
-2.2758968 -0.52499664 3.3416176 6513507
-2.3741183 -0.47492409 3.3083313 6513507
-2.3252671 -0.47499126 3.3250067 6513507
-2.2760344 -0.47499764 3.3418126 6513507
-2.3745344 -0.42478436 3.3084321 6513507
-2.325592 -0.42480299 3.3251379 6513507
-2.2771163 -0.42510214 3.3416836 6513507
-2.3750489 -0.37525204 3.3084943 6513507
-2.3255546 -0.3747918 3.3253908 6513507
-2.2774675 -0.37486187 3.3418055 6513507
-2.3753309 -0.3250947 3.3086405 6513507
-2.3250625 -0.32489359 3.3258009 6513507
-2.277118 -0.32498145 3.3421674 6513507
-2.3758941 -0.27470344 3.3086934 6513507
-2.3245928 -0.27553743 3.3261993 6513507
-2.2767427 -0.27440205 3.3425391 6513507
-2.4021158 -0.21191111 3.3000441 6513507
-2.3757045 -0.22482368 3.3089983 6513507
-2.3245299 -0.22545639 3.3264632 6513507
-2.2777765 -0.22439444 3.342428 6513507
-2.4013085 -0.17215481 3.3005121 6513507
-2.3750556 -0.17571801 3.3094552 6513507
-2.3250053 -0.17484763 3.326544 6513507
-2.277976 -0.17448451 3.3426011 6513507
-2.4012623 -0.12580624 3.3007514 6513507
-2.3746011 -0.12520164 3.3098564 6513507
-2.3253033 -0.12435027 3.3266876 6513507
-2.2781091 -0.12463899 3.3427951 6513507
-2.4014049 -0.075214595 3.300947 6513507
-2.3753111 -0.074498199 3.3098586 6513507
-2.3252001 -0.07442911 3.3269639 6513507
-2.2782435 -0.074787647 3.3429923 6513507
-2.4023237 -0.022375299 3.3008893 6513507
-2.3751612 -0.024684161 3.3101487 6513507
-2.3253348 -0.024810974 3.327157 6513507
-2.2795012 -0.024927655 3.342802 6513507
-2.4027817 0.024616105 3.3009586 6513507
-2.3753006 0.024686063 3.3103414 6513507
-2.3254709 0.024812903 3.3273516 6513507
-2.279634 0.024929589 3.3429973 6513507
-2.4029527 0.074779436 3.3011279 6513507
-2.374475 0.075306326 3.3104022 6513507
-2.3247304 0.074466847 3.3277411 6513507
-2.2797663 0.074792624 3.3431923 6513507
-2.2103143 -1.50138 3.3592887 11711154
-2.1722066 -1.5043749 3.3722832 11711154
-2.1231956 -1.5080595 3.3889954 11711154
-2.0949683 -1.510403 3.3986197 11711154
-2.2192323 -1.4749758 3.3563724 11711154
-2.1759291 -1.4749644 3.3711538 11711154
-2.1253216 -1.4749298 3.3884294 11711154
-2.0952737 -1.475619 3.3986824 11711154
-2.2189302 -1.4244181 3.3567195 11711154
-2.1750705 -1.4251186 3.3716884 11711154
-2.1254911 -1.4250517 3.3886111 11711154
-2.0964625 -1.4248625 3.3985229 11711154
-2.219542 -1.3749827 3.3567488 11711154
-2.1750541 -1.3749995 3.3719354 11711154
-2.1255469 -1.3751049 3.388835 11711154
-2.0965877 -1.3742572 3.3987246 11711154
-2.2196195 -1.3250732 3.3569641 11711154
-2.1752055 -1.3249868 3.3721266 11711154
-2.1256838 -1.3250867 3.3890307 11711154
-2.0966647 -1.3245714 3.3989372 11711154
-2.2197502 -1.2750816 3.3571601 11711154
-2.1742337 -1.2748924 3.3726993 11711154
-2.1247454 -1.275079 3.3895919 11711154
-2.0969188 -1.2758298 3.399086 11711154
-2.2205851 -1.2247964 3.3571186 11711154
-2.1743119 -1.2249763 3.3729134 11711154
-2.1248155 -1.2250028 3.3898091 11711154
-2.0981174 -1.2250752 3.3989217 11711154
-2.2211435 -1.1751814 3.3571675 11711154
-2.1744514 -1.1749947 3.3731067 11711154
-2.1249948 -1.1749817 3.3899894 11711154
-2.098242 -1.1744521 3.3991234 11711154
-2.2212734 -1.1251762 3.3573639 11711154
-2.174588 -1.1249439 3.3733025 11711154
-2.125083 -1.1248912 3.3902018 11711154
-2.0983317 -1.12451 3.3993349 11711154
-2.2214036 -1.075166 3.3575618 11711154
-2.1746044 -1.0749495 3.3735383 11711154
-2.1250525 -1.0748582 3.3904541 11711154
-2.0985532 -1.075994 3.399493 11711154
-2.2223039 -1.0248379 3.3574984 11711154
-2.1747403 -1.0250132 3.3737319 11711154
-2.1252565 -1.0249538 3.3906233 11711154
-2.0997727 -1.025241 3.3993218 11711154
-2.2227981 -0.97508985 3.3575704 11711154
-2.1749301 -0.97494429 3.37391 11711154
-2.1254122 -0.97504532 3.3908117 11711154
-2.0998976 -0.97460014 3.399524 11711154
-2.222929 -0.92506772 3.357765 11711154
-2.1750445 -0.92493284 3.3741119 11711154
-2.1248505 -0.92483181 3.3912458 11711154
-2.0999811 -0.94083649 3.3996589 11711154
-2.2230589 -0.87504029 3.357964 11711154
-2.1751585 -0.87497914 3.3743153 11711154
-2.1246543 -0.87516922 3.3915532 11711154
-2.2240183 -0.82474399 3.3578787 8026746
-2.1753471 -0.82502019 3.374491 8684676
-2.1257932 -0.82487947 3.3914075 9276813
-2.2244527 -0.77494466 3.3579705 6513507
-2.175504 -0.77511948 3.3746791 6513507
-2.1260111 -0.77481127 3.3915751 6513507
-2.2245898 -0.72497082 3.3581657 6513507
-2.1755002 -0.72514784 3.3749211 6513507
-2.1260064 -0.72494072 3.3918171 6513507
-2.2247138 -0.67499197 3.3583651 6513507
-2.1756511 -0.67510623 3.3751106 6513507
-2.1262226 -0.67518038 3.3919835 6513507
-2.225749 -0.6247921 3.3582549 6513507
-2.1758027 -0.62505913 3.3753006 6513507
-2.1273792 -0.62502587 3.3918307 6513507
-2.2258463 -0.57480085 3.3584628 6513507
-2.1757064 -0.57520986 3.3755744 6513507
-2.1276095 -0.5750348 3.3919935 6513507
-2.2500486 -0.51774698 3.3504758 6513507
-2.2243071 -0.52522045 3.3592277 6513507
-2.1749859 -0.52503395 3.3760636 6513507
-2.1278937 -0.52511036 3.3921373 6513507
-2.2501621 -0.47474092 3.3506446 6513507
-2.2241194 -0.47505093 3.3595333 6513507
-2.1752243 -0.47517791 3.3762231 6513507
-2.1279905 -0.4750874 3.3923459 6513507
-2.2513254 -0.42285708 3.3504987 6513507
-2.2242861 -0.42516094 3.3597171 6513507
-2.1752286 -0.42518038 3.3764639 6513507
-2.1288855 -0.42470762 3.3922837 6513507
-2.2515552 -0.37479624 3.3506517 6513507
-2.2243962 -0.37526473 3.3599219 6513507
-2.1745193 -0.37468079 3.3769484 6513507
-2.1283376 -0.37515217 3.3927112 6513507
-2.2516868 -0.32484239 3.3508482 6513507
-2.2246358 -0.3254284 3.3600795 6513507
-2.1742756 -0.32460588 3.3772743 6513507
-2.1284184 -0.32534409 3.3929231 6513507
-2.2518187 -0.27488267 3.3510447 6513507
-2.224679 -0.27558231 3.3603055 6513507
-2.1742365 -0.27443776 3.3775289 6513507
-2.1285548 -0.27564573 3.3931184 6513507
-2.2530382 -0.22444719 3.350872 6513507
-2.2247484 -0.22554007 3.3605232 6513507
-2.1743531 -0.22464854 3.3777294 6513507
-2.1295936 -0.22490895 3.3930082 6513507
-2.2532113 -0.17492567 3.3510523 6513507
-2.22488 -0.17543039 3.3607199 6513507
-2.1747899 -0.17524755 3.3778203 6513507
-2.1297207 -0.17431478 3.3932104 6513507
-2.2533443 -0.12495414 3.3512485 6513507
-2.2250106 -0.12531462 3.3609176 6513507
-2.1749928 -0.12570795 3.3779895 6513507
-2.1297791 -0.1250336 3.3934281 6513507
-2.2534752 -0.07497678 3.3514445 6513507
-2.225141 -0.075193137 3.3611164 6513507
-2.1749103 -0.075576685 3.3782599 6513507
-2.1302092 -0.076048583 3.3935146 6513507
-2.2547357 -0.024990691 3.3512554 6513507
-2.2252719 -0.025065679 3.3613126 6513507
-2.1750383 -0.025193553 3.3784604 6513507
-2.1312528 -0.02530501 3.3934069 6513507
-2.2548692 0.024992637 3.3514512 6513507
-2.2254024 0.025067655 3.3615103 6513507
-2.1751671 0.025195532 3.378659 6513507
-2.1313772 0.02530702 3.3936081 6513507
-2.2550011 0.074981838 3.3516483 6513507
-2.2255328 0.075206883 3.3617072 6513507
-2.1753445 0.075465538 3.3787169 6513507
-2.1310461 0.076060317 3.3928037 6513507
-2.0749543 0.099340349 3.3772635 6513507
-2.0257254 0.099327691 3.3768322 6513507
-1.9751028 0.099314615 3.3763893 6513507
-1.9244933 0.099301592 3.375946 6513507
-1.8738973 0.099288553 3.3755026 6513507
-1.8247194 0.099275902 3.3750722 6513507
-1.7755542 0.099263258 3.3746417 6513507
-1.724997 0.099250183 3.3741989 6513507
-1.6744537 0.099237181 3.3737566 6513507
-1.6239231 0.09922418 3.3733139 6513507
-1.574809 0.099211521 3.372884 6513507
-1.5257075 0.099198893 3.3724539 6513507
-1.475216 0.099185891 3.3720121 6513507
-1.4247375 0.09917289 3.3715699 6513507
-1.3742728 0.099159889 3.3711283 6513507
-1.3238209 0.09914688 3.3706865 6513507
-1.2747831 0.099134244 3.3702569 6513507
-1.2341613 0.099123798 3.3699014 6513507
-2.0697944 -1.5121274 3.4072044 11711154
-2.0249953 -1.5155785 3.4224794 11711154
-1.9753163 -1.5194874 3.4394183 11711154
-1.9475064 -1.5217128 3.4489009 11711154
-2.0707912 -1.4747889 3.4070435 11711154
-2.0248837 -1.4748373 3.4227147 11711154
-1.9744143 -1.4748613 3.4399424 11711154
-1.947036 -1.4779177 3.4492733 11711154
-2.0719306 -1.4249946 3.4068947 11711154
-2.0250609 -1.4249676 3.4228947 11711154
-1.9740543 -1.4250118 3.4403067 11711154
-1.9477285 -1.4247141 3.4492939 11711154
-2.0721002 -1.3749692 3.4070804 11711154
-2.0250943 -1.3750321 3.4231253 11711154
-1.9741439 -1.375002 3.4405169 11711154
-1.947843 -1.3747797 3.449496 11711154
-2.0720618 -1.3247617 3.4073334 11711154
-2.025002 -1.3251036 3.4233973 11711154
-1.9741893 -1.3250594 3.440742 11711154
-1.9479572 -1.3248394 3.4496987 11711154
-2.0711782 -1.2749755 3.4078767 11711154
-2.0242398 -1.2749494 3.4238997 11711154
-1.9744474 -1.2749696 3.4408965 11711154
-1.9480714 -1.274893 3.4499004 11711154
-2.0724361 -1.2250546 3.4076886 11711154
-2.0242116 -1.2250389 3.4241502 11711154
-1.9744016 -1.2249453 3.441153 11711154
-2.0726438 -1.1750067 3.4078603 11711154
-2.0244892 -1.1749834 3.4242971 11711154
-1.974653 -1.1749805 3.4413092 11711154
-2.0727782 -1.1249532 3.4080546 11711154
-2.0245636 -1.1249243 3.4245126 11711154
-1.9746916 -1.1249442 3.4415383 11711154
-2.0727921 -1.0748268 3.4082913 11711154
-2.0245364 -1.0749251 3.4247658 11711154
-1.9747751 -1.0749682 3.4417498 11711154
-2.0741258 -1.0249914 3.4080784 11711154
-2.0249236 -1.025058 3.4248738 11711154
-1.9762225 -1.0249261 3.441499 11711154
-2.0743353 -0.97509485 3.4082468 11711154
-2.0248246 -0.97497904 3.4251492 11711154
-1.9761839 -0.97493482 3.4417529 11711154
-2.0743558 -0.9249872 3.4084826 11711154
-2.0250142 -0.92496252 3.4253252 11711154
-1.9763889 -0.92501694 3.4419234 11711154
-2.1001959 -0.85360074 3.4000065 11711154
-2.0744092 -0.87494069 3.4087081 11711154
-2.0251381 -0.87508029 3.425525 11711154
-1.976454 -0.87494004 3.4421422 11711154
-2.100265 -0.82545614 3.4001188 9605778
-2.0746877 -0.82509637 3.4088519 9868950
-2.0253267 -0.82491297 3.4257016 10395294
-1.9776748 -0.82509506 3.441968 10987431
-2.1003902 -0.7747916 3.400321 6513507
-2.074645 -0.77510679 3.4091067 6513507
-2.0253189 -0.77501762 3.425946 6447714
-1.9780267 -0.77500868 3.4420905 6447714
-2.1005147 -0.72412097 3.4005232 6513507
-2.0749242 -0.72497553 3.4092553 6513507
-2.0254114 -0.72511339 3.4261556 6513507
-1.9778776 -0.72499424 3.4423809 6513507
-2.1008868 -0.67261326 3.4006453 6513507
-2.0750344 -0.67504287 3.4094574 6513507
-2.0258114 -0.67493027 3.4262609 6513507
-1.9782654 -0.67496741 3.4424906 6513507
-2.1019211 -0.62550449 3.4005194 6513507
-2.0749176 -0.6251049 3.4097397 6513507
-2.0255163 -0.62495005 3.4266036 6513507
-1.9791398 -0.62508726 3.4424319 6513507
-2.1020465 -0.57482213 3.4007215 6513507
-2.0752139 -0.57502395 3.4098799 6513507
-2.0258508 -0.57502681 3.4267285 6513507
-1.9797013 -0.57507604 3.4424832 6513507
-2.1021709 -0.52413362 3.4009237 6513507
-2.0756252 -0.52507579 3.4099805 6513507
-2.0262308 -0.52489871 3.4268415 6513507
-1.9795749 -0.52502894 3.4427674 6513507
-2.1024895 -0.47366503 3.4010587 6513507
-2.0752258 -0.47498092 3.4103596 6513507
-2.0248346 -0.47466874 3.4275618 6513507
-1.9789469 -0.47535071 3.4432218 6513507
-2.1035771 -0.42550582 3.4009197 6513507
-2.0754335 -0.42495009 3.4105301 6513507
-2.0253019 -0.42518535 3.4276423 6513507
-1.9798758 -0.42505363 3.4431484 6513507
-2.1037028 -0.37480548 3.4011228 6513507
-2.0760241 -0.37525985 3.4105687 6513507
-2.0251181 -0.37492085 3.4279466 6513507
-1.979894 -0.37499538 3.4433835 6513507
-2.103828 -0.32409915 3.4013245 6513507
-2.0750763 -0.32475355 3.4111362 6513507
-2.0242591 -0.32517278 3.4284799 6513507
-1.9802498 -0.32509524 3.4435029 6513507
-2.1042104 -0.27369332 3.4014363 6513507
-2.0744159 -0.27469119 3.4116025 6513507
-2.0244606 -0.27517685 3.4286523 6513507
-1.9800797 -0.27507749 3.4438028 6513507
-2.1052344 -0.22545998 3.4013207 6513507
-2.0752168 -0.22525783 3.4115684 6513507
-2.0240788 -0.22471298 3.4290276 6513507
-1.9814608 -0.22543377 3.443572 6513507
-2.1053593 -0.17474185 3.4015224 6513507
-2.0749962 -0.1752741 3.4118845 6513507
-2.0246344 -0.17501953 3.4290774 6513507
-1.9815536 -0.17528591 3.4437814 6513507
-2.1054845 -0.12401765 3.4017253 6513507
-2.0751202 -0.12439547 3.4120893 6513507
-2.0245309 -0.12502484 3.4293535 6513507
-1.9819058 -0.12537402 3.4439015 6513507
-2.1058536 -0.073861696 3.4018412 6513507
-2.0752404 -0.074924268 3.4122872 6513507
-2.0246489 -0.075303406 3.4295542 6513507
-1.9817401 -0.075325936 3.4442008 6513507
-2.1068909 -0.025367016 3.4017203 6513507
-2.0753601 -0.025447275 3.4124837 6513507
-2.0247662 -0.025576051 3.4297538 6513507
-1.9830464 -0.025761088 3.4439943 6513507
-2.1060784 0.026130863 3.4022467 6513507
-2.0745845 0.025244821 3.4129939 6513507
-2.0248885 0.025578087 3.4299591 6513507
-1.9834499 0.025489246 3.444104 6513507
-2.1059742 0.074710213 3.4025173 6513507
-2.0744355 0.074946664 3.4132853 6513507
-2.0250063 0.075317129 3.4301603 6513507
-1.9833306 0.075415142 3.444386 6513507
-1.8668447 -1.5526134 3.4762864 11711154
-1.8224722 -1.5560285 3.491416 11711154
-1.7991364 -1.5584784 3.4993706 11711154
-1.92181 -1.5236286 3.4576645 11711154
-1.8751471 -1.5250031 3.4735858 11711154
-1.8250117 -1.5250361 3.4906991 11711154
-1.7992066 -1.5251936 3.499507 11711154
-1.9223893 -1.4750634 3.457701 11711154
-1.8752375 -1.4750642 3.4737952 11711154
-1.8252072 -1.4750158 3.4908729 11711154
-1.7993137 -1.4745378 3.4997158 11711154
-1.9237722 -1.4250084 3.4574709 11711154
-1.8752739 -1.4250512 3.4740241 11711154
-1.825195 -1.4249156 3.4911203 11711154
-1.7994114 -1.4282192 3.4999056 11711154
-1.9237695 -1.3750315 3.4577127 11711154
-1.8754244 -1.3750352 3.4742143 11711154
-1.8253763 -1.3750236 3.4913003 11711154
-1.9239693 -1.3250469 3.4578853 11711154
-1.8755674 -1.3250762 3.4744086 11711154
-1.8255033 -1.325057 3.4914963 11711154
-1.9240309 -1.2750579 3.458106 11711154
-1.875645 -1.2749808 3.4746234 11711154
-1.8254735 -1.2750113 3.4917505 11711154
-1.9244739 -1.2247488 3.4581969 11711154
-1.8749502 -1.2251832 3.4750998 11711154
-1.8257619 -1.224959 3.4918921 11711154
-1.9243066 -1.1749781 3.4584944 11711154
-1.8747034 -1.1749759 3.4754269 11711154
-1.827107 -1.1749212 3.4916747 11711154
-1.9243336 -1.1249638 3.4587269 11711154
-1.8746701 -1.1250069 3.4756799 11711154
-1.8270264 -1.1250399 3.4919426 11711154
-1.9245576 -1.0750123 3.4588916 11711154
-1.8750045 -1.0749636 3.4758065 11711154
-1.8272461 -1.0750037 3.4921091 11711154
-1.9510394 -1.0248315 3.4500952 11711154
-1.9245398 -1.0249842 3.4591405 11711154
-1.8749008 -1.0249797 3.476084 11711154
-1.8273759 -1.0248885 3.4923077 11711154
-1.9511539 -0.97486198 3.4502971 11711154
-1.9248176 -0.97502452 3.459286 11711154
-1.8751434 -0.97492373 3.4762428 11711154
-1.8285218 -0.97516519 3.4921565 11711154
-1.9512682 -0.9248867 3.4504998 11711154
-1.9247785 -0.92504925 3.4595423 11711154
-1.8752074 -0.92493427 3.4764633 11711154
-1.8287671 -0.9251588 3.4923151 11711154
-1.9513828 -0.87490541 3.4507012 11711154
-1.9249705 -0.8750121 3.4597175 11711154
-1.8753 -0.87507486 3.4766722 11711154
-1.8288939 -0.87497902 3.4925132 11711154
-1.9526608 -0.82413131 3.4505105 11382189
-1.9250567 -0.8250922 3.459929 11579568
-1.8754455 -0.82500571 3.4768651 11711154
-1.8289508 -0.82494587 3.4927349 11711154
-1.9528097 -0.77483368 3.4506979 6447714
-1.9251502 -0.77504331 3.4601388 6513507
-1.8755248 -0.77499384 3.4770789 6974058
-1.8302183 -0.77524024 3.492543 7566195
-1.9529246 -0.72484064 3.4509003 6513507
-1.925401 -0.72504514 3.460294 6513507
-1.8747637 -0.72479922 3.477581 6513507
-1.8294231 -0.72526032 3.4930556 6513507
-1.9530389 -0.674842 3.4511023 6513507
-1.925284 -0.67504907 3.4605763 6513507
-1.8743455 -0.67493725 3.4779651 6513507
-1.8291517 -0.67504841 3.4933913 6513507
-1.9542558 -0.62389493 3.450933 6513507
-1.9255543 -0.62497431 3.4607251 6513507
-1.8747689 -0.62502164 3.4780607 6513507
-1.8295209 -0.62488598 3.4935069 6513507
-1.9544662 -0.57475883 3.4510984 6513507
-1.9256474 -0.57503253 3.4609344 6513507
-1.8747908 -0.57503539 3.4782946 6513507
-1.8305436 -0.5751946 3.4933975 6513507
-1.9545815 -0.52474838 3.4513009 6513507
-1.9256226 -0.52501518 3.461185 6513507
-1.8746694 -0.52504075 3.4785781 6513507
-1.8307341 -0.52518356 3.4935746 6513507
-1.9546957 -0.47473198 3.4515045 6513507
-1.9261585 -0.47513333 3.4612441 6513507
-1.8753297 -0.47484082 3.4785948 6513507
-1.8308343 -0.47513232 3.4937823 6513507
-1.9550626 -0.42291725 3.4516289 6513507
-1.9248427 -0.42536581 3.4619317 6513507
-1.8748932 -0.42496741 3.4789853 6513507
-1.8313273 -0.42470506 3.4938569 6513507
-1.9549242 -0.37468189 3.4519086 6513507
-1.925189 -0.37494195 3.4620578 6513507
-1.8750385 -0.37502396 3.4791749 6513507
-1.8318819 -0.37531233 3.4939072 6513507
-1.9550391 -0.32464805 3.4521108 6513507
-1.9246527 -0.32510164 3.4624808 6513507
-1.875622 -0.32481259 3.4792194 6513507
-1.8323933 -0.32547238 3.493973 6513507
-1.9551533 -0.27460814 3.4523137 6513507
-1.9253925 -0.27493179 3.4624722 6513507
-1.8754041 -0.27533197 3.4795332 6513507
-1.8327423 -0.27483958 3.4940975 6513507
-1.9562863 -0.22393383 3.4521718 6513507
-1.9251951 -0.22523007 3.4627793 6513507
-1.8753914 -0.22502422 3.4797795 6513507
-1.8327333 -0.22438784 3.4943459 6513507
-1.9565814 -0.17449038 3.4523101 6513507
-1.9253081 -0.17502983 3.4629838 6513507
-1.8757542 -0.1745874 3.4799008 6513507
-1.8333932 -0.17562172 3.4943542 6513507
-1.9566957 -0.12443888 3.4525123 6513507
-1.9242135 -0.12483855 3.4635987 6513507
-1.874517 -0.12544979 3.4805589 6513507
-1.8340535 -0.12571354 3.4943707 6513507
-1.9568107 -0.074381508 3.4527152 6513507
-1.9243265 -0.074620403 3.4638035 6513507
-1.8746281 -0.074985817 3.4807665 6513507
-1.8343999 -0.075069159 3.4944971 6513507
-1.9578748 -0.023669768 3.4525967 6513507
-1.9244393 -0.024396408 3.4640081 6513507
-1.8747393 -0.024515884 3.4809713 6513507
-1.8343918 -0.024612881 3.4947441 6513507
-1.9582355 0.024317281 3.4527056 6513507
-1.9245487 0.024398258 3.4642053 6513507
-1.8748471 0.02451776 3.4811718 6513507
-1.8349786 0.024139304 3.4947786 6513507
-1.9583499 0.074386165 3.4529083 6513507
-1.9247217 0.074431092 3.4641428 6513507
-1.8749959 0.074762806 3.480305 6513507
-1.8349875 0.075868331 3.491791 6513507
-1.7750322 0.098851636 3.4580591 6513507
-1.7246646 0.098838717 3.4576066 6513507
-1.6743102 0.098825812 3.4571552 6513507
-1.625407 0.098813258 3.4567165 6513507
-1.5750786 0.098800361 3.4562647 6513507
-1.5247633 0.098787442 3.4558134 6513507
-1.4744613 0.098774537 3.4553618 6513507
-1.4241719 0.09876164 3.454911 6513507
-1.3753324 0.098749116 3.4544725 6513507
-1.3250693 0.098736219 3.4540215 6513507
-1.2748194 0.098723337 3.4535706 6513507
-1.2489809 0.098716699 3.4533384 6513507
-1.7730732 -1.5598021 3.5082605 11711154
-1.7247332 -1.5635555 3.5247428 11711154
-1.674618 -1.5672592 3.5418324 11711154
-1.7744176 -1.524972 3.5079701 11711154
-1.7258646 -1.525072 3.5245447 11711154
-1.6757014 -1.5249395 3.541667 11711154
-1.7745824 -1.4750334 3.5081551 11711154
-1.726051 -1.4750019 3.5247242 11711154
-1.6770006 -1.4749094 3.5414648 11711154
-1.774897 -1.4249585 3.5082908 11711154
-1.7261201 -1.4249275 3.5249436 11711154
-1.677036 -1.4249544 3.541693 11711154
-1.7760664 -1.3749707 3.508132 11711154
-1.7261844 -1.3749188 3.5251622 11711154
-1.6772046 -1.3749931 3.5418787 11711154
-1.7748898 -1.3247585 3.5087762 11711154
-1.724745 -1.3248036 3.5258925 11711154
-1.6769555 -1.3252987 3.5422029 11711154
-1.775007 -1.2749873 3.5089769 11711154
-1.7239648 -1.2750443 3.5264018 11711154
-1.6772355 -1.2750915 3.5423501 11711154
-1.7751662 -1.2250094 3.5091629 11711154
-1.7240396 -1.2250791 3.5266159 11711154
-1.6774731 -1.2249429 3.5425115 11711154
-1.8024113 -1.1759899 3.5000994 11711154
-1.775311 -1.1749576 3.5093551 11711154
-1.7242204 -1.175035 3.5267937 11711154
-1.6776057 -1.1749411 3.5427079 11711154
-1.8013214 -1.1247329 3.5007191 11711154
-1.7739526 -1.1250817 3.5100613 11711154
-1.72421 -1.1250572 3.5270398 11711154
-1.6777393 -1.1248455 3.5429032 11711154
-1.8013921 -1.0747433 3.5009365 11711154
-1.7741542 -1.0750487 3.5102298 11711154
-1.7242669 -1.0751456 3.5272593 11711154
-1.6786233 -1.0751363 3.5428429 11711154
-1.8014958 -1.0254891 3.5011387 11711154
-1.7743516 -1.0249389 3.5104067 11711154
-1.7243699 -1.0251567 3.5274637 11711154
-1.6791322 -1.0248797 3.5429108 11711154
-1.8026922 -0.97425079 3.5009778 11711154
-1.774381 -0.97489607 3.5106378 11711154
-1.7244796 -0.9750886 3.5276721 11711154
-1.6792164 -0.97494102 3.5431232 11711154
-1.8029906 -0.92445171 3.5011168 11711154
-1.7744815 -0.92498875 3.5108454 11711154
-1.7246711 -0.92494315 3.5278449 11711154
-1.6793282 -0.92499542 3.5433269 11711154
-1.8030485 -0.87468874 3.5013378 11711154
-1.77465 -0.87514913 3.5110276 11711154
-1.7248105 -0.8748644 3.5280435 11711154
-1.6800677 -0.87544334 3.543313 11711154
-1.8031523 -0.8254174 3.5015399 11711154
-1.7746346 -0.82508755 3.5112762 11711154
-1.7247685 -0.82485098 3.5282943 11711154
-1.6807911 -0.82498747 3.5433099 11711154
-1.8042544 -0.77437794 3.5014095 7697781
-1.7747931 -0.77487826 3.5114627 8158332
-1.7248992 -0.77490431 3.5284898 8750469
-1.6808994 -0.7749263 3.5435147 9276813
-1.8046696 -0.72461158 3.501509 6513507
-1.7748331 -0.72487515 3.511694 6447714
-1.7250304 -0.72495264 3.5286915 6447714
-1.6809884 -0.72495764 3.543726 6447714
-1.8047051 -0.6745885 3.5017385 6513507
-1.775002 -0.67501247 3.5118747 6513507
-1.7251616 -0.67499554 3.5288892 6513507
-1.6816038 -0.67539471 3.5437546 6513507
-1.8048096 -0.62529993 3.5019403 6513507
-1.7752111 -0.62507272 3.5120463 6513507
-1.7252902 -0.62503237 3.5290844 6513507
-1.682477 -0.62489283 3.5437021 6513507
-1.8057846 -0.57456106 3.501852 6513507
-1.7754292 -0.5750553 3.5122116 6513507
-1.7254823 -0.57499158 3.5292609 6513507
-1.6825855 -0.5748015 3.5439057 6513507
-1.8063104 -0.52491236 3.5019126 6513507
-1.7751175 -0.52510142 3.5125589 6513507
-1.7254899 -0.5250175 3.529501 6513507
-1.6827534 -0.52460158 3.5440912 6513507
-1.8063618 -0.4744423 3.5021389 6513507
