# .PCD v0.7 - Point Cloud Data file format
VERSION 0.7
FIELDS x y z rgb
SIZE 4 4 4 4
TYPE F F F U
COUNT 1 1 1 1
WIDTH 1160
HEIGHT 1
VIEWPOINT 0 0 0 1 0 0 0
POINTS 1160
DATA ascii
0.22499277 0.1127507 0.57295203 10132122
0.27501529 0.11275352 0.57297045 10132122
0.32498279 0.11275499 0.57299149 10132122
0.37496379 0.11275664 0.57298279 10132122
0.42398944 0.11275501 0.57391596 10132122
0.45869634 0.11269274 0.587542 10132122
-0.50533855 0.11239596 0.64193642 10197915
-0.47229004 0.11247094 0.62629753 10197915
-0.42501572 0.11248244 0.62415469 10197915
-0.37505579 0.11248506 0.62417471 10197915
-0.32503301 0.11248666 0.62419748 10197915
-0.27499342 0.11248943 0.62419522 10197915
-0.22495459 0.11249746 0.62285328 10197915
-0.17501393 0.11249982 0.6228165 10197915
-0.12500189 0.11250138 0.6228447 10197915
-0.075002678 0.11250327 0.62284011 10197915
-0.02501585 0.11250561 0.62285721 10197915
0.025002155 0.11250796 0.62285602 10197915
0.074992649 0.11251099 0.62288272 10197915
0.12498553 0.11251309 0.62290156 10197915
0.17499439 0.112515 0.62291199 10132122
0.22499059 0.11251698 0.6228959 10132122
0.27500349 0.11251841 0.62293214 10132122
0.32503223 0.11252157 0.6229012 10132122
0.37500572 0.11252358 0.62297297 10132122
0.42498082 0.11252565 0.62297451 10132122
0.47196859 0.11251538 0.62550288 10132122
0.50532818 0.11243952 0.64205211 10132122
-0.55250651 0.11213251 0.69779181 10197915
-0.51949883 0.11222392 0.67863446 10197915
-0.47502697 0.11224784 0.67397237 10197915
-0.4249844 0.11225057 0.67398405 10197915
-0.37493986 0.11225193 0.67399192 10197915
-0.32492784 0.11225332 0.67404205 10197915
-0.27500215 0.11225513 0.6740365 10197915
-0.22502184 0.1122573 0.67403066 10197915
-0.1750049 0.11226062 0.67406338 10197915
-0.12500323 0.11226258 0.67408389 10197915
-0.074999914 0.11226469 0.67406672 10197915
-0.0249948 0.112267 0.6740973 10197915
0.024995428 0.11226831 0.67411369 10197915
0.075004272 0.11226957 0.67410558 10197915
0.12499768 0.11227162 0.67415297 10132122
0.17499304 0.11227521 0.67414361 10132122
0.22499086 0.11227691 0.67414176 10132122
0.27500764 0.11227954 0.67418003 10132122
0.32500786 0.11228207 0.67421341 10132122
0.37499386 0.1122833 0.67416316 10132122
0.42499849 0.11228464 0.67420822 10132122
0.47502211 0.11228667 0.67424446 10132122
0.51955754 0.11226821 0.67883593 10132122
0.55259907 0.11218062 0.69779837 10132122
-0.56563467 0.11197759 0.73079664 10197915
-0.52504081 0.11200721 0.72481948 10197915
-0.47506326 0.11200946 0.72484046 10197915
-0.42501479 0.11201119 0.72484499 10197915
-0.3750802 0.11201336 0.72485453 10197915
-0.32505044 0.11201585 0.7249034 10197915
-0.27497351 0.11201781 0.72489768 10197915
-0.22500984 0.11201995 0.72489327 10197915
-0.17502128 0.11202154 0.72494268 10197915
-0.12500763 0.11202385 0.72494477 10197915
-0.07501515 0.11202603 0.72493052 10197915
-0.025021177 0.11202864 0.72497481 10197915
0.025021812 0.1120301 0.72498626 10197915
0.075019583 0.1120328 0.72497076 10197915
0.12497341 0.11203466 0.72501773 10132122
0.17497531 0.11203676 0.72501904 10132122
0.22497882 0.11203891 0.72502041 10132122
0.27498472 0.1120411 0.72506171 10132122
0.32503837 0.11204284 0.72501522 10132122
0.37502408 0.1120453 0.72509176 10132122
0.42499012 0.11204706 0.72512108 10132122
0.47502556 0.1120496 0.72509271 10132122
0.52501839 0.11205163 0.72512871 10132122
0.56574041 0.1120258 0.73101932 10132122
-0.61237663 0.11171927 0.78549874 10197915
-0.57490575 0.11176895 0.77530813 10197915
-0.5250513 0.11177114 0.77526051 10197915
-0.47503603 0.11177315 0.77527303 10197915
-0.42499244 0.11177554 0.77529597 10197915
-0.37492028 0.11177726 0.77532089 10197915
-0.32489938 0.11177927 0.77530885 10197915
-0.27498394 0.11178136 0.77535081 10197915
-0.2250129 0.11178388 0.77532613 10197915
-0.17501321 0.11178596 0.7753762 10197915
-0.12501185 0.11178774 0.77537864 10197915
-0.074981801 0.11178994 0.77539486 10197915
-0.024976818 0.11179271 0.77540344 10197915
0.024977459 0.11179449 0.77541763 10197915
0.074986219 0.11179602 0.77543873 10132122
0.12502383 0.11179858 0.77544951 10132122
0.17500986 0.11180095 0.77546245 10132122
0.224971 0.11180285 0.77547282 10132122
0.27498731 0.11180457 0.77551436 10132122
0.32445547 0.1118132 0.77419406 10132122
0.37495434 0.11181918 0.77333981 10132122
0.42503178 0.11182103 0.77341294 10132122
0.47505289 0.11182331 0.77339727 10132122
0.52501774 0.11182576 0.77339399 10132122
0.57489914 0.11182757 0.77348924 10132122
0.61131769 0.11178516 0.78284305 10132122
-0.6588605 0.11146537 0.83934486 10197915
-0.62411165 0.11152691 0.82658088 10197915
-0.57493931 0.11153235 0.82580686 10197915
-0.5249989 0.11153391 0.82582986 10197915
-0.47502252 0.11153696 0.82582474 10197915
-0.42497602 0.11153862 0.8258934 10197915
-0.37499627 0.11154056 0.82584739 10197915
-0.32497942 0.11154248 0.82589453 10197915
-0.27499592 0.11154548 0.82590872 10197915
-0.22501028 0.11154667 0.82594639 10197915
-0.17498839 0.11154906 0.82592052 10197915
-0.12499902 0.11155187 0.82594758 10197915
-0.075007528 0.11155343 0.82597959 10197915
-0.025014715 0.11155517 0.8259781 10197915
0.025015347 0.11155732 0.82599187 10132122
0.075011954 0.11155987 0.82602227 10132122
0.12501095 0.11156156 0.82602561 10132122
0.17501172 0.11156379 0.82602781 10132122
0.22501442 0.11156597 0.82609642 10132122
0.27501914 0.11156858 0.82606572 10132122
0.32561457 0.11157774 0.82449245 10132122
0.37504867 0.11158367 0.82366997 10132122
0.42500043 0.11158639 0.82367229 10132122
0.47501707 0.11158808 0.82368094 10132122
0.52503496 0.11158931 0.82371092 10132122
0.57499272 0.1115922 0.82371014 10132122
0.62368995 0.11158868 0.82498264 10132122
0.65891725 0.11152127 0.83965594 10197915
-0.70520866 0.11121067 0.89333087 10197915
-0.67208898 0.11128639 0.87742323 10197915
-0.62497717 0.11129982 0.8750903 10197915
-0.57499796 0.11130157 0.87515908 10197915
-0.52505708 0.1113039 0.87509626 10197915
-0.47503379 0.11130588 0.87509489 10197915
-0.42500862 0.11130796 0.87517166 10197915
-0.3751429 0.11131016 0.87517154 10197915
-0.32507291 0.11131189 0.8752076 10197915
-0.27492148 0.11131421 0.87519592 10197915
-0.22500958 0.11131613 0.87522876 10197915
-0.17505541 0.11131868 0.87522161 10197915
-0.12497872 0.11132052 0.87528408 10197915
-0.074980557 0.11132281 0.87526071 10197915
-0.025021214 0.11132476 0.87528944 10197915
0.025021847 0.11132692 0.875305 10132122
0.074984953 0.11132903 0.87531239 10132122
0.12499059 0.1113308 0.87536377 10132122
0.17503861 0.11133338 0.87534714 10132122
0.22500773 0.11133508 0.875368 10132122
0.27497876 0.11133761 0.87537843 10132122
0.3249926 0.11133944 0.87533164 10132122
0.37500665 0.11134129 0.87552941 10132122
0.42498371 0.11134401 0.87542737 10132122
0.47500256 0.11134579 0.87541801 10132122
0.52498335 0.11134787 0.87549597 10132122
0.57500613 0.11135028 0.87546033 10132122
0.62507105 0.11135198 0.87551212 10197915
0.67230558 0.11134294 0.87787569 10197915
0.70558441 0.11126994 0.89380676 10197915
-0.75123626 0.11096027 0.94640851 10197915
-0.7191329 0.11104479 0.92865545 10197915
-0.67506289 0.11106628 0.9244563 10197915
-0.62495142 0.11106827 0.92448038 10197915
-0.57493383 0.11107027 0.92451364 10197915
-0.52505744 0.11107269 0.9244718 10197915
-0.47503567 0.11107492 0.92448449 10197915
-0.42491689 0.11107659 0.92457885 10197915
-0.37479591 0.11107897 0.9245314 10197915
-0.32491153 0.111081 0.92458177 10197915
-0.27507427 0.11108314 0.92459548 10197915
-0.2249953 0.1110852 0.92458981 10197915
-0.1749624 0.11108756 0.92461139 10197915
-0.12497541 0.11108891 0.92472214 10197915
-0.074986719 0.11109196 0.92457736 10197915
-0.02499645 0.11109351 0.92468882 10132122
0.024997085 0.11109585 0.92470586 10132122
0.074991167 0.11109811 0.92462885 10132122
0.12498742 0.11109939 0.92480987 10132122
0.17498563 0.1111019 0.92473543 10132122
0.22503372 0.11110407 0.92474705 10132122
0.2750361 0.11110628 0.92476201 10132122
0.3248955 0.11110795 0.92483306 10132122
0.37490207 0.11111054 0.92479199 10132122
0.42495748 0.11111238 0.92482835 10132122
0.47496703 0.11111455 0.9248426 10132122
0.5250262 0.11111658 0.92489111 10132122
0.57503963 0.11111875 0.92487377 10132122
0.62500715 0.11112095 0.92487252 10197915
0.67492855 0.11112302 0.92490393 10197915
0.71920919 0.11110488 0.92919314 10197915
0.75166249 0.1110232 0.94694531 10197915
-0.76430041 0.11080723 0.97898763 10197915
-0.72490609 0.11083744 0.97291124 10197915
-0.67494226 0.11083978 0.97285336 10197915
-0.62497473 0.11084188 0.97287107 10197915
-0.57500589 0.11084371 0.97295159 10197915
-0.52503544 0.11084592 0.9729085 10197915
-0.47494811 0.11084796 0.97300452 10197915
-0.42497328 0.11085024 0.97294289 10197915
-0.37499765 0.11085247 0.97296536 10197915
-0.32496095 0.11085416 0.97302735 10197915
-0.27503881 0.11085666 0.97300005 10197915
-0.22505698 0.11085842 0.97306734 10197915
-0.17501557 0.11086063 0.9730987 10197915
-0.1249724 0.11086243 0.97311944 10197915
-0.074984752 0.11086542 0.97300863 10132122
-0.024995904 0.11086674 0.97315556 10132122
0.024996534 0.11086893 0.97317272 10132122
0.074989125 0.1108715 0.97306406 10132122
0.12498435 0.11087315 0.97321051 10132122
0.17498145 0.11087497 0.97325712 10132122
0.22503783 0.11087723 0.97320187 10132122
0.27503857 0.11087962 0.97318435 10132122
0.32498342 0.1108814 0.97328424 10132122
0.37498885 0.11088338 0.97330153 10132122
0.42499441 0.11088593 0.97319275 10132122
0.47500324 0.11088776 0.9733386 10132122
0.52501357 0.11088989 0.97332478 10132122
0.57502562 0.11089192 0.97334206 10132122
0.62503946 0.11089399 0.97336215 10197915
0.67505509 0.11089585 0.9734115 10197915
0.7249583 0.11089836 0.97336698 10197915
0.76446509 0.11087167 0.97944063 10197915
-0.81150025 0.11054437 1.0347086 10197915
-0.77465272 0.11060033 1.023101 10197915
-0.72494602 0.11060385 1.0228477 10197915
-0.67507493 0.11060546 1.0229414 10197915
-0.62502056 0.1106077 1.0228702 10197915
-0.57496482 0.11060968 1.0229599 10197915
-0.52502775 0.11061148 1.0229976 10197915
-0.47508892 0.1106138 1.0230175 10197915
-0.42502651 0.11061635 1.0229114 10197915
-0.37502426 0.11061787 1.0230376 10197915
-0.32507867 0.11061991 1.0230749 10197915
-0.27501139 0.11062263 1.0230072 10197915
-0.22494224 0.11062443 1.0230963 10197915
-0.174992 0.11062625 1.0231334 10197915
-0.12503986 0.11062829 1.0231522 10197915
-0.075025178 0.11063099 1.0230274 10132122
-0.025009444 0.11063253 1.0231909 10132122
0.025010074 0.11063454 1.0232102 10132122
0.075029589 0.11063744 1.0230846 10132122
0.12505177 0.11063872 1.0232509 10132122
0.17501527 0.11064095 1.0232675 10132122
0.22498065 0.11064322 1.0232698 10132122
0.2750082 0.11064547 1.0232359 10132122
0.3250981 0.11064701 1.0233082 10132122
0.3750701 0.1106496 1.023271 10132122
0.42504263 0.1106514 1.0233474 10132122
0.47507748 0.11065346 1.0233488 10132122
0.52499348 0.11065579 1.0233476 10132122
0.57497215 0.11065764 1.0233877 10197915
0.62501329 0.11065967 1.023442 10197915
0.67499602 0.11066232 1.0233166 10197915
0.72491843 0.1106638 1.0235171 10197915
0.77467752 0.11066478 1.023736 10197915
0.81160581 0.11061451 1.0348288 10197915
-0.85807681 0.1102891 1.0888096 9868950
-0.82368004 0.11035421 1.0751985 10197915
-0.77482927 0.11036118 1.0741984 10197915
-0.72492713 0.11036316 1.0742285 10197915
-0.67495114 0.11036596 1.074103 10197915
-0.62497109 0.11036769 1.0742209 10197915
-0.57506472 0.11036989 1.0742019 10197915
-0.52508199 0.11037164 1.0742731 10197915
-0.47502235 0.11037435 1.0741836 10197915
-0.42503679 0.11037558 1.0743495 10197915
-0.37519661 0.11037804 1.0742948 10197915
-0.32520509 0.11038006 1.0743417 10197915
-0.27506518 0.11038209 1.0743388 10197915
-0.22499698 0.11038399 1.0743937 10197915
-0.17500073 0.11038646 1.0743653 10197915
-0.12500308 0.11038855 1.0744104 10132122
-0.075003132 0.1103906 1.0744064 10132122
-0.025002114 0.11039237 1.0744772 10132122
0.025002746 0.11039454 1.0744947 10132122
0.075007573 0.11039688 1.074466 10132122
0.12501505 0.11039865 1.0745124 10132122
0.1750239 0.11040115 1.0745071 10132122
0.22503518 0.11040311 1.0745765 10132122
0.27497435 0.11040525 1.0745609 10132122
0.32513672 0.1104071 1.0746064 10132122
0.37522906 0.11040918 1.0746373 10132122
0.42502457 0.11041134 1.0746464 10132122
0.47497046 0.11041362 1.0746287 10132122
0.52506751 0.11041582 1.074638 10132122
0.57509196 0.11041765 1.0746825 10197915
0.62496966 0.11041981 1.074725 10197915
0.67492306 0.11042156 1.0747608 10197915
0.72487956 0.11042389 1.074743 10197915
0.77498513 0.1104261 1.0747275 10197915
0.82387084 0.11042306 1.0758482 10197915
0.85815048 0.11036188 1.0892355 10197915
-0.90600848 0.11001723 1.146458 7763574
-0.87203074 0.11009971 1.1291502 9934743
-0.82508785 0.11011525 1.1262624 10197915
-0.7750209 0.11011748 1.1262572 10197915
-0.72487599 0.11011986 1.1262351 10197915
-0.67496032 0.11012108 1.1263984 10197915
-0.62504518 0.11012384 1.1263053 10197915
-0.57497126 0.11012571 1.1263285 10197915
-0.52497351 0.11012767 1.1263885 10197915
-0.47497436 0.11012961 1.1264268 10197915
-0.42489448 0.11013228 1.126362 10197915
-0.37496772 0.11013343 1.1265537 10197915
-0.32504267 0.11013682 1.1263189 10197915
-0.27503407 0.1101382 1.1264964 10197915
-0.22502521 0.11014017 1.1265312 10197915
-0.1750142 0.11014216 1.1265404 10132122
-0.12500133 0.11014482 1.1264613 10132122
-0.074986696 0.11014609 1.1266682 10132122
-0.024970857 0.11014873 1.1265322 10132122
0.024971487 0.11015092 1.1265532 10132122
0.074991085 0.11015219 1.12673 10132122
0.12501329 0.11015527 1.1265672 10132122
0.17503744 0.11015669 1.1266892 10132122
0.22506371 0.11015899 1.1267223 10132122
0.27501369 0.11016119 1.1266893 10132122
0.32480961 0.11016292 1.1267635 10132122
0.37433839 0.11018378 1.1227992 10132122
0.42503926 0.11018871 1.1222186 10132122
0.47498241 0.11019038 1.1223038 10132122
0.52492642 0.1101926 1.1222945 10197915
0.57496589 0.11019491 1.1222821 10197915
0.62500691 0.11019685 1.122335 10197915
0.67514247 0.11019881 1.1223575 10197915
0.72500187 0.11020114 1.1223419 10197915
0.77476919 0.11020319 1.1223652 10197915
0.82491183 0.11020508 1.1224211 10197915
0.87151742 0.11019538 1.1249319 10197915
0.90366584 0.11012246 1.1408212 10197915
-0.9516685 0.1097697 1.1989133 6579300
-0.91978717 0.1098481 1.1824609 9211020
-0.8750366 0.10986782 1.178664 10197915
-0.8249529 0.1098697 1.1787285 10197915
-0.77486557 0.10987218 1.1786714 10197915
-0.72507197 0.10987421 1.1786915 10197915
-0.67517638 0.10987587 1.1787949 10197915
-0.62508452 0.10987818 1.1787766 10197915
-0.57508957 0.10988045 1.1787601 10197915
-0.52509129 0.10988238 1.1788219 10197915
-0.47518981 0.10988444 1.1788428 10197915
-0.42518657 0.10988702 1.1787508 10197915
-0.37489203 0.10988839 1.1789268 10197915
-0.32488486 0.1098908 1.1788707 10197915
-0.27507398 0.1098929 1.1788937 10197915
-0.22496679 0.10989454 1.178995 10132122
-0.17495582 0.1098968 1.1789761 10132122
-0.12494254 0.1098991 1.1789595 10132122
-0.074928217 0.10990079 1.1790612 10132122
-0.025009634 0.1099032 1.1790049 10132122
0.025010273 0.10990531 1.1790264 10132122
0.074932598 0.10990705 1.1791284 10132122
0.12495452 0.10990952 1.1790712 10132122
0.17497911 0.10991137 1.1791312 10132122
0.22500516 0.10991331 1.1791952 10132122
0.27503344 0.10991587 1.1790999 10132122
0.32486719 0.10991756 1.179199 10132122
0.37526947 0.10994107 1.1746572 10132122
0.42494315 0.10994439 1.1743931 10132122
0.47497755 0.10994759 1.1741729 10132122
0.52493447 0.10994907 1.1743249 10197915
0.57497406 0.10995117 1.1743655 10197915
0.62501514 0.10995332 1.1743679 10197915
0.67489588 0.10995585 1.1742795 10197915
0.72486067 0.10995708 1.1744938 10197915
0.77506912 0.10995965 1.1744027 10197915
0.82511735 0.10996213 1.1743454 10197915
0.87500584 0.10996358 1.1744783 10197915
0.91912168 0.10993593 1.1808194 10197915
0.952353 0.10984866 1.1997757 10197915
-0.964185 0.10962364 1.2300143 7960953
-0.9250229 0.10964765 1.2252265 10132122
-0.87503856 0.10964942 1.2253593 10197915
-0.82492411 0.10965174 1.2253001 10197915
-0.77481008 0.10965341 1.2254057 10197915
-0.72481829 0.10965525 1.2254831 10197915
-0.67495418 0.10965798 1.2253687 10197915
-0.62508613 0.10965963 1.2254753 10197915
-0.57509035 0.10966219 1.2253872 10197915
-0.52509236 0.10966376 1.2255212 10197915
-0.47496599 0.10966595 1.2255168 10197915
-0.42496336 0.10966829 1.2254839 10197915
-0.37496054 0.10967005 1.2255634 10197915
-0.32495338 0.10967247 1.2255303 10197915
-0.27494803 0.10967425 1.2256095 10197915
-0.22493751 0.10967585 1.2257414 10132122
-0.17505395 0.1096787 1.2255726 10132122
-0.12504129 0.10968032 1.2257063 10132122
-0.075025089 0.10968287 1.2256188 10132122
-0.025010029 0.10968451 1.225752 10132122
0.025010668 0.10968657 1.2257762 10132122
0.075029477 0.10968909 1.225688 10132122
0.12505326 0.10969068 1.2258217 10132122
0.17507726 0.10969323 1.2257342 10132122
0.22497582 0.10969442 1.2259494 10132122
0.27487814 0.10969737 1.2257805 10132122
0.3249068 0.10969896 1.2259146 10132122
0.375067 0.10970119 1.2259103 10132122
0.42510003 0.10970347 1.2258778 10132122
0.47500977 0.10970517 1.2259837 10197915
0.52504659 0.10970773 1.2258965 10197915
0.5749588 0.10970886 1.2261118 10197915
0.6248737 0.10971192 1.2259426 10197915
0.67491597 0.10971342 1.2260766 10197915
0.72508931 0.1097156 1.2260724 10197915
0.77513528 0.10971797 1.2260391 10197915
0.82505876 0.10971963 1.2261457 10197915
0.8751086 0.1097222 1.226058 10197915
0.92503428 0.10972344 1.2262745 10197915
0.96445012 0.10970487 1.2306086 10197915
-1.0126103 0.10934633 1.2888098 7171437
-0.97465843 0.10940722 1.2761549 9605778
-0.92497176 0.1094114 1.2757326 10197915
-0.87498629 0.10941272 1.2759067 10197915
-0.82510728 0.10941502 1.2758789 10197915
-0.77501118 0.1094173 1.2758584 10197915
-0.72481054 0.1094194 1.2758795 10197915
-0.67492223 0.10942143 1.275903 10197915
-0.62503463 0.10942284 1.2760762 10197915
-0.57503825 0.10942551 1.2759495 10197915
-0.52504015 0.10942735 1.2760262 10197915
-0.475146 0.10942993 1.2759503 10197915
-0.42503899 0.10943127 1.2761227 10197915
-0.37492985 0.10943381 1.2760458 10197915
-0.32502839 0.10943586 1.27607 10197915
-0.27502164 0.10943726 1.2762448 10132122
-0.22501257 0.10944005 1.2761198 10132122
-0.17631227 0.10945198 1.2740134 10132122
-0.12499681 0.10947112 1.2703917 10132122
-0.075000621 0.10947298 1.2704766 10132122
-0.025000881 0.10947528 1.2704402 10132122
0.025001502 0.10947736 1.2704636 10132122
0.075005032 0.10947915 1.2705493 10132122
0.12500875 0.10948156 1.2705116 10132122
0.17501567 0.10948441 1.2703528 10132122
0.2250251 0.10948563 1.2705597 10132122
0.2750347 0.10948741 1.2706454 10132122
0.32504749 0.10948987 1.2706081 10132122
0.37506312 0.10949184 1.2706318 10132122
0.42494795 0.10949376 1.2706858 10132122
0.47483319 0.10949623 1.2706172 10197915
0.52498537 0.10949845 1.270614 10197915
0.57500762 0.10950001 1.2707578 10197915
0.62503099 0.10950209 1.2707821 10197915
0.67518824 0.10950419 1.2707756 10197915
0.72521698 0.10950631 1.2707993 10197915
0.77498215 0.10950868 1.2707607 10197915
0.82488334 0.10951038 1.2708774 10197915
0.87504739 0.10951257 1.2708719 10197915
0.92494982 0.10951439 1.270926 10197915
0.97460735 0.10951581 1.2711023 10197915
1.0096667 0.10946938 1.2813385 10197915
-1.05946 0.10908831 1.3434993 6579300
-1.0243348 0.109147 1.3312814 8947848
-0.9768675 0.10916761 1.3273138 10197915
-0.92504466 0.10918344 1.3244296 10197915
-0.87494934 0.10918591 1.3243623 10197915
-0.82503718 0.10918799 1.3243876 10197915
-0.77493721 0.10919005 1.3244127 10197915
-0.725021 0.10919209 1.3244376 10197915
-0.67510039 0.10919415 1.3244623 10197915
-0.62518054 0.10919622 1.3244879 10197915
-0.57507396 0.10919785 1.3246049 10197915
-0.5249657 0.10920035 1.3245372 10197915
-0.47504014 0.10920238 1.3245627 10197915
-0.424927 0.10920446 1.3245875 10197915
-0.37499774 0.10920653 1.3246124 10197915
-0.32506379 0.10920859 1.3246373 10197915
-0.27513072 0.10921066 1.3246621 10132122
-0.22501044 0.10921229 1.3247797 10132122
-0.173059 0.10922907 1.3216835 10132122
-0.12495077 0.10924584 1.3185248 10132122
-0.074970603 0.10924862 1.3184144 10132122
-0.024992079 0.10925006 1.3185748 10132122
0.024992693 0.10925199 1.3186003 10132122
0.074975006 0.10925478 1.3184898 10132122
0.12496273 0.10925628 1.3186492 10132122
0.17495038 0.10925893 1.3185389 10132122
0.22507624 0.10925975 1.3188027 10132122
0.2750695 0.10926255 1.3186896 10132122
0.32506135 0.10926496 1.3186487 10132122
0.37505895 0.1092667 1.3187399 10132122
0.42505527 0.1092691 1.3186979 10197915
0.47505569 0.10927081 1.31879 10197915
0.52492028 0.10927265 1.3188486 10197915
0.5749234 0.10927543 1.3187379 10197915
0.624928 0.10927685 1.3188984 10197915
0.67507261 0.10927937 1.3188226 10197915
0.72521633 0.10928062 1.3190175 10197915
0.7752291 0.10928304 1.3189731 10197915
0.82510352 0.10928559 1.3188961 10197915
0.87498248 0.10928716 1.319023 10197915
0.92499799 0.10928982 1.318913 10197915
0.97501653 0.10929124 1.3190722 10197915
1.0227462 0.10928515 1.3208402 10197915
1.0559324 0.10921993 1.3350717 10197915
-1.103071 0.10886705 1.3903761 6579300
-1.0721546 0.10892437 1.3784204 7763574
-1.0250888 0.10893513 1.3765537 10197915
-0.97334135 0.10895807 1.3721236 10197915
-0.92511314 0.10896961 1.3701161 10197915
-0.87504244 0.10897293 1.3698746 10197915
-0.8248297 0.10897419 1.3700544 10197915
-0.77475446 0.10897685 1.3699638 10197915
-0.7251054 0.10897853 1.3700647 10197915
-0.6751681 0.10898059 1.3700942 10197915
-0.6249482 0.10898299 1.3700417 10197915
-0.5750075 0.10898393 1.3702966 10197915
-0.52506679 0.10898717 1.3700929 10197915
-0.47498044 0.1089894 1.3700819 10197915
-0.42503679 0.10899037 1.3703375 10197915
-0.37523204 0.10899334 1.370171 10197915
-0.32513893 0.10899479 1.3703129 10132122
-0.27490604 0.10899759 1.3701849 10132122
-0.22495204 0.10899896 1.3703613 10132122
-0.17499815 0.10900097 1.3703904 10132122
-0.12504081 0.10900379 1.3702608 10132122
-0.07508333 0.10900468 1.3705165 10132122
-0.024981881 0.10900772 1.3703517 10132122
0.024982499 0.10900979 1.3703778 10132122
0.074946165 0.10901074 1.3706334 10132122
0.12491047 0.10901421 1.3703526 10132122
0.17502148 0.10901543 1.3705717 10132122
0.22499046 0.1090174 1.3705946 10132122
0.27482089 0.10902002 1.3705064 10132122
0.32507756 0.10902178 1.3706115 10132122
0.37505418 0.10902382 1.370634 10132122
0.42474633 0.10902622 1.3705844 10197915
0.47486877 0.10902776 1.3707263 10197915
0.5249911 0.10902993 1.3707111 10197915
0.57497412 0.10903241 1.3706622 10197915
0.62495869 0.10903411 1.3707665 10197915
0.67480254 0.10903594 1.3708273 10197915
0.72493494 0.1090382 1.3708183 10197915
0.77520806 0.10904061 1.3707657 10197915
0.82506025 0.10904223 1.3709049 10197915
0.87491155 0.10904443 1.3708961 10197915
0.92490733 0.10904681 1.3708432 10197915
0.97490555 0.10904848 1.3709445 10197915
1.0250465 0.10905043 1.3710117 10197915
1.0707669 0.10903502 1.3747131 10197915
1.1034133 0.10895774 1.3915342 10197915
1.0927683 -0.62211227 1.4396858 2039583
1.1082648 -0.61709517 1.4174007 2039583
1.0930986 -0.57503963 1.4394265 2039583
1.1088004 -0.57500875 1.4168259 2039583
1.0931304 -0.52513462 1.4396135 2039583
1.1088383 -0.52488858 1.416999 2039583
1.0929779 -0.47504458 1.4400628 2039583
1.1086913 -0.4749777 1.4174449 2039583
1.0930611 -0.42501211 1.4401754 2039583
1.1087742 -0.42500374 1.4175574 2039583
1.0931401 -0.37502161 1.4402902 2039583
1.108862 -0.37504059 1.4176613 2039583
1.0932251 -0.32504883 1.4404002 2039583
1.1089441 -0.32501444 1.4177737 2039583
1.0934824 -0.27527002 1.4402597 2039583
1.1090288 -0.27498111 1.4178834 2039583
1.0936881 -0.22501862 1.4401952 2039583
1.1091173 -0.22501324 1.4179848 2039583
1.0936309 -0.1752537 1.4405078 2039583
1.1090747 -0.17483927 1.4182789 2039583
1.0935559 -0.12494615 1.4408485 2039583
1.1089964 -0.12502174 1.4186214 2039583
1.0936623 -0.075055689 1.4409251 2039583
1.1090795 -0.075018547 1.4187317 2039583
1.0937159 -0.025074562 1.4410781 2039583
1.1092038 -0.025009364 1.418784 2039583
1.0937998 0.025077153 1.4411889 2039583
1.1092893 0.025011908 1.4188929 2039583
1.0939467 0.074955031 1.4412081 2302755
1.1093316 0.075018622 1.4190633 2302755
-1.1507399 0.10859433 1.448192 6579300
-1.1190397 0.10867254 1.4317851 7039851
-1.0749056 0.10870153 1.4260027 9737364
-1.0248563 0.1087033 1.4260724 10197915
-0.97495401 0.10870625 1.4259244 10197915
-0.92504919 0.10870743 1.4261253 10197915
-0.87499559 0.10870964 1.4261099 10197915
-0.82493806 0.10871242 1.4260055 10197915
-0.77488369 0.10871342 1.4262499 10197915
-0.72467536 0.1087159 1.4261901 10197915
-0.67475879 0.10871831 1.4261284 10197915
-0.62499267 0.10871938 1.4263723 10197915
-0.57507503 0.10872179 1.4263144 10197915
-0.52515489 0.10872466 1.4261667 10197915
-0.47523475 0.10872587 1.4263681 10197915
-0.42516196 0.10872819 1.4263524 10197915
-0.37523857 0.10873066 1.4262896 10132122
-0.32530981 0.10873221 1.4264059 10132122
-0.27508512 0.10873388 1.4265187 10132122
-0.22500813 0.10873696 1.4263284 10132122
-0.17507504 0.10873819 1.42653 10132122
-0.12499304 0.10874043 1.4265139 10132122
-0.075055525 0.10874295 1.4264513 10132122
-0.02511828 0.10874461 1.4265677 10132122
0.025118915 0.10874662 1.4265947 10132122
0.07505995 0.10874915 1.4265323 10132122
0.12500498 0.10875074 1.4266483 10132122
0.17509834 0.10875262 1.4267181 10132122
0.2250465 0.10875544 1.4265708 10132122
0.27499521 0.10875669 1.4267718 10132122
0.32524166 0.10875877 1.4267992 10132122
0.37534508 0.1087615 1.4266948 10197915
0.42515239 0.10876246 1.4269377 10197915
0.47496048 0.10876551 1.4267478 10197915
0.52492023 0.10876717 1.4268637 10197915
0.57502866 0.10876905 1.4269339 10197915
0.62499249 0.10877186 1.4267863 10197915
0.67495567 0.10877316 1.426988 10197915
0.72507209 0.10877544 1.4269713 10197915
0.77503914 0.10877782 1.4269096 10197915
0.82501113 0.10877953 1.4270256 10197915
0.87498236 0.10878194 1.4269634 10197915
0.92495728 0.10878359 1.427079 10197915
0.97508085 0.10878541 1.4271493 10197915
1.0250603 0.10878835 1.4270015 10197915
1.0838288 0.10662504 1.4333125 10197915
1.1091777 0.10477941 1.4184824 10197915
1.0617063 -0.65703279 1.4842365 2039583
1.0686576 -0.6250546 1.4743812 2039583
1.0688785 -0.57498968 1.474292 2039583
1.0689497 -0.52500939 1.4744184 2039583
1.0690396 -0.4749783 1.4745193 2039583
1.0691121 -0.42498228 1.474648 2039583
1.069193 -0.37500957 1.4747612 2039583
1.0692979 -0.32501915 1.4748414 2039583
1.0695482 -0.27490816 1.4747139 2039583
1.0700014 -0.22503203 1.4742919 2039583
1.0701213 -0.17498401 1.4743505 2039583
1.0702173 -0.12501323 1.4744419 2039583
1.070281 -0.074992076 1.4745815 2039583
1.0703719 -0.024986679 1.4746803 2039583
1.0704588 0.024978688 1.4747878 2039583
1.0705582 0.075045094 1.4748727 2368548
-1.1648552 0.10842697 1.4838203 6579300
-1.1247487 0.10845151 1.4789524 9145227
-1.0751401 0.10845355 1.4789802 10197915
-1.0251179 0.10845498 1.4791374 10197915
-0.97489303 0.10845826 1.4789103 10197915
-0.92486703 0.10845967 1.4790641 10197915
-0.87504733 0.10846115 1.4792227 10197915
-0.8252238 0.10846379 1.4791199 10197915
-0.77498794 0.10846583 1.4791517 10197915
-0.72475356 0.1084679 1.4791764 10197915
-0.67492253 0.10846992 1.4792043 10197915
-0.62509155 0.10847135 1.479362 10197915
-0.575055 0.1084746 1.479134 10197915
-0.52501589 0.10847604 1.4792874 10197915
-0.47497544 0.10847752 1.4794452 10197915
-0.4249306 0.10848016 1.4793439 10132122
-0.37508848 0.10848161 1.4795016 10132122
-0.32504594 0.10848484 1.4792734 10132122
-0.2749958 0.1084863 1.4794272 10132122
-0.22494413 0.10848777 1.4795846 10132122
-0.17489153 0.10849043 1.479483 10132122
-0.12504102 0.10849304 1.4793837 10132122
-0.074986964 0.10849391 1.4796684 10132122
-0.024928426 0.10849655 1.4795668 10132122
0.024929054 0.1084986 1.4795951 10132122
0.074991383 0.10850005 1.4797519 10132122
0.125053 0.10850327 1.4795234 10132122
0.17491478 0.10850472 1.4796784 10132122
0.22498244 0.10850617 1.4798361 10132122
0.27505299 0.10850884 1.4797342 10132122
0.32471418 0.10851092 1.4797616 10197915
0.37478921 0.10851292 1.4797935 10197915
0.42506713 0.10851497 1.4798186 10197915
0.47494161 0.10851701 1.4798462 10197915
0.52501988 0.10851845 1.480004 10197915
0.57489479 0.10852113 1.479902 10197915
0.62477523 0.10852375 1.4798036 10197915
0.67506176 0.10852458 1.4800872 10197915
0.72515029 0.10852728 1.4799861 10197915
0.77482861 0.10852934 1.4800137 10197915
0.82471645 0.10853075 1.4801713 10197915
0.87501097 0.10853402 1.4799436 10197915
0.92510694 0.10853547 1.4800977 10197915
0.97499686 0.10853691 1.480256 10197915
1.0248896 0.10853954 1.4801534 10197915
1.070025 0.10468437 1.4743204 10197915
1.0312651 -0.6668275 1.5280086 2039583
1.0501727 -0.66094339 1.5008199 2039583
1.0332303 -0.62500489 1.5253738 2039583
1.0504649 -0.6213395 1.5005825 2039583
1.0333054 -0.57500547 1.5254959 2039583
1.0506248 -0.57473469 1.5005672 2039583
1.0334071 -0.52502185 1.5255793 2039583
1.0507016 -0.52472895 1.5006877 2039583
1.0337857 -0.47501761 1.5252684 2039583
1.0507815 -0.47502765 1.500802 2039583
1.0338707 -0.42502072 1.525376 2039583
1.050862 -0.42531887 1.5009164 2039583
1.0337274 -0.37509117 1.5258116 2039583
1.0507157 -0.3729066 1.5013688 2039583
1.0337013 -0.32500562 1.5260819 2039583
1.0507137 -0.32473177 1.5015937 2039583
1.0337849 -0.27503026 1.5261917 2039583
1.0507938 -0.27498549 1.5017079 2039583
1.0338662 -0.22499835 1.5263056 2039583
1.0511487 -0.22434957 1.5014317 2039583
1.0339414 -0.17499539 1.5264263 2039583
1.0512584 -0.17526025 1.5015005 2039583
1.0340208 -0.12499706 1.5265452 2039583
1.0513508 -0.12488791 1.5015998 2039583
1.0344048 -0.074988917 1.5262212 2039583
1.0514261 -0.074657217 1.5017233 2039583
1.0345194 -0.025003336 1.5262889 2039583
1.0515059 -0.024887422 1.5018377 2039583
1.0343052 0.024958817 1.5268276 2039583
1.0512953 0.025248041 1.5023723 2039583
1.0343233 0.074998334 1.527032 2434341
1.0513561 0.074697122 1.5025132 2302755
-1.2114034 0.10817596 1.5370336 6579300
-1.1752497 0.10822098 1.5277426 7895160
-1.1252701 0.10822304 1.5277709 10197915
-1.0750834 0.10822573 1.5276583 10197915
-1.0251054 0.10822776 1.5276874 10197915
-0.97491109 0.10822982 1.5277169 10197915
-0.92492926 0.10823187 1.5277449 10197915
-0.87494212 0.1082339 1.5277741 10197915
-0.8249566 0.10823596 1.5278026 10197915
-0.77496558 0.10823798 1.5278316 10197915
-0.72497618 0.10824002 1.5278602 10197915
-0.67498136 0.10824207 1.5278889 10197915
-0.6249885 0.10824407 1.5279177 10197915
-0.57498997 0.10824615 1.5279473 10197915
-0.5249933 0.10824817 1.5279754 10197915
-0.47499084 0.10825025 1.5280046 10197915
-0.4247807 0.10825162 1.5281762 10132122
-0.37456468 0.10825434 1.5280627 10132122
-0.32476702 0.10825571 1.5282325 10132122
-0.27497146 0.10825841 1.5281196 10132122
-0.22496331 0.10826046 1.5281485 10132122
-0.17494974 0.10826249 1.5281774 10132122
-0.1249378 0.10826454 1.5282068 10132122
-0.074920446 0.10826658 1.528235 10132122
-0.024904743 0.10826861 1.5282639 10132122
0.024905365 0.10827067 1.528293 10132122
0.074924834 0.10827272 1.5283221 10132122
0.12494975 0.10827473 1.5283504 10132122
0.17497309 0.1082768 1.5283793 10132122
0.22500168 0.10827886 1.5284084 10132122
0.27481687 0.1082802 1.5285776 10132122
0.32463655 0.10828292 1.5284655 10197915
0.37467095 0.10828498 1.5284957 10197915
0.42470369 0.10828706 1.5285239 10197915
0.47474167 0.10828902 1.5285527 10197915
0.52477813 0.10829108 1.528581 10197915
0.57502991 0.10829248 1.5287516 10197915
0.6252836 0.10829522 1.5286394 10197915
0.67532581 0.10829725 1.5286679 10197915
0.72537327 0.10829928 1.5286971 10197915
0.7752108 0.10830066 1.5288659 10197915
0.82504588 0.10830337 1.5287538 10197915
0.87488788 0.1083054 1.5287831 10197915
0.92493951 0.10830748 1.5288123 10197915
0.97499669 0.10830951 1.5288408 10197915
1.0312096 0.10498964 1.5265642 10197915
1.0514032 0.10395773 1.5025806 10197915
0.9884938 -0.70553792 1.5893974 2039583
1.0016464 -0.70138168 1.5704843 2039583
0.99057233 -0.6749984 1.5865477 2039583
1.007724 -0.67407829 1.5618631 2039583
0.990623 -0.6250183 1.5867043 2039583
1.0080059 -0.62504268 1.5616819 2039583
0.99070543 -0.57503051 1.5868163 2039583
1.0080916 -0.57502615 1.5617932 2039583
0.99097234 -0.52522171 1.5866613 2039583
1.0081751 -0.52495003 1.5619042 2039583
0.99119592 -0.47499678 1.5865734 2039583
1.0085688 -0.47495368 1.5615653 2039583
0.99127775 -0.4249987 1.5866842 2039583
1.0086551 -0.42493957 1.5616744 2039583
0.99135011 -0.37496832 1.5868125 2039583
1.0087252 -0.37494308 1.5618012 2039583
0.99117875 -0.32521111 1.5872895 2039583
1.0085598 -0.32479212 1.5622715 2039583
0.99117821 -0.27502477 1.5875199 2039583
1.008554 -0.27504179 1.5625095 2039583
0.99121809 -0.22500418 1.5876933 2039583
1.0086137 -0.22501498 1.5626539 2039583
0.99130481 -0.17502764 1.5878005 2039583
1.0086942 -0.17500591 1.5627675 2039583
0.99151462 -0.1252434 1.5877285 2039583
1.0087976 -0.1250146 1.5628526 2039583
0.99181336 -0.075005822 1.5875306 2039583
1.0091621 -0.075065605 1.5625554 2039583
0.99186391 -0.024994584 1.5876888 2039583
1.0092938 -0.025033645 1.5625955 2039583
0.99193931 0.024997143 1.5878109 2039583
1.009372 0.02503621 1.5627177 2039583
0.99204051 0.075023755 1.5878959 2434341
1.0093946 0.075083472 1.5629171 2434341
-1.2585713 0.1079102 1.59337 6579300
-1.2236418 0.10797179 1.5805358 7303023
-1.1751095 0.10797834 1.5795865 10066329
-1.1251752 0.10798039 1.5796194 10197915
-1.0748066 0.10798242 1.5796497 10197915
-1.0248684 0.10798373 1.5798352 10197915
-0.97515082 0.10798721 1.5795503 10197915
-0.92520857 0.10798851 1.5797393 10197915
-0.8750509 0.10798983 1.5799233 10197915
-0.82488912 0.10799258 1.5797989 10197915
-0.77472347 0.10799461 1.5798286 10197915
-0.72499615 0.10799668 1.5798539 10197915
-0.67526269 0.10799868 1.5798877 10197915
-0.62509364 0.108 1.5800718 10197915
-0.57492465 0.10800276 1.5799479 10197915
-0.52496767 0.10800554 1.5798184 10197915
-0.47523072 0.10800607 1.5801628 10132122
-0.42526999 0.10800885 1.5800366 10132122
-0.3748748 0.10801093 1.5800674 10132122
-0.32491037 0.10801297 1.5800931 10132122
-0.27516598 0.10801499 1.5801268 10132122
-0.22497946 0.10801704 1.580157 10132122
-0.17501262 0.10801837 1.5803418 10132122
-0.12504132 0.10802181 1.5800581 10132122
-0.075072005 0.10802241 1.5804009 10132122
-0.025097648 0.10802517 1.5802761 10132122
0.025098285 0.10802725 1.5803051 10132122
0.075076394 0.10802852 1.5804914 10132122
0.12505332 0.10803206 1.5802075 10132122
0.17503597 0.10803263 1.5805509 10132122
0.22501783 0.10803541 1.5804249 10132122
0.2750057 0.10803815 1.580296 10197915
0.32477114 0.10803872 1.5806406 10197915
0.37476295 0.10804152 1.5805147 10197915
0.42518857 0.10804357 1.5805452 10197915
0.47518325 0.1080456 1.5805702 10197915
0.52495754 0.10804761 1.5806035 10197915
0.57495451 0.10804891 1.580789 10197915
0.62495369 0.10805168 1.5806636 10197915
0.67495549 0.10805447 1.5805343 10197915
0.72495323 0.10805506 1.5808769 10197915
0.775177 0.1080578 1.5807534 10197915
0.82518536 0.10805921 1.5809379 10197915
0.87497211 0.10806263 1.5806534 10197915
0.92476457 0.10806318 1.5809978 10197915
0.98405206 0.1057082 1.5841168 10197915
1.0092999 0.10428853 1.5629058 10197915
0.94804817 -0.71845937 1.6475564 2039583
0.96372461 -0.71345383 1.6250157 2039583
0.94812423 -0.67481601 1.647649 2039583
0.96577245 -0.67491996 1.6222473 2039583
0.94820458 -0.62489879 1.6477631 2039583
0.96585178 -0.62496895 1.6223615 2039583
0.94859362 -0.57570958 1.647431 2039583
0.96591491 -0.57497829 1.6225023 2039583
0.94871157 -0.52503783 1.6474942 2039583
0.96619964 -0.52486581 1.6223233 2039583
0.94879192 -0.47507846 1.6476098 2039583
0.96643037 -0.47499788 1.622218 2039583
0.9487803 -0.42656544 1.6478506 2039583
0.96639442 -0.4248879 1.6225059 2039583
0.94856471 -0.37491846 1.6483992 2039583
0.96622348 -0.37501127 1.6229794 2039583
0.94863015 -0.32486078 1.6485354 2039583
0.96628577 -0.32496595 1.6231198 2039583
0.94871658 -0.27503017 1.6486419 2039583
0.96636987 -0.27494216 1.6232312 2039583
0.94878268 -0.22472952 1.6487787 2039583
0.96644074 -0.22498649 1.6233571 2039583
0.94894582 -0.17691471 1.6487654 2039583
0.96649826 -0.17502292 1.623509 2039583
0.94930166 -0.12497969 1.6484928 2039583
0.96671855 -0.12488109 1.623422 2039583
0.9493739 -0.075130016 1.6486188 2039583
0.9670251 -0.074995652 1.6232101 2039583
0.94944662 -0.025272716 1.6487448 2039583
0.96708691 -0.025016367 1.6233541 2039583
0.94952023 0.025275325 1.6488723 2039583
0.96715832 0.02501894 1.6234791 2039583
0.94958669 0.074811563 1.6490049 2368548
0.96724445 0.074998274 1.6235901 2500134
-1.3000038 0.10771266 1.6351863 6579300
-1.2717657 0.10775188 1.6270686 6579300
-1.2251033 0.10776012 1.6257416 9671571
-1.1752844 0.10776214 1.6257724 10197915
-1.1251271 0.10776478 1.6256764 10197915
-1.0749717 0.10776623 1.6258339 10197915
-1.0251473 0.10776825 1.6258645 10197915
-0.97498679 0.1077709 1.6257688 10197915
-0.92482358 0.10777234 1.6259258 10197915
-0.8749938 0.10777437 1.6259564 10197915
-0.82483011 0.107777 1.6258608 10197915
-0.77465838 0.10777846 1.6260183 10197915
-0.72516316 0.10778107 1.6259185 10197915
-0.67532438 0.10778309 1.6259526 10197915
-0.62515324 0.10778453 1.62611 10197915
-0.57531202 0.10778656 1.6261405 10197915
-0.52513349 0.10778919 1.6260449 10197915
-0.47495404 0.10779065 1.6262021 10132122
-0.42510703 0.10779268 1.6262326 10132122
-0.37492549 0.10779531 1.6261371 10132122
-0.3247377 0.10779674 1.6262944 10132122
-0.27488506 0.10779879 1.6263249 10132122
-0.22503535 0.10780202 1.626099 10132122
-0.17518201 0.10780285 1.626386 10132122
-0.12532373 0.10780488 1.626417 10132122
-0.075127281 0.1078075 1.6263211 10132122
-0.024931656 0.10780895 1.6264783 10132122
0.02493228 0.10781099 1.626509 10132122
0.075131685 0.10781362 1.6264131 10132122
0.12533574 0.10781507 1.6265708 10132122
0.17520532 0.10781711 1.6266015 10132122
0.22507377 0.10782033 1.6263752 10132122
0.27494222 0.10782117 1.6266626 10197915
0.32481754 0.1078232 1.6266934 10197915
0.37503195 0.10782585 1.6265976 10197915
0.42524382 0.10782731 1.6267551 10197915
0.47512472 0.10782933 1.6267858 10197915
0.52500743 0.10783136 1.6268164 10197915
0.57522291 0.107834 1.6267204 10197915
0.62511063 0.10783605 1.626748 10197915
0.67465919 0.10783745 1.6269083 10197915
0.72488654 0.10784009 1.6268126 10197915
0.77511191 0.10784154 1.6269701 10197915
0.82500589 0.10784359 1.6270008 10197915
0.87523639 0.10784622 1.626905 10197915
0.92725438 0.10755 1.6287533 10197915
0.96642232 0.10416228 1.6239828 10197915
0.91700268 -0.75354612 1.692083 2039583
0.92834073 -0.72354615 1.6759005 2039583
0.92915064 -0.674963 1.6749591 2039583
0.92922497 -0.6250186 1.6750838 2039583
0.92987704 -0.57505232 1.6743748 2039583
0.93013316 -0.52498889 1.6742375 2039583
0.93020374 -0.47500724 1.6743668 2039583
0.93028176 -0.42498821 1.6744862 2039583
0.93035454 -0.37500772 1.67461 2039583
0.93041742 -0.32498831 1.6747496 2039583
0.93049806 -0.27497667 1.6748673 2039583
0.93055254 -0.22500373 1.675018 2039583
0.93078172 -0.17485614 1.6749208 2039583
0.93139535 -0.12506215 1.6742661 2039583
0.93162 -0.075019687 1.6741786 2039583
0.93156356 -0.025020367 1.6744876 2039583
0.93163496 0.025022931 1.6746142 2039583
0.93183506 0.075006709 1.6745577 2500134
-1.318681 0.10749698 1.6810895 6579300
-1.2750933 0.10752882 1.6746951 8750469
-1.2249345 0.10753173 1.674543 10197915
-1.1750083 0.10753378 1.6745697 10197915
-1.1250762 0.10753579 1.6746063 10197915
-1.075147 0.10753783 1.6746325 10197915
-1.0252109 0.10753985 1.6746691 10197915
-0.97504467 0.10754103 1.6748849 10197915
-0.92510772 0.10754479 1.6745433 10197915
-0.8751694 0.10754509 1.6749483 10197915
-0.82499379 0.10754881 1.6746078 10197915
-0.7748239 0.10754911 1.6750109 10197915
-0.72464645 0.10755201 1.6748587 10197915
-0.67469722 0.10755404 1.6748852 10197915
-0.62498015 0.10755518 1.6751065 10197915
-0.57503057 0.107559 1.6747638 10197915
-0.52507848 0.10755926 1.6751695 10132122
-0.47489345 0.10756217 1.6750168 10132122
-0.42493495 0.10756422 1.6750443 10132122
-0.37497875 0.10756624 1.6750801 10132122
-0.32501644 0.10756823 1.6751065 10132122
-0.27505651 0.10757024 1.675143 10132122
-0.22485991 0.10757145 1.6753591 10132122
-0.17489463 0.10757522 1.6750175 10132122
-0.12492811 0.10757551 1.6754217 10132122
-0.074955493 0.10757928 1.6750807 10132122
-0.024988728 0.10757957 1.6754851 10132122
0.024989355 0.10758159 1.675517 10132122
0.074959911 0.10758537 1.6751754 10132122
0.12494005 0.10758562 1.6755799 10132122
0.17491783 0.10758945 1.6752386 10132122
0.22489828 0.10758967 1.6756434 10197915
0.2748833 0.10759351 1.6753016 10197915
0.32486415 0.10759377 1.6757072 10197915
0.37508526 0.10759667 1.6755548 10197915
0.42507166 0.10759875 1.6755812 10197915
0.47483253 0.10759987 1.6758018 10197915
0.52482277 0.10760365 1.6754607 10197915
0.57481724 0.10760394 1.6758651 10197915
0.62504554 0.10760688 1.6757128 10197915
0.67504132 0.10760891 1.6757394 10197915
0.72504336 0.1076109 1.6757759 10197915
0.77504295 0.10761299 1.6758031 10197915
0.82481742 0.10761409 1.6760231 10197915
0.87482017 0.10761791 1.6756819 10197915
0.92877162 0.10462658 1.6737094 10197915
0.88708484 -0.7631104 1.7349931 2039583
0.90535831 -0.75730437 1.7088268 2039583
0.88870388 -0.72500837 1.7328691 2039583
0.90585858 -0.7249949 1.7082558 2039583
0.8888123 -0.67499131 1.732945 2039583
0.90592903 -0.67495054 1.7083861 2039583
0.88887894 -0.62504035 1.7330806 2039583
0.90601039 -0.62500048 1.7084984 2039583
0.88863641 -0.57520396 1.7336674 2039583
0.90602958 -0.57438743 1.7087052 2039583
0.88859695 -0.52501035 1.7339578 2039583
0.9061318 -0.52501351 1.7087859 2039583
0.88866454 -0.47500068 1.7340902 2039583
0.9062084 -0.47496438 1.7089059 2039583
0.88873941 -0.42501119 1.7342147 2039583
0.90627199 -0.42499575 1.7090451 2039583
0.88881236 -0.37503976 1.7343396 2039583
0.90636271 -0.37502006 1.7091453 2039583
0.88887781 -0.32500812 1.7344761 2039583
0.90641439 -0.32499173 1.7093025 2039583
0.88933182 -0.27507356 1.7340633 2039583
0.90650213 -0.27500045 1.7094071 2039583
0.88940877 -0.22498229 1.734185 2039583
0.90654248 -0.22504544 1.7095798 2039583
0.88950646 -0.17498088 1.7342759 2039583
0.9066385 -0.17499496 1.7096735 2039583
0.88954502 -0.125 1.7344515 2039583
0.90701652 -0.12478599 1.7093607 2039583
0.88966602 -0.075122051 1.7345079 2039583
0.90719956 -0.074817657 1.7093266 2039583
0.88967061 -0.025152972 1.7347338 2039583
0.90721357 -0.0247475 1.7095391 2039583
0.88934147 0.025136286 1.7354487 2039583
0.90689087 0.024798818 1.7102312 2039583
0.88946158 0.075124025 1.7355084 2565927
0.90701044 0.074795865 1.7102907 2565927
-1.363362 0.10726395 1.7304643 6579300
-1.324965 0.10728499 1.726325 8026746
-1.2745656 0.10728635 1.7265085 10197915
-1.2248785 0.10728908 1.726386 10197915
-1.1751915 0.10729037 1.7265733 10197915
-1.1251416 0.10729239 1.726606 10197915
-1.0750902 0.10729443 1.7266387 10197915
-1.0250435 0.10729787 1.7263654 10197915
-0.97499031 0.10729849 1.726704 10197915
-0.92493296 0.10730052 1.7267364 10197915
-0.874874 0.10730254 1.726769 10197915
-0.82517648 0.10730529 1.7266465 10197915
-0.77511209 0.10730728 1.7266834 10197915
-0.72469419 0.10730862 1.7268672 10197915
-0.67462742 0.10731065 1.7268996 10197915
-0.62491965 0.10731339 1.726777 10197915
-0.57520819 0.10731468 1.7269645 10197915
-0.52513587 0.1073167 1.726997 10197915
-0.47506377 0.10732018 1.7267241 10197915
-0.42499444 0.10732076 1.7270627 10132122
-0.3749164 0.1073228 1.7270954 10132122
-0.32483643 0.10732485 1.727128 10132122
-0.27511585 0.10732756 1.7270052 10132122
-0.22539094 0.10732886 1.7271926 10132122
-0.17494972 0.1073316 1.727075 10132122
-0.12450683 0.10733294 1.7272586 10132122
-0.074775942 0.10733569 1.7271355 10132122
-0.025046252 0.10733698 1.7273231 10132122
0.025046881 0.107339 1.7273561 10132122
0.074780323 0.10734175 1.7272333 10132122
0.12451871 0.10734303 1.7274209 10132122
0.17497295 0.10734577 1.7273029 10132122
0.22542946 0.10734712 1.7274866 10197915
0.27517316 0.10734987 1.7273639 10197915
0.32491636 0.10735115 1.7275516 10197915
0.37502283 0.1073532 1.7275846 10197915
0.42476907 0.10735594 1.7274616 10197915
0.47452086 0.10735722 1.7276492 10197915
0.52498782 0.10735995 1.727531 10197915
0.57545817 0.10736128 1.7277145 10197915
0.6252147 0.10736402 1.7275918 10197915
0.67497128 0.10736531 1.7277795 10197915
0.72509092 0.10736734 1.7278122 10197915
0.77485007 0.10737009 1.7276894 10197915
0.82461524 0.10737139 1.727877 10197915
0.88382512 0.10486034 1.7325778 10197915
0.90679568 0.10376853 1.7107197 10197915
0.84406567 -0.80181217 1.7964731 2039583
0.84583932 -0.77499551 1.7940434 2039583
0.86242741 -0.77101272 1.7701874 2039583
0.84596312 -0.72533536 1.7940944 2039583
0.86376899 -0.72494245 1.7684659 2039583
0.84638679 -0.67498928 1.7937175 2039583
0.86385256 -0.67498136 1.7685778 2039583
0.84630007 -0.62578553 1.7940693 2039583
0.86373454 -0.62482941 1.7689811 2039583
0.84607691 -0.57508612 1.794625 2039583
0.86355335 -0.57502335 1.7694671 2039583
0.8461566 -0.52503407 1.794741 2039583
0.86361641 -0.5250082 1.7696096 2039583
0.84622335 -0.47497445 1.7948766 2039583
0.8636995 -0.47500962 1.7697219 2039583
0.84627366 -0.42490596 1.7950357 2039583
0.86374503 -0.42502519 1.7698848 2039583
0.84634978 -0.37501806 1.7951564 2039583
0.86382127 -0.37503335 1.7700065 2039583
0.84640765 -0.32502726 1.7953026 2039583
0.86388439 -0.32498804 1.7701488 2039583
0.8464976 -0.27493697 1.7954055 2039583
0.86435568 -0.27489564 1.7697001 2039583
0.84688431 -0.22534744 1.7950767 2039583
0.864425 -0.22500473 1.7698311 2039583
0.84706867 -0.17508474 1.7950444 2039583
0.86452508 -0.17496029 1.7699162 2039583
0.84711081 -0.12494736 1.7952148 2039583
0.86457717 -0.1249968 1.7700731 2039583
0.84717566 -0.075122766 1.7953519 2039583
0.86470485 -0.074982427 1.7701229 2039583
0.84724069 -0.025290562 1.7954887 2039583
0.86465919 -0.024937423 1.7704164 2039583
0.84730583 0.025293171 1.7956282 2039583
0.86472553 0.024939945 1.7705518 2039583
0.84697402 0.074832082 1.7963344 2565927
0.86452293 0.075014248 1.7710748 2631720
-1.4082721 0.10702279 1.7815822 6579300
-1.374765 0.10707758 1.7701817 6974058
-1.3252897 0.10707881 1.7703828 10000536
-1.2754393 0.10708082 1.770416 10197915
-1.2252218 0.10708363 1.7702866 10197915
-1.1750041 0.10708489 1.770483 10197915
-1.1251484 0.10708689 1.7705164 10197915
-1.0749276 0.10708968 1.7703869 10197915
-1.0247017 0.10709098 1.7705836 10197915
-0.97483963 0.10709298 1.7706172 10197915
-0.92498064 0.10709655 1.770319 10197915
-0.87511992 0.107097 1.7706839 10197915
-0.82525247 0.10709902 1.7707171 10197915
-0.77501643 0.10710181 1.7705874 10197915
-0.72478324 0.10710309 1.7707843 10197915
-0.67491025 0.10710511 1.7708175 10197915
-0.62503529 0.10710711 1.7708508 10197915
-0.57479954 0.1071099 1.7707212 10197915
-0.52491939 0.10711197 1.7707496 10197915
-0.47540832 0.10711318 1.7709512 10197915
-0.42515951 0.10711596 1.7708213 10197915
-0.37491259 0.10711725 1.771018 10132122
-0.32502627 0.10711926 1.7710515 10132122
-0.27477491 0.10712204 1.7709218 10132122
-0.2245191 0.10712332 1.7711186 10132122
-0.17499617 0.10712611 1.7709836 10132122
-0.12547171 0.10712732 1.771185 10132122
-0.075209908 0.10713012 1.7710552 10132122
-0.02494942 0.10713138 1.7712523 10132122
0.024950046 0.1071334 1.7712855 10132122
0.075214356 0.10713621 1.7711558 10132122
0.12548378 0.10713747 1.7713526 10132122
0.17501943 0.10714028 1.7712178 10197915
0.22455728 0.10714149 1.7714189 10197915
0.2748321 0.10714427 1.7712891 10197915
0.32510623 0.10714554 1.7714862 10197915
0.37501892 0.10714757 1.7715198 10197915
0.42529619 0.10715037 1.7713902 10197915
0.47521412 0.10715239 1.7714187 10197915
0.52475858 0.1071536 1.7716192 10197915
0.57467884 0.10715561 1.7716525 10197915
0.62496644 0.10715841 1.7715229 10197915
0.67525434 0.10715967 1.7717199 10197915
0.72518015 0.1071617 1.7717534 10197915
0.77473617 0.10716449 1.7716184 10197915
0.83142406 0.10604096 1.7791792 10197915
0.86401647 0.10396909 1.7705925 10197915
0.8202188 -0.80956036 1.8307619 2039583
0.82421321 -0.77501571 1.8251736 2039583
0.82479274 -0.72494209 1.8245693 2039583
0.82524258 -0.67501795 1.8241524 2039583
0.82530349 -0.62500924 1.8242943 2039583
