# .PCD v0.7 - Point Cloud Data file format
VERSION 0.7
FIELDS x y z rgb
SIZE 4 4 4 4
TYPE F F F U
COUNT 1 1 1 1
WIDTH 1166
HEIGHT 1
VIEWPOINT 0 0 0 1 0 0 0
POINTS 1166
DATA ascii
-0.38564888 0.024924286 0.54100209 6447714
-0.38557124 0.074997902 0.54109406 7171437
-0.4132953 0.1150368 0.53290313 10197915
-0.37970605 0.111054 0.53174913 10197915
-0.3247264 0.11472815 0.52385658 10197915
-0.27511171 0.11453853 0.52375233 10197915
-0.22497657 0.11434648 0.5237326 10197915
-0.17496233 0.11415462 0.52382374 10197915
-0.12500539 0.11396295 0.52394974 10197915
-0.074758388 0.11377155 0.52368587 10197915
-0.025137896 0.11358047 0.52402002 10197915
0.025170017 0.11338944 0.52353382 10197915
0.07478109 0.11319757 0.52408898 10132122
0.12501647 0.11300699 0.52355897 9868950
0.17487489 0.11281463 0.52398908 9868950
0.22499682 0.11262331 0.52379245 9934743
0.27501002 0.11243221 0.52369803 10066329
0.32499743 0.11223982 0.52402574 10132122
0.37490574 0.11205079 0.5233838 10197915
0.41229722 0.11187177 0.53403646 10197915
-0.35280177 -0.25086868 0.56262231 6447714
-0.31944174 -0.25582618 0.58480376 6447714
-0.29840592 -0.25895655 0.59879345 6447714
-0.3608599 -0.22440988 0.5572837 6447714
-0.32572132 -0.22499223 0.58065647 6447714
-0.29843667 -0.22500496 0.59880131 6447714
-0.36103895 -0.17499284 0.55720514 6447714
-0.32573399 -0.17499395 0.58068252 6447714
-0.29845098 -0.17501269 0.59883213 6447714
-0.36106035 -0.12499794 0.55723357 6447714
-0.32574993 -0.12500153 0.58071327 6447714
-0.29846498 -0.12501533 0.59886444 6447714
-0.36107418 -0.074997686 0.55726469 6447714
-0.32576513 -0.075004727 0.58074504 6447714
-0.29848495 -0.075068474 0.59889138 6447714
-0.36109537 -0.024999378 0.55729145 6447714
-0.325784 -0.02500294 0.58078521 6447714
-0.29849619 -0.02506067 0.59892559 6447714
-0.36126786 0.025021108 0.55721855 6447714
-0.32570505 0.02504014 0.58087111 6447714
-0.29841352 0.02433324 0.59902072 6447714
-0.36129126 0.074992463 0.55724448 7368816
-0.32563838 0.074990124 0.5809567 7697781
-0.29834417 0.075051188 0.59910846 7960953
-0.45922863 0.11502456 0.58877909 10197915
-0.43591225 0.11500455 0.56819481 10197915
-0.36105141 0.10789432 0.55706567 10197915
-0.32459673 0.1091046 0.57726198 10197915
-0.27711049 0.11368891 0.57620406 10197915
-0.22472662 0.11417767 0.57361108 10197915
-0.17502299 0.11398484 0.57436568 10197915
-0.12499176 0.11379642 0.57343614 10197915
-0.075210646 0.11360293 0.574287 10197915
-0.024983333 0.11341192 0.5739041 10197915
0.025057571 0.11322135 0.57359403 10197915
0.075004749 0.11302751 0.57436079 10197915
0.12501539 0.11283919 0.57341182 10066329
0.17507938 0.11264444 0.57432407 10132122
0.22503814 0.11245476 0.57386005 10132122
0.27485782 0.1122648 0.57361454 10197915
0.32503241 0.1120703 0.57433695 10197915
0.37495339 0.11188205 0.57346326 10197915
0.42443302 0.11168709 0.57510465 10197915
0.45907363 0.11150894 0.58862537 10197915
-0.27176785 -0.26291999 0.61650765 6447714
-0.23530009 -0.26834422 0.64075541 6447714
-0.27394074 -0.22500293 0.61509204 6447714
-0.23586801 -0.22500393 0.64041483 6447714
-0.27395195 -0.17500596 0.61512661 6447714
-0.23587854 -0.17501462 0.64044803 6447714
-0.27396733 -0.12501019 0.61516011 6447714
-0.23588957 -0.1250204 0.64048165 6447714
-0.27398551 -0.075009614 0.61518669 6447714
-0.23606412 -0.075074852 0.64040625 6447714
-0.27399006 -0.025003785 0.61522233 6447714
-0.23612845 -0.024999652 0.64040393 6447714
-0.2740027 0.024994822 0.61525482 6447714
-0.23613854 0.024989353 0.64043784 6447714
-0.27402902 0.074989341 0.61527938 8092539
-0.23615332 0.074986704 0.64047021 8421504
-0.50507826 0.11502036 0.64219624 9671571
-0.4792909 0.11498705 0.6227631 10197915
-0.2729865 0.1081385 0.61444634 10197915
-0.23016162 0.11032481 0.63180822 10197915
-0.17498514 0.11381635 0.62439686 10197915
-0.12496949 0.11362831 0.62335074 10197915
-0.074747369 0.11343232 0.62446952 10197915
-0.024985505 0.11324307 0.62407631 10197915
0.024683805 0.11305485 0.62349796 10197915
0.075239651 0.11285775 0.62453234 10197915
0.12503798 0.11266968 0.62375736 10197915
0.17474349 0.11247942 0.62375176 10197915
0.22503597 0.11228429 0.6244818 10197915
0.27484056 0.11209653 0.62365246 10197915
0.32520869 0.11190215 0.62406361 10197915
0.3749783 0.1117112 0.62419748 10197915
0.42460337 0.11152225 0.62389076 10197915
0.47250751 0.11133031 0.62643254 10197915
0.5058158 0.11114578 0.64335489 10197915
-0.16392455 -0.30396086 0.68819821 2894892
-0.14816251 -0.30630898 0.69867897 2894892
-0.21044649 -0.27204433 0.65728408 5131854
-0.17550322 -0.27486944 0.68051994 2894892
-0.14820053 -0.2750178 0.69867867 2894892
-0.21071894 -0.22501086 0.65713912 5197647
-0.17563307 -0.22501047 0.68047792 2894892
-0.1482081 -0.22502609 0.69871503 2894892
-0.2107317 -0.17501737 0.65717411 5197647
-0.17564167 -0.1750221 0.68051201 2894892
-0.14821799 -0.17502926 0.69874984 2894892
-0.21073727 -0.12501894 0.65721118 5197647
-0.1756333 -0.12501 0.68055427 2894892
-0.14821003 -0.12516615 0.69879597 2894892
-0.21091869 -0.074917525 0.6571303 5263440
-0.17541917 -0.075009689 0.68073505 2894892
-0.14814202 -0.075787865 0.69888157 2894892
-0.21098939 -0.025001619 0.65712517 5263440
-0.17542207 -0.025001014 0.6807794 2894892
-0.14823805 -0.024899283 0.6988591 2894892
-0.2109998 0.024997814 0.65715808 6052956
-0.17543368 0.025002824 0.68081617 5000268
-0.14824571 0.024900995 0.69889498 4737096
-0.21100293 0.074996047 0.65719771 9079434
-0.17544807 0.07499738 0.6808452 10197915
-0.14825571 0.074947909 0.69892967 10197915
-0.55246562 0.11501487 0.69773996 6513507
-0.52233577 0.11497381 0.67565805 6710886
-0.49569061 0.11493505 0.65686601 10132122
-0.21076846 0.10733332 0.65711278 10197915
-0.17428035 0.10856374 0.67721838 10197915
-0.12679228 0.11285267 0.67619759 10197915
-0.075381562 0.11326671 0.67438149 10197915
-0.024967475 0.11307523 0.67392284 10197915
0.025396703 0.11288297 0.67374617 10197915
0.07474193 0.11269101 0.67463744 10197915
0.12501916 0.11250126 0.67382348 10197915
0.17541222 0.11230899 0.67361039 10197915
0.22500572 0.11211492 0.67484874 10197915
0.27500108 0.11192729 0.67373401 10197915
0.32513717 0.11173525 0.67374766 10197915
0.3750197 0.11154084 0.67476833 10197915
0.42505068 0.11135305 0.67363882 10197915
0.47504306 0.11116059 0.67395115 10197915
0.51954681 0.11097323 0.67900819 10197915
0.55233586 0.11078679 0.69709498 10197915
-0.12087575 -0.31037381 0.71682549 2894892
-0.084900565 -0.31572783 0.74074465 2894892
-0.12353582 -0.27501228 0.71508628 2894892
-0.085569672 -0.27501714 0.74033457 2894892
-0.12354375 -0.22501853 0.71511984 2894892
-0.085578583 -0.22502303 0.74036849 2894892
-0.12355014 -0.17503357 0.71515334 2894892
-0.085744329 -0.17513192 0.74029988 2894892
-0.1235531 -0.12500255 0.71519738 2894892
-0.08587081 -0.12498399 0.74025702 2894892
-0.12374411 -0.074925341 0.71510935 2894892
-0.085887738 -0.074986681 0.7402879 2894892
-0.12382936 -0.02500315 0.71509212 2894892
-0.085868679 -0.024997149 0.74033988 2894892
-0.12383433 0.025004849 0.71512866 4539717
-0.085873619 0.024998819 0.74037766 4210752
-0.12384981 0.075000398 0.71516436 10197915
-0.085901417 0.074998721 0.74039966 10197915
-0.5663743 0.11496054 0.72970808 6513507
-0.54127103 0.11492444 0.71187973 6513507
-0.12287704 0.1076059 0.71444345 10197915
-0.079879083 0.10967205 0.73163569 10197915
-0.02459348 0.11290661 0.72359639 10197915
0.024559965 0.1127148 0.72466367 10197915
0.075031415 0.11252286 0.724271 10197915
0.12516473 0.11233421 0.72328734 10197915
0.1744979 0.1121404 0.72474945 10197915
0.22499725 0.11194804 0.72444975 10197915
0.27502704 0.1117606 0.72322983 10197915
0.32475731 0.11156554 0.7246033 10197915
0.37500846 0.11137301 0.72464824 10197915
0.42497998 0.11118586 0.72342032 10197915
0.47492027 0.11099194 0.72420865 10197915
0.52497435 0.11079837 0.72476977 10197915
0.56519675 0.1106264 0.73011881 10197915
-0.0075761583 -0.3522034 0.79214305 2894892
0.0020361282 -0.35364008 0.79853499 2894892
-0.060244855 -0.31939945 0.75714087 2894892
-0.024778042 -0.32392743 0.78072679 2894892
0.0019852514 -0.32502943 0.7985248 2894892
-0.060527459 -0.27501029 0.75698966 2894892
-0.025537375 -0.27503026 0.78026032 2894892
0.0019831669 -0.27503461 0.79856408 2894892
-0.060529154 -0.22501424 0.7570284 2894892
-0.025524855 -0.22499987 0.78031003 2894892
0.0019861804 -0.22497989 0.79860729 2894892
-0.060713015 -0.17483012 0.75694823 2894892
-0.025550032 -0.17497949 0.78033388 2894892
0.0019884855 -0.17497475 0.79865009 2894892
-0.060830589 -0.12496926 0.75691056 2894892
-0.025542019 -0.12497874 0.78038323 2894892
0.0019805483 -0.12496521 0.79868495 2894892
-0.060843199 -0.0749662 0.75694388 2894892
-0.025541238 -0.074997529 0.78041917 2894892
0.0019923595 -0.075004049 0.79873443 2894892
-0.060837887 -0.024975657 0.75698745 2894892
-0.025545701 -0.025003428 0.78046125 2894892
0.0019807494 -0.025040237 0.79876739 2894892
-0.060841125 0.024977328 0.75702703 3947580
-0.025546826 0.025005111 0.78050077 3618615
0.0019808537 0.025041936 0.79880846 3421236
-0.060852434 0.074978329 0.75706017 10197915
-0.025545049 0.07500957 0.78054118 10197915
0.001992668 0.075016007 0.79885674 10197915
-0.61244798 0.11494984 0.78530812 6447714
-0.58659101 0.11491311 0.76680321 6447714
-0.060573146 0.10701036 0.75683939 10197915
-0.024489662 0.10811204 0.77659541 10197915
0.022304332 0.11180741 0.77690101 10197915
0.075104386 0.11235277 0.77473265 10197915
0.12481312 0.11216565 0.77377266 10197915
0.17499389 0.11197136 0.77441102 10197915
0.22553034 0.11177846 0.77422953 10197915
0.27501231 0.11158973 0.77401304 10197915
0.32474703 0.11139758 0.7745297 10197915
0.37513095 0.11120754 0.77367932 10197915
0.42508999 0.1110137 0.77444136 10197915
0.47453552 0.11082426 0.77446699 10197915
0.52505153 0.11063232 0.77403259 10197915
0.57544559 0.110439 0.77412671 10197915
0.61209095 0.11026202 0.78501517 10197915
0.030296601 -0.35785055 0.81732726 2894892
0.065567642 -0.36308455 0.84077841 2894892
0.026673293 -0.32503828 0.81494385 2894892
0.064750977 -0.3250328 0.84027541 2894892
0.02667331 -0.27503395 0.81498367 2894892
0.064750947 -0.27503178 0.84031081 2894892
0.026671903 -0.22497913 0.81502545 2894892
0.064728625 -0.22500511 0.84032649 2894892
0.026680602 -0.17496495 0.81507128 2894892
0.064396545 -0.17496055 0.8401525 2894892
0.026678734 -0.12498059 0.81511098 2894892
0.064395435 -0.12497957 0.84019518 2894892
0.026667591 -0.074991301 0.81514508 2894892
0.06439846 -0.074975297 0.84024483 2894892
0.026689429 -0.024996869 0.81520206 2894892
0.064399242 -0.024984449 0.84028763 2894892
0.026690738 0.024998555 0.8152439 3158064
0.064402685 0.02498618 0.84031886 2894892
0.026671395 0.07500311 0.81526983 10197915
0.064408474 0.074987292 0.84035981 10132122
-0.6589486 0.11494603 0.83933794 6447714
-0.63105589 0.11489826 0.82179147 6447714
0.027851783 0.10725253 0.81420904 10197915
0.070471004 0.1090603 0.83186758 10197915
0.12496352 0.11199544 0.82419145 10197915
0.17506386 0.11180783 0.82291645 10197915
0.22439019 0.11161177 0.82506716 10197915
0.27501836 0.1114184 0.82494521 10197915
0.32502058 0.1112313 0.82359391 10197915
0.37546346 0.1110396 0.82320243 10197915
0.42488602 0.11084177 0.82574201 10197915
0.47492111 0.11065476 0.82441175 10197915
0.52498811 0.11046789 0.8229515 10197915
0.5748803 0.11027081 0.82472765 10197915
0.6239965 0.11007817 0.82611227 10197915
0.65848988 0.10990374 0.83869135 10197915
0.14871219 -0.40040007 0.89604837 2894892
0.15242031 -0.4010208 0.89851403 2894892
0.090135135 -0.36674047 0.85711694 2894892
0.12608032 -0.37206671 0.88101757 2894892
0.15222833 -0.37502834 0.89840746 2894892
0.089828447 -0.32498872 0.85694748 2894892
0.12470169 -0.32496986 0.8801409 2894892
0.15223856 -0.32494715 0.8984555 2894892
0.089816287 -0.27499723 0.8569811 2894892
0.12471245 -0.27496451 0.8801899 2894892
0.15224645 -0.27493477 0.89850128 2894892
0.089800157 -0.22492699 0.85701007 2894892
0.12471736 -0.22498366 0.88023454 2894892
0.1522568 -0.22499193 0.89854956 2894892
0.08944983 -0.17498745 0.85681975 2894892
0.12472022 -0.17496783 0.88027471 2894892
0.15226214 -0.17496967 0.89859408 2894892
0.089460403 -0.12500668 0.85686719 2894892
0.12472685 -0.12498862 0.88032126 2894892
0.15226252 -0.12486834 0.89863545 2894892
0.089467898 -0.07500767 0.85691154 2894892
0.1247497 -0.07500387 0.88037825 2894892
0.1522778 -0.074835107 0.89868629 2894892
0.089458592 -0.025004074 0.85694784 2894892
0.12473535 -0.025002994 0.88041079 2894892
0.15228561 -0.024946161 0.89873284 2894892
0.08946345 0.025005773 0.85699141 2894892
0.12474259 0.025004717 0.88045436 2894892
0.15229337 0.024947876 0.89877868 2894892
0.089481883 0.075019635 0.85704392 9868950
0.12476995 0.075015835 0.88051307 9539985
0.15230118 0.074847072 0.89882475 9276813
-0.70539129 0.11494136 0.89356154 6447714
-0.67496365 0.11488799 0.87479657 6447714
-0.64546818 0.11483674 0.85647774 6447714
0.089766301 0.10647257 0.85691673 10197915
0.12600631 0.1076112 0.87634522 10197915
0.17270325 0.11098223 0.87563848 10197915
0.22500522 0.1114373 0.87619501 10197915
0.27499947 0.11125096 0.8746857 10197915
0.32498574 0.11106423 0.87329006 10197915
0.37486297 0.11087252 0.87351483 10197915
0.42510381 0.11067215 0.87589663 10197915
0.47506225 0.11048611 0.87433404 10197915
0.52501142 0.11029974 0.8728894 10197915
0.57504624 0.11010291 0.87445456 10197915
0.62502068 0.10990781 0.87556595 10197915
0.67187113 0.10972416 0.87682885 10197915
0.70489115 0.10954463 0.89261025 10197915
0.18262486 -0.40549532 0.91859901 2894892
0.21603401 -0.41047198 0.94081354 2894892
0.1766396 -0.37504774 0.91464365 2894892
0.21460883 -0.37490943 0.93989313 2894892
0.17658052 -0.32495821 0.91464394 2894892
0.21455619 -0.32497469 0.939906 2894892
0.17658912 -0.2749688 0.91469085 2894892
0.21455719 -0.27495795 0.93993932 2894892
0.17659539 -0.22499585 0.9147352 2894892
0.21457966 -0.2249717 0.94000125 2894892
0.17660964 -0.17498872 0.91478759 2894892
0.21458228 -0.17498069 0.94004232 2894892
0.17661923 -0.12499818 0.91483521 2894892
0.21460919 -0.12499574 0.9400968 2894892
0.17663179 -0.075002626 0.91488469 2894892
0.21420638 -0.075118631 0.93987989 2894892
0.17662299 -0.025002489 0.91491956 2894892
0.21416567 -0.025030304 0.93988442 2894892
0.17663227 0.025004169 0.91496509 2894892
0.21417645 0.025032023 0.93993944 2894892
0.17666 0.075014688 0.91502589 9079434
0.21417227 0.075037211 0.93997437 8750469
-0.75161403 0.11493888 0.94688439 6447714
-0.71979976 0.11488091 0.92790961 6447714
-0.69097483 0.11482421 0.91196275 6447714
0.17775275 0.10678755 0.91393667 10197915
0.22068943 0.10843666 0.93174297 10197915
0.27506629 0.11108273 0.92459607 10197915
0.32503501 0.11089678 0.92298299 10197915
0.37516361 0.11070259 0.92366296 10197915
0.42512199 0.11050309 0.92610604 10197915
0.47506484 0.11031694 0.92460775 10197915
0.52502704 0.11013099 0.92302567 10197915
0.57489508 0.10993814 0.92357099 10197915
0.62503558 0.10973753 0.92614901 10197915
0.67501694 0.10955137 0.92459095 10197915
0.71865147 0.10937341 0.92782873 10197915
0.75066018 0.10919406 0.94469666 10197915
0.24012052 -0.41405895 0.95683086 2894892
0.27594891 -0.41939744 0.98065501 2894892
0.30230331 -0.42329141 0.99818021 2894892
0.23976551 -0.37501493 0.95662707 2894892
0.27435461 -0.3750048 0.97963268 2894892
0.30230388 -0.37500784 0.99821997 2894892
0.23979586 -0.32498133 0.95668811 2894892
0.27437156 -0.32496423 0.97968251 2894892
0.30232629 -0.32498518 0.99827623 2894892
0.2397965 -0.27496198 0.95672894 2894892
0.27438354 -0.274975 0.97973174 2894892
0.30233505 -0.27495673 0.99832273 2894892
0.23981118 -0.22499421 0.95678073 2894892
0.27439243 -0.22498858 0.9797799 2894892
0.30235407 -0.22500651 0.99837619 2894892
0.23982239 -0.17498331 0.95682806 2894892
0.27441293 -0.1749893 0.97983307 2894892
0.30236965 -0.17496784 0.99842781 2894892
0.2398451 -0.12498644 0.95688498 2894892
0.27442935 -0.12500115 0.97988653 2894892
0.30237824 -0.1250076 0.99847484 2894892
0.23941436 -0.074853286 0.95664006 2894892
0.27441797 -0.075007692 0.97991931 2894892
0.3024075 -0.074957587 0.99853528 2894892
0.23940325 -0.024987241 0.95667261 2894892
0.27447045 -0.025009673 0.97999513 2894892
0.30240935 -0.024905425 0.99857742 2894892
0.23941593 0.02498897 0.95672196 2894892
0.27448329 0.025011387 0.98004675 2894892
0.30206814 0.023780689 0.99839085 2894892
0.23938651 0.075005047 0.95674449 8553090
0.27445912 0.075019561 0.98006856 8224125
0.30193511 0.074964166 0.99834353 7960953
-0.76455432 0.11487981 0.97915578 6447714
-0.73652726 0.11481436 0.96671855 6447714
0.23973218 0.10595037 0.9567219 10197915
0.27592584 0.1070786 0.97602922 10197915
0.32339296 0.11019487 0.97591197 10197915
0.3741779 0.11053362 0.97499239 10197915
0.4248873 0.11033761 0.97554511 10197915
0.47495267 0.11015128 0.97394788 10197915
0.52517885 0.10996392 0.97247386 10197915
0.57430983 0.10976733 0.97499824 10197915
0.62500972 0.10957006 0.97592884 10197915
0.67503726 0.10938411 0.97425675 10197915
0.72495097 0.10919846 0.97265124 10197915
0.76620156 0.10901095 0.98142701 10197915
0.33690837 -0.45342791 1.021171 2894892
0.32659572 -0.42487624 1.0143369 2894892
0.32664576 -0.37490559 1.0144111 2894892
0.32706115 -0.32498154 1.0147258 2894892
0.32708648 -0.27498895 1.0147793 2894892
0.32709181 -0.22500147 1.0148289 2894892
0.32711697 -0.17499901 1.0148902 2894892
0.32712978 -0.12500128 1.0149374 2894892
0.32713011 -0.075008765 1.0149734 2894892
0.32717961 -0.025011174 1.0150501 2894892
0.35053378 -0.02220173 1.0305861 2894892
0.32680321 0.025124926 1.0148445 2894892
0.35055089 0.025192056 1.0306363 2894892
0.3266395 0.075020067 1.014776 7763574
0.35056886 0.075152591 1.0306892 7566195
-0.8115986 0.11487301 1.0346973 6447714
-0.78053844 0.11480961 1.0182073 6447714
0.32757303 0.10623582 1.0138112 10197915
0.37482575 0.11018483 1.0243434 10197915
0.42571837 0.11017044 1.0242605 10197915
0.47485381 0.10998004 1.0249426 10197915
0.52480882 0.10979389 1.0234156 10197915
0.57501334 0.10959515 1.0253409 10197915
0.62499875 0.10940966 1.0235945 10197915
0.67562795 0.10921113 1.0249848 10197915
0.72505045 0.10902531 1.0239764 10197915
0.774158 0.10883408 1.0249288 10197915
0.81098264 0.10866304 1.0338399 10197915
-0.85842824 0.11486928 1.0890881 6447714
-0.8264128 0.11480083 1.0729991 6447714
-0.79501164 0.11473867 1.0557462 6447714
0.38238227 0.11018113 1.0703791 10197915
0.4243249 0.11001441 1.0722095 10197915
0.4752076 0.1098021 1.0774119 10197915
0.52505684 0.10961737 1.075574 10197915
0.57503051 0.10943206 1.0737808 10197915
0.62505281 0.10924681 1.071928 10197915
0.67512053 0.1090458 1.0746847 10197915
0.72497594 0.10884789 1.0767697 10197915
0.77502918 0.10866262 1.074873 10197915
0.82353294 0.10847791 1.0745717 10197915
0.85752928 0.10830306 1.0878456 10197915
-0.9038201 0.11486833 1.1410156 6447714
-0.87299997 0.11479355 1.1281685 6447714
-0.84065819 0.11472537 1.1116254 6447714
0.39080468 0.10998219 1.1199142 10197915
0.42500404 0.10983913 1.1235157 10197915
0.47503257 0.1096388 1.126125 10197915
0.52499855 0.10945389 1.124228 10197915
0.57552773 0.10926426 1.1230819 10197915
0.62496072 0.10906855 1.1249981 10197915
0.67406672 0.10888277 1.1243248 10197915
0.72494805 0.10868257 1.1259243 10197915
0.7750271 0.1084974 1.1239716 10197915
0.82555777 0.10830796 1.1227767 10197915
0.87148261 0.10811371 1.1282409 10197915
0.90498912 0.10793018 1.1446557 10197915
-0.9189257 0.11479472 1.1800596 6447714
-0.887658 0.11470761 1.1703749 6447714
0.39775157 0.10981753 1.1609327 10197915
0.42624214 0.10965931 1.175528 10197915
0.47497505 0.10947644 1.174432 10197915
0.52498138 0.10929126 1.1725661 10197915
0.57441056 0.10910716 1.1710318 10197915
0.6258077 0.10888793 1.1777018 10197915
0.67502445 0.1087032 1.1765972 10197915
0.7250697 0.10851817 1.1746371 10197915
0.77503967 0.10833344 1.1726762 10197915
0.8243494 0.10814985 1.1711291 10197915
0.87614012 0.10793137 1.1771165 10197915
0.91917759 0.10775229 1.1813679 10197915
0.95086402 0.10757951 1.1966507 10197915
-0.96383291 0.11480159 1.2291136 6447714
-0.93172103 0.11470389 1.2216361 6447714
0.43306619 0.10947742 1.2218089 10197915
0.47592708 0.10929991 1.2258023 10197915
0.52496177 0.10911456 1.2250856 10197915
0.57494229 0.10893045 1.2229264 10197915
0.62407893 0.10873477 1.2251698 10197915
0.6750862 0.10854255 1.2242469 10197915
0.72638404 0.10834582 1.2243505 10197915
0.7750538 0.10815547 1.2255388 10197915
0.82503062 0.10797039 1.2236694 10197915
0.87367672 0.1077809 1.2246314 10197915
0.92510569 0.10758316 1.2248765 10197915
0.96348995 0.10742357 1.2286224 10197915
-1.0091909 0.11479348 1.2831248 6447714
-0.97753054 0.11470668 1.2728961 6447714
-0.94415671 0.11463925 1.2549572 6447714
0.44080779 0.10929199 1.2680889 10197915
0.47373655 0.10913634 1.2769008 10197915
0.52513009 0.10894095 1.2764541 10197915
0.57505888 0.10875677 1.2743939 10197915
0.62507665 0.10857269 1.2722034 10197915
0.67626137 0.10837694 1.2721133 10197915
0.72383386 0.10818292 1.2756619 10197915
0.77516985 0.1079796 1.2776606 10197915
0.82510704 0.10779574 1.2754843 10197915
0.87512696 0.10761184 1.2732451 10197915
0.92523521 0.10742725 1.2710624 10197915
0.9755159 0.10722524 1.2738792 10197915
1.0115647 0.10704172 1.2873788 10197915
-1.0563605 0.11479744 1.3356122 6447714
-1.0230508 0.11470908 1.3239638 6447714
-0.992046 0.1146187 1.3155479 6447714
0.44789019 0.10912236 1.3104343 10197915
0.47650021 0.10895691 1.3270587 10197915
0.52491528 0.10877459 1.3261406 10197915
0.57502937 0.10859057 1.3238243 10197915
0.62497461 0.10840757 1.3213781 10197915
0.67355663 0.10822213 1.321198 10197915
0.72685617 0.10799675 1.3275337 10197915
0.7750268 0.10781182 1.3276731 10197915
0.82491285 0.10762808 1.3255177 10197915
0.87516302 0.10744341 1.3232101 10197915
0.92510968 0.10725981 1.3209459 10197915
0.97349125 0.1070683 1.3227921 10197915
1.0255785 0.10684825 1.3289148 10197915
1.0587447 0.10667574 1.3424551 10197915
-1.1040524 0.11478914 1.3923402 6447714
-1.0709958 0.11472267 1.3744705 6447714
-1.0386617 0.11462414 1.3669664 6447714
0.48400685 0.10877288 1.3731991 10197915
0.52609628 0.10860903 1.3740009 10197915
0.57499886 0.10841062 1.3773202 10197915
0.62500471 0.1082275 1.3748338 10197915
0.67498142 0.10804309 1.3727731 10197915
0.72311532 0.10785556 1.3737364 10197915
0.77501732 0.10765301 1.3748633 10197915
0.82585728 0.10746332 1.3733945 10197915
0.87478572 0.10726301 1.3772403 10197915
0.92469752 0.10707994 1.3748521 10197915
0.97512376 0.10689511 1.3724015 10197915
1.0237286 0.10670022 1.3750117 10197915
1.0715622 0.10651084 1.376865 8947848
1.1020933 0.10635746 1.3876945 2960685
1.1411549 -0.62317228 1.4445763 2894892
1.1413718 -0.57499027 1.4446915 2894892
1.141534 -0.52497482 1.4449043 2894892
1.1419293 -0.4753074 1.4447612 2894892
1.1421353 -0.4250094 1.4449083 2894892
1.1423079 -0.37503007 1.4451061 2894892
1.1424707 -0.32503638 1.4453167 2894892
1.1428649 -0.27524373 1.4451774 2894892
1.1430836 -0.22497754 1.4453073 2894892
1.1432233 -0.17497759 1.4455534 2894892
1.1433916 -0.12496198 1.4457562 2894892
1.1438235 -0.07537102 1.4455581 2894892
1.1440016 -0.025155589 1.4457495 2894892
1.1441675 0.025160424 1.4459587 2894892
1.1443484 0.075133294 1.4461433 2894892
-1.1177955 0.11470997 1.4314992 6447714
-1.0808361 0.11460675 1.4201261 6447714
0.49150178 0.10859261 1.4182266 10197915
0.52412701 0.10844926 1.4237103 10197915
0.57510662 0.10824104 1.4275721 10197915
0.62511051 0.10805735 1.4252714 10197915
0.67494589 0.10787425 1.4229757 10197915
0.72584844 0.10768285 1.4219394 10197915
0.77481806 0.10748352 1.4254414 10197915
0.82427335 0.10729968 1.423816 10197915
0.8748672 0.1070914 1.4281394 10197915
0.92476177 0.10690857 1.4257021 10197915
0.97505409 0.10672426 1.4232463 8553090
1.0251768 0.1065406 1.4207941 5329233
1.075653 0.10633223 1.42528 3026478
1.1259322 0.10514472 1.435082 2894892
1.1146708 -0.65702713 1.4842263 2894892
1.1213915 -0.62500972 1.4743788 2894892
1.1215825 -0.57502186 1.4745477 2894892
1.1217486 -0.52502561 1.4747556 2894892
1.1221465 -0.47496942 1.4746138 2894892
1.1225877 -0.42508787 1.4744018 2894892
1.1228036 -0.37503919 1.4745331 2894892
1.1229641 -0.3250356 1.4747463 2894892
1.1233668 -0.27495563 1.4745995 2894892
1.1237739 -0.22507918 1.4744412 2894892
1.1240144 -0.17500587 1.4745382 2894892
1.1241902 -0.12503707 1.4747261 2894892
1.1245893 -0.07495518 1.4745836 2894892
1.1249598 -0.025079224 1.4744796 2894892
1.1252366 0.024984907 1.4745216 2894892
1.1253898 0.07500153 1.4747455 2894892
-1.1654308 0.11471627 1.4838235 6447714
-1.1295071 0.11460737 1.4753034 6447714
-1.0973992 0.11452701 1.4626611 6447714
0.49907857 0.10841635 1.461973 10197915
0.52689868 0.10826473 1.4753828 10197915
0.57502341 0.10808524 1.4739634 10197915
0.62505281 0.10790166 1.4715941 10197915
0.67511183 0.10771928 1.4688421 10197915
0.72445118 0.10750909 1.475145 10197915
0.77499914 0.10729889 1.4801003 10197915
0.82509309 0.10711645 1.4773148 9868950
0.87501138 0.10693295 1.4750509 7500402
0.92496163 0.10675059 1.4724035 4473924
0.97513062 0.10656704 1.4698722 2960685
1.0268072 0.10636425 1.4713314 2960685
1.0740879 0.10615381 1.4800771 2960685
1.1235659 0.10353678 1.4743987 2894892
1.0842448 -0.66728425 1.5300382 2894892
1.1018311 -0.66133142 1.5035591 2894892
1.0857587 -0.62502396 1.5281438 2894892
1.1022696 -0.62479883 1.5032322 2894892
1.0859123 -0.57501203 1.528366 2894892
1.1024479 -0.57504576 1.5034168 2894892
1.0863206 -0.52509564 1.528206 2894892
1.1025647 -0.52470291 1.5037013 2894892
1.0862281 -0.47505286 1.5288041 2894892
1.1024681 -0.47495842 1.5043017 2894892
1.0863793 -0.42504996 1.5290335 2894892
1.1028734 -0.42460197 1.5041513 2894892
1.0865387 -0.37506166 1.5292449 2894892
1.1030834 -0.37498462 1.5042877 2894892
1.0868086 -0.32529405 1.5293006 2894892
1.1031414 -0.32446557 1.5046619 2894892
1.0868554 -0.27500996 1.5296878 2894892
1.1031001 -0.27499577 1.5051767 2894892
1.0870063 -0.22500721 1.5299164 2894892
1.1034733 -0.22457995 1.5050743 2894892
1.087159 -0.17501919 1.530141 2894892
1.1037182 -0.1750143 1.5051579 2894892
1.0872825 -0.12530604 1.5304118 2894892
1.1037149 -0.12441935 1.5056256 2894892
1.0874642 -0.074993141 1.5305959 2894892
1.1037357 -0.074871875 1.5060477 2894892
1.0876598 -0.024997126 1.530756 2894892
1.1040785 -0.024517318 1.5059915 2894892
1.0878178 0.025001921 1.530977 2894892
1.1043487 0.024957906 1.5060354 2894892
1.0877491 0.074788071 1.5315373 2894892
1.1042601 0.075146168 1.5066282 2894892
-1.2122395 0.11471126 1.5385587 6447714
-1.1757646 0.11460799 1.5277462 6447714
-1.1415277 0.11451884 1.5152777 6447714
0.53449482 0.1080738 1.5234667 10197915
0.57493067 0.10791986 1.5231985 10197915
0.62498993 0.10773594 1.5208985 10197915
0.67508245 0.10755333 1.5181731 10197915
0.72676378 0.1073244 1.5273992 9145227
0.77505153 0.1071304 1.5301011 5987163
0.82519311 0.10694674 1.5276276 3421236
0.87516701 0.10676466 1.524877 2960685
0.92497104 0.1065827 1.5222784 2960685
0.97500885 0.10639992 1.5196708 2960685
1.0227588 0.10621514 1.5202414 2960685
1.0830117 0.10389198 1.5297161 2894892
1.1042997 0.1030027 1.5068228 2960685
1.043144 -0.70611113 1.591695 2894892
1.0535476 -0.70258951 1.5760305 2894892
1.0439304 -0.67500919 1.5907929 2894892
1.0603237 -0.67429513 1.5660672 2894892
1.0440826 -0.62501258 1.5910194 2894892
1.060704 -0.62502122 1.5659437 2894892
1.0442284 -0.575037 1.5912578 2894892
1.0608628 -0.57501179 1.5661607 2894892
1.0444549 -0.52572411 1.5913669 2894892
1.061186 -0.52478892 1.5661317 2894892
1.0445323 -0.47507542 1.5917128 2894892
1.0611676 -0.47501636 1.5666161 2894892
1.0446862 -0.42506167 1.591939 2894892
1.0613196 -0.42500904 1.5668439 2894892
1.0448303 -0.37503311 1.5921779 2894892
1.0614744 -0.375025 1.5670666 2894892
1.0450398 -0.32540244 1.5923153 2894892
1.0618287 -0.32483518 1.5669914 2894892
1.045138 -0.27499822 1.5926293 2894892
1.0617797 -0.27499637 1.5675205 2894892
1.0452796 -0.22497936 1.5928727 2894892
1.0619272 -0.22498959 1.5677546 2894892
1.0454335 -0.17499295 1.5930972 2894892
1.0620774 -0.17500316 1.5679835 2894892
1.0455949 -0.12508723 1.5933105 2894892
1.0623822 -0.12483713 1.5679834 2894892
1.0457847 -0.075815432 1.5934737 2894892
1.0624579 -0.074867502 1.5683239 2894892
1.0458845 -0.025090288 1.5937871 2894892
1.0625746 -0.02499605 1.5686058 2894892
1.046036 0.025095137 1.5940181 2894892
1.0627282 0.025000857 1.5688325 2894892
1.0462016 0.075186022 1.5942259 2894892
1.0629089 0.075106762 1.5690175 2894892
-1.2537793 0.11469836 1.5896555 6447714
-1.2241416 0.11461234 1.5814974 6447714
-1.1875705 0.11450781 1.5709481 6447714
0.5428862 0.1078786 1.5719227 10197915
0.57526255 0.10773998 1.5762722 10197915
0.62513542 0.10755906 1.5732988 9276813
0.67505467 0.10737636 1.5707914 6710886
0.7227416 0.10719229 1.5712265 3947580
0.77495342 0.10698096 1.5746194 2960685
0.82716787 0.10676964 1.5779989 2960685
0.8751207 0.1065849 1.5783458 2960685
0.92519259 0.10640227 1.5756415 2894892
0.97508925 0.10622029 1.5729468 2960685
1.0312737 0.1051166 1.5774469 2960685
1.062259 0.10328304 1.5681456 2894892
1.0191785 -0.71418762 1.62778 2894892
1.0216111 -0.67505842 1.6244676 2894892
1.0217618 -0.62503797 1.624698 2894892
1.0219012 -0.57503104 1.6249435 2894892
1.0225048 -0.52497429 1.6244924 2894892
1.0228851 -0.47499356 1.624375 2894892
1.0230479 -0.42501777 1.6245861 2894892
1.0231776 -0.37504146 1.6248478 2894892
1.0234876 -0.32502091 1.6248372 2894892
1.0241631 -0.27499619 1.6242735 2894892
1.0243186 -0.22499479 1.6244994 2894892
1.0244676 -0.1750214 1.6247288 2894892
1.0246195 -0.12499064 1.6249588 2894892
1.0253048 -0.075048536 1.6243811 2894892
1.0255834 -0.025026875 1.6244174 2894892
1.0257316 0.025031693 1.624653 2894892
1.0259128 0.075001761 1.6248345 2894892
-1.301953 0.11471848 1.6384919 6447714
-1.2714012 0.11464844 1.6245352 6447714
-1.2321334 0.11450097 1.6236733 6447714
0.5764342 0.10758055 1.622319 5460819
0.6272105 0.10737032 1.6270313 2960685
0.67502165 0.10718726 1.6270146 2960685
0.72502077 0.10700405 1.6245912 2960685
0.7750681 0.10682228 1.6216551 2960685
0.82259649 0.10663304 1.6238073 2894892
0.87529743 0.10642458 1.6257855 2960685
0.92524457 0.10624229 1.6231339 2960685
0.97749615 0.10603423 1.6254989 2894892
1.0236413 0.10354399 1.6240366 2960685
0.97613645 -0.75356978 1.6923604 2894892
0.98542726 -0.72437435 1.6786113 2894892
1.002305 -0.71905935 1.6531943 2894892
0.98593616 -0.67507946 1.6782945 2894892
1.0022777 -0.6750015 1.6536379 2894892
0.98607236 -0.62505352 1.6785454 2894892
1.0024223 -0.62498331 1.6538774 2894892
0.98622763 -0.57504892 1.6787659 2894892
1.0025615 -0.57504803 1.6541241 2894892
0.98634559 -0.52501267 1.6790485 2894892
1.0029724 -0.52424604 1.6539686 2894892
0.98672658 -0.47517204 1.6789296 2894892
1.0030732 -0.4742395 1.6542735 2894892
0.98663521 -0.42497888 1.6795269 2894892
1.0030061 -0.42498139 1.6548249 2894892
0.98680604 -0.37503204 1.6797272 2894892
1.0031414 -0.37506473 1.6550771 2894892
0.98691416 -0.32503229 1.6800174 2894892
1.0033621 -0.32462364 1.6552061 2894892
0.98718888 -0.2751517 1.680058 2894892
1.0037885 -0.27494532 1.6550157 2894892
0.98742688 -0.22517905 1.6801566 2894892
1.0037842 -0.22439864 1.6554843 2894892
0.9873684 -0.17503746 1.6807032 2894892
1.0037192 -0.17494771 1.6560345 2894892
0.98749125 -0.12500367 1.6809747 2894892
1.0038853 -0.12507105 1.6562405 2894892
0.98768145 -0.075017355 1.6811463 2894892
1.0042348 -0.074482135 1.656175 2894892
0.98798138 -0.025227591 1.6811469 2894892
1.0045335 -0.024874825 1.6561786 2894892
0.98811167 0.024897 1.6814115 2894892
1.0045323 0.025350237 1.6566391 2894892
0.98810357 0.075016476 1.6818823 2894892
1.0044187 0.074993014 1.6572655 2894892
-1.3503839 0.11470171 1.6985561 6447714
-1.3194568 0.11463512 1.6831657 6447714
-1.2776105 0.11451112 1.6723962 6447714
-1.2437981 0.11444309 1.6541342 6447714
0.58441734 0.10739276 1.6690359 2960685
0.62236822 0.10722601 1.6754057 2960685
0.6747663 0.10701846 1.6774633 2960685
0.72495437 0.10683592 1.6746023 2960685
0.77496862 0.10665496 1.6714718 2960685
0.82735872 0.10644566 1.6740532 2894892
0.8750397 0.10625613 1.6761215 2894892
0.92507154 0.10607295 1.6736242 2960685
0.98104471 0.10396551 1.6781238 2894892
1.0045221 0.10299399 1.657365 2894892
0.94374138 -0.76447755 1.7411381 2894892
0.95909053 -0.75934315 1.7180259 2894892
0.94410789 -0.72504735 1.7409464 2894892
0.9607625 -0.7248503 1.7158191 2894892
0.94425452 -0.6750896 1.7411814 2894892
0.96107167 -0.67504817 1.7158079 2894892
0.94438171 -0.62507004 1.7414465 2894892
0.96118736 -0.62502342 1.7160903 2894892
0.94455832 -0.57538331 1.7416348 2894892
0.96100134 -0.574929 1.7168278 2894892
0.94464713 -0.52503896 1.7419603 2894892
0.96109009 -0.52495891 1.7171516 2894892
0.94479787 -0.47497931 1.7421917 2894892
0.96159863 -0.47490749 1.7168429 2894892
0.94493598 -0.42496142 1.7424399 2894892
0.96175236 -0.42498824 1.7170687 2894892
0.94514191 -0.37526971 1.7425842 2894892
0.96190929 -0.37505758 1.7172863 2894892
0.94553566 -0.32525745 1.7424468 2894892
0.96196485 -0.32494304 1.7176619 2894892
0.94533682 -0.27495489 1.7432065 2894892
0.96191216 -0.27484599 1.7181995 2894892
0.94547051 -0.22502631 1.7434621 2894892
0.96229124 -0.22498503 1.7180833 2894892
0.94562918 -0.17508177 1.7436777 2894892
0.96246833 -0.17496425 1.7182746 2894892
0.94589365 -0.12546837 1.7437326 2894892
0.96258342 -0.12501772 1.7185569 2894892
0.94626957 -0.07505089 1.7436274 2894892
0.96276879 -0.074968502 1.718734 2894892
0.94627547 -0.025847046 1.7440672 2894892
0.96291858 -0.024573561 1.718968 2894892
0.94616747 0.025220403 1.7446983 2894892
0.96295506 0.024931557 1.7193674 2894892
0.9462831 0.075102076 1.7449802 2894892
0.96320063 0.074948385 1.7194531 2894892
-1.3646163 0.11464047 1.7329437 6447714
-1.3250694 0.11450779 1.7273817 6447714
-1.2920164 0.11441564 1.7171646 6447714
0.59320581 0.1071841 1.7210317 2960685
0.62519711 0.10705569 1.7227981 2960685
0.67543274 0.10687321 1.7198617 2960685
0.72772425 0.10666218 1.72308 2960685
0.77485752 0.10647564 1.7248703 2960685
0.82250154 0.10629105 1.7255226 2960685
0.87475812 0.10607611 1.7299393 2894892
0.9319095 0.10482707 1.7329674 2960685
0.96271855 0.10319082 1.7194352 2894892
0.90693551 -0.80181277 1.7963283 2894892
0.92047238 -0.77208841 1.7761741 2894892
0.921875 -0.72509533 1.7744923 2894892
0.92201567 -0.67509151 1.7747363 2894892
0.92213154 -0.62505662 1.7750167 2894892
0.9226777 -0.57500678 1.7746507 2894892
0.92320156 -0.52501369 1.7743199 2894892
0.92336547 -0.47497115 1.7745278 2894892
0.92349195 -0.42498565 1.7747928 2894892
0.9237197 -0.37494844 1.774906 2894892
0.92417616 -0.32504073 1.7746732 2894892
0.92473543 -0.2750093 1.7742896 2894892
0.92484307 -0.22500099 1.7745839 2894892
0.92501545 -0.17499776 1.7747827 2894892
0.92524189 -0.12485065 1.7748997 2894892
0.9258073 -0.075041652 1.7745007 2894892
0.92613703 -0.02499409 1.7744573 2894892
0.92627007 0.024998875 1.7747167 2894892
0.92657936 0.074983202 1.7747054 2894892
-1.4091786 0.11464497 1.7823064 6447714
-1.3749394 0.1145465 1.7726157 6447714
-1.335692 0.11441852 1.7659918 6447714
0.59926623 0.10703783 1.7575901 2960685
0.62628645 0.1069042 1.7665656 2960685
0.67686194 0.10668869 1.7730567 2894892
0.72234923 0.10650043 1.777245 2960685
0.77498204 0.1062841 1.781653 2960685
0.8248747 0.10610382 1.7784523 2894892
0.87459445 0.10592303 1.7756007 2894892
0.92418331 0.10345275 1.7739644 2894892
0.88296795 -0.80990934 1.8324158 2894892
0.90179986 -0.803518 1.8040619 2894892
0.88598728 -0.77514189 1.8281784 2894892
0.90243733 -0.774414 1.8033668 2894892
0.88621223 -0.72511005 1.8282968 2894892
0.90261561 -0.72502536 1.8035483 2894892
0.88632607 -0.6750738 1.828583 2894892
0.90272909 -0.67506087 1.8038342 2894892
0.88647628 -0.62492919 1.8288145 2894892
0.90287626 -0.62508273 1.8040694 2894892
0.88632882 -0.57512677 1.8294935 2894892
0.90272331 -0.57418358 1.8047646 2894892
0.88660502 -0.52514952 1.8295343 2894892
0.90312439 -0.52483958 1.8046106 2894892
0.88685215 -0.47498173 1.8296195 2894892
0.90325111 -0.47499618 1.8048755 2894892
0.88696969 -0.42499027 1.8298967 2894892
0.90339273 -0.42505375 1.8051195 2894892
0.88710874 -0.37503478 1.830144 2894892
0.90352082 -0.37509426 1.8053817 2894892
0.8872295 -0.3250401 1.830421 2894892
0.90366024 -0.32493931 1.8056304 2894892
0.88765264 -0.2751933 1.8302369 2894892
0.90422153 -0.27497587 1.8052406 2894892
0.88750321 -0.22504148 1.8309214 2894892
0.90389943 -0.22493041 1.8061829 2894892
0.8875984 -0.17503011 1.8312352 2894892
0.90405709 -0.17489636 1.8064044 2894892
0.88776356 -0.12495007 1.8314426 2894892
0.90417981 -0.12507281 1.8066736 2894892
0.88790768 -0.074992992 1.8316828 2894892
0.90432882 -0.074739754 1.8069096 2894892
0.88822246 -0.025261452 1.8316618 2894892
0.90487587 -0.024836527 1.8065406 2894892
0.88852888 0.025042152 1.8316598 2894892
0.90499586 0.024772104 1.8068137 2894892
0.88856441 0.074756503 1.8320621 2894892
0.90494525 0.07540971 1.8073525 2894892
-1.4539667 0.11464697 1.8326657 6447714
-1.4226772 0.11456744 1.8207039 6447714
-1.3791822 0.11442169 1.8145289 6447714
0.63401896 0.10672024 1.8124204 2960685
0.67271847 0.10651007 1.8308371 2894892
0.72512698 0.10630254 1.8328807 2894892
0.77543181 0.1061205 1.829742 2960685
0.82519609 0.10594104 1.8264526 2894892
0.88233042 0.1038859 1.828474 2894892
0.9047932 0.10317107 1.8076611 2894892
0.84369135 -0.82313293 1.8915561 2894892
0.85981303 -0.81772459 1.867281 2894892
0.84432161 -0.77537358 1.8910409 2894892
0.86098385 -0.77484363 1.8659056 2894892
0.84457868 -0.72509789 1.8911132 2894892
0.86120433 -0.72511023 1.8660276 2894892
0.84470344 -0.67511827 1.8913821 2894892
0.86132884 -0.6751191 1.8662976 2894892
0.84477782 -0.62511152 1.8917265 2894892
0.86141419 -0.62489533 1.866629 2894892
0.84447867 -0.57488638 1.892638 2894892
0.86112028 -0.57497734 1.8675271 2894892
0.84484506 -0.52555346 1.8925347 2894892
0.86158383 -0.524813 1.8672884 2894892
0.84518147 -0.47496653 1.89249 2894892
0.86183411 -0.47494993 1.8673666 2894892
0.84530354 -0.42500612 1.8927635 2894892
0.86193353 -0.42496336 1.8676701 2894892
0.84543514 -0.37511027 1.8930209 2894892
0.86208099 -0.37502161 1.8679061 2894892
0.84556031 -0.32512179 1.8932891 2894892
0.86219871 -0.32500595 1.8681843 2894892
0.84581369 -0.27569482 1.8933578 2894892
0.86263132 -0.27476573 1.8679948 2894892
0.84603876 -0.22573125 1.8934753 2894892
0.86268646 -0.22472782 1.868367 2894892
0.84591502 -0.17498945 1.8941256 2894892
0.86254847 -0.17496376 1.8690294 2894892
0.84606439 -0.12527978 1.8943558 2894892
0.86269838 -0.12498455 1.8692604 2894892
0.84615791 -0.075353563 1.8946702 2894892
0.86281872 -0.074906632 1.8695378 2894892
0.84634507 -0.025543105 1.8948435 2894892
0.86324394 -0.024719724 1.8693532 2894892
0.8468731 0.025116533 1.8945106 2894892
0.86353755 0.02491896 1.8693664 2894892
0.84699577 0.075359322 1.8947846 2894892
0.86364758 0.074893489 1.8696563 2894892
-1.4699999 0.11457589 1.8720318 6447714
-1.4264071 0.11443096 1.8655027 6447714
-1.393684 0.1143496 1.8524477 6447714
0.64159954 0.10653301 1.8594265 2960685
0.67889321 0.10631368 1.8821758 2960685
0.72497147 0.10613188 1.8837645 2894892
0.77476633 0.10595264 1.8803707 2960685
0.8300963 0.10507261 1.8814088 2960685
0.86313671 0.10317077 1.8692795 2894892
0.81590438 -0.85745341 1.9331654 2894892
0.82147616 -0.82502675 1.9250563 2894892
0.82194602 -0.77486467 1.9248049 2894892
0.82259965 -0.72519112 1.9242754 2894892
0.82278043 -0.67510319 1.9244587 2894892
0.82290626 -0.62494302 1.9247271 2894892
0.8230263 -0.57497752 1.9250026 2894892
0.82341331 -0.52482605 1.924876 2894892
0.82401043 -0.47516242 1.9244291 2894892
0.82434767 -0.42500174 1.9243801 2894892
0.82447547 -0.37504017 1.9246453 2894892
0.82459843 -0.32501742 1.9249172 2894892
0.82486945 -0.27481666 1.9249684 2894892
0.82539976 -0.22511257 1.9246218 2894892
0.82591963 -0.17498833 1.9242951 2894892
0.82605618 -0.12492224 1.9245448 2894892
0.8260923 -0.074911751 1.9249493 2894892
0.82639432 -0.024885874 1.924951 2894892
0.82691741 0.024972126 1.9246193 2894892
0.82736409 0.074854761 1.9244 2894892
-1.5161871 0.11457337 1.9253176 6447714
-1.4750043 0.11443914 1.9183573 6447714
-1.4392549 0.11433783 1.907789 6447714
0.64919925 0.10636153 1.901728 2960685
0.67288381 0.10621835 1.9173322 2960685
0.72711766 0.10598171 1.9259459 2894892
0.77484697 0.10577096 1.9342549 2894892
0.82485849 0.10336247 1.9245424 2894892
0.7846846 -0.86805016 1.9801717 2894892
0.80211461 -0.86208361 1.9539282 2894892
0.78606063 -0.82500792 1.9784895 2894892
0.80225432 -0.8249222 1.9540583 2894892
0.78617585 -0.77499861 1.9787751 2894892
0.80237073 -0.77484298 1.9543408 2894892
0.78629619 -0.7251274 1.9790479 2894892
0.8029418 -0.72453189 1.9539388 2894892
0.78640324 -0.67511892 1.9793428 2894892
0.80310094 -0.67518896 1.9541503 2894892
0.78668803 -0.62516057 1.9793701 2894892
0.80321717 -0.62508559 1.9544328 2894892
0.78712571 -0.57493329 1.9791676 2894892
0.8033331 -0.57496756 1.9547155 2894892
0.78726125 -0.524993 1.9794215 2894892
0.80345178 -0.52496928 1.9549938 2894892
0.7868517 -0.47499993 1.980496 2894892
0.80335635 -0.47411025 1.955603 2894892
0.78696978 -0.42501125 1.980777 2894892
0.80367154 -0.42493001 1.9555776 2894892
0.78707856 -0.37504062 1.9810687 2894892
0.80380511 -0.3750582 1.9558314 2894892
0.78765684 -0.32508746 1.9806515 2894892
0.8039251 -0.32507059 1.956107 2894892
0.78781319 -0.27495056 1.9808745 2894892
0.80401701 -0.27506819 1.9564265 2894892
0.78793114 -0.22499195 1.9811546 2894892
0.80425024 -0.2244831 1.9565364 2894892
0.78807384 -0.17505319 1.9813963 2894892
0.80475461 -0.17496282 1.9562284 2894892
0.78816563 -0.12499665 1.9817147 2894892
0.80489528 -0.12518609 1.9564708 2894892
0.78827798 -0.07539285 1.9819971 2894892
0.80486435 -0.07479056 1.9569786 2894892
0.78844756 -0.024976274 1.982204 2894892
0.80460435 -0.025143601 1.9578247 2894892
0.78855705 0.024943581 1.982495 2894892
0.80472076 0.025148463 1.9581082 2894892
0.78854245 0.074940331 1.9829727 2894892
0.80530441 0.075542688 1.9576888 2894892
-1.5640023 0.11456347 1.9826566 6447714
-1.5249984 0.11444645 1.9730597 6447714
-1.485401 0.11432158 1.9651146 6447714
0.68495089 0.10600974 1.9655836 2960685
0.72400129 0.10585673 1.9666158 2894892
0.78449315 0.10355394 1.9810779 2894892
0.80514264 0.10284293 1.9581831 2960685
0.74361169 -0.90679014 2.0417883 2894892
0.75430697 -0.90319878 2.0256841 2894892
0.74418426 -0.87508333 2.0412145 2894892
0.76067692 -0.87447703 2.0163357 2894892
0.74427521 -0.8250556 2.0415342 2894892
0.76098156 -0.82499242 2.0163288 2894892
0.74438834 -0.77501321 2.0418205 2894892
0.76110119 -0.7749843 2.0166059 2894892
0.74450505 -0.72512525 2.0421026 2894892
0.7612164 -0.72512084 2.0168869 2894892
0.74461597 -0.6751374 2.0423915 2894892
0.76131421 -0.67512339 2.0171974 2894892
0.74523002 -0.62504256 2.0419221 2894892
0.76162779 -0.62467909 2.0171878 2894892
0.74536228 -0.57493603 2.0421815 2894892
0.76206291 -0.57497174 2.0169835 2894892
0.74548602 -0.52490687 2.0424526 2894892
0.76220399 -0.52502626 2.0172265 2894892
0.74558157 -0.47486311 2.0427659 2894892
0.76228786 -0.47498864 2.0175598 2894892
0.74520808 -0.42525437 2.0437818 2894892
0.76190943 -0.42488497 2.0185871 2894892
0.74542475 -0.37582994 2.0439072 2894892
0.76197815 -0.37504327 2.0189395 2894892
0.74591273 -0.32499504 2.0436356 2894892
0.7625677 -0.32494831 2.018507 2894892
0.74599409 -0.27496064 2.0439711 2894892
0.76272464 -0.2750122 2.0187261 2894892
0.74614954 -0.22491434 2.0441935 2894892
0.76285869 -0.2250042 2.0189834 2894892
0.74619329 -0.17496742 2.0445848 2894892
0.76296473 -0.17494792 2.0192819 2894892
0.74636412 -0.12501793 2.0447826 2894892
0.76303732 -0.12491026 2.0196276 2894892
0.74681532 -0.075821981 2.0445523 2894892
0.76345688 -0.074808754 2.0194547 2894892
0.74711955 -0.025134001 2.0445576 2894892
0.76377159 -0.025098206 2.0194335 2894892
0.74723059 0.024998374 2.0448468 2894892
0.76388186 0.025103042 2.0197258 2894892
0.7468285 0.074377909 2.0459063 2894892
0.76362532 0.075199179 2.0205719 2894892
-1.6128906 0.11454564 2.0435722 6447714
-1.5748478 0.11444227 2.0310066 6447714
-1.5321745 0.11430489 2.0232918 6447714
0.69375873 0.10579681 2.0188251 2894892
0.72925568 0.10505062 2.0283632 2894892
0.7630682 0.10319877 2.0192599 2894892
0.72236753 -0.91396177 2.0737746 2894892
0.72426057 -0.87501031 2.0712748 2894892
0.72433281 -0.82496291 2.0716214 2894892
0.72445601 -0.77500039 2.0718973 2894892
0.72494614 -0.72515798 2.0716095 2894892
0.72526497 -0.67496836 2.0715897 2894892
0.72587752 -0.62494349 2.0711234 2894892
0.7259959 -0.57496274 2.0714006 2894892
0.72610199 -0.52500206 2.0716951 2894892
0.72620624 -0.47499278 2.0719979 2894892
0.72633761 -0.4250029 2.0722554 2894892
0.72661382 -0.3748382 2.0722983 2894892
0.72708583 -0.32502347 2.0720415 2894892
0.72718185 -0.27498874 2.0723519 2894892
0.72729242 -0.22497056 2.0726435 2894892
0.72741348 -0.17497115 2.0729196 2894892
0.72750986 -0.12505157 2.0732315 2894892
0.72853446 -0.074915573 2.0721433 2894892
0.72878081 -0.024895877 2.0722268 2894892
0.72888589 0.024900656 2.0725253 2894892
0.7290985 0.07496424 2.0726624 2894892
-1.6523068 0.11457601 2.0794077 6447714
-1.625074 0.11447773 2.0776241 6447714
-1.5761592 0.11430123 2.0744207 6447714
0.7275666 0.10323267 2.0724397 2894892
-1.7022949 0.11455192 2.1434348 6447714
-1.6710581 0.11447883 2.1296046 6447714
-1.6252009 0.11432592 2.1228685 6447714
-1.5880769 0.11424376 2.1050322 6447714
-1.7155936 0.11449295 2.1760688 6447714
-1.6746752 0.11434568 2.1732697 6447714
-1.6376456 0.11421243 2.170737 6447714
-1.7660074 0.11447427 2.2389772 6447714
-1.7246163 0.11435867 2.2262378 6447714
-1.6792387 0.11421762 2.2165232 6447714
-1.8081006 0.1144846 2.2838068 6447714
-1.7740413 0.11436239 2.2813687 6447714
-1.7270688 0.11419386 2.2780066 6447714
-1.8240047 0.11442062 2.3208923 6447714
-1.7751309 0.11424544 2.3173389 6447714
-1.7416102 0.11412528 2.3149014 6447714
-1.8631228 0.11437913 2.3777537 6447714
-1.824808 0.11423428 2.3772023 6447714
-1.7835488 0.1141326 2.3604701 6447714
-1.9191492 0.1143993 2.435493 6447714
-1.8793015 0.11427947 2.4257646 6447714
-1.837423 0.11408167 2.4368849 6447714
-1.9643296 0.11439683 2.4876461 6447714
-1.9248588 0.11425599 2.4845836 6447714
-1.878927 0.11409211 2.4810197 6447714
-2.0079341 0.11440919 2.5335643 6447714
-1.9755027 0.1142936 2.5310051 6447714
-1.9252996 0.11411471 2.5270438 6447714
-1.8952458 0.11400761 2.5246718 6447714
-2.0520399 0.11441806 2.5811212 6447714
-2.0257967 0.11432467 2.5790143 6447714
-1.9756986 0.11414638 2.5749927 6447714
-1.9382224 0.114013 2.5719836 6447714
-2.0710459 0.11433196 2.6283064 6447714
-2.0245636 0.11416677 2.6245081 6447714
-1.9805239 0.11401024 2.6209104 6447714
-2.1156859 0.11433124 2.6793246 6447714
-2.0741618 0.11418388 2.6758709 6447714
-2.0244694 0.1140075 2.6717381 6447714
-2.1620905 0.11433037 2.7323594 6447714
-2.124527 0.11419725 2.7291777 6447714
-2.0749733 0.11402162 2.7249811 6447714
-2.044827 0.11391477 2.7224269 6447714
-2.2091336 0.11432521 2.7874329 6447714
-2.1757054 0.1142069 2.7845488 6447714
-2.1250687 0.11402772 2.78018 6447714
-2.0893419 0.1139013 2.7770972 6447714
-2.2568421 0.11431521 2.8446572 6447714
-2.2252073 0.11420345 2.8418756 6447714
-2.17471 0.11402503 2.8374362 6447714
-2.135679 0.11388712 2.8340042 6447714
-2.2548199 0.11412247 2.8996475 6447714
-2.2251542 0.11401784 2.8969884 6447714
-2.182672 0.11386797 2.8931806 6447714
-2.3052588 0.1143004 2.9041681 6447714
-2.2793772 0.11420909 2.9018483 6447714
-2.3544164 0.11428012 2.9660969 6447714
-2.3239772 0.11417291 2.9633143 6447714
-2.2738018 0.11399622 2.9587283 6447714
-2.230351 0.1138432 2.9547572 6447714
-2.4057195 0.11425911 3.0307286 6447714
-2.3745685 0.11414959 3.0278234 6447714
-2.3245709 0.11397384 3.0231619 6447714
-2.2801068 0.11381753 3.0190158 6447714
-2.4579163 0.11423212 3.098103 6447714
-2.4260221 0.11412022 3.0950673 6447714
-2.3762164 0.11394545 3.0903277 6447714
-2.3306935 0.11378571 3.0859962 6447714
-2.5110686 0.1141991 3.1684074 6447714
-2.4755595 0.11407474 3.1649575 6447714
-2.4245534 0.11389613 3.1600015 6447714
-2.3807566 0.11374274 3.155746 6447714
-2.5652285 0.11415929 3.2418277 6447714
