# .PCD v0.7 - Point Cloud Data file format
VERSION 0.7
FIELDS x y z rgb
SIZE 4 4 4 4
TYPE F F F U
COUNT 1 1 1 1
WIDTH 1179
HEIGHT 1
VIEWPOINT 0 0 0 1 0 0 0
POINTS 1179
DATA ascii
-0.67503691 0.10812788 1.4746766 3618615
-0.62506294 0.10814941 1.4746987 10000536
-0.57506722 0.10816853 1.4752306 10197915
-0.52505326 0.1081901 1.4752535 10197915
-0.47502267 0.10820919 1.475785 10197915
-0.42517331 0.10823007 1.4759328 10197915
-0.37510473 0.10825041 1.4762133 10197915
-0.32501426 0.10827078 1.476488 10197915
-0.27490824 0.10829116 1.4767687 10197915
-0.22478001 0.10831153 1.4770435 10197915
-0.17504378 0.1083311 1.4774493 10197915
-0.12528853 0.10835194 1.4775952 10197915
-0.075103953 0.10837231 1.4778763 10197915
-0.024903893 0.10839275 1.4781514 10197915
0.024910098 0.10841302 1.4784276 10132122
0.074945591 0.10843272 1.4788343 10132122
0.12499724 0.10845433 1.4788553 10132122
0.17486586 0.10847394 1.4792588 10132122
0.2249573 0.10849375 1.4796659 10132122
0.27506852 0.10851471 1.4798143 10132122
0.32478675 0.10853492 1.4800898 10132122
0.37493607 0.10855529 1.4803708 10132122
0.42631993 0.10858305 1.4792114 10132122
0.47511899 0.10863309 1.4731394 10132122
0.52495581 0.10865381 1.4733218 10132122
0.57511687 0.10867284 1.4738829 10132122
0.62514555 0.10869475 1.4738257 10132122
0.67503697 0.10871416 1.4742895 10197915
0.72510409 0.1087352 1.4744257 10197915
0.77503282 0.10875504 1.4747932 10197915
0.82483053 0.10877506 1.4751159 10197915
0.87495095 0.10879564 1.4753484 10197915
0.92509013 0.1088158 1.4756687 10197915
0.97509617 0.10883706 1.4757552 10197915
1.0243012 0.10886048 1.4753106 10197915
1.0749441 0.10891405 1.4686646 10197915
1.1250468 0.10893445 1.4689422 10197915
1.1622385 0.10891631 1.4761261 10197915
-0.90857786 0.1077491 1.5329472 2960685
-0.87513798 0.10781697 1.521742 2960685
-0.82485634 0.10783602 1.5223079 2960685
-0.77476013 0.107857 1.5224538 2960685
-0.72506857 0.10787718 1.5227385 2960685
-0.67514491 0.10789676 1.5231651 6579300
-0.62499553 0.10791775 1.5233113 10197915
-0.575037 0.10793868 1.5234586 10197915
-0.52505958 0.10795829 1.5238836 10197915
-0.47485349 0.10797799 1.5243124 10197915
-0.42483613 0.10799894 1.5244572 10197915
-0.37501362 0.10801916 1.5247428 10197915
-0.32495874 0.10803945 1.5250292 10197915
-0.27509895 0.10805968 1.5253146 10197915
-0.22500716 0.10807934 1.5257429 10197915
-0.1748977 0.10810033 1.5258882 10197915
-0.12498171 0.10812059 1.5261742 10197915
-0.075043514 0.10814085 1.5264599 10197915
-0.025090128 0.10816108 1.5267463 10132122
0.025096426 0.10818142 1.5270334 10132122
0.075087331 0.10820173 1.5273193 10132122
0.12488946 0.10822193 1.5276045 10132122
0.17491783 0.10824224 1.5278912 10132122
0.22496848 0.10826252 1.5281777 10132122
0.27482226 0.10828205 1.528603 10132122
0.32469729 0.10830298 1.5287486 10132122
0.3748042 0.10832329 1.5290354 10132122
0.42492631 0.10834362 1.5293223 10132122
0.47485903 0.10836387 1.5296079 10132122
0.52501869 0.10838421 1.5298953 10132122
0.57498741 0.10840379 1.5303228 10132122
0.6249755 0.10842474 1.530468 10132122
0.67519158 0.10844511 1.5307554 10132122
0.725218 0.1084654 1.5310416 10132122
0.77505016 0.10848494 1.5314684 10197915
0.82489657 0.10850651 1.5314682 10197915
0.87497842 0.10852614 1.5318985 10197915
0.9248659 0.10854571 1.5323265 10197915
0.97477233 0.1085666 1.5324706 10197915
1.0261465 0.10859498 1.5311872 10197915
1.0735774 0.10867111 1.5195205 10197915
1.1249777 0.10870676 1.516708 10197915
1.1740894 0.10872329 1.5176991 10197915
1.2084131 0.10868014 1.5298681 10197915
-0.95125526 0.10745295 1.5912131 2960685
-0.92096817 0.10753707 1.5763111 2960685
-0.87468255 0.10756993 1.5736158 2960685
-0.82464027 0.10759017 1.5739119 2960685
-0.77457529 0.10761043 1.5742072 2960685
-0.72492605 0.10762977 1.5746567 3223857
-0.67504603 0.10765067 1.5747973 9539985
-0.6249249 0.10767098 1.5750939 10197915
-0.57500452 0.10769192 1.5752327 10197915
-0.52506506 0.10771137 1.5756855 10197915
-0.47510463 0.10773159 1.5759807 10197915
-0.4251307 0.10775109 1.5764301 10197915
-0.37513372 0.10777204 1.576573 10197915
-0.32511687 0.10779232 1.5768688 10197915
-0.27486748 0.10781264 1.5771668 10197915
-0.22481379 0.10783215 1.5776182 10197915
-0.17496011 0.10785306 1.5777568 10197915
-0.12486959 0.10787409 1.5778965 10197915
-0.074981235 0.1078928 1.578504 10132122
-0.025071055 0.10791373 1.578645 10132122
0.025077341 0.10793401 1.5789421 10132122
0.07502494 0.10795347 1.5793934 10132122
0.1249882 0.1079752 1.579376 10132122
0.17519155 0.10799475 1.5798305 10132122
0.22519498 0.10801425 1.5802826 10132122
0.27500066 0.10803592 1.5802631 10132122
0.32481951 0.10805458 1.5808717 10132122
0.37488171 0.10807559 1.5810128 10132122
0.42496085 0.1080951 1.5814642 10132122
0.47483569 0.10811678 1.5814456 10132122
0.52254087 0.10815841 1.577042 10132122
0.57521325 0.10819934 1.5732402 10132122
0.62519664 0.10821902 1.5736499 10132122
0.67519212 0.10823979 1.5738286 10132122
0.72521144 0.10825953 1.5742378 10132122
0.77524543 0.10828033 1.5744157 10132122
0.82530165 0.10830003 1.5748261 10197915
0.875049 0.10832018 1.5751196 10197915
0.92513663 0.10834099 1.5752991 10197915
0.97525126 0.10836075 1.5757095 10197915
1.0253774 0.10838158 1.575889 10197915
1.0771372 0.10843462 1.5694648 10197915
1.1246868 0.10846367 1.5676869 10197915
1.1749195 0.10848402 1.5679804 10197915
1.2224938 0.10849254 1.570515 10197915
1.2558395 0.10843197 1.5862479 10197915
-0.96384633 0.1072422 1.6342745 2960685
-0.92508465 0.10728484 1.6288521 2960685
-0.87509125 0.10730583 1.6289883 2960685
-0.82507914 0.10732686 1.6291201 2960685
-0.77505398 0.10734539 1.62977 2960685
-0.72477961 0.1073665 1.6299089 6250335
-0.67493457 0.10738663 1.6302106 10197915
-0.62625158 0.10741151 1.6294165 10197915
-0.57497525 0.10747194 1.6213938 10197915
-0.52503186 0.10749269 1.621572 10197915
-0.47507066 0.10751228 1.6220027 10197915
-0.42508861 0.10753307 1.6221809 10197915
-0.3750909 0.10755266 1.6226119 10197915
-0.32507017 0.10757346 1.6227905 10197915
-0.27503613 0.10759307 1.6232213 10197915
-0.22531466 0.10761315 1.6235245 10197915
-0.17524007 0.10763399 1.6237031 10197915
-0.12514719 0.1076536 1.6241345 10197915
-0.075033829 0.10767443 1.6243137 10132122
-0.024904395 0.10769409 1.6247456 10132122
0.024910595 0.1077142 1.6250488 10132122
0.07507766 0.10773506 1.6252279 10132122
0.1252663 0.10775473 1.6256605 10132122
0.17513737 0.10777488 1.6259643 10132122
0.22502418 0.10779624 1.6260121 10132122
0.27492771 0.10781517 1.6265721 10132122
0.32485479 0.10783534 1.6268765 10132122
0.37480056 0.10785552 1.6271805 10132122
0.42509913 0.10787642 1.6273606 10132122
0.47541973 0.10789616 1.6277938 10132122
0.52726424 0.10795163 1.6208577 10132122
0.57478416 0.10798082 1.6190492 10132122
0.62475646 0.10800181 1.6191849 10132122
0.67519373 0.10802216 1.6194905 10132122
0.72520483 0.10804239 1.6197891 10132122
0.77500629 0.10806248 1.620095 10197915
0.82505494 0.10808191 1.6205657 10197915
0.87489372 0.10810368 1.6205283 10197915
0.92475379 0.10812222 1.6211693 10197915
0.97485703 0.10814326 1.6213057 10197915
1.0247515 0.10816343 1.6216034 10197915
1.0746691 0.10818359 1.6219101 10197915
1.1248282 0.10820305 1.6223814 10197915
1.1750025 0.10822493 1.6223481 10197915
1.2252012 0.1082436 1.6229891 10197915
1.2707529 0.10824532 1.6267638 10197915
1.3029826 0.10818497 1.6423565 10197915
1.3396562 -0.75417078 1.6948013 2894892
1.3400295 -0.72499281 1.694376 2894892
1.3401185 -0.67493743 1.6944523 2894892
1.3401773 -0.62500268 1.694572 2894892
1.3402668 -0.57506329 1.6946479 2894892
1.3403339 -0.52499056 1.6947565 2894892
1.3404248 -0.47497532 1.6948302 2894892
1.3404794 -0.42495498 1.6949575 2894892
1.3405646 -0.37492883 1.6950395 2894892
1.3406401 -0.32496145 1.6951345 2894892
1.3409138 -0.27553487 1.6949379 2894892
1.3410923 -0.22497006 1.6948856 2894892
1.3412119 -0.17512865 1.6949166 2894892
1.3412657 -0.12499796 1.6950444 2894892
1.3413415 -0.07514336 1.6951404 2894892
1.3414166 -0.025283132 1.6952354 2894892
1.3414931 0.025285056 1.6953326 2894892
1.3415687 0.075156547 1.6954285 3092271
-1.0046827 0.10697038 1.687601 2960685
-0.97441155 0.10702952 1.6779464 2960685
-0.9248814 0.10705145 1.6778297 2960685
-0.87499261 0.10707157 1.6781409 2960685
-0.82543623 0.10709085 1.6785964 2960685
-0.77516437 0.10711174 1.6787747 2960685
-0.72487831 0.10713134 1.6792312 9342606
-0.67491561 0.10715148 1.6795467 10197915
-0.62334621 0.10718323 1.6775669 10197915
-0.57494485 0.10724113 1.6698174 10197915
-0.52499843 0.1072595 1.6705002 10197915
-0.47503346 0.10728052 1.6706305 10197915
-0.42481646 0.10730075 1.6709455 10197915
-0.37504572 0.10732082 1.6712531 10197915
-0.32525212 0.10734086 1.6715703 10197915
-0.27498069 0.10736027 1.6720679 10197915
-0.22492312 0.1073822 1.6720121 10197915
-0.17507516 0.10740053 1.6726965 10197915
-0.12497907 0.10742158 1.6728275 10132122
-0.074859634 0.10744268 1.6729532 10132122
-0.024960484 0.10746102 1.6736383 10132122
0.024966719 0.10748113 1.673952 10132122
0.07490325 0.10750303 1.6738932 10132122
0.12486609 0.10752138 1.6745789 10132122
0.17484352 0.10754331 1.6745203 10132122
0.22484036 0.10756169 1.6752063 10132122
0.27485877 0.10758362 1.675148 10132122
0.32488957 0.10760201 1.6758347 10132122
0.37494788 0.10762216 1.6761485 10132122
0.42501488 0.10764412 1.6760901 10132122
0.47510952 0.10766251 1.6767771 10132122
0.52521759 0.10768448 1.6767186 10132122
0.57534647 0.10770288 1.6774061 10132122
0.62526274 0.10772392 1.6775304 10132122
0.67496604 0.10774484 1.6776561 10132122
0.72491366 0.10776319 1.6783447 10197915
0.77488631 0.10778421 1.6784691 10197915
0.82487839 0.10780346 1.6789721 10197915
0.87511724 0.1078255 1.6789138 10197915
0.92492497 0.1078456 1.6792181 10197915
0.97501844 0.10791291 1.6696435 10197915
1.0246671 0.10793224 1.6700935 10197915
1.0746847 0.10795242 1.6704059 10197915
1.1250645 0.10797337 1.6705835 10197915
1.1751209 0.10799357 1.6708916 10197915
1.2248412 0.10801294 1.6713425 10197915
1.2749335 0.10803315 1.6716551 10197915
1.3309257 0.10566107 1.6867083 10197915
1.3164611 -0.76174575 1.7287298 2302755
1.3195002 -0.72502357 1.724425 2368548
1.3195906 -0.67501175 1.7245125 2368548
1.3196594 -0.62500757 1.72461 2368548
1.3197327 -0.57501203 1.7247089 2368548
1.3198023 -0.52496928 1.7248234 2368548
1.3198906 -0.47496179 1.7248868 2434341
1.3202196 -0.42505321 1.7246169 2434341
1.3203732 -0.37498957 1.7245972 2434341
1.3204368 -0.32500833 1.7247083 2434341
1.3207357 -0.27486396 1.7244896 2434341
1.3209096 -0.22496623 1.7244298 2434341
1.3210288 -0.17498164 1.7244688 2434341
1.3210366 -0.12497805 1.7246597 2434341
1.3212453 -0.074982442 1.7245588 2434341
1.3211526 -0.024997219 1.7249111 2434341
1.3212273 0.02499908 1.7249978 2434341
1.3216633 0.07487604 1.7245713 2434341
-1.014756 0.10680649 1.7210785 2960685
-0.97502941 0.10683259 1.7192061 2960685
-0.9253453 0.10685255 1.7195276 2960685
-0.87528807 0.10687338 1.7197013 2960685
-0.82521486 0.1068928 1.7201755 2960685
-0.77511895 0.10691366 1.7203496 4737096
-0.7250092 0.1069331 1.720824 10197915
-0.67523122 0.10695311 1.7211459 10197915
-0.62508196 0.10697398 1.7213204 10197915
-0.57491225 0.10699344 1.721795 10197915
-0.5250783 0.10701347 1.7221173 10197915
-0.47487545 0.10703439 1.7222919 10197915
-0.42464611 0.10705388 1.7227672 10197915
-0.37511697 0.10707451 1.7229332 10197915
-0.32520667 0.10709456 1.7232603 10197915
-0.27492785 0.10711405 1.7237362 10197915
-0.22498137 0.10713414 1.724059 10197915
-0.17501613 0.10715424 1.7243826 10132122
-0.12503499 0.10717579 1.7244008 10132122
-0.075038418 0.10719442 1.7250291 10132122
-0.025016975 0.10721455 1.7253529 10132122
0.025023231 0.10723466 1.7256769 10132122
0.074720837 0.10725538 1.7258433 10132122
0.12479986 0.10727549 1.7261717 10132122
0.17524776 0.10729506 1.7266489 10132122
0.22536318 0.1073152 1.7269727 10132122
0.2751382 0.10733595 1.7271401 10132122
0.32492939 0.10735522 1.7276168 10132122
0.37510121 0.10737542 1.7279415 10132122
0.42492896 0.10739618 1.7281091 10132122
0.47477913 0.10741547 1.7285868 10132122
0.52500677 0.10743563 1.7289109 10132122
0.57488751 0.10745642 1.7290783 10132122
0.62479681 0.10747573 1.7295564 10132122
0.67471611 0.10749654 1.7297243 10132122
0.72466117 0.1075159 1.7302024 10197915
0.77461952 0.10753673 1.7303706 10197915
0.82460034 0.10755609 1.7308494 10197915
0.87495995 0.10757633 1.7311752 10197915
0.92531008 0.10759946 1.7308954 10197915
0.97495234 0.10766778 1.7210736 10197915
1.0250545 0.10768796 1.7213905 10197915
1.0749429 0.10770703 1.721916 10197915
1.1250778 0.10772914 1.7218348 10197915
1.1750038 0.10774826 1.7223548 10197915
1.224943 0.10776738 1.7228806 10197915
1.274901 0.1077894 1.7227957 10197915
1.3205764 0.10447863 1.7231503 7960953
1.270584 -0.80175292 1.7957287 2039583
1.2829562 -0.77235031 1.7777348 2039583
1.3009658 -0.76693898 1.7513921 2039583
1.284106 -0.72501951 1.7762495 2039583
1.3010209 -0.72513044 1.7514851 2039583
1.2841733 -0.67498565 1.7763557 2039583
1.301108 -0.67510277 1.7515644 2039583
1.2842555 -0.62499392 1.7764457 2039583
1.301168 -0.62506568 1.7516828 2039583
1.2843344 -0.57499796 1.7765331 2039583
1.3012549 -0.57502753 1.7517622 2039583
1.2845111 -0.52509266 1.7764807 2039583
1.3013152 -0.52497828 1.7518812 2039583
1.2846475 -0.47510853 1.7764919 2039583
1.3011966 -0.47324729 1.7522686 2039583
1.2845285 -0.4249849 1.7768668 2039583
1.3014151 -0.42444026 1.7521503 2039583
1.2846129 -0.37500086 1.7769544 2039583
1.3015537 -0.375002 1.7521517 2039583
1.2846938 -0.32501122 1.7770406 2039583
1.3016068 -0.32507598 1.7522798 2039583
1.284763 -0.27499855 1.7771461 2039583
1.3016969 -0.27500418 1.7523555 2039583
1.2848401 -0.22496334 1.777241 2039583
1.3017622 -0.2250677 1.7524658 2039583
1.2848996 -0.17499094 1.7773573 2039583
1.3018359 -0.1749818 1.7525656 2039583
1.2849604 -0.12499514 1.7774789 2039583
1.3019094 -0.12489033 1.7526642 2039583
1.2851316 -0.075012438 1.777434 2039583
1.3019835 -0.074793093 1.7527633 2039583
1.2850372 -0.025073057 1.7777787 2039583
1.3020331 -0.024420053 1.7528983 2039583
1.2850611 0.024943491 1.7779486 2039583
1.3017817 0.02469925 1.7534707 2039583
1.2853403 0.075020745 1.7777469 2039583
1.3020678 0.075760491 1.7532617 2039583
-1.0602268 0.10645944 1.7897557 2960685
-1.0246204 0.10655032 1.7739213 2960685
-0.9748202 0.10657128 1.7740382 2960685
-0.92477053 0.10659034 1.7745918 2960685
-0.87494493 0.10661242 1.7744793 2960685
-0.82510644 0.1066303 1.775257 2960685
-0.77499759 0.10665145 1.7753718 8289918
-0.72512007 0.10667147 1.7756991 10197915
-0.67521912 0.10669146 1.7760383 10197915
-0.62505776 0.10671054 1.7765926 10197915
-0.57512248 0.10673267 1.7764807 10197915
-0.52750838 0.10678308 1.7702249 10197915
-0.47522172 0.10682575 1.7660233 10197915
-0.42518854 0.10684505 1.7665182 10197915
-0.37549299 0.10686498 1.7668473 10197915
-0.32541212 0.10688586 1.7670175 10197915
-0.27531934 0.10690518 1.7675123 10197915
-0.22519948 0.10692608 1.767682 10197915
-0.17507038 0.10694542 1.7681773 10132122
-0.12528141 0.10696539 1.7685072 10132122
-0.075108245 0.10698631 1.7686775 10132122
-0.02491943 0.10700566 1.7691733 10132122
0.024925645 0.10702566 1.7695042 10132122
0.075152181 0.1070466 1.7696748 10132122
0.12540077 0.10706598 1.7701709 10132122
0.17493258 0.10708667 1.7703315 10132122
0.22448316 0.10710575 1.7708282 10132122
0.27478772 0.10712673 1.7709988 10132122
0.32510868 0.10714613 1.7714958 10132122
0.3750847 0.10716619 1.7718273 10132122
0.42507949 0.10718625 1.7721589 10132122
0.47508594 0.10720789 1.7721596 10132122
0.52511597 0.1072264 1.7728231 10132122
0.575167 0.10724651 1.7731556 10132122
0.62523663 0.1072666 1.7734877 10132122
0.67495078 0.10728735 1.7736495 10197915
0.72469068 0.1073065 1.7741475 10197915
0.7751807 0.10732753 1.7743192 10197915
0.82532692 0.10734771 1.7746469 10197915
0.87511498 0.10736687 1.7751452 10197915
0.92529708 0.10738702 1.7754785 10197915
0.97512752 0.1074078 1.7756407 10197915
1.0249746 0.107427 1.7761394 10197915
1.0752131 0.10744718 1.776473 10197915
1.1250961 0.10746797 1.7766354 10197915
1.1750025 0.10748722 1.7771349 10197915
1.2249242 0.10750805 1.7772975 10197915
1.2822474 0.1044503 1.7772942 7039851
1.3022451 0.1038603 1.7531182 6381921
1.2411536 -0.81132776 1.8387765 2039583
1.2572578 -0.80606747 1.8152213 2039583
1.2418795 -0.77493715 1.8378645 2039583
1.2588526 -0.77498692 1.8130152 2039583
1.2419422 -0.72494292 1.8379796 2039583
1.2589371 -0.72501701 1.8130966 2039583
1.2419953 -0.67497849 1.838107 2039583
1.2589909 -0.67504048 1.8132241 2039583
1.2420851 -0.62497193 1.838182 2039583
1.259078 -0.62502748 1.813301 2039583
1.2421427 -0.57499713 1.8383038 2039583
1.2591419 -0.57500851 1.813418 2039583
1.2422112 -0.52497947 1.8384115 2039583
1.2593412 -0.52474284 1.8133343 2039583
1.2422942 -0.47495654 1.8384969 2039583
1.259652 -0.47498861 1.8130863 2039583
1.2423228 -0.42506963 1.8386612 2039583
1.259699 -0.4249602 1.8132217 2039583
1.2422277 -0.37534401 1.8390051 2039583
1.2594373 -0.37500063 1.8138127 2039583
1.2425001 -0.32500818 1.8388135 2039583
1.2594919 -0.32499036 1.8139362 2039583
1.2425579 -0.27498505 1.8389353 2039583
1.259571 -0.27494508 1.814028 2039583
1.2426556 -0.22503722 1.8390002 2039583
1.2596323 -0.22495188 1.814149 2039583
1.2426876 -0.17504318 1.8391602 2039583
1.2597215 -0.17495309 1.8142223 2039583
1.2427666 -0.12500271 1.8392524 2039583
1.2597564 -0.12494889 1.814377 2039583
1.2428861 -0.075160764 1.8392823 2039583
1.2598895 -0.074823968 1.814389 2039583
1.2429043 -0.025147991 1.8394634 2039583
1.2599097 -0.024837136 1.8145649 2039583
1.242974 0.025149878 1.8395669 2039583
1.260285 0.02501381 1.8142246 2039583
1.243096 0.075173959 1.8395954 2039583
1.260466 0.074854791 1.8141649 2039583
-1.101558 0.10618347 1.8439099 2960685
-1.0723809 0.10624591 1.8334547 2960685
-1.0247656 0.10627174 1.8323478 2960685
-0.97484702 0.10629172 1.8326921 2960685
-0.92491364 0.10631344 1.83267 2960685
-0.87496305 0.10633168 1.8333808 2960685
-0.82498825 0.10635167 1.8337257 4802889
-0.77499425 0.10637167 1.8340704 10197915
-0.72498167 0.10639167 1.8344153 10197915
-0.67495835 0.10641344 1.8343935 10197915
-0.62490964 0.10643171 1.8351055 10197915
-0.57484055 0.10645173 1.8354509 10197915
-0.52309245 0.10651901 1.8260381 10197915
-0.47531658 0.10654834 1.8242272 10197915
-0.42526776 0.10656948 1.824332 10197915
-0.3749491 0.10658851 1.8249134 10197915
-0.32487157 0.10661086 1.8247749 10197915
-0.2747668 0.10662974 1.8253632 10197915
-0.22716849 0.10666975 1.8212911 10132122
-0.1747447 0.1067268 1.8140825 10132122
-0.12478761 0.10674597 1.8145989 10132122
-0.074809879 0.10676682 1.8147626 10132122
-0.024816832 0.106786 1.8152795 10132122
0.024822997 0.10680588 1.8156174 10132122
0.074853495 0.10682675 1.8157816 10132122
0.12490602 0.10684596 1.8162988 10132122
0.17497556 0.10686686 1.816463 10132122
0.22506423 0.10688607 1.8169806 10132122
0.27517286 0.10690699 1.817145 10132122
0.32529768 0.1069262 1.8176631 10132122
0.37506786 0.10694616 1.8180019 10132122
0.42522949 0.10696707 1.8181665 10132122
0.47541404 0.10698634 1.8186847 10132122
0.52524012 0.10700625 1.8190235 10132122
0.57508057 0.10702789 1.8190035 10132122
0.62493831 0.10704615 1.8197017 10132122
0.67482042 0.10706611 1.8200414 10197915
0.72472095 0.10708611 1.8203812 10197915
0.77501392 0.1071071 1.8205463 10197915
0.8253302 0.10712641 1.8210658 10197915
0.87490535 0.10714712 1.8212206 10197915
0.92450023 0.10716611 1.8217411 10197915
0.97487152 0.10718714 1.8219069 10197915
1.0252599 0.10720646 1.8224269 10197915
1.0752913 0.10722649 1.8227677 10197915
1.1249576 0.10724725 1.8229229 10197915
1.1746466 0.10726629 1.8234439 10197915
1.2351003 0.10515121 1.8327699 7960953
1.2602234 0.10387906 1.8142022 6579300
1.1998701 -0.8245663 1.8991619 2039583
1.2156223 -0.81974071 1.8761195 2039583
1.1999373 -0.77504116 1.8992682 2039583
1.2172784 -0.77501398 1.8738806 2039583
1.1999854 -0.73966295 1.8993443 2039583
1.2171195 -0.72484398 1.8743191 2039583
1.217024 -0.67502147 1.874666 2039583
1.2170815 -0.62500757 1.8747888 2039583
1.2171618 -0.57498795 1.8748795 2039583
1.2172258 -0.5249812 1.8749924 2039583
1.2172902 -0.47498605 1.8751019 2039583
1.2176338 -0.4251304 1.874807 2039583
1.2180306 -0.37486857 1.8744323 2039583
1.2182926 -0.32500139 1.8742557 2039583
1.2183563 -0.27497947 1.8743703 2039583
1.2184447 -0.22495112 1.8744457 2039583
1.2184856 -0.17497179 1.8745923 2039583
1.2186068 -0.12504172 1.8746214 2039583
1.2186295 -0.074996203 1.8747958 2039583
1.2186962 -0.0249658 1.8749033 2039583
1.218765 0.024967654 1.8750098 2039583
1.2188361 0.075009376 1.8751128 2039583
-1.1137363 0.10598283 1.8848897 2960685
-1.0749652 0.10601491 1.8816866 2960685
-1.0252653 0.10603475 1.8820387 2960685
-0.97516084 0.10605568 1.8821973 2960685
-0.92503721 0.10607475 1.8827486 2960685
-0.87489361 0.1060957 1.8829075 2960685
-0.82473373 0.10611479 1.8834594 8026746
-0.77493995 0.10613466 1.8838123 10197915
-0.72474331 0.10615563 1.8839711 10197915
-0.67452294 0.10617474 1.8845233 10197915
-0.62506598 0.10619545 1.8846711 10197915
-0.57519585 0.10621531 1.8850305 10197915
-0.52492726 0.10623445 1.8855832 10197915
-0.47502124 0.10625438 1.8859369 10197915
-0.4250963 0.1062743 1.8862903 10197915
-0.3747682 0.10629532 1.8864502 10197915
-0.32480413 0.10631529 1.886798 10197915
-0.27692467 0.10638396 1.8767384 10132122
-0.22068673 0.10645645 1.8666352 10132122
-0.17517816 0.10649441 1.8628008 10132122
-0.1250388 0.10651446 1.8631512 10132122
-0.07488066 0.10653449 1.8635018 10132122
-0.025095539 0.10655529 1.8636581 10132122
0.025101833 0.10657535 1.8640088 10132122
0.074924253 0.10659435 1.8645489 10132122
0.12477364 0.1066152 1.8647053 10132122
0.17502111 0.10663344 1.8654405 10132122
0.22528675 0.10665536 1.8654079 10132122
0.27519265 0.10667438 1.8659487 10132122
0.32510835 0.10669523 1.8661054 10132122
0.37504992 0.10671428 1.8666466 10132122
0.42500457 0.10673515 1.8668036 10132122
0.47498193 0.1067542 1.867345 10132122
0.52497554 0.1067751 1.8675023 10132122
0.57498878 0.10679416 1.868044 10132122
0.62502128 0.10681508 1.8682014 10197915
0.67507046 0.10683416 1.8687432 10197915
0.72475368 0.106854 1.8690908 10197915
0.77483898 0.10687494 1.8692484 10197915
0.8249476 0.10689405 1.869791 10197915
0.87507218 0.106915 1.8699486 10197915
0.92521667 0.10693411 1.8704919 10197915
0.97499329 0.10695399 1.8708398 10197915
1.0251704 0.10697497 1.8709979 10197915
1.0753746 0.10699411 1.8715413 10197915
1.1248121 0.10701481 1.8716882 10197915
1.1746646 0.10703471 1.8720429 10197915
1.2184199 0.10399299 1.8737116 6908265
1.1767429 -0.85741436 1.9328852 2039583
1.1824547 -0.82496655 1.9246553 2039583
1.1825372 -0.77497172 1.9247432 2039583
1.1826104 -0.72497147 1.9248403 2039583
1.1826682 -0.67498493 1.9249662 2039583
1.1828462 -0.62513155 1.9249133 2039583
1.1832153 -0.57502919 1.9245734 2039583
1.1833088 -0.52498615 1.9246492 2039583
1.1833556 -0.47499833 1.9247817 2039583
1.183418 -0.42502481 1.9249017 2039583
1.2004228 -0.41719601 1.9000363 2039583
1.1835041 -0.37500557 1.9249768 2039583
1.2004803 -0.3747071 1.9001278 2039583
1.1835624 -0.32498053 1.9251039 2039583
1.2005475 -0.32513165 1.9002345 2039583
1.1836197 -0.27496982 1.9252254 2039583
1.2006148 -0.27555072 1.9003409 2039583
1.1836842 -0.22499344 1.9253384 2039583
1.2006832 -0.22517709 1.9004486 2039583
1.1837662 -0.17501149 1.9254228 2039583
1.2007514 -0.1747977 1.9005569 2039583
1.1836354 -0.1251123 1.9258196 2039583
1.2005523 -0.12023707 1.9010736 2039583
1.1834297 -0.074911393 1.9263315 2039583
1.2004777 -0.074832715 1.9013712 2039583
1.1839161 -0.025067348 1.925818 2039583
1.2005452 -0.025208056 1.9014776 2039583
1.1840699 0.024967445 1.9258082 2039583
1.2006134 0.025209971 1.9015857 2039583
1.1840483 0.074918881 1.9260412 2039583
1.2006805 0.074845813 1.901692 2039583
-1.157506 0.10566779 1.9470134 2960685
-1.1247511 0.10574504 1.9337772 2960685
-1.0752803 0.10576471 1.9341382 2960685
-1.0249932 0.10578474 1.9345044 2960685
-0.97468686 0.10580478 1.9348702 2960685
-0.92476958 0.10582568 1.93502 2960685
-0.87482172 0.10584453 1.9355975 4079166
-0.82486546 0.10586544 1.9357471 10197915
-0.7748819 0.10588436 1.9363254 10197915
-0.72504699 0.10596852 1.9231927 10197915
-0.67497844 0.10598847 1.9235544 10197915
-0.62489098 0.10600843 1.9239175 10197915
-0.57478476 0.10602839 1.9242791 10197915
-0.5254553 0.10604805 1.9246364 10197915
-0.47531149 0.10606803 1.9249988 10197915
-0.4251489 0.10608801 1.9253612 10197915
-0.37496731 0.10610801 1.9257247 10197915
-0.32476687 0.106128 1.9260873 10197915
-0.27429017 0.10620872 1.9137414 10132122
-0.22514488 0.10623041 1.9136558 10132122
-0.17483731 0.10625144 1.9138087 10132122
-0.1249029 0.10627138 1.9141672 10132122
-0.074960671 0.10628928 1.9149438 10132122
-0.024992172 0.10631121 1.9148847 10132122
0.024998417 0.10633112 1.9152434 10132122
0.075004391 0.10634905 1.9160205 10132122
0.12502158 0.10637097 1.9159621 10132122
0.17506841 0.10639094 1.9163209 10132122
0.2247324 0.10640974 1.916887 10132122
0.27481499 0.10642972 1.9172467 10132122
0.32530743 0.10645085 1.9174 10132122
0.37503105 0.10646967 1.9179657 10132122
0.42476717 0.10649049 1.9181142 10132122
0.47492656 0.10651049 1.9184744 10132122
0.52509856 0.10652848 1.9192536 10132122
0.57528752 0.10655048 1.9191948 10197915
0.62510645 0.10656936 1.9197621 10197915
0.67493355 0.1065902 1.9199106 10197915
0.72518706 0.10661026 1.9202713 10197915
0.77505285 0.10662916 1.9208386 10197915
0.82494509 0.10665001 1.9209878 10197915
0.87484622 0.10666892 1.9215556 10197915
0.92477721 0.10668984 1.9217046 10197915
0.97511542 0.10670789 1.9224857 10197915
1.0254766 0.10672997 1.9224283 10197915
1.075462 0.10674889 1.9229962 10197915
1.1254588 0.10676983 1.9231455 10197915
1.1812364 0.1040747 1.9244654 7171437
1.200719 0.10321144 1.9017528 6118749
1.1398573 -0.86946011 1.9868367 2039583
1.1571492 -0.86377418 1.9615443 2039583
1.1406206 -0.82527429 1.9859018 2039583
1.1576761 -0.82496572 1.9609338 2039583
1.1409593 -0.77501887 1.9856142 2039583
1.1577331 -0.774975 1.9610561 2039583
1.141039 -0.72499788 1.9857032 2039583
1.1578106 -0.7249791 1.9611502 2039583
1.1410691 -0.67504722 1.9858669 2039583
1.1578337 -0.67493248 1.9613245 2039583
1.1406989 -0.62500399 1.9866152 2039583
1.157612 -0.62471592 1.9618562 2039583
1.1407839 -0.57499695 1.9866976 2039583
1.15799 -0.57499737 1.9615073 2039583
1.1408467 -0.52498347 1.986812 2039583
1.1580625 -0.52498645 1.9616078 2039583
1.140915 -0.47500616 1.9869194 2039583
1.1581219 -0.47492665 1.9617273 2039583
1.1409663 -0.42502269 1.9870497 2039583
1.158188 -0.42499033 1.9618368 2039583
1.141024 -0.374993 1.9871726 2039583
1.1582484 -0.37500489 1.9619551 2039583
1.1411016 -0.32495794 1.9872651 2039583
1.1583337 -0.32497102 1.9620395 2039583
1.1411529 -0.27495703 1.9873986 2039583
1.158375 -0.27497524 1.9621835 2039583
1.1415296 -0.22526228 1.9870502 2039583
1.158451 -0.22497198 1.9622788 2039583
1.1417534 -0.17503117 1.9869314 2039583
1.1585193 -0.175008 1.9623852 2039583
1.1417757 -0.12508562 1.9871056 2039583
1.1585501 -0.12499323 1.9625459 2039583
1.1418591 -0.074873291 1.9871904 2039583
1.1586983 -0.075191356 1.9625367 2039583
1.1419516 -0.024831655 1.9872611 2039583
1.1590495 -0.025003165 1.962229 2039583
1.1418008 0.024466904 1.9876853 2039583
1.1589792 0.025514368 1.9625405 2039583
1.1416169 0.074863575 1.9881638 2039583
1.1588985 0.075206332 1.9628646 2039583
-1.1657653 0.10553246 1.9746674 2960685
-1.125033 0.10554863 1.9749702 2960685
-1.0745087 0.10556871 1.9753458 2960685
-1.0247805 0.10558847 1.9757158 2960685
-0.97503358 0.10560825 1.9760855 2960685
-0.92526805 0.10562803 1.9764557 2960685
-0.87548381 0.10564782 1.976826 6645093
-0.82486451 0.10566793 1.9772023 10197915
-0.77504259 0.10568774 1.9775728 10197915
-0.7249611 0.10577375 1.9640645 10197915
-0.67504412 0.10579471 1.9642056 10197915
-0.6251179 0.10581348 1.964802 10197915
-0.57475901 0.1058335 1.9651742 10197915
-0.52478951 0.10585444 1.9653152 10197915
-0.47480282 0.10587326 1.9659123 10197915
-0.42479408 0.10589422 1.9660538 10197915
-0.37477151 0.10591303 1.9666508 10197915
-0.32472345 0.10593402 1.9667925 10132122
-0.27466497 0.10595284 1.9673898 10132122
-0.22498794 0.1059726 1.967757 10132122
-0.17529227 0.10599238 1.9681239 10132122
-0.12517901 0.10601339 1.9682659 10132122
-0.075035714 0.10603224 1.9688643 10132122
-0.024882974 0.10605329 1.9690065 10132122
0.024889169 0.10607306 1.9693741 10132122
0.075079568 0.10609195 1.9699728 10132122
0.12529817 0.10611299 1.9701154 10132122
0.17511925 0.10613063 1.9709399 10132122
0.224958 0.10615264 1.9708515 10132122
0.27482343 0.10617246 1.9712194 10132122
0.3251102 0.10619139 1.9718193 10132122
0.37542075 0.10621248 1.9719623 10132122
0.42492506 0.10623108 1.9725564 10132122
0.4748635 0.10625096 1.9729253 10132122
0.52522659 0.10627206 1.9730687 10132122
0.5747903 0.10629068 1.973663 10197915
0.62478483 0.10631054 1.9740322 10197915
0.67520034 0.1063317 1.9741759 10197915
0.72523427 0.10635158 1.974545 10197915
0.77486855 0.10637025 1.9751403 10197915
0.824938 0.10639015 1.9755101 10197915
0.87543303 0.10641132 1.9756544 10197915
0.92512715 0.10642999 1.9762501 10197915
0.97483987 0.10645086 1.9763885 10197915
1.024569 0.10646955 1.9769844 10197915
1.0747319 0.10648949 1.977355 10197915
1.1335013 0.10471893 1.9826772 8158332
1.1586218 0.10346525 1.9630877 6645093
1.0983775 -0.90813535 2.0474048 2039583
1.1075865 -0.90497559 2.0339351 2039583
1.0984632 -0.87508625 2.0474157 2039583
1.115177 -0.87468672 2.0229485 2039583
1.0985039 -0.82508761 2.0475633 2039583
1.115608 -0.82479674 2.0225236 2039583
1.0985872 -0.7750839 2.0476477 2039583
1.1159576 -0.77500707 2.0222168 2039583
1.0986278 -0.72507268 2.0477946 2039583
1.1159972 -0.72502619 2.0223641 2039583
1.0987117 -0.6750589 2.0478787 2039583
1.1160682 -0.67501569 2.0224686 2039583
1.0987521 -0.62503475 2.0480261 2039583
1.1161218 -0.62500024 2.0225959 2039583
1.0988355 -0.57501137 2.0481107 2039583
1.1162034 -0.57500327 2.0226796 2039583
1.0988764 -0.52497441 2.0482576 2039583
1.1162415 -0.52500015 2.0228343 2039583
1.09896 -0.47494107 2.048342 2039583
1.1163217 -0.47496665 2.0229244 2039583
1.0990008 -0.4248912 2.0484889 2039583
1.1163746 -0.42497748 2.0230539 2039583
1.0987991 -0.3796024 2.0489724 2039583
1.1160285 -0.37491959 2.0237658 2039583
1.099136 -0.32507241 2.0487044 2039583
1.1160516 -0.32500201 2.0239406 2039583
1.0991981 -0.27501154 2.04882 2039583
1.1161056 -0.27499488 2.0240676 2039583
1.0992602 -0.22494495 2.0489359 2039583
1.1164811 -0.22483449 2.0237248 2039583
1.0993227 -0.17487267 2.049052 2039583
1.11672 -0.17498396 2.0235815 2039583
1.0993847 -0.12479481 2.0491676 2039583
1.1167396 -0.12494653 2.0237594 2039583
1.099447 -0.074711204 2.0492835 2039583
1.1168624 -0.075064979 2.0237865 2039583
1.0995092 -0.02462198 2.0493999 2039583
1.1168467 -0.025109876 2.0240135 2039583
1.0995702 0.024623809 2.0495133 2039583
1.1169103 0.025111787 2.0241284 2039583
1.0996324 0.074724302 2.0496297 2039583
1.117052 0.07507816 2.0241287 2039583
-1.208153 0.10523982 2.0322056 2960685
-1.1748718 0.10532175 2.0180347 2960685
-1.1253297 0.1053426 2.0181625 2960685
-1.0749549 0.10536374 2.0183046 2960685
-1.0245565 0.10538257 2.0189285 2960685
-0.97497481 0.10540342 2.0190563 2960685
-0.92537421 0.10542192 2.0196822 3026478
-0.87533504 0.10544176 2.0200624 9342606
-0.82486755 0.10546292 2.020205 10197915
-0.77478886 0.10548285 2.0205774 10197915
-0.72511715 0.10550133 2.021204 10197915
-0.67500252 0.10552122 2.0215847 10197915
-0.62529117 0.10554215 2.0217135 10197915
-0.57555902 0.10556068 2.0223403 10197915
-0.52497226 0.10558189 2.0224841 10197915
-0.47436771 0.10560082 2.0231092 10197915
-0.4245778 0.10562176 2.0232384 10197915
-0.37477419 0.10564032 2.0238664 10132122
-0.32494491 0.10566127 2.0239956 10132122
-0.27510604 0.10567986 2.0246236 10132122
-0.22482176 0.10569981 2.0250058 10132122
-0.17494071 0.10572079 2.0251355 10132122
-0.12504134 0.1057394 2.0257642 10132122
-0.075120986 0.10576038 2.0258939 10132122
-0.025186144 0.10577901 2.0265231 10132122
0.025192486 0.10579898 2.026906 10132122
0.075164855 0.10581999 2.027036 10132122
0.12516028 0.10583864 2.0276659 10132122
0.17517203 0.10585967 2.0277958 10132122
0.22520308 0.10587832 2.0284262 10132122
0.27525428 0.10589939 2.0285566 10132122
0.32532084 0.10591805 2.029187 10132122
0.37541163 0.1059391 2.0293174 10132122
0.4250983 0.10595643 2.0301952 10132122
0.4747934 0.10597854 2.0300727 10132122
0.52452016 0.10599825 2.0304506 10197915
0.57468259 0.10601696 2.0310822 10197915
0.62486452 0.10603804 2.0312126 10197915
0.67506278 0.10605676 2.0318446 10197915
0.72528452 0.10607789 2.031976 10197915
0.77510208 0.10609524 2.0328555 10197915
0.82492691 0.10611741 2.0327334 10197915
0.87478417 0.10613719 2.0331113 10197915
0.92507863 0.10615595 2.0337446 10197915
0.97539181 0.1061771 2.0338762 10197915
1.0248759 0.10619553 2.034503 10197915
1.0759883 0.10605012 2.0355852 10000536
1.1164081 0.1034027 2.024034 6776679
1.0778708 -0.91474193 2.0773985 2039583
1.0801437 -0.87500817 2.0742366 2039583
1.0802301 -0.82501823 2.0743144 2039583
1.080294 -0.77502149 2.0744317 2039583
1.080341 -0.72499561 2.0745656 2039583
1.0804186 -0.67498767 2.074662 2039583
1.0804611 -0.62499958 2.074805 2039583
1.0805216 -0.57498109 2.0749245 2039583
1.0805997 -0.52498162 2.0750158 2039583
1.0806531 -0.47502482 2.0751457 2039583
1.0807122 -0.42501387 2.075263 2039583
1.0809875 -0.37490153 2.075067 2039583
1.0818287 -0.32502168 2.0740428 2039583
1.0818541 -0.27500418 2.0742118 2039583
1.081923 -0.22497955 2.0743172 2039583
1.0819995 -0.17497532 2.0744138 2039583
1.082072 -0.12503812 2.0745139 2039583
1.0821759 -0.074974604 2.074568 2039583
1.0821081 -0.024928017 2.0748727 2039583
1.0821711 0.024929894 2.0749898 2039583
1.0823593 0.074987754 2.0749195 2039583
-1.2513595 0.10493035 2.0932126 2960685
-1.2218772 0.10500256 2.0807395 2960685
-1.1751897 0.10503466 2.0782461 2960685
-1.125033 0.10505573 2.0783749 2960685
-1.0748658 0.10507433 2.0790315 2960685
-1.0251015 0.10509402 2.0794213 2960685
-0.97489256 0.10511513 2.0795496 2960685
-0.92466414 0.10513375 2.0802069 6184542
-0.87484366 0.10515345 2.0805967 10197915
-0.82458234 0.10517459 2.0807264 10197915
-0.77472228 0.10519437 2.0811074 10197915
-0.72528201 0.10521262 2.0817678 10197915
-0.67538667 0.10523235 2.0821581 10197915
-0.62504631 0.10525353 2.082288 10197915
-0.57468474 0.1052722 2.0829465 10197915
-0.52473277 0.10529197 2.0833373 10197915
-0.47520182 0.10531284 2.0834513 10197915
-0.42521036 0.10533258 2.0838521 10132122
-0.37769061 0.10540263 2.0734658 10132122
-0.32490823 0.10544539 2.0692844 10132122
-0.27523732 0.10546507 2.0696697 10132122
-0.22554788 0.10548473 2.070056 10132122
-0.17498265 0.10550475 2.0704489 10132122
-0.12439834 0.10552479 2.070842 10132122
-0.074652627 0.10554447 2.0712285 10132122
-0.02488834 0.10556417 2.071615 10132122
0.024894534 0.10558388 2.0720015 10132122
0.074695997 0.1056036 2.0723884 10132122
0.12451605 0.10562331 2.0727758 10132122
0.17435473 0.10564304 2.0731626 10132122
0.22421205 0.10566278 2.0735502 10132122
0.27494812 0.10568288 2.0739441 10132122
0.32570335 0.10570294 2.0743387 10132122
0.3756173 0.10572273 2.0747263 10132122
0.42554981 0.10574248 2.0751143 10132122
0.47550103 0.10576225 2.0755022 10197915
0.52547091 0.10578204 2.0758905 10197915
0.5754596 0.10580187 2.0762792 10197915
0.62546706 0.10582167 2.076668 10197915
0.67549306 0.10584147 2.0770566 10197915
0.72553778 0.10586129 2.0774453 10197915
0.77560145 0.10588109 2.0778344 10197915
0.82568359 0.10590092 2.0782237 10197915
0.87578475 0.10592076 2.0786128 10197915
0.92504007 0.10594025 2.0789957 10197915
0.9743138 0.10595977 2.0793781 10197915
1.0244703 0.10597962 2.0797677 10197915
1.0800961 0.1033842 2.0756464 6974058
1.0342624 -0.9539544 2.141082 2039583
1.0389202 -0.92489892 2.1343842 2039583
1.0561088 -0.92182755 2.1092312 2039583
1.0390358 -0.87505198 2.134418 2039583
1.0563632 -0.87489527 2.1090539 2039583
1.0390536 -0.82507318 2.1346009 2039583
1.0564169 -0.82486916 2.1091805 2039583
1.0391605 -0.77504843 2.1346512 2039583
1.0564908 -0.77497137 2.1092806 2039583
1.0395643 -0.72524309 2.1342645 2039583
1.0565478 -0.72500169 2.1094027 2039583
1.0397787 -0.67496771 2.1341593 2039583
1.0566146 -0.67495823 2.1095107 2039583
1.0398262 -0.62495989 2.1342976 2039583
1.0566645 -0.62497663 2.1096447 2039583
1.0399028 -0.57499003 2.134392 2039583
1.0567236 -0.57498974 2.1097651 2039583
1.0399504 -0.52501446 2.1345274 2039583
1.0567807 -0.52499723 2.1098881 2039583
1.0400082 -0.4750337 2.1346502 2039583
1.0568463 -0.47493035 2.1099997 2039583
1.0400782 -0.42504704 2.1347532 2039583
1.0568974 -0.42492732 2.1101301 2039583
1.0401306 -0.37505546 2.1348827 2039583
1.0570166 -0.37480298 2.1101642 2039583
1.0401709 -0.325057 2.1350317 2039583
1.0575435 -0.32493743 2.1095979 2039583
1.0400984 -0.27527431 2.1353431 2039583
1.057428 -0.2745862 2.1099741 2039583
1.039784 -0.2250025 2.1360116 2039583
1.0571396 -0.22501163 2.1106024 2039583
1.0398471 -0.17499235 2.136126 2039583
1.0572109 -0.17506316 2.1107047 2039583
1.0399311 -0.12513597 2.1362083 2039583
1.0572917 -0.12487906 2.1107936 2039583
1.0405399 -0.074765168 2.135525 2039583
1.0572665 -0.075032741 2.1110363 2039583
1.0405174 -0.024774801 2.1357646 2039583
1.057411 -0.025191652 2.1110311 2039583
1.040575 0.024776625 2.1358855 2039583
1.0574708 0.025193563 2.1111505 2039583
1.0407157 0.074778229 2.135886 2039583
1.0574453 0.075045943 2.1113937 2039583
-1.2608064 0.10477374 2.125216 2960685
-1.2248729 0.1047879 2.1255033 2960685
-1.1749016 0.10480764 2.1259036 2960685
-1.1249111 0.10482736 2.1263037 2960685
-1.0749023 0.10484711 2.1267042 2960685
-1.0248744 0.10486685 2.1271045 2960685
-0.97482747 0.10488663 2.1275053 2960685
-0.92476213 0.10490639 2.1279063 9145227
-0.87467766 0.10492613 2.1283076 10197915
-0.82545322 0.10494558 2.1287014 10197915
-0.77533144 0.10496536 2.1291027 10197915
-0.7251907 0.10498514 2.1295042 10197915
-0.67503101 0.10500496 2.1299059 10197915
-0.62485236 0.10502476 2.1303077 10197915
-0.57553571 0.10504424 2.1307025 10197915
-0.5253194 0.10506403 2.1311045 10197915
-0.4750843 0.10508388 2.1315067 10197915
-0.42483014 0.10510371 2.1319091 10132122
-0.37275365 0.10519508 2.1174715 10132122
-0.32486469 0.10522124 2.1163321 10132122
-0.27493668 0.10523826 2.1172936 10132122
-0.22499712 0.10526069 2.1171255 10132122
-0.17502654 0.10528044 2.1175227 10132122
-0.12503719 0.1053002 2.1179197 10132122
-0.075042441 0.10531723 2.1188822 10132122
-0.025019685 0.10533971 2.1187143 10132122
0.025025953 0.10535947 2.119112 10132122
0.074641354 0.10537771 2.1197889 10132122
0.12472241 0.10539751 2.120187 10132122
0.17525813 0.10541879 2.1203058 10132122
0.22493406 0.10543706 2.1209834 10132122
0.27463022 0.10545807 2.1210952 10132122
0.32522127 0.10547669 2.1217802 10132122
0.37539622 0.10549652 2.1221788 10132122
0.4251439 0.10551752 2.1222911 10132122
0.47491533 0.10553584 2.1229701 10197915
0.52470213 0.10555685 2.1230822 10197915
0.57495421 0.10557668 2.123481 10197915
0.62477046 0.10559496 2.1241593 10197915
0.67505819 0.10561483 2.1245589 10197915
0.7253648 0.10563473 2.1249588 10197915
0.77524263 0.10565576 2.1250713 10197915
0.82514483 0.10567411 2.1257517 10197915
0.87506199 0.1056952 2.1258647 10197915
0.9249993 0.10571355 2.126545 10197915
0.9749561 0.10573464 2.1266582 10197915
1.0321641 0.10418085 2.1311111 8158332
1.0577118 0.1030432 2.1106703 6579300
0.99688768 -0.96619952 2.1957505 2039583
1.012249 -0.96122038 2.1732805 2039583
0.9969967 -0.92498565 2.19576 2039583
1.0142852 -0.92502439 2.17045 2039583
0.9970597 -0.87500423 2.1958747 2039583
1.0143259 -0.87496114 2.1705966 2039583
0.9973979 -0.82595068 2.1955817 2039583
1.0144109 -0.82499707 2.170676 2039583
0.99771643 -0.77489102 2.1953263 2039583
1.0144681 -0.77506047 2.1708026 2039583
0.99778038 -0.72509044 2.1954393 2039583
1.0149128 -0.72487402 2.1703579 2039583
0.99746644 -0.67631572 2.1961 2039583
1.014733 -0.67482352 2.1708276 2039583
0.99733949 -0.6251573 2.1964977 2039583
1.0146213 -0.62502027 2.1711955 2039583
0.99739581 -0.57514095 2.1966219 2039583
1.0147045 -0.57500261 2.1712828 2039583
0.99745208 -0.52511859 2.1967463 2039583
1.014739 -0.52497882 2.1714363 2039583
0.99752349 -0.47486517 2.1968489 2039583
1.0148097 -0.47501403 2.1715398 2039583
0.99755007 -0.42482796 2.1970165 2039583
1.0148637 -0.4249787 2.1716676 2039583
0.9976362 -0.37479338 2.1970978 2039583
1.0149244 -0.3749702 2.1717868 2039583
0.99767774 -0.32497379 2.1972427 2039583
1.0149621 -0.32498831 2.1719375 2039583
0.99773413 -0.27492329 2.197367 2039583
1.0150471 -0.27500078 2.172019 2039583
0.99779063 -0.22486717 2.1974909 2039583
1.0150646 -0.2250073 2.1722012 2039583
0.99815923 -0.17651372 2.1971512 2039583
1.0151769 -0.17504065 2.1722426 2039583
0.9984507 -0.12469243 2.1969388 2039583
1.0152259 -0.12492514 2.1723773 2039583
0.99850708 -0.074637547 2.197063 2039583
1.0158807 -0.075175181 2.1716251 2039583
0.99856371 -0.024577022 2.1971877 2039583
1.0157988 -0.025194529 2.1719506 2039583
0.99861896 0.02457884 2.1973097 2039583
1.0158569 0.025196455 2.1720743 2039583
0.99867558 0.074650608 2.1974332 2039583
1.0160532 0.075188473 2.1719966 2039583
-1.3059012 0.10443576 2.1920426 2960685
-1.2730852 0.10452196 2.1769247 2960685
-1.224849 0.10454893 2.1756477 2960685
-1.1750529 0.10457 2.1757457 2960685
-1.125229 0.10458816 2.1764646 2960685
-1.0753933 0.10460927 2.1765616 2960685
-1.0255339 0.10462743 2.1772811 2960685
-0.97520548 0.10464721 2.1776936 5131854
-0.92531866 0.10466839 2.1777923 10197915
-0.87539798 0.10468656 2.1785121 10197915
-0.82547134 0.1047077 2.1786103 10197915
-0.7755155 0.1047259 2.1793303 10197915
-0.72554922 0.10474704 2.1794291 10197915
-0.67555767 0.10476526 2.1801493 10197915
-0.62509638 0.10478513 2.1805632 10197915
-0.57507885 0.1048063 2.1806622 10197915
-0.52502567 0.10482454 2.1813836 10197915
-0.47496822 0.10484577 2.1814826 10132122
-0.42487952 0.104864 2.1822038 10132122
-0.37478226 0.10488521 2.1823037 10132122
-0.32751381 0.10496353 2.1701601 10132122
-0.27462697 0.10500471 2.1663098 10132122
-0.22441062 0.10502451 2.1667187 10132122
-0.17507257 0.10504398 2.1671195 10132122
-0.12571615 0.10506342 2.167521 10132122
-0.075443588 0.10508324 2.1679299 10132122
-0.025152082 0.10510309 2.1683385 10132122
0.025158407 0.10512291 2.1687479 10132122
0.075487874 0.10514273 2.169157 10132122
0.12493705 0.10516223 2.169559 10132122
0.17440467 0.10518172 2.1699615 10132122
0.22479053 0.10520159 2.1703713 10132122
0.27519536 0.10522147 2.1707811 10132122
0.32561922 0.10524129 2.1711915 10132122
0.37516117 0.10526086 2.1715941 10132122
0.42472163 0.10528036 2.1719968 10197915
0.47520208 0.10530028 2.1724074 10197915
0.52479959 0.1053198 2.1728106 10197915
0.57441556 0.10533939 2.173214 10197915
0.62495279 0.10535933 2.1736259 10197915
0.67550898 0.10537926 2.1740372 10197915
0.72518086 0.10539889 2.1744411 10197915
0.77487135 0.10541844 2.174845 10197915
0.82548422 0.10543836 2.1752565 10197915
0.87521178 0.10545799 2.1756611 10197915
0.92495817 0.10547756 2.1760654 10197915
0.98071903 0.10484168 2.1817281 9342606
1.0151283 0.1029464 2.1726692 6776679
0.9634676 -1.0020627 2.2445292 2039583
0.97593325 -0.97251827 2.2264018 2039583
0.97706044 -0.92498934 2.2249482 2039583
0.97710222 -0.87501848 2.2250936 2039583
0.97750562 -0.82484007 2.2247105 2039583
0.97780275 -0.77498913 2.2244802 2039583
0.97786814 -0.72499681 2.224592 2039583
0.97790027 -0.67502898 2.2247508 2039583
0.97796404 -0.6250264 2.2248657 2039583
0.97800004 -0.57501686 2.2250175 2039583
0.97849572 -0.52516633 2.2244983 2039583
0.97870153 -0.47502947 2.2244062 2039583
0.97873008 -0.42501286 2.2245688 2039583
0.97879821 -0.37502167 2.2246761 2039583
0.97885776 -0.32499388 2.2247956 2039583
0.97889137 -0.27496091 2.2249539 2039583
0.97897887 -0.2249829 2.2250323 2039583
0.97940904 -0.1748334 2.2246108 2039583
0.97961664 -0.12506655 2.2245097 2039583
0.97975612 -0.074920848 2.2245142 2039583
0.97968072 -0.024886221 2.2248323 2039583
0.97973543 0.024888096 2.2249558 2039583
0.97992176 0.074933991 2.2248902 2039583
-1.3157563 0.10426401 2.2271714 2960685
-1.2744329 0.10428026 2.2275181 2960685
-1.224829 0.10429974 2.2279341 2960685
-1.1752061 0.10431924 2.2283511 2960685
-1.1255649 0.10433871 2.2287672 2960685
-1.0749851 0.10435862 2.2291923 2960685
-1.0243864 0.10437851 2.2296169 2960685
-0.97468859 0.10439804 2.2300334 8553090
-0.92497253 0.10441759 2.2304511 10197915
-0.87523758 0.10443711 2.2308683 10197915
-0.82548404 0.10445666 2.231286 10197915
-0.77571183 0.10447622 2.2317033 10197915
-0.72499877 0.10449611 2.2321293 10197915
-0.67426646 0.10451606 2.2325549 10197915
-0.62443781 0.10453564 2.2329733 10197915
-0.57459021 0.10455521 2.2333918 10197915
-0.52472413 0.10457478 2.2338099 10197915
-0.47483936 0.10459442 2.2342284 10197915
-0.42493579 0.10461405 2.2346475 10197915
-0.37501353 0.10463361 2.2350664 10132122
-0.32354903 0.10473138 2.2192411 10132122
-0.27521908 0.1047586 2.2179079 10132122
-0.22517847 0.10477675 2.218646 10132122
-0.17512055 0.10479796 2.2187417 10132122
-0.12504447 0.10481613 2.21948 10132122
-0.074946709 0.1048374 2.2195764 10132122
-0.024835171 0.10485555 2.220315 10132122
0.024841342 0.10487508 2.2207282 10132122
0.074990451 0.10489634 2.2208238 10132122
0.12516338 0.10491455 2.2215636 10132122
0.17489578 0.10493407 2.2219777 10132122
0.22509636 0.10495538 2.222074 10132122
0.27533078 0.10497358 2.2228143 10132122
0.32511827 0.10499627 2.2225726 10132122
0.37491149 0.10501274 2.2236428 10197915
0.4247371 0.10503234 2.2240582 10197915
0.47458118 0.1050519 2.224473 10197915
0.52490151 0.10507325 2.2245698 10197915
0.57524198 0.10509152 2.2253108 10197915
0.62514204 0.10511108 2.2257259 10197915
0.67505938 0.10513383 2.2254839 10197915
0.72498387 0.10515029 2.2265568 10197915
0.77493995 0.10516996 2.2269728 10197915
0.82491505 0.10518964 2.2273886 10197915
0.87490869 0.10520929 2.2278049 10197915
0.92491424 0.10523209 2.2275631 10197915
0.97662997 0.10336816 2.2238345 7566195
0.93639183 -1.0109144 2.2841322 2039583
0.95421076 -1.00504 2.258069 2039583
0.93790013 -0.97494394 2.2820759 2039583
0.95481861 -0.97486824 2.257304 2039583
0.93794245 -0.9250288 2.2822151 2039583
0.95485801 -0.92504519 2.2574513 2039583
0.93797779 -0.87506211 2.2823701 2039583
0.95492661 -0.8750084 2.2575591 2039583
0.93804979 -0.82504082 2.282474 2039583
0.95497119 -0.82496506 2.2577007 2039583
0.93809789 -0.77496773 2.2826085 2039583
0.95504892 -0.77502018 2.2577929 2039583
0.93813199 -0.72498351 2.2827666 2039583
0.95507878 -0.72496647 2.2579558 2039583
0.9381817 -0.67499375 2.2828989 2039583
0.95514268 -0.67490572 2.2580698 2039583
0.93828744 -0.62495065 2.2829528 2039583
0.95518696 -0.62494475 2.2582109 2039583
0.93830156 -0.57499647 2.2831383 2039583
0.95523137 -0.57497722 2.2583525 2039583
0.93834943 -0.52503651 2.2832758 2039583
0.95575225 -0.52448773 2.257798 2039583
0.93840104 -0.47497636 2.2834074 2039583
0.95594239 -0.47497314 2.2577243 2039583
0.93906218 -0.42495698 2.2826436 2039583
0.95596796 -0.42495462 2.2578936 2039583
0.93911731 -0.37495691 2.2827702 2039583
0.95604408 -0.37502533 2.2579894 2039583
0.93917346 -0.32499963 2.2828951 2039583
0.95608956 -0.32509157 2.2581286 2039583
0.93918586 -0.27503937 2.283083 2039583
0.95614135 -0.27505565 2.25826 2039583
0.93929088 -0.22492291 2.2831364 2039583
0.95624727 -0.22511062 2.258311 2039583
0.93930221 -0.17494912 2.2833273 2039583
0.95624924 -0.17497115 2.2585151 2039583
0.93941766 -0.1251208 2.2833624 2039583
0.95625806 -0.12472804 2.2587099 2039583
0.93922442 -0.075178705 2.2838516 2039583
0.95628393 -0.074779831 2.2588789 2039583
0.93894678 -0.024875689 2.2844667 2039583
0.95583153 -0.025276765 2.2597456 2039583
0.93900025 0.024877558 2.2845953 2039583
0.95588577 0.025278695 2.2598739 2039583
0.93891299 0.074986644 2.2849295 2039583
0.95598775 0.075162888 2.2599316 2039583
-1.352056 0.10407645 2.2632215 2960685
-1.3249993 0.10408706 2.2634523 2960685
-1.2746043 0.10410681 2.2638822 2960685
