# .PCD v0.7 - Point Cloud Data file format
VERSION 0.7
FIELDS x y z rgb
SIZE 4 4 4 4
TYPE F F F U
COUNT 1 1 1 1
WIDTH 217
HEIGHT 1
VIEWPOINT 0 0 0 1 0 0 0
POINTS 217
DATA ascii
-0.35264125 0.10887627 0.44650093 10197915
-0.31954178 0.10920113 0.42757624 10197915
-0.27515486 0.10937252 0.42350456 10197915
-0.22501022 0.10950804 0.42360705 10197915
-0.17500617 0.10964596 0.42345667 10197915
-0.12515281 0.10978122 0.42354691 10197915
-0.07484258 0.10991909 0.42345065 10197915
-0.025009295 0.11005195 0.42367154 10197915
0.025015956 0.11019059 0.42350245 10197915
0.074987397 0.11032816 0.42338419 10197915
0.12490186 0.11045959 0.42378238 10197915
0.17513089 0.11060256 0.42328575 10197915
0.22498392 0.11073469 0.42359522 10197915
0.27497002 0.11087026 0.42364967 10197915
0.31957918 0.11094511 0.42740449 10197915
0.35261452 0.11079684 0.44662505 10197915
0.28073046 -0.21127512 0.49708569 2894892
0.32449862 -0.2096806 0.49031124 2894892
0.36612818 -0.20819934 0.48386738 2894892
0.28259674 -0.17548703 0.49726909 2894892
0.32519189 -0.1750382 0.49066207 2894892
0.36665028 -0.17495021 0.48422572 2894892
0.28470623 -0.12556429 0.49760222 2894892
0.3252005 -0.12504083 0.49132118 2894892
0.36688802 -0.1249499 0.48485056 2894892
0.28680399 -0.075651951 0.49793622 2894892
0.32520455 -0.075033352 0.49198171 2894892
0.36713231 -0.074967809 0.48547262 2894892
0.28890949 -0.025787942 0.49826857 2894892
0.32519338 -0.025018629 0.49264458 2894892
0.36736909 -0.024977505 0.4860965 2894892
0.29101431 0.024011984 0.49859977 2894892
0.32519776 0.024994208 0.49330494 2894892
0.36760303 0.025014639 0.48672119 2894892
0.29313326 0.07369528 0.49892756 2894892
0.32518789 0.074994445 0.4939681 3026478
0.36783192 0.0750205 0.48734763 3355443
-0.36578146 0.10842684 0.47985169 7303023
-0.32510349 0.10861083 0.47396243 8750469
-0.27480397 0.10875347 0.47350609 9408399
-0.22500587 0.10888824 0.47358522 9934743
-0.17508607 0.10901867 0.47404096 10197915
-0.12481743 0.10916405 0.4733623 10197915
-0.075009234 0.10929641 0.47364137 10197915
-0.025055852 0.10942614 0.47414958 10197915
0.025062546 0.10957422 0.47322151 10197915
0.074991815 0.1097043 0.47370887 10197915
0.12509046 0.10983578 0.47411206 10197915
0.17499369 0.10998292 0.47321808 10197915
0.22499098 0.11011251 0.47376806 10197915
0.27804551 0.10943538 0.47770181 10132122
0.32479128 0.10784882 0.48225743 10132122
0.36592588 0.10704973 0.48229936 10197915
-0.055591878 -0.22418481 0.549133 2894892
-0.025141185 -0.2217389 0.54443645 2894892
0.024764614 -0.22001968 0.53671193 2894892
0.074764691 -0.21828745 0.52897179 2960685
0.12479977 -0.21656498 0.52122563 2960685
0.17478159 -0.21483611 0.51348805 2960685
0.22466721 -0.2131159 0.50576574 2960685
0.25589833 -0.21173286 0.50093532 2894892
-0.05361132 -0.17756724 0.54944181 2894892
-0.024832254 -0.17500921 0.54500794 2894892
0.025151333 -0.17501374 0.53724694 2894892
0.075210057 -0.17502992 0.52947491 2894892
0.12525873 -0.17503576 0.5217036 2960685
0.17516816 -0.17496611 0.51395553 2960685
0.22516045 -0.17505717 0.50619292 2894892
0.25760123 -0.17377412 0.50117189 2894892
-0.051692463 -0.13177328 0.54974931 2894892
-0.024862899 -0.12501565 0.54567307 2894892
0.025182378 -0.12501581 0.53790259 2894892
0.07511393 -0.12500876 0.53015047 2894892
0.12509191 -0.12500845 0.52239114 2894892
0.1751727 -0.12506171 0.51461458 2894892
0.22521684 -0.12497619 0.50684583 2894892
0.25974172 -0.12411649 0.5014962 2894892
-0.050355107 -0.098431684 0.54998249 2894892
-0.02408161 -0.075369753 0.54620767 2894892
0.025203235 -0.075012133 0.53856051 2894892
0.075216979 -0.07499709 0.53079545 2894892
0.12523095 -0.075033285 0.52303016 2894892
0.17523025 -0.075001203 0.51526737 2894892
0.2251806 -0.075004853 0.50751305 2894892
0.26184168 -0.074301653 0.50182921 2894892
-0.021987224 -0.025412843 0.54654294 2894892
0.025251633 -0.025008911 0.53921479 2894892
0.075291187 -0.024999665 0.53144509 2894892
0.12518327 -0.025020441 0.52369839 2894892
0.17513078 -0.025052436 0.51594311 2894892
0.22516781 -0.025002163 0.50817519 2894892
0.26398814 -0.024354871 0.50215572 2894892
-0.019876964 0.024553604 0.54687589 2894892
0.025267998 0.024974292 0.53987306 2894892
0.075244606 0.024954353 0.53211284 2894892
0.12521465 0.025039107 0.52435565 2894892
0.17526244 0.024969354 0.5165841 2894892
0.22521314 0.024951642 0.50882846 2894892
0.26613954 0.025586879 0.50248176 2894892
-0.017793979 0.074497685 0.54721296 2894892
0.025095005 0.074968323 0.54055995 2894892
0.075070448 0.07501813 0.53280181 2894892
0.12509961 0.074952975 0.52503318 2894892
0.17511986 0.075017378 0.5172677 2894892
0.22518145 0.074947275 0.50949466 2894892
0.26829907 0.075503878 0.50280643 2894892
-0.41201341 0.10763966 0.53317267 2894892
-0.37498954 0.10785589 0.52387029 2894892
-0.32487893 0.10798719 0.52429366 2894892
-0.27519882 0.10813384 0.52339208 2894892
-0.22500744 0.10826661 0.52371663 2894892
-0.17490885 0.10839695 0.52421314 3223857
-0.12522057 0.10853992 0.52361339 4079166
-0.075006105 0.10867691 0.52360302 4671303
-0.02245084 0.10731386 0.53124982 4539717
0.024708962 0.10684165 0.52946055 4934475
0.074661091 0.10666037 0.52529681 5395026
0.12468557 0.10641069 0.52059448 5987163
0.17466624 0.10617905 0.51487988 6908265
0.22461142 0.10572785 0.50901055 7895160
0.2691617 0.10521151 0.50296539 9145227
-0.36853579 -0.25866538 0.5972659 2894892
-0.32589501 -0.25712031 0.59066558 2894892
-0.27610186 -0.2554 0.58295703 2829099
-0.22685932 -0.25369588 0.57533407 2894892
-0.17863275 -0.25203303 0.56786907 2894892
-0.13979025 -0.25068954 0.56185544 2894892
-0.36656171 -0.22557206 0.59739655 2894892
-0.32484201 -0.22498909 0.59092599 2894892
-0.27490282 -0.22504275 0.58317262 2894892
-0.2248251 -0.22497863 0.57539779 2894892
-0.17476383 -0.22504017 0.56762528 2829099
-0.12489225 -0.22487512 0.55988336 2829099
-0.08058849 -0.22326779 0.55302632 2894892
-0.36447835 -0.17557926 0.59773386 2894892
-0.32481784 -0.17507215 0.59158295 2894892
-0.27477866 -0.17499359 0.58381516 2894892
-0.2248297 -0.17502676 0.57605892 2894892
-0.17493039 -0.17500764 0.56831169 2894892
-0.12493595 -0.17501521 0.56054968 2894892
-0.078394338 -0.17458516 0.55332935 2894892
-0.36238363 -0.12565248 0.59806865 2894892
-0.32482445 -0.12502566 0.59224564 2894892
-0.27484295 -0.12501429 0.58448565 2894892
-0.22480895 -0.12501299 0.57671726 2894892
-0.17472245 -0.12501815 0.56893998 2894892
-0.12479246 -0.12498654 0.56118834 2894892
-0.076206498 -0.12467839 0.55364996 2894892
-0.36027133 -0.075903937 0.59839886 2894892
-0.32487157 -0.074980602 0.59291476 2894892
-0.27483219 -0.07506685 0.58514345 2894892
-0.22485887 -0.075007223 0.57738608 2894892
-0.17487894 -0.074999526 0.56962633 2894892
-0.12476827 -0.07502155 0.56184578 2894892
-0.074858911 -0.074988492 0.55409724 2894892
-0.048882503 -0.064881131 0.55019748 2894892
-0.35816985 -0.026258582 0.59872854 2894892
-0.32484612 -0.024995897 0.59357154 2894892
-0.27483481 -0.024951559 0.58580709 2894892
-0.22479047 -0.025025792 0.57803637 2894892
-0.1748416 -0.025005545 0.57028109 2894892
-0.12486427 -0.025063694 0.56252116 2894892
-0.074874409 -0.02496006 0.55476087 2894892
-0.047041535 -0.022338774 0.55047369 2894892
-0.35602504 0.023562735 0.5990544 2894892
-0.32478133 0.025001576 0.59422213 2894892
-0.27484727 0.024932217 0.5864687 2894892
-0.22489527 0.025010617 0.57871372 2894892
-0.17479652 0.024981577 0.57093495 2894892
-0.12482133 0.024997415 0.56317568 2894892
-0.074783638 0.024982659 0.55540687 2894892
-0.044783819 0.026833484 0.55077344 2894892
-0.35395604 0.072923988 0.59938574 2894892
-0.32485226 0.074997529 0.59489423 2894892
-0.27479777 0.074947253 0.58712268 2894892
-0.22476859 0.07502678 0.57935578 2894892
-0.17485113 0.074925154 0.57160395 2894892
-0.12488551 0.075058065 0.56384772 2894892
-0.074781813 0.074927844 0.55606699 2894892
-0.042734705 0.076268442 0.55110931 2894892
-0.45872223 0.10683716 0.58762354 2894892
-0.4239645 0.10709844 0.57419419 2894892
-0.37375426 0.10700665 0.57541299 2894892
-0.32527855 0.10586351 0.58134729 2894892
-0.27515662 0.10581421 0.57682586 2894892
-0.22535253 0.10567661 0.57243031 2894892
-0.17540899 0.10545742 0.56777483 2894892
-0.12515651 0.10515624 0.56228709 2894892
-0.075370066 0.10478519 0.55593836 2894892
-0.041579232 0.10439212 0.55127048 2894892
-0.47030336 -0.26206592 0.61302108 2894892
-0.42559108 -0.26059723 0.60609871 2894892
-0.39321041 -0.25924635 0.60108912 2894892
-0.4701519 -0.22495636 0.61348838 2894892
-0.42483091 -0.22503167 0.60645062 2894892
-0.39156178 -0.22387941 0.60130072 2894892
-0.47045463 -0.17496406 0.61419612 2894892
-0.42484045 -0.17499672 0.60711408 2894892
-0.38944003 -0.17417198 0.60162818 2894892
-0.47074556 -0.12497707 0.6149022 2894892
-0.42484072 -0.12496971 0.60777485 2894892
-0.38731396 -0.12435105 0.60195708 2894892
-0.47101101 -0.074984893 0.61560434 2894892
-0.42483079 -0.074971005 0.60843474 2894892
-0.3851541 -0.07444001 0.60228145 2894892
-0.47136855 -0.025000518 0.61632091 2894892
-0.4248639 -0.024967216 0.6091007 2894892
-0.38304454 -0.024496116 0.60261422 2894892
-0.47162205 0.024984945 0.61702126 2894892
-0.4248561 0.025022561 0.60976034 2894892
-0.38091379 0.025455927 0.6029436 2894892
-0.47192737 0.074991591 0.61772931 2894892
-0.42484105 0.074980959 0.61041826 2894892
-0.37872964 0.075447619 0.60326487 2894892
-0.47093827 0.10432833 0.61514533 2894892
-0.42559463 0.10423862 0.6092791 2894892
-0.37817422 0.10376856 0.60332888 2894892
