# .PCD v0.7 - Point Cloud Data file format
VERSION 0.7
FIELDS x y z rgb
SIZE 4 4 4 4
TYPE F F F U
COUNT 1 1 1 1
WIDTH 1163
HEIGHT 1
VIEWPOINT 0 0 0 1 0 0 0
POINTS 1163
DATA ascii
-2.1631041 -0.72434956 4.0009627 1322569
-2.1632652 -0.67467326 4.0012608 1124421
-2.1634262 -0.62498945 4.0015588 1124678
-1.853459 -0.61558324 4.0487251 6447714
-1.8232288 -0.61544114 4.0276089 5261384
-1.7760496 -0.61536407 4.0254288 7817031
-1.7258135 -0.61529076 4.0249486 9188918
-1.6755894 -0.61521739 4.0244699 7803410
-1.6264369 -0.6151408 4.0229511 7606031
-1.5954597 -0.6150158 4.0057197 7606031
-1.2024691 -0.61463261 4.0424728 3750201
-1.1739676 -0.61453784 4.0308967 5385517
-1.123735 -0.61446446 4.0304155 6039849
-1.0743356 -0.61439055 4.0295525 6566193
-1.037398 -0.61433482 4.0288348 6566193
-0.91217387 -0.61415893 4.0291424 6172722
-0.87442797 -0.61410034 4.0280275 6566193
-0.82426673 -0.61402708 4.0275469 6566193
-0.77411741 -0.61395395 4.0270667 6566193
-0.72398007 -0.61388069 4.0265865 6566193
-0.67385477 -0.61380744 4.0261064 6566193
-0.62374139 -0.61373425 4.0256262 6442060
-0.57229519 -0.62610251 4.024312 5263440
-2.1635873 -0.57529837 4.0018568 1190727
-2.1626363 -0.52138817 4.0016298 1059142
-2.1601462 -0.47899008 4.0006008 1256776
-2.1595674 -0.42594659 4.0005517 1454922
-2.1597281 -0.37625319 4.0008497 1388617
-2.1598942 -0.3248955 4.0011578 1388874
-2.1181211 -0.30348232 4.0188947 1191495
-2.074537 -0.30591476 4.0350318 1913417
-2.0240593 -0.30586517 4.0343776 6447714
-1.9735972 -0.30581555 4.0337234 6447714
-1.9248331 -0.30576769 4.0330911 6513507
-1.899615 -0.3057428 4.0327635 6513507
-1.8172684 -0.30566177 4.0316954 3684408
-1.7752718 -0.30562055 4.0311503 2039583
-1.7248908 -0.30557099 4.030498 2039583
-1.6627815 -0.31884357 4.0219765 2039583
-1.6490102 -0.32008234 4.0450702 2039583
-1.2602022 -0.30298051 4.0182867 2039583
-1.1819643 -0.30507681 4.0239792 4083290
-0.87019825 -0.31962582 4.0393004 6447714
-0.82437778 -0.31832951 4.0169158 6447714
-0.77631509 -0.3176555 4.0175824 5066061
-2.1600611 -0.27353007 4.0014668 1389130
-2.1212592 -0.27430242 4.012764 1323337
-1.2602487 -0.27468991 4.0184336 2239284
-0.80893999 -0.27407488 4.0094371 5534351
-0.77994496 -0.27443254 4.0120988 2240315
-2.1602216 -0.22381394 4.0017643 1323081
-2.1213446 -0.22443826 4.0129247 1191239
-1.2603302 -0.22476085 4.0186949 2240316
-0.80898613 -0.2242559 4.009666 5405346
-0.77992016 -0.22440949 4.012413 3754844
-2.1601062 -0.17263481 4.0019341 1190982
-2.1214302 -0.1745701 4.0130868 1124933
-1.2604119 -0.17482527 4.0189548 2108470
-0.80903232 -0.17443116 4.0098944 4748192
-0.77996582 -0.17455086 4.0126467 3689053
-2.1582935 -0.12432531 4.0012612 1060167
-2.121515 -0.12469789 4.013248 1059653
-1.2604935 -0.12488322 4.0192142 2042165
-0.80907851 -0.12460073 4.0101233 3762073
-0.78001148 -0.12468646 4.0128818 3557468
-2.1584539 -0.074600607 4.0015597 927556
-2.1216006 -0.074821673 4.0134101 927299
-1.2605752 -0.074934661 4.0194755 2042164
-0.80912483 -0.074764594 4.0103526 3039636
-0.78005713 -0.074816145 4.0131159 3426139
-2.1586146 -0.024868518 4.0018573 1125446
-2.121686 -0.024941448 4.0135713 1125189
-1.2606566 -0.024979658 4.0197353 1976113
-0.80917096 -0.024922803 4.0105801 2711443
-0.78010261 -0.024940014 4.0133514 3294810
-2.1587753 0.024870986 4.0021558 993604
-2.1217711 0.024942787 4.0137334 993091
-1.2607388 0.024981815 4.0199962 1975854
-0.80921733 0.024924697 4.0108109 2250637
-0.7804181 0.025512351 4.0130649 3163225
-2.1589255 0.07130114 4.0024343 860993
-2.1218519 0.071505003 4.0138845 728637
-1.8087994 0.094501905 4.001873 1786223
-1.7760873 0.094525732 4.002883 5398381
-1.7253528 0.094562687 4.004447 10066329
-1.6745789 0.094599694 4.0060139 10000536
-1.625405 0.094635509 4.0075312 10000536
-1.595884 0.094657026 4.0084419 10000536
-1.5121644 0.094718024 4.0110245 1454158
-1.474372 0.094745532 4.0121903 8488330
-1.4250463 0.094781473 4.0137119 10197915
-1.3756831 0.094817437 4.0152349 10197915
-1.3262821 0.094853424 4.0167589 10197915
-1.2638108 0.075980932 4.0198412 7370365
-1.1662972 0.094969966 4.0216942 4937832
-1.1249992 0.095000051 4.0229683 10000536
-1.0754079 0.095036179 4.0244985 10000536
-1.0373634 0.095063895 4.0256715 10000536
-0.86671299 0.09518823 4.0309367 10000536
-0.81192076 0.075382181 4.0131731 3694989
-0.78008461 0.073840067 4.0132675 4544106
-0.72388536 0.095292263 4.0353427 10197915
-0.67398858 0.095328644 4.0368824 10197915
-0.62405366 0.095365003 4.0384221 10197915
-0.57408053 0.095401406 4.0399642 10197915
-0.52406937 0.095437855 4.0415068 10197915
-0.47401994 0.095474288 4.0430512 10197915
-0.42393225 0.095510803 4.0445962 10197915
-0.37380633 0.095547318 4.0461431 10197915
-0.32364196 0.095583841 4.0476904 10197915
-0.27511352 0.095619209 4.0491872 10197915
-0.24999987 0.09563753 4.0499635 10197915
-1.8622096 -0.61576915 4.0856028 6184542
-1.8251228 -0.61570406 4.0829272 6893359
-1.7758619 -0.61563212 4.0824504 9711921
-1.7249141 -0.61555767 4.0819564 8790305
-1.6748115 -0.61548269 4.0810719 7606031
-1.6346171 -0.61541981 4.0797958 7606031
-1.2079999 -0.61481351 4.0792613 3025450
-1.1745938 -0.61475194 4.0762267 6369328
-1.1255349 -0.61468399 4.0765491 6039849
-1.0755655 -0.61460918 4.0756664 6566193
-1.04309 -0.61454809 4.072463 6566193
-0.9174363 -0.61438072 4.0746846 6303794
-0.87506151 -0.61431813 4.0741224 6566193
-0.82517594 -0.61424339 4.0732408 6566193
-0.77531677 -0.6141687 4.07236 6566193
-0.7254464 -0.61409771 4.0722747 6566193
-0.67475224 -0.61402363 4.0717835 6566193
-0.62407023 -0.61394966 4.0712929 6502456
-0.56450373 -0.62104255 4.0646405 6052699
-0.54140586 -0.62802762 4.082129 6513507
-2.1162477 -0.30618769 4.0832572 1191238
-2.0753758 -0.30614746 4.0827203 4344662
-2.0243013 -0.30609721 4.0820508 6513507
-1.9749448 -0.30604869 4.0814037 6513507
-1.9358107 -0.30601025 4.0808907 6513507
-1.8524706 -0.30592811 4.0797954 6447714
-1.8252685 -0.30590135 4.0794387 2565927
-1.7759751 -0.30585289 4.0787926 2039583
-1.7249984 -0.30580276 4.078124 2039583
-1.6740386 -0.30575266 4.077456 2039583
-1.6363283 -0.32008263 4.0716419 2039583
-0.87149775 -0.30510828 4.0688634 6513507
-0.83937663 -0.30507457 4.0684133 6447714
-0.75570989 -0.31801748 4.0576925 4868682
-0.74213052 -0.31951186 4.0805912 5263440
-0.22487368 0.095655814 4.0507379 10197915
-0.17627169 0.095691219 4.0522366 10197915
-0.1259561 0.095727876 4.0537887 10197915
-0.075602002 0.095764555 4.0553427 10197915
-0.025209252 0.095801257 4.0568972 10197915
0.025222128 0.095837981 4.0584521 10197915
0.075692207 0.095874771 4.0600104 10197915
0.12620102 0.09591157 4.0615683 10197915
0.17506287 0.095947154 4.0630751 10197915
0.22396143 0.09598279 4.0645843 10197915
0.27458417 0.096019663 4.0661459 7697781
0.32017729 0.096052878 4.0675521 6513507
-1.8731145 -0.61600083 4.1315579 5196105
-1.8255341 -0.61592513 4.1297755 9318448
-1.7757074 -0.61585236 4.1292872 9777457
-1.7250133 -0.6157763 4.1283827 7869203
-1.6752517 -0.6157074 4.1287122 6426383
-1.6434062 -0.61563504 4.1229167 5836559
-1.214892 -0.61503899 4.1251073 4271148
-1.1752855 -0.61497498 4.1234045 6500400
-1.1256125 -0.61490232 4.1229181 6039849
-1.0750798 -0.61482662 4.122015 6566193
-1.0472581 -0.61473203 4.1103258 6566193
-0.92283428 -0.61460805 4.1213689 6369329
-0.87485838 -0.61453778 4.1208687 6566193
-0.82526499 -0.61446142 4.1195674 6566193
-0.77481556 -0.61438966 4.1194811 6566193
-0.72523695 -0.61431724 4.1189947 6566193
-0.67567039 -0.61424482 4.1185093 6566193
-0.62440664 -0.6141699 4.1180072 6566193
-0.57486355 -0.61409748 4.1175218 5851208
-0.52265728 -0.62536079 4.1243687 6513507
-0.51218253 -0.57577509 4.1486402 4140602
-0.51220965 -0.52424073 4.14886 1388617
-0.5117346 -0.47814035 4.148809 1520202
-0.51043111 -0.42449966 4.1483774 1388360
-0.51045722 -0.37467885 4.1485896 1322568
-2.1038067 -0.30641285 4.1319165 5067866
-2.0745113 -0.30638403 4.1315279 6513507
-2.024549 -0.30633482 4.1308646 6513507
-1.9746026 -0.30628577 4.1302028 6513507
-1.9470516 -0.30625856 4.1298361 6513507
-1.8644309 -0.30617714 4.1287384 4079166
-1.824858 -0.30613822 4.1282125 2039583
-1.7749754 -0.3060891 4.1275511 2039583
-1.7251091 -0.30603996 4.1268888 2039583
-1.6752585 -0.30599096 4.1262279 2039583
-1.6443239 -0.30596048 4.1258163 2039583
-1.0734576 -0.31208599 4.1390481 2039583
-0.90244758 -0.30536506 4.1177874 6513507
-0.87507057 -0.30533633 4.1173992 6447714
-0.84427619 -0.30530393 4.1169629 6447714
-0.76561141 -0.30522138 4.1158495 2039583
-0.72212189 -0.31922498 4.1233063 5131854
-0.51048332 -0.32485279 4.1488023 1190983
-0.51050943 -0.27502173 4.1490145 1058885
-0.51053566 -0.22518553 4.1492271 1124933
-0.5105617 -0.17534424 4.1494398 1190983
-0.51058787 -0.1254978 4.149652 1191239
-0.51061404 -0.075646333 4.1498647 1125446
-0.51062846 -0.048140056 4.1499815 1059653
-2.1544192 0.093670398 4.1109033 662330
-2.1242561 0.093692206 4.1118608 661814
-2.0739572 0.093728624 4.1134586 8027780
-2.0236194 0.093765087 4.1150584 10132122
-1.9749219 0.093800329 4.1166062 10197915
-1.9446789 0.093822233 4.1175671 10197915
-1.8605922 0.093883105 4.1202383 1588071
-1.8252423 0.093908705 4.1213617 5792880
-1.7747104 0.09394528 4.1229677 10000536
-1.7241393 0.093981907 4.1245747 10000536
-1.6752164 0.094017334 4.1261292 10000536
-1.6448331 0.094039321 4.1270943 10000536
-1.560357 0.094100498 4.1297793 1323087
-1.524843 0.094126195 4.1309071 6055795
-1.4740765 0.094162948 4.1325202 10000536
-1.4249651 0.094198518 4.1340809 10197915
-1.3758163 0.094234109 4.1356425 10197915
-1.3283273 0.094268471 4.1371512 10197915
-1.2094535 0.09435454 4.1409283 1058884
-1.1754481 0.094379172 4.1420088 9540243
-1.1244085 0.094416119 4.143631 10000536
-1.0767361 0.094450638 4.1451459 10000536
-1.9093529 -0.61628872 4.1818447 6447714
-1.8746325 -0.61622244 4.1781945 6304820
-1.8259544 -0.61615127 4.1777124 9711921
-1.7755494 -0.61607754 4.1772122 8202023
-1.7251564 -0.61600393 4.176713 4853519
-1.6788516 -0.61592942 4.1747999 4329231
-1.2220407 -0.61527282 4.1726565 4992301
-1.1751007 -0.61519986 4.1712608 6039849
-1.1248515 -0.61512637 4.1707625 6434607
-1.0796872 -0.61505514 4.1692147 6566193
-0.95392638 -0.61490488 4.175117 5255223
-0.9248389 -0.61483204 4.1683636 6566193
-0.8746506 -0.61476254 4.1686997 6566193
-0.82448173 -0.6146853 4.1673679 6566193
-0.77517653 -0.61461514 4.1672969 6566193
-0.72502285 -0.61454189 4.1668 6566193
-0.67488068 -0.61446857 4.1663032 6566193
-0.62475073 -0.61439526 4.1658063 6566193
-0.56905335 -0.61185706 4.1661558 6238770
-0.51968753 -0.61429369 4.1567187 6510423
-0.49199295 -0.62246895 4.1812859 6513507
-0.55635583 -0.57535958 4.1705461 4804974
-0.52559322 -0.57477951 4.1582165 4604752
-0.49198991 -0.57515585 4.1816502 6513507
-0.55638438 -0.52528024 4.1707587 4353692
-0.52527398 -0.52487206 4.1581979 3624032
-0.49202639 -0.52495474 4.1819568 6513507
-0.55641299 -0.47519562 4.1709757 4287899
-0.52526236 -0.47444013 4.1583967 3558240
-0.4921101 -0.47503403 4.1821656 6513507
-0.55644172 -0.42510596 4.1711893 4156827
-0.52445048 -0.42497909 4.1580043 3361119
-0.49205017 -0.42481908 4.1826649 6513507
-0.55647045 -0.37501112 4.1714044 3959707
-0.52483952 -0.37501743 4.1585002 3163999
-0.49226418 -0.37488863 4.18261 6513507
-2.2036772 -0.30785385 4.1982565 1388873
-2.0666513 -0.30661964 4.1814251 6513507
-2.0248036 -0.30657843 4.1808624 6513507
-1.9829669 -0.30653718 4.1803002 6513507
-1.874941 -0.30643067 4.1788483 2045262
-1.8244382 -0.30638093 4.1781688 2039583
-1.7756929 -0.30633292 4.1775146 2039583
-1.7252229 -0.30628318 4.1768365 2039583
-1.6782478 -0.30623686 4.1762052 2039583
-1.5798502 -0.31811798 4.1867394 3819607
-1.169746 -0.30949965 4.1863112 2039583
-1.1258292 -0.31075892 4.1680684 2039583
-1.0848879 -0.30771497 4.1650887 2039583
-0.90816987 -0.30560088 4.167532 6513507
-0.87526685 -0.30556625 4.1670599 6447714
-0.76967853 -0.30545518 4.165545 2039583
-0.71190286 -0.31484976 4.1601501 4210752
-0.69167167 -0.32040551 4.1834078 5329233
-0.55649894 -0.32491112 4.1716189 3565464
-0.52450961 -0.32510412 4.158473 2901085
-0.49202505 -0.32493591 4.1834722 6513507
-2.2037408 -0.27481517 4.1983771 1191752
-1.580357 -0.27482823 4.1867905 2703447
-1.1685561 -0.27489725 4.1859441 4546684
-1.145583 -0.27468067 4.1893573 3359571
-0.55652767 -0.27480596 4.171834 3104916
-0.52495891 -0.27499065 4.1589856 2769500
-0.49235108 -0.27471572 4.1831932 6513507
-2.2038381 -0.22438426 4.1985626 1257031
-1.5802479 -0.22525491 4.1873264 2506584
-1.1689667 -0.22546563 4.1863461 4485276
-1.1455814 -0.22564554 4.1896853 2637654
-0.55655628 -0.22469567 4.1720481 2842002
-0.52450693 -0.22507617 4.158926 2638171
-0.49215922 -0.22502996 4.1839557 6513507
-2.2039354 -0.17394893 4.1987481 1124933
-1.5804445 -0.17497525 4.1873016 2177879
-1.1690336 -0.17517935 4.1865845 4025243
-1.14564 -0.17531814 4.189899 2243413
-0.55658495 -0.17458016 4.1722627 2644880
-0.52501804 -0.17507529 4.1594553 2638428
-0.49235663 -0.17479493 4.1839366 6513507
-2.2040293 -0.12524852 4.1989274 993861
-1.5804625 -0.12491108 4.1876144 1783636
-1.1690998 -0.12488743 4.1868219 3236501
-1.1456985 -0.12498562 4.1901135 1717842
-0.55661368 -0.12445956 4.1724787 2513808
-0.52456588 -0.1251567 4.1593933 2507099
-0.49231365 -0.12481514 4.1844015 6513507
-2.2041261 -0.07480441 4.1991124 927555
-1.5805392 -0.074603193 4.1878176 1520979
-1.169167 -0.074589677 4.1870604 2776466
-1.1457573 -0.074647896 4.1903276 1454928
-0.55664223 -0.074333742 4.1726928 2448271
-0.52507675 -0.075137518 4.1599212 2441307
-0.49234995 -0.074547686 4.1847072 6513507
-2.2042236 -0.024355892 4.1992974 1059652
-1.5806159 -0.024290472 4.1880212 1455443
-1.1692333 -0.024286255 4.1872997 2514064
-1.1458157 -0.024305085 4.1905432 1389650
-0.55667084 -0.024202805 4.1729088 2250636
-0.52372909 -0.025031315 4.1592383 2243671
-0.49238604 -0.024272941 4.1850147 6513507
-2.2043176 0.024357272 4.1994762 1058626
-1.5806897 0.024291987 4.1882167 1258065
-1.1692978 0.02428803 4.1875296 2184844
-1.1458724 0.024306683 4.1907496 1257808
-0.55669868 0.024204407 4.1731148 1986695
-0.52363092 0.025258662 4.1593838 2111828
-0.49242082 0.024275232 4.1853132 6513507
-2.2044082 0.071334578 4.1996489 728636
-1.5807618 0.071143635 4.188406 1191758
-1.1693599 0.071132556 4.1877518 2577801
-1.1459272 0.071186848 4.1909494 1257037
-0.90619177 0.094574094 4.1505637 10000536
-0.87544477 0.094596386 4.1515417 9080982
-0.84810495 0.094616167 4.1524105 3235473
-0.76943356 0.094673149 4.1549106 10000536
-0.7249248 0.094705358 4.1563249 10132122
-0.67524588 0.094741337 4.1579037 10197915
-0.62552857 0.094777323 4.159483 10197915
-0.56060565 0.076244161 4.1705847 4351373
-0.52416259 0.073458388 4.1598263 3558244
-0.4895477 0.074933223 4.1821599 8947848
-0.42456248 0.094922833 4.1658688 10197915
-0.37465456 0.094958968 4.1674547 10197915
-0.32470915 0.094995126 4.1690421 10197915
-0.27472523 0.095031314 4.17063 10197915
-0.2247036 0.095067538 4.1722193 10197915
-0.17464344 0.095103785 4.1738105 10197915
-0.12454549 0.095140047 4.1754017 10197915
-0.074408896 0.095176347 4.1769953 10197915
-0.024234472 0.095212676 4.1785893 10197915
0.024246367 0.095247783 4.1801295 10197915
0.074496605 0.095284149 4.1817265 10197915
0.12478478 0.095320575 4.1833243 10197915
0.17511185 0.095357008 4.1849236 10197915
0.22547697 0.095393486 4.1865239 10197915
0.27414212 0.095428705 4.1880708 8289918
0.3245835 0.095465235 4.1896729 6513507
-1.9208988 -0.61652845 4.2293396 5197647
-1.875634 -0.6164546 4.2272668 7745070
-1.8254753 -0.61638331 4.2271914 7156017
-1.7745371 -0.61630476 4.2258253 4987161
-1.7244027 -0.61623341 4.2257504 4329231
-1.6878368 -0.61616647 4.2225208 4329231
-1.2544751 -0.61556572 4.2251687 3158064
-1.2240094 -0.6155017 4.2207322 5778990
-1.1749115 -0.61542988 4.2202401 5974056
-1.1258252 -0.61535805 4.2197471 6566193
-1.0870893 -0.61529416 4.2178106 6566193
-0.95958632 -0.61512661 4.2205567 6041651
-0.9252153 -0.61506271 4.217309 6566193
-0.87531763 -0.61499178 4.2172351 6566193
-0.82541651 -0.61492074 4.2171617 6566193
-0.7746805 -0.61484253 4.2157993 6566193
-0.72480309 -0.61477166 4.2157264 6566193
-0.67582172 -0.6146999 4.2152352 6566193
-0.62510306 -0.61462581 4.2147264 6434607
-0.58396488 -0.61456227 4.2135863 5908520
-2.2011385 -0.30822912 4.2033739 1257543
-2.1953533 -0.3077538 4.2150445 1191751
-2.0550671 -0.30685729 4.2324905 5395026
-2.0250642 -0.30682781 4.2320833 3881787
-1.9950645 -0.30679816 4.2316751 2039583
-1.9121578 -0.30671638 4.230547 2246254
-1.8751287 -0.30667979 4.2300425 1976628
-1.8257701 -0.30663115 4.2293715 2039583
-1.7764271 -0.30658248 4.2287002 2039583
-1.7253388 -0.30653217 4.2280059 2039583
-1.6883532 -0.30649567 4.2275028 2039583
-1.5702276 -0.3177779 4.2063456 2898764
-1.1261854 -0.30496579 4.2154126 2236962
-1.0877008 -0.30602512 4.2210126 2039583
-0.91227865 -0.30584043 4.2184653 6513507
-0.87897247 -0.30580539 4.2179813 6447714
-0.77559692 -0.30569673 4.2164826 2039583
-0.72481191 -0.30564323 4.2157454 2039583
-0.67173594 -0.31954333 4.2257876 5131854
-2.2012019 -0.27515021 4.2034955 1191495
-2.195205 -0.27557203 4.2155871 1191495
-1.5702242 -0.27535591 4.2066379 1651531
-1.1376939 -0.27527699 4.2054343 3030608
-2.2012992 -0.22465774 4.203681 1191238
-2.1953964 -0.22496293 4.2155838 1190981
-1.5702964 -0.22482616 4.2068305 1651275
-1.1377523 -0.22476298 4.2056494 2111311
-2.2013967 -0.17416097 4.2038665 1124932
-2.1954465 -0.17465799 4.2158613 1059140
-1.5703686 -0.17429183 4.2070251 1519947
-1.1378108 -0.17424378 4.2058654 1979982
-2.2014902 -0.12540121 4.2040458 1059396
-2.1955409 -0.12575905 4.216043 1059396
-1.5704381 -0.12549563 4.207211 1256520
-1.1378671 -0.12546171 4.2060752 1585483
-2.2015877 -0.074895613 4.2042317 927554
-2.1956382 -0.075109333 4.2162285 1058882
-1.5705101 -0.074952103 4.2074041 1256776
-1.1379255 -0.07493224 4.2062902 1388362
-2.201685 -0.024385585 4.2044172 1125188
-2.1957355 -0.02445518 4.2164159 1125188
-1.5705826 -0.024404023 4.2075973 1257289
-1.1379842 -0.024397675 4.2065058 1257289
-2.2017787 0.024386972 4.204597 1058883
-2.1958292 0.024456574 4.2165956 1058882
-1.570652 0.024405468 4.2077842 1125447
-1.1380405 0.024399284 4.2067156 1125447
-2.2018695 0.071421564 4.2047696 794429
-2.1919112 0.075420603 4.2204223 794428
-2.1249406 0.093075968 4.2389598 9934743
-2.0748155 0.093112037 4.2406025 9934743
-2.0246518 0.093148105 4.2422457 10132122
-1.998691 0.093166776 4.2430954 10000536
-1.9138088 0.093227841 4.2458768 1521502
-1.8756611 0.093255274 4.2471261 4215656
-1.8253427 0.093291469 4.2487741 9408658
-1.7940925 0.09331394 4.2497978 10000536
-1.5707194 0.071475826 4.2079639 927298
-1.138095 0.071458042 4.2069159 1256263
0.7309866 -1.9046222 4.2761726 6447714
0.77494347 -1.9045842 4.2763143 6447714
0.81197441 -1.9064529 4.2820082 6447714
-1.9579213 -0.61684132 4.2846866 6447714
-1.9247211 -0.61676282 4.2779951 4864313
-1.8748747 -0.61668998 4.2774892 6566193
-1.8241795 -0.61661375 4.2765369 6237228
-1.7734423 -0.6165415 4.2764597 4329231
-1.7244978 -0.61646771 4.2754931 4329231
-1.6954527 -0.6163677 4.2629681 4329231
-1.2619565 -0.61580181 4.2730818 3615531
-1.2243994 -0.61573827 4.2708888 6566193
-1.1747183 -0.61566556 4.2703848 5974056
-1.1250488 -0.61559302 4.2698803 6566193
-1.0927589 -0.61553085 4.2663822 6566193
-0.96471429 -0.61536187 4.2689991 6238258
-0.92472094 -0.61529988 4.2678475 6566193
-0.87511057 -0.61522734 4.267344 6566193
-0.82551175 -0.61515474 4.2668409 6566193
-0.7759245 -0.61508214 4.2663374 6566193
-0.72544414 -0.61501038 4.2662621 6566193
-0.67415023 -0.61493123 4.2648683 6566193
-0.62708378 -0.61482584 4.2566299 6303021
-0.59185421 -0.61475331 4.2518024 6105642
-2.0253296 -0.30708328 4.284574 2039583
-1.9235227 -0.30698276 4.2831717 2244189
-1.8735361 -0.30693337 4.2824826 2039583
-1.8235662 -0.30688408 4.281795 2039583
-1.7736123 -0.30683479 4.2811069 2039583
-1.7272404 -0.30678901 4.2804689 2039583
-1.1242989 -0.3063049 4.2737141 4737096
-1.0940853 -0.3062731 4.2732697 6513507
-0.91826397 -0.30608782 4.2706847 6513507
-0.88454449 -0.30605236 4.2701902 6447714
-0.8047145 -0.30596837 4.2690182 2039583
-0.77456844 -0.30593657 4.2685747 2039583
-0.7249288 -0.3058843 4.2678452 2039583
-0.66223067 -0.31549239 4.2619677 4210752
-0.64264327 -0.32064408 4.2833476 5329233
-1.7697746 0.093331434 4.2505946 10000536
-1.7245886 0.093363933 4.2520747 10000536
-1.6932902 0.093386464 4.2531004 10000536
-1.5661943 0.093477868 4.2572637 4543332
-1.5243546 0.093507953 4.2586341 10000536
-1.4755085 0.093543075 4.2602339 9277845
-1.4248787 0.093579508 4.2618923 10132122
-1.3742101 0.093615957 4.2635522 10197915
-1.3479879 0.093634807 4.264411 10197915
-1.2534951 0.093702734 4.2675047 1125448
-1.2307259 0.093719155 4.2682524 6515831
-1.1255362 0.093794823 4.271699 9474707
-1.0939474 0.093817517 4.2727318 10066329
-0.91992849 0.093942709 4.2784333 10197915
-0.88647836 0.093966767 4.2795291 7504789
-0.80542231 0.094025075 4.2821851 10197915
-0.77367544 0.094047897 4.2832241 10197915
-0.72426337 0.094083443 4.284843 10066329
-0.67481387 0.094119005 4.2864628 10132122
-0.62532711 0.094154596 4.2880845 9738138
-0.58995765 0.09418004 4.2892418 7045529
-0.47132546 0.094265372 4.293129 10197915
-0.42345789 0.094299793 4.2946963 10197915
-0.37378073 0.094335519 4.2963238 10197915
-0.32406583 0.094371267 4.2979522 10197915
-0.27964637 0.094403222 4.2994075 10197915
0.73453134 -1.904832 4.32019 6447714
0.7745719 -1.9048022 4.32126 6447714
0.82610458 -1.9100513 4.3244338 6447714
-1.9691747 -0.61707866 4.3317542 5460819
-1.9245533 -0.61700469 4.3294358 5647661
-1.8741071 -0.61693066 4.328918 6566193
-1.8236732 -0.61685693 4.3284001 5250333
-1.7750517 -0.61678576 4.3279004 4329231
-1.7341503 -0.61671621 4.3254266 4329231
-1.2698907 -0.61605209 4.3238945 4664621
-1.2247988 -0.61598051 4.3222494 6303021
-1.1745201 -0.61590689 4.321734 6237228
-1.1251277 -0.61583227 4.3207455 6566193
-1.0976113 -0.61573315 4.3079538 6566193
-0.97093087 -0.61561155 4.3202076 6303794
-0.92510527 -0.61554188 4.3191724 6566193
-0.87489808 -0.61546838 4.3186564 6566193
-0.8247031 -0.61539495 4.318141 6566193
-0.77451986 -0.61532146 4.3176255 6566193
-0.72675204 -0.61520582 4.3074026 6566193
-0.69538081 -0.61514455 4.3038359 6566193
-1.9622968 -0.30728272 4.337501 2575734
-1.9261333 -0.30724686 4.3369956 2108473
-1.8755186 -0.30719689 4.3362899 2039583
-1.8339543 -0.30715585 4.3357105 2039583
-1.5027347 -0.31892565 4.3492455 4210752
-1.1114272 -0.30653879 4.3270001 6513507
-0.92439979 -0.30634159 4.3242159 4802889
-0.89025658 -0.30630559 4.3237085 3559016
-0.80942464 -0.30622032 4.3225055 2039583
-0.77351439 -0.30618244 4.3219709 2039583
-0.72504866 -0.30613136 4.32125 2039583
-0.6765992 -0.30608025 4.320529 2039583
-0.62320799 -0.31972346 4.3254128 4213074
-1.5032394 -0.27781388 4.3492837 6782609
-1.5045068 -0.22342351 4.3491588 7837359
-1.5045907 -0.17478457 4.3494015 6522024
-1.5046747 -0.12614016 4.3496442 4813728
-1.5047587 -0.07749036 4.3498869 3631514
-0.25475886 0.094421141 4.3002229 10197915
-0.22452305 0.094442882 4.3012133 10197915
-0.17469493 0.094478726 4.3028455 10197915
-0.124829 0.094514571 4.3044786 10197915
-0.074925236 0.094550498 4.3061137 10197915
-0.02498351 0.09458641 4.3077493 10197915
0.024996158 0.094622351 4.3093863 10197915
0.075013839 0.09465833 4.3110251 10197915
0.12506956 0.094694324 4.312665 10197915
0.17516337 0.094730362 4.3143058 10197915
0.22529534 0.094766423 4.315948 10197915
0.27546546 0.094802506 4.3175912 8816262
0.32567379 0.094838604 4.3192363 6513507
0.35617468 0.094860561 4.3202357 6513507
0.86778462 -1.9558066 4.3833766 6447714
0.73873943 -1.9050664 4.3693123 6447714
0.77505457 -1.9050432 4.3711061 6447714
0.82514179 -1.9049997 4.3711071 6447714
0.86108142 -1.9211266 4.374332 6447714
-0.61685568 -0.76787221 4.3921185 6513507
-0.59080935 -0.76860452 4.3880024 6513507
-0.61615449 -0.72641253 4.3919463 5131854
-0.59084177 -0.72537798 4.3882422 6513507
-0.60517716 -0.69967812 4.3866715 6513507
-0.59119773 -0.69704223 4.3878884 6513507
-2.0070133 -0.61740023 4.3887057 6447714
-1.9745206 -0.61732817 4.3831463 4799291
-1.9253036 -0.61725134 4.3816462 6566193
-1.8751396 -0.61718023 4.381619 6434607
-1.8240918 -0.61710548 4.3810878 4395024
-1.7748783 -0.61703354 4.3805771 4329231
-1.7437037 -0.61696094 4.3745399 4329231
-1.3037267 -0.61640626 4.3889942 3158064
-1.2752234 -0.61629957 4.3748903 5385517
-1.225208 -0.6162287 4.3748631 5974056
-1.1743172 -0.61615413 4.3743348 6566193
-1.1305486 -0.61608374 4.3725481 6566193
-1.0029888 -0.6159659 4.3858581 5255479
-0.97450876 -0.61586159 4.3722577 6434865
-0.92458528 -0.61578625 4.3712459 6566193
-0.87552577 -0.61571449 4.3707356 6566193
-0.82498616 -0.6155802 4.3574038 6566193
-0.79966456 -0.61554313 4.357142 6566193
-0.61480618 -0.61704034 4.3917379 5255998
-0.59549874 -0.61728472 4.3823223 6244434
-0.61501968 -0.57498068 4.3920164 4284803
-0.59552723 -0.57373905 4.3825326 7508653
-0.61526388 -0.52450192 4.3923459 4350594
-0.59555936 -0.52474535 4.3827682 7705519
-0.61499059 -0.47518536 4.392416 4350596
-0.59559143 -0.4757463 4.3830042 7245485
-0.61498922 -0.42562193 4.3926201 4153989
-0.59562474 -0.42492685 4.3832488 6588074
-0.61514419 -0.37490508 4.3929062 3890818
-0.59565794 -0.37410185 4.3834944 5733541
-1.9672943 -0.30377173 4.3645115 2968426
-1.9422349 -0.30441663 4.3790035 1779508
-1.6030668 -0.32243484 4.3971004 3092271
-1.5741645 -0.3211711 4.3838267 3289650
-1.527526 -0.31870678 4.3602529 3618615
-1.4886267 -0.31964374 4.3753314 2894892
-0.95617288 -0.30662847 4.3794885 2039583
-0.92523086 -0.30659586 4.3790231 2040616
-0.89611387 -0.30656528 4.3785858 3695765
-0.81607336 -0.30648082 4.3773789 2039583
-0.77607 -0.3064386 4.3767762 2039583
-0.72517198 -0.30638489 4.3760095 2039583
-0.67429191 -0.30633116 4.3752418 2039583
-0.61381006 -0.32312283 4.3745632 3036282
-0.59645569 -0.32317466 4.3782673 4813729
-1.9673625 -0.27485034 4.3646626 3165804
-1.9427201 -0.2754595 4.3782048 2376030
-1.5206317 -0.27353704 4.3570147 4017502
-1.4926808 -0.27501759 4.3673172 3032671
-0.61966038 -0.2753987 4.3733697 2574960
-0.59664232 -0.27565357 4.3774176 4091293
-1.9668831 -0.22475289 4.3646631 2902891
-1.9427406 -0.22493115 4.3785052 2772335
-1.5193272 -0.22381376 4.3567543 3362925
-1.4927486 -0.22436662 4.3675156 2969199
-0.61969262 -0.22467907 4.3736 2642041
-0.59667814 -0.2248888 4.3776817 3565721
-1.9655715 -0.17414849 4.3643155 2377063
-1.9428205 -0.17414734 4.378685 2509422
-1.519666 -0.17461696 4.3571129 3100011
-1.4927044 -0.17420878 4.3679376 2574957
-0.61972523 -0.1739541 4.3738298 2379384
-0.59671414 -0.17411785 4.3779459 3303577
-1.9652206 -0.12539008 4.3643279 1982306
-1.9428358 -0.12490018 4.3789854 2048616
-1.5192481 -0.12592955 4.3571172 2640235
-1.4929955 -0.12539695 4.3676691 2180459
-0.61975646 -0.12503587 4.3740501 2116213
-0.59674877 -0.12515447 4.3781991 3040664
-1.9655714 -0.075946078 4.3647065 1785442
-1.9430332 -0.075949527 4.3789101 1851494
-1.5194479 -0.075611763 4.357409 2377061
-1.4929467 -0.076005116 4.3680968 1917802
-0.61978787 -0.076112539 4.3742723 1984627
-0.59678346 -0.076185271 4.3784537 2645651
-1.9656899 -0.025316717 4.3649697 1720163
-1.9430534 -0.025399383 4.3792109 1720678
-1.518018 -0.025269799 4.3568769 2311528
-1.4930146 -0.025336059 4.3682942 1786729
-0.61982024 -0.025372038 4.3745012 1919090
-0.59681934 -0.025396451 4.3787174 2184846
-1.9658084 0.025318742 4.3652325 1522784
-1.9431334 0.025400775 4.3793893 1522785
-1.5181038 0.025271704 4.3571243 2114405
-1.4930822 0.025337595 4.3684931 1589094
-0.61985302 0.025373807 4.3747306 1721198
-0.59685528 0.025398483 4.3789811 2119308
-2.2574635 0.092326105 4.3697028 662072
-2.2236478 0.092350252 4.3708467 3358288
-2.1737835 0.092385873 4.3725324 9342606
-2.1238811 0.092421524 4.3742189 9934743
-2.079293 0.092453361 4.3757262 9934743
-1.9659185 0.072342768 4.3654761 1324636
-1.9403777 0.074506491 4.3795085 1389915
-1.873789 0.092600122 4.3826728 9934744
-1.823655 0.092635944 4.3843675 9672345
-1.7734815 0.092671759 4.3860631 8620175
-1.7447956 0.092692256 4.387033 10000536
-1.6173393 0.092783287 4.3913412 3820125
-1.5759964 0.092812821 4.3927393 10000536
-1.5184666 0.072397366 4.3576875 3955321
-1.4904449 0.074768603 4.3718777 2179173
-1.4247839 0.092920817 4.3978505 10000536
-1.3941404 0.092942692 4.3988862 10197915
-0.6198833 0.072499625 4.3749442 2049134
-0.59688866 0.072570629 4.3792253 3170962
0.88804072 -1.964514 4.4247279 6447714
0.74255973 -1.9053138 4.421113 6447714
0.77494031 -1.9052906 4.4221153 6447714
0.82499129 -1.9052455 4.4219089 6447714
0.87696379 -1.9150728 4.4237924 6447714
-0.71764147 -0.76869458 4.4415588 6513507
-0.67588222 -0.76814193 4.4210739 6513507
-0.64232373 -0.76823056 4.4046111 6513507
-0.7160728 -0.74106824 4.4409037 6447714
-0.67352158 -0.73426968 4.4200563 6447714
-0.64126748 -0.72825223 4.4042587 6447714
-2.0158267 -0.617576 4.4234195 6447714
-1.9753209 -0.61751664 4.4229941 4926251
-1.9233567 -0.61750233 4.4355669 6566193
-1.8752954 -0.61743206 4.4351015 5513505
-1.8245198 -0.61736006 4.4350743 4329231
-1.7789299 -0.61728406 4.4326425 4329231
-1.3106641 -0.61661816 4.431941 3222058
-1.2753168 -0.61655563 4.4292951 6500400
-1.2256271 -0.61648279 4.4287715 6039849
-1.1741092 -0.61640733 4.4282298 6566193
-1.137045 -0.61634243 4.4255672 6566193
-1.0079342 -0.61617112 4.4279962 5976371
-0.97777307 -0.61611146 4.4243855 6566193
-0.92854524 -0.61598361 4.4120135 6566193
-0.71735209 -0.61723101 4.4420438 6500914
-0.67611647 -0.61720014 4.4218154 6500914
-0.64061844 -0.61708009 4.4044008 6501171
-0.71805733 -0.57489419 4.4425659 6447714
-0.67581385 -0.57495248 4.4218416 6447457
-0.64036626 -0.57517058 4.4044504 6447714
-0.71753848 -0.52525866 4.4425173 6447714
-0.67638463 -0.52494639 4.4223285 6447714
-0.64051741 -0.52554989 4.4047294 6447714
-0.71785504 -0.4748829 4.4428811 6447714
-0.67574555 -0.47523364 4.4222207 6447714
-0.64055049 -0.47447941 4.4049582 6447714
-0.71718329 -0.42591849 4.4427538 6447714
-0.67598546 -0.42494011 4.4225454 6447714
-0.64070183 -0.42484602 4.4052367 6447714
-0.7157914 -0.37752339 4.4422708 6513507
-0.6762892 -0.37518474 4.4229007 6513507
-0.64050066 -0.3756223 4.4053435 6513507
-1.6523232 -0.30762315 4.4463143 2039583
-1.624983 -0.31916168 4.4146352 2763306
-1.581943 -0.30754885 4.44524 6513507
-1.5023427 -0.30746475 4.444025 2039583
-1.4658238 -0.32065484 4.426919 2368548
-0.96111053 -0.30689377 4.4357719 2039583
-0.92608339 -0.30685678 4.4352374 2371646
-0.8210507 -0.30674583 4.4336338 2039583
-0.77500808 -0.30669722 4.4329305 2039583
-0.72529817 -0.30664471 4.4321718 2039583
-0.67031568 -0.32303974 4.4253993 3750201
-0.64130342 -0.34312379 4.4078426 6052956
-1.2732199 0.093029052 4.4029727 5727088
-1.2497339 0.093045883 4.4037695 10197915
-1.1683624 0.093103953 4.406518 9277329
-1.1357862 0.093127199 4.4076185 10197915
-0.95995492 0.093252786 4.4135618 10000536
-0.92545694 0.093277447 4.4147286 8489621
-0.81821942 0.093354017 4.4183536 10000536
-0.7745465 0.093385212 4.4198298 10000536
-0.72537977 0.093420327 4.4214916 10000536
-0.67435306 0.093456782 4.4232168 9606552
-0.64700294 0.09347634 4.4241428 8226966
-0.50458735 0.093578041 4.4289565 10000536
-0.4753342 0.09359891 4.429944 10000536
-0.42594212 0.093634181 4.4316139 10197915
-0.37468153 0.093670785 4.4333458 10197915
-0.32521394 0.093706124 4.4350185 10197915
-0.27570859 0.093741484 4.4366918 10197915
-0.22433046 0.093778178 4.4384284 10197915
-0.17474937 0.093813591 4.4401045 10197915
-0.12513037 0.093849018 4.441781 10197915
-0.075474329 0.093884483 4.44346 10197915
-0.025780277 0.093919985 4.4451399 10197915
0.025793744 0.093956813 4.4468827 10197915
0.07556393 0.09399236 4.4485655 10197915
0.1087639 0.094016068 4.449688 10197915
0.91966784 -2.0039208 4.4891214 6447714
0.91203028 -1.9737165 4.4737082 6447714
0.74550349 -1.9055482 4.4699864 6447714
0.77512932 -1.9055433 4.4743872 6447714
0.82516235 -1.9054987 4.4741716 6447714
0.87518752 -1.9054545 4.4741778 6447714
0.91096205 -1.9212759 4.4763885 6447714
-0.81486636 -0.77443594 4.4892321 6513507
-0.77314216 -0.76925713 4.4687848 6513507
-0.74168104 -0.76750851 4.4533567 6513507
-0.7598176 -0.74779677 4.4623365 6447714
-0.74089491 -0.74421406 4.4530678 6447714
-2.0522046 -0.61788803 4.4788151 6447714
-2.0226514 -0.61778229 4.4652181 4867911
-1.9751945 -0.61771011 4.4641609 6303792
-1.9281242 -0.61768997 4.4740386 6566193
-1.8751433 -0.61762863 4.4769354 4723989
-1.8248475 -0.61755496 4.4764009 4329231
-1.7875987 -0.61750031 4.4760051 4329231
-1.3194644 -0.61688691 4.4864206 4533292
-1.2745029 -0.61681443 4.4845419 6434607
-1.2241935 -0.61674076 4.4840059 6105642
-1.1757587 -0.61666971 4.4834905 6566193
-1.14539 -0.61660331 4.4785061 6566193
-1.0235997 -0.61638105 4.4678917 3944766
-0.81652886 -0.61727637 4.4906983 6501171
-0.77350044 -0.6172753 4.4695897 6500914
-0.74195647 -0.61767173 4.4541135 6500914
-0.81666315 -0.5751276 4.4909396 6447457
-0.77456135 -0.57500571 4.4702859 6447457
-0.74171579 -0.57529986 4.4541702 6447457
-0.81707329 -0.52510983 4.4913464 6447714
-0.77370059 -0.52504522 4.4700689 6447714
-0.74197328 -0.52454323 4.4545069 6447714
-0.81664413 -0.47491807 4.4913449 6447714
-0.77463931 -0.47504646 4.470737 6447714
-0.7417872 -0.47477955 4.4546223 6447714
-0.81726044 -0.42508206 4.4918528 6447714
-0.77377898 -0.42508632 4.4705219 6447714
-0.74096817 -0.42301866 4.4544344 6447714
-0.81619626 -0.38438573 4.4914999 6447714
-0.77363282 -0.38117546 4.4706311 6447714
-0.73996526 -0.3782846 4.4541268 6447714
-1.8049723 -0.31479889 4.4961834 2039583
-1.7881042 -0.31528133 4.4879069 2039583
-1.4513267 -0.32087776 4.4513121 2434341
-1.4390509 -0.32268077 4.4763231 2434341
-0.9680444 -0.3071678 4.4935474 2039583
-0.93255997 -0.30713046 4.4930015 2570057
-0.85041773 -0.30704361 4.4917307 2039583
-0.82429212 -0.30701599 4.4913263 2039583
-0.78324562 -0.30697262 4.4906921 2039583
0.13459913 0.094034523 4.4505606 10197915
0.17521784 0.094063528 4.4519339 10197915
0.22510162 0.094099164 4.45362 10197915
0.27502277 0.094134808 4.4553075 9539985
0.32498223 0.094170503 4.4569964 6513507
0.36201206 0.094196938 4.4582477 6513507
0.9394083 -2.0134547 4.5294132 6447714
0.93737793 -1.9752557 4.525517 6447714
0.74921727 -1.9057379 4.5098391 6447714
0.7754308 -1.9057798 4.5232725 6447714
0.82487798 -1.905735 4.5229015 6447714
0.875081 -1.9056917 4.5230622 6447714
0.92808563 -1.9167892 4.5257945 6447714
-0.86610967 -0.78238279 4.514339 6513507
-0.84279549 -0.77874488 4.5029163 6513507
-2.0640135 -0.61811948 4.5244298 6447714
-2.0255024 -0.6180501 4.5212674 4862000
-1.9747173 -0.61797076 4.5196724 6566193
-1.9248536 -0.61790013 4.5196629 6171435
-1.8759525 -0.61782837 4.5191388 4329231
-1.8251826 -0.61775404 4.5185943 4329231
-1.7932099 -0.61764044 4.5040722 4329231
-1.3260856 -0.61708921 4.5274076 4992301
-1.2752893 -0.61701471 4.5268617 6039849
-1.2245049 -0.61694026 4.5263152 6566193
-1.1756133 -0.61686862 4.5257893 6566193
-0.92035109 -0.61774242 4.5416298 6500914
-0.87612653 -0.61749381 4.5199356 6500914
-0.84338963 -0.61761326 4.5038757 6566193
-0.91975141 -0.57472551 4.5415134 6447457
-0.87632298 -0.57507265 4.5202069 6447457
-0.84342611 -0.57472235 4.5040703 6447714
-0.91805166 -0.52486432 4.5408869 6447714
-0.87680507 -0.52515274 4.5206509 6447714
-0.8434692 -0.52436763 4.5042987 6447714
-0.91833413 -0.47549063 4.5412302 6447714
-0.87606865 -0.474785 4.5204978 6447714
-0.84362721 -0.4753859 4.50458 6447714
-0.91791677 -0.42474619 4.5412364 6447714
-0.87657255 -0.42516524 4.5209513 6447714
-0.84344184 -0.42506158 4.5046968 6447714
-0.91817772 -0.38946906 4.5415096 6447714
-0.87573385 -0.38886753 4.5206895 6447714
-0.8435871 -0.38633198 4.5049291 6447714
-1.9034429 -0.31253356 4.5445018 2039583
-1.8754529 -0.31152037 4.5330381 2039583
-1.8281038 -0.31319177 4.5088043 2039583
-1.7941027 -0.3080405 4.5063148 2039583
-1.6626686 -0.30790159 4.5042815 2631720
-1.6251385 -0.30786186 4.5037017 6513507
-1.5932442 -0.30782819 4.5032086 6513507
-1.5126034 -0.30774292 4.5019612 2039583
-1.4751117 -0.30770329 4.5013809 2039583
-1.4292345 -0.31819537 4.5029716 2302755
-0.9740327 -0.30520928 4.5475798 2039583
-1.903525 -0.27489057 4.5446978 2039583
-1.8762065 -0.27537975 4.537837 3557207
-0.9740625 -0.27507338 4.5477185 2766918
-1.9036361 -0.22406772 4.5449629 2039583
-1.8761535 -0.22468376 4.5377092 3492706
-0.97411281 -0.22421524 4.547955 3031381
-1.9037429 -0.17512153 4.5452185 2039583
-1.8763214 -0.17484781 4.5381145 3164256
-0.97416157 -0.17523576 4.548182 2637139
-1.9038498 -0.12616985 4.5454736 2039583
-1.8764136 -0.12597176 4.5383372 2769758
-0.97421008 -0.12625131 4.548408 2045776
-1.9039609 -0.075329542 4.5457387 2039583
-1.8765092 -0.07521072 4.5385652 2441306
-0.97314823 -0.077941678 4.5482502 1585740
-1.9040717 -0.024483385 4.5460033 2039583
-1.8778234 -0.024725998 4.537941 2243412
-0.97227609 -0.024495125 4.5481791 1322826
-1.9041787 0.024485217 4.5462589 2039583
-1.8781593 0.02444071 4.5379996 2111569
-0.97232473 0.024496753 4.5484056 1125448
-2.31952 0.09158463 4.5115333 727608
-2.2754378 0.091615885 4.5130725 1777703
-2.2258098 0.09165106 4.5148053 2829099
-2.1743033 0.091687568 4.5166035 5987163
-2.1374896 0.091713667 4.517889 7960953
-1.9715601 0.091831267 4.5236826 3360605
-1.9157147 0.081701748 4.5350108 6908265
-1.8779606 0.071880966 4.5370493 3229792
-1.8255599 0.091934748 4.52878 3952486
-1.7996545 0.091953151 4.5296865 10197915
-1.6681049 0.092046365 4.5342784 4412003
-1.6254325 0.092076614 4.5357685 10197915
-1.5994455 0.09209498 4.5366731 10197915
-1.5195612 0.092151657 4.539465 6647417
-1.4749309 0.092183284 4.5410233 10066329
-1.4414403 0.092207029 4.5421925 10000536
-1.3184873 0.092294171 4.5464854 4872296
-1.2942432 0.092311382 4.5473332 10197915
-1.2214531 0.09236297 4.5498743 5529453
-0.9723711 0.071608908 4.5486236 1848396
0.97363985 -2.0539799 4.599123 6447714
0.96423912 -2.0233862 4.5801077 6447714
0.96226478 -1.9766154 4.5763817 6447714
0.77863055 -1.9060142 4.5722094 6447714
0.8247925 -1.9059794 4.5733404 6447714
0.87496996 -1.905933 4.5728292 6447714
0.9245258 -1.9058902 4.5730143 6447714
0.95946246 -1.9205763 4.5767555 6447714
-2.0664058 -0.61836088 4.5750203 4209467
-2.0256581 -0.6183182 4.5782161 6303792
-1.9761117 -0.61824548 4.5776777 6566193
-1.9256024 -0.61817408 4.5776682 5184540
-1.8742193 -0.61809361 4.5760331 4329231
-1.8317831 -0.61802185 4.5735445 4329231
-1.3574539 -0.61736774 4.5771875 2960685
-1.3245407 -0.61728758 4.5700655 5975598
-1.2759171 -0.61721319 4.5688658 5908263
-1.2247159 -0.6170755 4.554997 6566193
-1.198221 -0.61703664 4.5547109 6566193
-0.97511089 -0.6178363 4.5684938 6500914
-0.94518346 -0.61691523 4.5538158 6566450
-0.97457045 -0.57485741 4.5684066 6447457
-0.94522297 -0.57543433 4.5540061 6447714
-0.97453022 -0.52464658 4.5685949 6447714
-0.94332772 -0.52531886 4.5532846 6447714
-0.97484136 -0.47510847 4.5689516 6447714
-0.94306523 -0.47446522 4.5533671 6447714
-0.97515309 -0.4255611 4.5693111 6447714
-0.94326836 -0.42446953 4.5536733 6447714
-0.97433013 -0.38964203 4.569056 6447714
-0.94368345 -0.38951254 4.5540214 6447714
-2.3753464 -0.32166198 4.5942082 1257031
-1.855338 -0.30492166 4.5589261 2763306
-1.8312086 -0.30835429 4.5662527 2039583
-1.6732869 -0.30818716 4.5637784 4410196
-1.6276543 -0.30813894 4.5630631 6513507
-1.5231344 -0.30802828 4.5614257 2039583
-1.4756502 -0.30797803 4.5606818 2039583
-1.4452677 -0.30794594 4.5602059 2039583
-0.97423756 -0.30434194 4.5589614 2039583
-0.93920726 -0.30741116 4.5522866 2901343
-2.3760014 -0.27751473 4.5931625 1125189
-1.8560902 -0.274434 4.557447 2770015
-0.97457761 -0.27452192 4.5608706 3623002
-2.376431 -0.22641744 4.5926237 1124932
-1.856112 -0.22469734 4.5577331 2048612
-0.97453809 -0.22487232 4.5612817 4216427
-2.3765168 -0.17505167 4.5927887 1059139
-1.8561851 -0.17561063 4.5579114 1851750
-0.97458708 -0.17574929 4.5615101 4084843
-2.3766026 -0.12368223 4.5929551 1058883
-1.856209 -0.12523285 4.5581965 1588324
-0.97455108 -0.12522356 4.5619197 3821929
-2.3766856 -0.074211858 4.5931144 993090
-1.8563856 -0.074307643 4.5581732 1654373
-0.97498316 -0.073768228 4.5611196 3493223
-2.3767681 -0.024738058 4.5932736 1190723
-1.857316 -0.02371119 4.5566134 1787245
-0.97504032 -0.024565347 4.5612168 3427686
-2.3768501 0.024739202 4.5934329 1058625
-1.8575107 0.024540501 4.5565367 1721711
-0.97508907 0.024566982 4.5614462 3296100
-2.3769264 0.070413515 4.5935802 794428
-1.8575776 0.069848225 4.5567007 1457258
-1.2083791 0.092372224 4.5503302 10197915
-1.1784863 0.092393406 4.551374 10197915
-0.97504795 0.071805686 4.561244 4281710
-0.93885565 0.092563257 4.5597405 5664911
-0.85815692 0.092620477 4.5625596 10000536
-0.82622361 0.092643097 4.5636735 10000536
-0.77547616 0.092679061 4.5654459 10000536
-0.7246896 0.092715062 4.5672193 10000536
-0.68327963 0.092744417 4.568665 4877715
-0.51359814 0.092864692 4.5745893 10197915
-0.47583014 0.092891462 4.5759082 10197915
-0.4248102 0.092927627 4.5776901 10066329
-0.3737509 0.092963807 4.5794725 10000536
-0.32454494 0.092998698 4.5811906 10197915
-0.27530196 0.093033589 4.5829101 10197915
-0.22602203 0.093068525 4.584631 10197915
-0.17480728 0.093104817 4.5864186 10197915
-0.12355305 0.093141146 4.5882082 10197915
-0.074159078 0.093176164 4.5899324 10197915
-0.024727963 0.093211204 4.5916591 10197915
0.024740346 0.093246266 4.5933862 10197915
0.074245892 0.093281358 4.5951147 10197915
0.12378871 0.093316466 4.5968442 10197915
0.17336883 0.09335161 4.5985761 10197915
0.20580539 0.09337461 4.5997086 10197915
0.98842955 -2.0605052 4.6293139 6447714
0.98724377 -2.0249398 4.6271267 6447714
0.98531258 -1.9737542 4.623518 6447714
0.78341293 -1.9062561 4.6229277 6447714
0.82494456 -1.9062263 4.6243691 6447714
0.87473571 -1.9061821 4.6242623 6447714
0.92452425 -1.9061379 4.624155 6447714
0.97601056 -1.9172637 4.6237822 6447714
-2.0548718 -0.61856812 4.6225605 6566193
-2.0240836 -0.61852294 4.6222234 6566193
-1.9740611 -0.61844963 4.6216745 6500400
-1.9240505 -0.61837631 4.6211271 4329231
-1.8740518 -0.61830294 4.6205783 4329231
-1.8413662 -0.6182549 4.6202202 4329231
-1.3673149 -0.61759084 4.6216488 3681838
-1.3325187 -0.61750859 4.6146426 6566193
-2.3604896 -0.32140008 4.6245809 1912641
-2.3481901 -0.32169613 4.6497231 3158064
-1.8577378 -0.30866438 4.6276255 2039583
-1.8423028 -0.30864802 4.6273804 2368548
-1.7111721 -0.30850917 4.6252985 2242382
-1.6764814 -0.30847242 4.6247478 6053472
-1.639871 -0.30843365 4.6241665 6513507
-1.5589758 -0.30834782 4.6228795 2039583
-1.5262464 -0.30831316 4.6223602 2039583
-1.4800518 -0.30826423 4.6216273 2039583
-1.3577408 -0.32308957 4.642066 2702930
-2.3612492 -0.27431306 4.6233401 1321021
-2.3482661 -0.27547327 4.6498747 2039583
-2.3616426 -0.22439036 4.6228671 1255485
-2.3483169 -0.24465649 4.6499753 2039583
-2.3616054 -0.17429841 4.6232767 1255486
-2.3616879 -0.12450322 4.6234393 1255229
-2.3617711 -0.074704438 4.6236 1189436
-2.3618538 -0.024902267 4.6237636 1255485
-2.3619351 0.024903424 4.6239247 1189179
-2.3620124 0.070880942 4.6240754 990774
0.23253179 0.093393549 4.6006417 10197915
0.27646235 0.093424685 4.6021752 10066329
0.32615757 0.093459919 4.6039109 6513507
0.36823583 0.093489736 4.6053791 6513507
1.0125595 -2.0718234 4.6785688 6447714
1.011112 -2.0249851 4.67592 6447714
1.0114383 -1.9743865 4.6769228 6447714
0.79116613 -1.9064496 4.6643772 6447714
0.82529724 -1.9064578 4.6721802 6447714
0.87520975 -1.9064116 4.671772 6447714
0.92472363 -1.9063663 4.67136 6447714
0.97425735 -1.9063238 4.6715569 6447714
1.0109934 -1.920386 4.6811433 6447714
1.0138813 -1.8745044 4.6975698 6447714
1.0128115 -1.8262187 4.6974893 6447714
1.0129877 -1.7774037 4.6969261 6447714
1.0137693 -1.7259384 4.6967707 6447714
1.0138128 -1.6754193 4.6969724 6447714
1.0138563 -1.6248959 4.697175 6447714
1.0138998 -1.574368 4.6973758 6447714
1.0138502 -1.5244638 4.6976209 6447714
1.0139852 -1.4752421 4.6977725 6447714
1.0141205 -1.4260182 4.6979237 6447714
1.0140707 -1.376101 4.6981673 6447714
1.015679 -1.3262001 4.6976013 6447714
1.015919 -1.2747643 4.6977115 6447714
1.0159626 -1.2242156 4.6979127 6447714
1.0160062 -1.1736625 4.6981144 6447714
1.0160511 -1.125053 4.6983218 6447714
1.0160954 -1.0764383 4.6985273 6447714
1.016139 -1.0258723 4.6987281 6447714
1.0161827 -0.97530174 4.6989303 6447714
1.0166434 -0.92839384 4.6989179 6447714
1.0180359 -0.87399238 4.6984973 6447714
1.0180748 -0.82925379 4.6986761 6447714
-2.0192835 -0.61871177 4.6637878 6566193
-1.9758598 -0.61866409 4.666667 5710884
-1.9253622 -0.61858976 4.6661081 4329231
-1.8766389 -0.61851257 4.6643095 4329231
-1.8475077 -0.61840457 4.6501317 4329231
-2.3357613 -0.32167068 4.6751308 2894892
-1.7227372 -0.30881074 4.6880574 4148055
-1.6758548 -0.30876109 4.6873026 6513507
-1.568472 -0.30864722 4.6855745 2039583
-1.5235902 -0.30859965 4.6848526 2039583
-1.4884742 -0.30856243 4.6842875 2039583
-1.357296 -0.3167052 4.6673937 1782086
-1.3408408 -0.32261658 4.6770906 3882045
-2.3358583 -0.27503452 4.6752443 2039583
-2.3367443 -0.22498412 4.6737647 2039583
-2.3371499 -0.17576119 4.6732621 2039583
-2.3370581 -0.1258588 4.6737814 2039583
-2.3371408 -0.075517908 4.673945 2039583
-2.3372235 -0.025173422 4.6741104 2039583
-2.3373055 0.025174603 4.6742759 2039583
-2.3363907 0.071896777 4.6732397 2039583
-2.2756293 0.090870552 4.6668401 2039583
-2.2262111 0.090905301 4.6686244 2039583
-2.1995888 0.090924069 4.6695886 2039583
-2.0548604 0.091025859 4.6748161 1257298
-2.0243478 0.091047287 4.6759167 5792624
-1.980464 0.091078125 4.6775007 9934743
-1.8792263 0.091149308 4.6811562 5003881
-1.7222821 0.091259651 4.6868229 4872296
-1.6762748 0.091291994 4.6884842 10132122
-1.5707203 0.091366217 4.692296 6515831
-1.5265274 0.091397285 4.6938915 10000536
-1.4919225 0.091421597 4.6951399 10000536
-1.3706555 0.091506861 4.6995187 1321799
-2.5125859 -2.1096723 4.7303395 2039583
-2.4748118 -2.1096516 4.7328358 2039583
-2.4247668 -2.109606 4.7325654 2039583
-2.3752341 -2.10956 4.7320223 2039583
-2.3240097 -2.1099074 4.7325921 2039583
-2.2968404 -2.1149807 4.7433138 2039583
1.0375797 -2.1080937 4.7294755 6447714
1.0357336 -2.074702 4.7259231 6447714
1.0358661 -2.0247071 4.7265248 6447714
1.0359972 -1.9746991 4.7271266 6447714
0.82969451 -1.9066921 4.7214007 6447714
0.87503248 -1.9066705 4.7251945 6447714
0.92413485 -1.9056832 4.7239094 6447714
0.97279668 -1.9049559 4.7103424 6447714
1.0342933 -1.9236624 4.7260199 6447714
0.92851239 -1.8749634 4.7378201 6447714
0.97653258 -1.8751031 4.7143297 6447714
1.0279384 -1.8753966 4.7217278 6447714
0.92840153 -1.8249121 4.7380943 6447714
0.97663343 -1.8252406 4.7144985 6447714
1.0273014 -1.8238221 4.7191586 6447714
0.92852736 -1.7750143 4.7382531 6447714
0.97658592 -1.775228 4.7147427 6447714
1.0246345 -1.773646 4.7160244 6447714
0.92814976 -1.7254524 4.738657 6447714
0.97622967 -1.7247636 4.7151408 6447714
1.0239577 -1.7247027 4.715836 6447714
0.92671496 -1.6750604 4.7395811 6447714
0.97494805 -1.6749083 4.7159853 6447714
1.0235897 -1.6750559 4.7159033 6447714
0.92701203 -1.6250613 4.7396569 6447714
0.97513813 -1.6248296 4.7161136 6447714
1.0242072 -1.6254026 4.7167487 6447714
0.92685205 -1.5748907 4.7399569 6447714
0.97488314 -1.5750113 4.7164588 6447714
1.0239646 -1.5753981 4.7170272 6447714
0.9267506 -1.524877 4.7402282 6447714
0.97499794 -1.5251856 4.7166238 6447714
1.0239737 -1.5253897 4.7173028 6447714
0.92807716 -1.4758108 4.7397962 6447714
0.97505867 -1.4750929 4.7168145 6447714
1.0239823 -1.4753773 4.7175775 6447714
0.92873985 -1.4252108 4.7396946 6447714
0.97522944 -1.4249983 4.7169518 6447714
1.0243467 -1.4250246 4.7184329 6447714
0.92883021 -1.3747499 4.7398715 6447714
0.97521561 -1.3750297 4.7171798 6447714
1.024676 -1.3746561 4.7191296 6447714
0.92894763 -1.3248165 4.7400365 6447714
0.97398126 -1.3253198 4.7180028 6447714
1.0205942 -1.323854 4.7157779 6447714
0.92883277 -1.2750731 4.7403116 6447714
0.97351038 -1.2748095 4.7184567 6447714
1.0171945 -1.2761756 4.7121072 6447714
0.928846 -1.2251338 4.7405252 6447714
0.97339278 -1.2248722 4.7187343 6447714
1.0163139 -1.2259543 4.7110324 6447714
0.92903882 -1.1750107 4.7406521 6447714
0.97366273 -1.1750762 4.7188225 6447714
1.0163957 -1.1753035 4.7114081 6447714
