# .PCD v0.7 - Point Cloud Data file format
VERSION 0.7
FIELDS x y z rgb
SIZE 4 4 4 4
TYPE F F F U
COUNT 1 1 1 1
WIDTH 1083
HEIGHT 1
VIEWPOINT 0 0 0 1 0 0 0
POINTS 1083
DATA ascii
0.30792484 -0.20046836 0.44901344 2894892
0.32140431 -0.17263272 0.4365716 2894892
0.32206151 -0.12500079 0.43599766 2894892
0.32207605 -0.07499779 0.43602434 2894892
0.32209486 -0.024999082 0.43604472 2894892
0.32212466 0.024978505 0.43604979 2894892
0.32223409 0.074997619 0.43598267 2894892
-0.35266167 0.11570087 0.44685578 10197915
-0.31969321 0.1157319 0.42799091 10197915
-0.27500275 0.11575239 0.4239729 10197915
-0.22499987 0.11576997 0.42404801 10197915
-0.17499927 0.11578859 0.42410427 10197915
-0.1249471 0.11580683 0.42345518 10197915
-0.075009972 0.11582609 0.42296097 10197915
-0.025006797 0.11584044 0.42302331 10197915
0.024989467 0.11585881 0.42308956 10197915
0.074991681 0.11587711 0.42315105 10197915
0.12500057 0.11589666 0.42322972 10197915
0.17499727 0.11591224 0.42327556 10197915
0.22499618 0.11592895 0.42335385 10197915
0.27499709 0.11594962 0.4234103 10132122
0.31948823 0.11047661 0.4315064 5000268
0.271741 -0.20792969 0.48245722 2894892
0.30278552 -0.20150387 0.4537636 2894892
0.27740198 -0.17499702 0.47724807 2894892
0.3034153 -0.17499471 0.45319998 2894892
0.27741659 -0.12500001 0.47727081 2894892
0.30342919 -0.12499522 0.45322374 2894892
0.27742806 -0.07500229 0.47729278 2894892
0.30344334 -0.074997112 0.45324808 2894892
0.27745375 -0.025014117 0.47730261 2894892
0.30345985 -0.025000248 0.45326987 2894892
0.27758285 0.025001666 0.47722185 2894892
0.30349007 0.025094265 0.45327675 2894892
0.27759212 0.075001873 0.47725397 2894892
0.30360377 0.075006597 0.45320618 2894892
-0.36590028 0.11566114 0.48003519 10197915
-0.32498446 0.11568191 0.47408193 10197915
-0.27500081 0.11570051 0.47415608 10197915
-0.22500153 0.11571775 0.47421813 10197915
-0.1749998 0.11573529 0.47429597 10197915
-0.12487572 0.11575347 0.47370061 10197915
-0.074993417 0.11577085 0.47363442 10197915
-0.024997193 0.11578936 0.47371075 10197915
0.025002295 0.11580656 0.47378489 10197915
0.074847735 0.11582515 0.47330523 10197915
0.12499945 0.11584338 0.47312471 10197915
0.17499058 0.11586091 0.47319889 10197915
0.22499664 0.1158786 0.47327471 9539985
0.27546754 0.10995536 0.47458276 3881787
0.30357772 0.10822849 0.4531855 2894892
0.19936587 -0.22292311 0.54935116 2894892
0.22360714 -0.21788858 0.52694589 2894892
0.25130272 -0.21216525 0.50134718 2894892
0.19937699 -0.17502388 0.54937559 2894892
0.22607236 -0.1750052 0.52470154 2894892
0.25132301 -0.17501234 0.50135565 2894892
0.19938731 -0.12501504 0.54940224 2894892
0.22608432 -0.12500188 0.52472436 2894892
0.25133663 -0.12500308 0.50137943 2894892
0.19939801 -0.075058423 0.549429 2894892
0.22609399 -0.074999288 0.5247525 2894892
0.25134718 -0.074988894 0.50140601 2894892
0.19940661 -0.025039475 0.54945719 2894892
0.22610511 -0.024999259 0.52477688 2894892
0.25137877 -0.024752283 0.50141329 2894892
0.19941655 0.025041113 0.54948449 2894892
0.22611716 0.024999542 0.52480215 2894892
0.25151643 0.024980089 0.50132185 2894892
0.19942759 0.075069994 0.54951066 2894892
0.22612675 0.074998729 0.52482754 2894892
0.25152674 0.074961945 0.50134939 2894892
-0.41199058 0.11558866 0.53303272 10197915
-0.37503421 0.11561241 0.52358419 10197915
-0.32505497 0.11562938 0.52366078 10197915
-0.27500129 0.11564676 0.52373278 10197915
-0.22500154 0.11566555 0.52380341 10197915
-0.1749952 0.11568219 0.52389282 10197915
-0.12499925 0.11570069 0.52396643 10197915
-0.074996911 0.11571832 0.52404892 10197915
-0.024996735 0.11573558 0.52412963 10197915
0.025001869 0.1157531 0.52421218 10197915
0.075209394 0.11577163 0.52360135 10197915
0.12499797 0.11578993 0.52338612 10132122
0.17586768 0.11551547 0.52438372 7500402
0.22438522 0.10965487 0.5227204 3092271
0.25152943 0.1080628 0.50134969 2894892
0.14722018 -0.25867647 0.59752971 2894892
0.16340244 -0.25532705 0.58257204 2894892
0.14728552 -0.22497138 0.59749347 2894892
0.17508511 -0.22479661 0.57179356 2894892
0.1472899 -0.1749779 0.59752589 2894892
0.1752495 -0.17499964 0.57168186 2894892
0.14729771 -0.12499838 0.5975551 2894892
0.17526737 -0.12500018 0.57169837 2894892
0.14730997 -0.074995123 0.59757942 2894892
0.17527416 -0.07500004 0.57173276 2894892
0.14730911 -0.025005948 0.59761751 2894892
0.17528242 -0.025000889 0.57175517 2894892
0.14731656 0.025007594 0.59764624 2894892
0.17529394 0.025000727 0.57178116 2894892
0.14733174 0.075006738 0.59766942 2894892
0.17530517 0.074999221 0.57180691 2894892
-0.45916232 0.11551317 0.58875239 10197915
-0.42397481 0.11554028 0.57480741 10197915
-0.3749488 0.11555874 0.57397169 10197915
-0.32496902 0.11557634 0.57398146 10197915
-0.27500609 0.11559397 0.57411879 10197915
-0.22526455 0.11561242 0.57374144 10197915
-0.17500028 0.11563078 0.57311004 10197915
-0.12501118 0.11564851 0.57319778 10197915
-0.075017892 0.11566622 0.5733062 10197915
-0.025009541 0.11568404 0.57337284 10197915
0.025014665 0.11570192 0.57346284 10197915
0.075019665 0.11571935 0.57356876 9474192
0.12846221 0.11449298 0.57736868 4737096
0.17377719 0.10938118 0.57033652 2894892
0.095139936 -0.26944402 0.64566511 2894892
0.12049669 -0.264202 0.62222922 2894892
0.095219553 -0.22497223 0.64562505 2894892
0.12302911 -0.22500794 0.61991483 2894892
0.095227033 -0.17497665 0.64565331 2894892
0.12301622 -0.17500517 0.61996388 2894892
0.095228888 -0.12500271 0.64568931 2894892
0.123032 -0.12500224 0.61998415 2894892
0.095232889 -0.074997239 0.64572084 2894892
0.12303861 -0.074999459 0.62001818 2894892
0.095241517 -0.025000397 0.64574963 2894892
0.12304576 -0.024997042 0.62004387 2894892
0.095246315 0.025002019 0.64578128 2894892
0.12305292 0.024996197 0.62007749 2894892
0.095247149 0.075008832 0.64581788 2894892
0.12306071 0.074996129 0.6201055 2894892
-0.50584865 0.11543891 0.64335299 10197915
-0.47233257 0.11546781 0.62719858 10197915
-0.42499113 0.11548712 0.6250422 10197915
-0.37494409 0.11550499 0.62509948 10197915
-0.32495332 0.11552244 0.62522501 10197915
-0.27499005 0.11554033 0.62532103 10197915
-0.22472471 0.11555968 0.62352502 10197915
-0.17500091 0.11557835 0.62271595 10197915
-0.12497064 0.11559609 0.62282848 10197915
-0.074996389 0.11561385 0.62291569 10197915
-0.02502152 0.11563151 0.62300736 10132122
0.024983635 0.11564901 0.62310958 7566195
0.079870097 0.1136876 0.62862879 3223857
0.12165943 0.10928077 0.61881381 2894892
0.042773016 -0.30526453 0.69404888 2894892
0.05626037 -0.30247861 0.68158305 2894892
0.043380708 -0.27500266 0.69350886 2894892
0.070163451 -0.2737636 0.66874546 2894892
0.043388113 -0.22503327 0.69354033 2894892
0.070868142 -0.22499572 0.66812676 2894892
0.043387309 -0.17502403 0.69357532 2894892
0.070859231 -0.17499605 0.66817051 2894892
0.043390263 -0.12499868 0.69360816 2894892
0.070872314 -0.12500274 0.6682018 2894892
0.043391157 -0.074991345 0.69364506 2894892
0.070867166 -0.07500729 0.66824698 2894892
0.043397393 -0.024990881 0.69367611 2894892
0.07087633 -0.025003802 0.66827363 2894892
0.043399308 0.024992563 0.69370902 2894892
0.070882432 0.025001932 0.6683042 2894892
0.04339356 0.074979834 0.69375116 2894892
0.070881173 0.075005017 0.66834766 2894892
-0.55213684 0.11536594 0.69684356 10197915
-0.51950544 0.11539692 0.67849404 10197915
-0.47500619 0.11541697 0.67455167 10197915
-0.42501137 0.11543448 0.67467874 10197915
-0.37501934 0.11545234 0.67474341 10197915
-0.32501116 0.11547001 0.67488062 10197915
-0.27500743 0.11548755 0.6749649 10197915
-0.22489966 0.11550692 0.67355859 10197915
-0.17499556 0.11552482 0.67354131 10197915
-0.12501349 0.11554243 0.67366487 10197915
-0.074998401 0.11556016 0.67375648 9276813
-0.024985634 0.11557771 0.67386371 5000268
0.030581448 0.11302438 0.67996246 2894892
0.06979613 0.10917396 0.6671266 2894892
-0.0092582237 -0.31602561 0.74214 2894892
0.016453682 -0.31070924 0.71837485 2894892
-0.0088991858 -0.27504596 0.74183822 2894892
0.018696882 -0.27499861 0.71632773 2894892
-0.0086060781 -0.22501694 0.741602 2894892
0.018697105 -0.22498284 0.71636444 2894892
-0.0086018005 -0.1750121 0.74163598 2894892
0.018697757 -0.17498666 0.71639693 2894892
-0.0086025801 -0.12500222 0.74167174 2894892
0.01870431 -0.1249993 0.71642947 2894892
-0.0086002797 -0.07502047 0.74170572 2894892
0.018693758 -0.074997537 0.71647358 2894892
-0.0086095249 -0.025022808 0.74175203 2894892
0.018701667 -0.025000568 0.7165038 2894892
-0.0086062588 0.025013482 0.74178547 2894892
0.018702686 0.025002193 0.71654111 2894892
-0.0086027198 0.075009957 0.7418173 2894892
0.018696619 0.075008959 0.71658212 2894892
-0.56501269 0.11532716 0.72923082 10197915
-0.52499896 0.11534773 0.72318077 10197915
-0.47499141 0.11536555 0.72329289 10197915
-0.42501521 0.11538318 0.72340536 10197915
-0.37509251 0.11540092 0.72350299 10197915
-0.32506189 0.11541855 0.72363126 10197915
-0.27499375 0.11543624 0.72373873 10197915
-0.22500184 0.11545389 0.72383839 10197915
-0.17499472 0.11547163 0.72395456 10132122
-0.12499554 0.11548931 0.72406763 7237230
-0.075003877 0.11550701 0.72417206 3223857
-0.018926056 0.11236069 0.73082697 2894892
0.017764024 0.10889921 0.71586913 2894892
-0.06518764 -0.35257947 0.79381543 2894892
-0.060524192 -0.32494393 0.78952515 2894892
-0.034396831 -0.32122457 0.76537269 2894892
-0.060519069 -0.2749975 0.78955615 2894892
-0.033568297 -0.27497119 0.76464421 2894892
-0.060511753 -0.22498327 0.78958505 2894892
-0.033255078 -0.22500761 0.7643885 2894892
-0.06052316 -0.17498477 0.78963304 2894892
-0.03324727 -0.17500742 0.76441747 2894892
-0.060522947 -0.12500288 0.7896679 2894892
-0.033260077 -0.1249956 0.76446545 2894892
-0.060518228 -0.074994877 0.78969991 2894892
-0.033243347 -0.074991852 0.76448661 2894892
-0.06053523 -0.025003228 0.78975308 2894892
-0.03326337 -0.024990145 0.76454294 2894892
-0.060538419 0.025004871 0.78979146 2894892
-0.033265218 0.02499182 0.76458007 2894892
-0.060527075 0.075006381 0.78981668 2894892
-0.033254892 0.074984148 0.76460588 2894892
-0.61178774 0.11525287 0.78384066 10197915
-0.57490152 0.11527734 0.77308387 10197915
-0.52499288 0.11529513 0.77304852 10197915
-0.47499731 0.11531286 0.77316135 10197915
-0.42501354 0.11533053 0.77327925 10197915
-0.37512138 0.11534816 0.77339673 10197915
-0.32510635 0.11536578 0.77352607 10197915
-0.27499682 0.11538351 0.77367085 10197915
-0.22500515 0.11540116 0.773745 9145227
-0.17499802 0.11541893 0.77386504 4802889
-0.12500226 0.11543663 0.77400732 2894892
-0.069201715 0.11189935 0.78039235 2894892
-0.034039702 0.10882575 0.76390773 2894892
-0.1137494 -0.36262342 0.83869851 2894892
-0.087544292 -0.35721549 0.81447959 2894892
-0.11281762 -0.32498422 0.83786929 2894892
-0.085514024 -0.32501 0.81262577 2894892
-0.11281499 -0.27499232 0.83789396 2894892
-0.085517026 -0.27500281 0.81266707 2894892
-0.11282445 -0.22502665 0.83794475 2894892
-0.08551611 -0.22499992 0.81269914 2894892
-0.1128296 -0.1750246 0.83798712 2894892
-0.085525371 -0.1750004 0.81274414 2894892
-0.11283779 -0.12501778 0.8380242 2894892
-0.085531302 -0.12500519 0.81278706 2894892
-0.11284754 -0.075016268 0.83807689 2894892
-0.08552935 -0.074996278 0.81282163 2894892
-0.11256565 -0.025163054 0.83785266 2894892
-0.085538737 -0.024991289 0.81286603 2894892
-0.11244832 0.024990669 0.83777314 2894892
-0.085542887 0.024992952 0.81290644 2894892
-0.11246489 0.074974269 0.83783221 2894892
-0.08554215 0.075007714 0.81294173 2894892
-0.65790099 0.11518027 0.83709085 10197915
-0.62378222 0.11520647 0.82376158 10197915
-0.57499886 0.1152248 0.82286942 10197915
-0.52500015 0.11524247 0.8230046 10197915
-0.47498664 0.11526011 0.82310253 10197915
-0.42499265 0.11527768 0.82323968 10197915
-0.37498194 0.11529539 0.8234393 10197915
-0.32499182 0.11531318 0.82341653 10132122
-0.27505305 0.1153308 0.82361829 7434609
-0.22503105 0.1153485 0.82376158 3158064
-0.17499396 0.11536609 0.82387692 2894892
-0.11944794 0.11136926 0.83020502 2894892
-0.086143874 0.10861661 0.81252778 2894892
-0.13241115 -0.3664673 0.85594791 2894892
-0.13224919 -0.32498959 0.85582787 2894892
-0.13225408 -0.2750102 0.85587019 2894892
-0.13227162 -0.22502589 0.85592133 2894892
-0.13226539 -0.17501299 0.85595244 2894892
-0.13228008 -0.12497155 0.85600221 2894892
-0.13228805 -0.074972406 0.8560459 2894892
-0.13199143 -0.024649559 0.85580856 2894892
-0.13187532 0.024994608 0.85573685 2894892
-0.13189344 0.074985951 0.85579067 2894892
-0.70585322 0.11510266 0.89442629 10197915
-0.67188746 0.11513305 0.87704861 10197915
-0.6249755 0.11515298 0.87406236 10197915
-0.5749833 0.11517061 0.87420672 10197915
-0.52501142 0.11518823 0.87430245 10197915
-0.47498813 0.11520591 0.87450206 10197915
-0.42498544 0.11522353 0.87460595 10197915
-0.3754932 0.11524257 0.87325448 10132122
-0.32486776 0.11526179 0.87214118 9868950
-0.27496737 0.11527939 0.87228435 3289650
-0.22497118 0.11529704 0.87246007 2894892
-0.17499982 0.11531474 0.87253362 2894892
-0.13516955 0.10989761 0.85906869 2894892
-0.75181818 0.11503015 0.94763625 10197915
-0.71942365 0.11506031 0.92995131 10197915
-0.67499501 0.11508047 0.92585379 10197915
-0.62502974 0.11509803 0.92607844 10197915
-0.57500207 0.11511572 0.92618006 10197915
-0.52500713 0.11513332 0.92636842 10197915
-0.47499731 0.11515094 0.92653263 10197915
-0.42501974 0.11516865 0.92663437 10132122
-0.37418705 0.11518849 0.92495316 10066329
-0.32490942 0.11520718 0.92385668 7697781
-0.2750248 0.11522482 0.92404073 2894892
-0.22499657 0.11524248 0.92415184 2894892
-0.17524312 0.11526028 0.92405534 2894892
-0.14813197 0.11528492 0.90985864 2894892
-0.76467103 0.11499149 0.97988659 10197915
-0.72489083 0.11501185 0.97405249 10197915
-0.67489612 0.11502941 0.97424716 10197915
-0.62500173 0.11504707 0.97434866 10197915
-0.57503438 0.11506468 0.97454631 10197915
-0.52499384 0.11508229 0.97471094 10197915
-0.47493798 0.11509998 0.97486031 10132122
-0.42498225 0.11511771 0.97490013 10066329
-0.37495434 0.11513526 0.97514361 10000536
-0.32490903 0.11515295 0.97529358 5197647
-0.27496544 0.11517055 0.97542554 2894892
-0.22500603 0.11518817 0.97559178 2894892
-0.17838228 0.11520541 0.97499585 2894892
-0.81152153 0.11491655 1.0350896 10197915
-0.77472973 0.11494146 1.0239025 10197915
-0.72502422 0.11495913 1.0239532 10197915
-0.67501009 0.11497671 1.0241284 10197915
-0.62498206 0.11499443 1.0241961 10197915
-0.57493848 0.11501205 1.0244237 10197915
-0.52500039 0.1150296 1.024599 10132122
-0.4750469 0.11504723 1.0247568 10066329
-0.4250176 0.11506507 1.0247681 10000536
-0.37497377 0.11508249 1.0250705 9605778
-0.32497329 0.1151002 1.0252097 3158064
-0.27501988 0.11511781 1.0253468 2894892
-0.22505064 0.11513543 1.0255235 2894892
-0.18238616 0.11515164 1.0245641 2894892
-0.85807425 0.1148431 1.0889741 10197915
-0.82387394 0.11486918 1.0757816 10197915
-0.77504456 0.11488757 1.0748109 10197915
-0.72506028 0.11490519 1.0750104 10197915
-0.67513287 0.11492277 1.0752003 10197915
-0.62504387 0.11494043 1.075343 10197915
-0.57501251 0.11495806 1.0755428 10132122
-0.52496588 0.11497571 1.0756953 10066329
-0.47497809 0.11499337 1.0758116 10000536
-0.4249756 0.11501093 1.0760254 10000536
-0.37495729 0.11502854 1.0761651 7368816
-0.3249968 0.1150462 1.0763674 2894892
-0.27494854 0.11506387 1.0764829 2894892
-0.22495821 0.11508151 1.0766358 2894892
-0.1864517 0.11509626 1.0756816 2894892
-0.9059965 0.11476534 1.1464429 10197915
-0.87208545 0.11479555 1.1292979 10197915
-0.82501894 0.11481526 1.1264821 10197915
-0.77504307 0.11483273 1.1267966 10197915
-0.72581971 0.114854 1.1232499 10197915
-0.67518985 0.11487276 1.1225586 10197915
-0.62505889 0.1148904 1.1227306 10197915
-0.57509732 0.11490789 1.1230021 10066329
-0.52512127 0.11492561 1.1230748 10000536
-0.47503555 0.11494331 1.123214 10000536
-0.42502928 0.11496076 1.1235192 10000536
-0.37509966 0.11497847 1.1235911 5131854
-0.3250607 0.1149961 1.1237634 2894892
-0.27500767 0.11501365 1.1240355 2894892
-0.2249397 0.11503144 1.1240752 2894892
-0.19020294 0.11504503 1.122907 2894892
-0.95181233 0.11469412 1.198469 10197915
-0.9197529 0.11472261 1.1822971 10197915
-0.87497193 0.11474248 1.1785777 10197915
-0.82500279 0.11476005 1.1787988 10197915
-0.77501696 0.11477772 1.1789007 10197915
-0.72440058 0.11479995 1.1749228 10197915
-0.6749624 0.11481835 1.1742039 10197915
-0.62502658 0.11483582 1.1744641 10197915
-0.57499623 0.1148533 1.1748039 10132122
-0.52585924 0.11487418 1.1715325 10000536
-0.47489405 0.11489373 1.1702107 10000536
-0.42492852 0.1149115 1.1702385 9671571
-0.37504691 0.11492891 1.1705689 3092271
-0.32505009 0.1149466 1.1706737 2894892
-0.27504021 0.11496412 1.1709278 2894892
-0.22511123 0.11498176 1.171068 2894892
-0.19397251 0.1149956 1.168449 2894892
-0.96380883 0.11465738 1.229226 10197915
-0.92489076 0.1146759 1.2248256 10197915
-0.87491816 0.1146935 1.2249862 10197915
-0.8249287 0.11471119 1.2250916 10197915
-0.77492702 0.11472862 1.2254163 10197915
-0.72478062 0.11474636 1.225551 10197915
-0.67487127 0.114764 1.2256825 10197915
-0.62494957 0.1147815 1.2259265 10197915
-0.57488346 0.11479909 1.2261415 10197915
-0.52397031 0.11482137 1.2222288 10066329
-0.47514269 0.11483992 1.2211093 10000536
-0.42502299 0.11485748 1.2213811 7434609
-0.37508997 0.11487513 1.2214806 2894892
-0.32513967 0.11489264 1.2217549 2894892
-0.27507582 0.11491043 1.2217706 2894892
-0.22499466 0.11492788 1.2221298 2894892
-0.19733679 0.11494874 1.2117168 2894892
-1.0121803 0.11457849 1.2876546 10197915
-0.97465014 0.1146049 1.2753102 10197915
-0.92501134 0.11462292 1.2749661 10197915
-0.87496573 0.11464055 1.2751583 10197915
-0.8250097 0.11465803 1.2754536 10197915
-0.77503657 0.1146758 1.2754531 10197915
-0.7249465 0.11469322 1.2758451 10197915
-0.67494255 0.11471092 1.275941 10197915
-0.62503135 0.11472832 1.2762853 10197915
-0.57598478 0.11475021 1.2721053 10197915
-0.52488691 0.11476977 1.2707849 10132122
-0.47481456 0.11478737 1.27101 10000536
-0.42485595 0.11480507 1.2710817 5000268
-0.37514874 0.11482245 1.2713984 2894892
-0.32515904 0.11484003 1.271593 2894892
-0.27489468 0.11485787 1.271669 2894892
-0.22706686 0.11487518 1.2713957 2894892
-1.0588664 0.11450418 1.3423269 10197915
-1.0241455 0.11452967 1.3298519 10197915
-0.97503167 0.11454768 1.3293742 10197915
-0.9250595 0.11456534 1.3295089 10197915
-0.8749342 0.11458306 1.3296113 10197915
-0.82479262 0.1146007 1.3298471 10197915
-0.77491248 0.11461812 1.3301562 10197915
-0.72501594 0.1146357 1.3303251 10197915
-0.67496485 0.11465331 1.3305292 10197915
-0.62651628 0.11467199 1.3291533 10197915
-0.57394403 0.11470066 1.3197289 10197915
-0.52497655 0.11471931 1.3185486 10197915
-0.47506484 0.11473679 1.3188163 9737364
-0.4251366 0.11475444 1.3189522 3092271
-0.37519497 0.11477192 1.3192199 2894892
-0.32523504 0.11478958 1.319356 2894892
-0.27512622 0.11480703 1.3197278 2894892
-0.23108461 0.11482356 1.3189107 2894892
-1.1018498 0.11444056 1.3881121 10197915
-1.0715853 0.11446366 1.3764062 10197915
-1.0250199 0.11448196 1.3747842 10197915
-0.97504961 0.11449952 1.3749928 10197915
-0.92525095 0.11451691 1.3753065 10197915
-0.87505895 0.11453466 1.375417 10197915
-0.82504237 0.11455227 1.3756263 10197915
-0.77500755 0.11456984 1.3758398 10197915
-0.72496021 0.11458745 1.3760486 10197915
-0.67508405 0.11460486 1.3763627 10197915
-0.62331885 0.11462596 1.3738434 10197915
-0.57493782 0.11464711 1.3701305 10197915
-0.52507371 0.11466486 1.3701115 10197915
-0.47490996 0.11468246 1.3703996 7434609
-0.42472994 0.11470015 1.3705331 2894892
-0.37510374 0.11471753 1.3708159 2894892
-0.32517615 0.11473508 1.3710289 2894892
-0.27495176 0.1147528 1.3711619 2894892
-0.23511709 0.11476792 1.3702683 2894892
-1.1114936 -0.56779981 1.4232842 10658466
-1.0936872 -0.56782103 1.4425825 10855845
-1.1115195 -0.52500331 1.4233199 6447714
-1.0937183 -0.52498293 1.4426118 6447714
-1.1115447 -0.47499597 1.4233639 6447714
-1.0937437 -0.47500184 1.4426544 6447714
-1.1115835 -0.42500275 1.4233923 6447714
-1.0937688 -0.42501801 1.4426997 6447714
-1.111344 -0.37486234 1.4237235 6447714
-1.093544 -0.3752425 1.4430147 6447714
-1.111321 -0.32493773 1.4238211 6447714
-1.0935037 -0.32505307 1.4431313 6447714
-1.1113526 -0.27495348 1.4238595 6447714
-1.0935335 -0.2750279 1.4431698 6447714
-1.1113694 -0.22498313 1.4239122 6447714
-1.0935774 -0.22503206 1.4431952 6447714
-1.1114134 -0.17497714 1.4239366 6447714
-1.0935822 -0.17503317 1.4432626 6447714
-1.1114552 -0.12493559 1.4239637 6447714
-1.0936179 -0.1249997 1.4432952 6447714
-1.1114396 -0.074923582 1.4240541 6447714
-1.093681 -0.075122908 1.4432991 6447714
-1.1115299 -0.024976699 1.4240261 6447714
-1.0936761 -0.025114777 1.4433768 6447714
-1.1115582 0.024977595 1.4240658 6447714
-1.0937063 0.025115695 1.443416 6447714
-1.1115311 0.074929975 1.4241716 6447714
-1.0937712 0.075129323 1.4434179 6447714
-1.1113703 0.10767228 1.423274 7763574
-1.0856968 0.11019713 1.434828 8684676
-1.0252982 0.11443012 1.4238153 10197915
-0.97501886 0.11444792 1.423867 10197915
-0.92486787 0.1144654 1.4242109 10197915
-0.87485057 0.1144829 1.4245157 10197915
-0.82481718 0.11450058 1.4246488 10197915
-0.77491409 0.11451824 1.4247365 10197915
-0.72514707 0.11453556 1.4251275 10197915
-0.67521286 0.11455314 1.4253031 10197915
-0.62511778 0.11457068 1.4256073 10197915
-0.57500905 0.11458836 1.4257412 10197915
-0.52503043 0.11460605 1.4258286 10197915
-0.47518533 0.11462339 1.4262201 4671303
-0.42517486 0.11464101 1.4263965 2894892
-0.37530047 0.11465864 1.426526 2894892
-0.32525849 0.11467608 1.4268754 2894892
-0.27490956 0.11469382 1.4270533 2894892
-0.23944835 0.11470866 1.4249605 2894892
-1.068942 -0.56781447 1.4693953 11119017
-1.0454149 -0.56778365 1.4948988 11382189
-1.0687934 -0.52487725 1.4696122 6447714
-1.045251 -0.52552766 1.4951384 6447714
-1.0686777 -0.47498792 1.4698198 6447714
-1.0451112 -0.47502092 1.4953601 6447714
-1.068694 -0.42498991 1.469883 6447714
-1.0453011 -0.42543295 1.4952266 6447714
-1.0687373 -0.37499955 1.4699074 6447714
-1.04553 -0.37493494 1.4950528 6447714
-1.0687582 -0.32500735 1.4699523 6447714
-1.0455458 -0.32497904 1.4951073 6447714
-1.068801 -0.27501234 1.4699688 6447714
-1.045583 -0.27497068 1.4951379 6447714
-1.0688184 -0.22500297 1.4700178 6447714
-1.0455978 -0.22495852 1.495193 6447714
-1.0688487 -0.17501293 1.4700642 6447714
-1.0456582 -0.17494436 1.4952011 6447714
-1.0688688 -0.12502086 1.470122 6447714
-1.0456535 -0.12508105 1.4952774 6447714
-1.0689596 -0.075014062 1.4701005 6447714
-1.0456983 -0.074907027 1.4953008 6447714
-1.0688969 -0.025017969 1.4702349 6447714
-1.045719 -0.024780117 1.495351 6447714
-1.0689262 0.025018862 1.4702672 6447714
-1.0457475 0.024781032 1.4953918 6447714
-1.069044 0.075009502 1.4702072 6447714
-1.0457844 0.07491342 1.4954237 6447714
-1.0685812 0.1075611 1.4701077 7829367
-1.0357336 0.11060989 1.4863402 8947848
-0.97488248 0.11439225 1.4766762 10197915
-0.92486423 0.11441006 1.4766494 10197915
-0.87482965 0.11442738 1.4771298 10197915
-0.82498139 0.11444516 1.4771011 10197915
-0.77512223 0.11446241 1.4775816 10197915
-0.72524434 0.11448005 1.4776794 10197915
-0.67514658 0.11449763 1.4779097 10197915
-0.62503678 0.11451525 1.4781339 10197915
-0.57511258 0.11453264 1.4784887 10197915
-0.52497059 0.11455055 1.4784619 9342606
-0.47481403 0.11456788 1.4789431 2894892
-0.42484346 0.11458556 1.4790415 2894892
-0.3752687 0.11460296 1.4792659 2894892
-0.32526737 0.11462052 1.4794956 2894892
-0.2750499 0.11463816 1.4797205 2894892
-0.24384215 0.11465119 1.4779078 2894892
-1.0206772 -0.56783426 1.5217062 11579568
-0.99728251 -0.56786257 1.547062 11711154
-1.0206928 -0.52498865 1.5217552 6447714
-0.99731171 -0.52501243 1.5470923 6579300
-1.0207162 -0.47500169 1.5218031 6447714
-0.99757904 -0.47583163 1.5468737 6447714
-1.0207505 -0.42481765 1.5218377 6447714
-0.99757808 -0.4259581 1.5469457 6447714
-1.0207943 -0.37504584 1.521858 6447714
-0.99738908 -0.37498289 1.5472244 6447714
-1.0207926 -0.32502416 1.5219302 6447714
-0.9974162 -0.32499409 1.5472666 6447714
-1.0208145 -0.27501112 1.5219786 6447714
-0.99744326 -0.27500254 1.5473094 6447714
-1.0208646 -0.22500598 1.5219991 6447714
-0.9974708 -0.22500822 1.547352 6447714
-1.0208858 -0.17499849 1.5220461 6447714
-0.99749839 -0.17501119 1.5473943 6447714
-1.0209203 -0.12496612 1.5220808 6447714
-0.99752587 -0.1250114 1.5474367 6447714
-1.0209132 -0.074953005 1.5221637 6447714
-0.99755263 -0.07500881 1.5474795 6447714
-1.0209969 -0.024982367 1.5221498 6447714
-0.99758005 -0.025003547 1.5475217 6447714
-1.0210224 0.024983276 1.52219 6447714
-0.99760771 0.025004469 1.5475639 6447714
-1.020999 0.074948348 1.5222821 6447714
-0.99763501 0.075015254 1.5476065 6447714
-1.0206231 0.10760152 1.5217929 8092539
-0.98318762 0.11174892 1.5329543 9408399
-0.92497975 0.11435878 1.5251883 10197915
-0.87498951 0.11437649 1.5252818 10197915
-0.82519591 0.11439397 1.5255153 10197915
-0.77517349 0.11441153 1.5257496 10197915
-0.72534961 0.11442901 1.5259823 10197915
-0.67529565 0.11444645 1.5263572 10197915
-0.62501997 0.11446424 1.5264522 10197915
-0.57493883 0.11448196 1.5265485 10197915
-0.52484143 0.11449942 1.5269214 6908265
-0.47493741 0.11451691 1.527155 2894892
-0.42502153 0.11453446 1.5273885 2894892
-0.37487647 0.11455178 1.5279028 2894892
-0.32493117 0.11456958 1.5278574 2894892
-0.27496585 0.11458714 1.5280911 2894892
-0.24722549 0.11460549 1.5200403 2894892
-0.97232449 -0.56785876 1.57411 11711154
-0.94891119 -0.56788898 1.5994849 11711154
-0.97236454 -0.52500236 1.5741309 6776679
-0.94893354 -0.52482909 1.5995227 6908265
-0.97263461 -0.47489122 1.5739067 6447714
-0.94912779 -0.47929299 1.5993778 6447714
-0.9728089 -0.42498577 1.5737904 6447714
-0.9493888 -0.42533663 1.5991731 6447714
-0.97280854 -0.37497118 1.5738636 6447714
-0.94941473 -0.37499547 1.5992171 6447714
-0.97286153 -0.32497627 1.5738792 6447714
-0.94944102 -0.32465181 1.5992612 6447714
-0.97285944 -0.27500135 1.5739526 6447714
-0.94946671 -0.27496761 1.5993047 6447714
-0.97289592 -0.22499007 1.5739858 6447714
-0.94949269 -0.22528076 1.5993483 6447714
-0.97292882 -0.17497543 1.5740215 6447714
-0.94951892 -0.17492871 1.5993923 6447714
-0.97297204 -0.12501505 1.5740467 6447714
-0.94954532 -0.12457385 1.5994368 6447714
-0.97296166 -0.075040422 1.5741301 6447714
-0.94957095 -0.074878834 1.5994802 6447714
-0.97302765 -0.025019016 1.5741289 6447714
-0.949597 -0.025181098 1.5995239 6447714
-0.97305608 0.025019914 1.5741761 6447714
-0.94962311 0.025182029 1.599568 6447714
-0.97304136 0.075046904 1.5742592 6447714
-0.94964898 0.074885204 1.5996118 6447714
-0.97252721 0.10769604 1.5736843 8289918
-0.92706674 0.1136349 1.5787541 10000536
-0.87516075 0.11432203 1.5768257 10197915
-0.82498789 0.11433961 1.5770687 10197915
-0.77479571 0.11435723 1.5773115 10197915
-0.72480607 0.1143746 1.5777061 10197915
-0.67502481 0.11439238 1.5776365 10197915
-0.62522167 0.11440973 1.5780349 10197915
-0.57518572 0.1144273 1.5782775 10197915
-0.52513772 0.11444466 1.5786724 4342338
-0.47507393 0.11446241 1.5787619 2894892
-0.42499182 0.11448 1.5790044 2894892
-0.37468007 0.11449765 1.5792482 2894892
-0.32478499 0.11451509 1.5794857 2894892
-0.27699971 0.1145326 1.5790358 2894892
-0.92553914 -0.56787932 1.6248133 11711154
-0.92556846 -0.52499485 1.6248436 7105644
-0.92586833 -0.47488368 1.6245933 6447714
-0.92604232 -0.4249987 1.6244791 6447714
-0.92606276 -0.37501493 1.624523 6447714
-0.92610592 -0.32501608 1.6245464 6447714
-0.92612875 -0.27500293 1.624596 6447714
-0.92613298 -0.22501057 1.6246678 6447714
-0.92618299 -0.17502771 1.6246865 6447714
-0.92620844 -0.12499377 1.6247268 6447714
-0.92623931 -0.075017467 1.6247638 6447714
-0.92655689 -0.02511372 1.6244943 6447714
-0.92666626 0.025024205 1.6244483 6447714
-0.92673534 0.07499636 1.6244445 6447714
-0.92598772 0.10760634 1.6241322 8487297
-0.87520391 0.11427364 1.6225935 10197915
-0.82491452 0.11429133 1.622844 10197915
-0.77460992 0.114309 1.6230943 10197915
-0.72462916 0.11432659 1.6232181 10197915
-0.67462862 0.11434403 1.6235924 10197915
-0.62494898 0.11436148 1.6238396 10197915
-0.57492507 0.11437916 1.6239632 9342606
-0.52487612 0.11439655 1.624338 2894892
-0.47482026 0.1144142 1.6244617 2894892
-0.42474172 0.11443164 1.6248368 2894892
-0.37465385 0.11444937 1.6249607 2894892
-0.32454592 0.11446688 1.6253358 2894892
-0.28045252 0.11448275 1.6250592 2894892
-0.90102339 -0.56784332 1.651384 11711154
-0.87833822 -0.56789571 1.6759727 11711154
-0.90103668 -0.52498084 1.6514314 7303023
-0.87835193 -0.5250299 1.6760192 7500402
-0.90107715 -0.47505295 1.6514602 6447714
-0.87839437 -0.47502026 1.676049 6447714
-0.90109402 -0.42488959 1.6515138 6447714
-0.87839162 -0.4250235 1.6761235 6447714
-0.9011187 -0.374953 1.6515585 6447714
-0.87844497 -0.37500927 1.6761266 6447714
-0.90114325 -0.32501385 1.6516043 6447714
-0.87843525 -0.32499182 1.6762084 6447714
-0.90116781 -0.27507183 1.6516489 6447714
-0.87849075 -0.27500111 1.6762236 6447714
-0.90119261 -0.22512707 1.6516949 6447714
-0.87847137 -0.22499277 1.6763257 6447714
-0.90121752 -0.1751796 1.6517403 6447714
-0.87856585 -0.1749818 1.6762961 6447714
-0.90124208 -0.12522948 1.6517855 6447714
-0.87848711 -0.1249823 1.6764464 6447714
-0.90126663 -0.075276576 1.6518301 6447714
-0.87870055 -0.074994206 1.6762817 6447714
-0.90164775 -0.024182223 1.6514903 6447714
-0.8784948 -0.025005067 1.6765798 6447714
-0.90174598 0.025314715 1.6514553 6447714
-0.87853003 0.024991781 1.6766213 6447714
-0.90177083 0.075261787 1.6515003 6447714
-0.8787598 0.074986458 1.6764482 6447714
-0.90180546 0.10725805 1.6514766 8487297
-0.87747777 0.10798068 1.6750557 8750469
-0.82529896 0.11423994 1.6713737 10197915
-0.7751044 0.11425772 1.6714492 10197915
-0.72466761 0.11427542 1.6717076 10197915
-0.67490321 0.11429293 1.6719579 10197915
-0.62512732 0.11431035 1.6722181 10197915
-0.57510251 0.1143277 1.6726571 6974058
-0.5250634 0.11434545 1.6727314 2894892
-0.47500855 0.11436313 1.6728003 2894892
-0.42494199 0.11438031 1.6734257 2894892
-0.37462541 0.11439812 1.6735026 2894892
-0.32475364 0.11441566 1.6737533 2894892
-0.2844623 0.11443112 1.6726574 2894892
-0.85314047 -0.56784838 1.7032783 11711154
-0.8304112 -0.5679149 1.7279115 11711154
-0.85315442 -0.52491575 1.7033252 7697781
-0.83041096 -0.52499282 1.727971 7895160
-0.85317343 -0.47492746 1.7033753 6447714
-0.83043653 -0.47497958 1.7280192 6447714
-0.85319364 -0.42493618 1.7034264 6447714
-0.83045512 -0.42498106 1.7280699 6447714
-0.85324246 -0.3750425 1.7034448 6447714
-0.83049238 -0.37497956 1.7281038 6447714
-0.85322255 -0.32504573 1.7035401 6447714
-0.83049911 -0.32499236 1.7281635 6447714
-0.85328925 -0.2749466 1.7035387 6447714
-0.83055294 -0.27500185 1.7281797 6447714
-0.85327965 -0.22504331 1.7036215 6447714
-0.83054143 -0.22499272 1.7282627 6447714
-0.85332394 -0.17493954 1.7036439 6447714
-0.83057827 -0.17501386 1.7282977 6447714
-0.85333765 -0.12493068 1.7037027 6447714
-0.83058101 -0.12501568 1.7283651 6447714
-0.85336083 -0.074819207 1.7037497 6447714
-0.83070683 -0.075032428 1.7282994 6447714
-0.85338426 -0.024705077 1.703796 6447714
-0.83057654 -0.025046701 1.7285153 6447714
-0.8534072 0.024705967 1.7038426 6447714
-0.83059776 0.025047665 1.7285635 6447714
-0.85343081 0.074825592 1.7038889 6447714
-0.83077532 0.075038925 1.7284422 6447714
-0.85344607 0.10729883 1.7039191 8684676
-0.82944125 0.10785402 1.727659 8882055
-0.7751537 0.11420333 1.7229515 10197915
-0.72494721 0.11422109 1.7230676 10197915
-0.67472029 0.11423852 1.723482 10197915
-0.62483466 0.11425599 1.7237463 10197915
-0.57493913 0.1142738 1.7237071 4408131
-0.52502614 0.11429099 1.7242733 2894892
-0.47509465 0.11430847 1.7245375 2894892
-0.42514792 0.11432596 1.7248011 2894892
-0.37483391 0.11434378 1.7249186 2894892
-0.32485485 0.11436129 1.7251776 2894892
-0.28873402 0.11437447 1.7248601 2894892
-0.80504704 -0.56797296 1.7553999 11711154
-0.78187436 -0.56793857 1.780516 11711154
-0.80507404 -0.52501184 1.7554321 8092539
-0.78192693 -0.52502471 1.780516 8224125
-0.80509621 -0.47504291 1.7554809 6447714
-0.78192723 -0.47502127 1.7805872 6447714
-0.80510759 -0.42493856 1.7555412 6447714
-0.78194165 -0.42505494 1.7806504 6447714
-0.80514747 -0.37489843 1.7555691 6447714
-0.78199154 -0.3750456 1.780661 6447714
-0.80516219 -0.32498604 1.7556242 6447714
-0.78201067 -0.32499218 1.7807175 6447714
-0.80518407 -0.27500626 1.7556731 6447714
-0.78200835 -0.27499819 1.7807891 6447714
-0.80518287 -0.22495712 1.7557467 6447714
-0.78218949 -0.22515462 1.7806636 6447714
-0.80525869 -0.17490639 1.755736 6447714
-0.78257692 -0.17499381 1.7803224 6447714
-0.80524272 -0.12511577 1.7558256 6447714
-0.78258872 -0.12492691 1.7803748 6447714
-0.80526465 -0.074925952 1.7558742 6447714
-0.78265637 -0.075005189 1.7803825 6447714
-0.80528694 -0.024733447 1.7559218 6447714
-0.78256559 -0.025080279 1.7805451 6447714
-0.80530888 0.024734339 1.7559696 6447714
-0.78258538 0.025081228 1.7805941 6447714
-0.80533117 0.074932359 1.756018 6447714
-0.78272045 0.075011492 1.7805244 6447714
-0.80538398 0.10753857 1.7558692 8947848
-0.78111476 0.10808178 1.7782794 9145227
-0.72493976 0.11417525 1.7665346 10197915
-0.67490637 0.11419258 1.7669669 10197915
-0.6248616 0.11421031 1.7670765 9474192
-0.57479888 0.11422767 1.7675097 2894892
-0.52472192 0.11424536 1.7676194 2894892
-0.47462991 0.11426274 1.7680526 2894892
-0.42488596 0.11428017 1.7683228 2894892
-0.37476584 0.11429788 1.7684319 2894892
-0.32462475 0.11431529 1.7688659 2894892
-0.29194486 0.11432842 1.767449 2894892
-0.75703573 -0.56787682 1.8074323 11711154
-0.73406416 -0.56796336 1.8323286 11711154
-0.75705826 -0.52497762 1.8074702 8421504
-0.73407346 -0.52497494 1.8323809 8618883
-0.75706941 -0.47499254 1.8075296 6447714
-0.73411739 -0.47498423 1.8324044 6447714
-0.7570852 -0.42500547 1.8075849 6447714
-0.73409545 -0.42498934 1.8325009 6447714
-0.7571224 -0.37501433 1.8076166 6447714
-0.73413253 -0.37499195 1.8325309 6447714
-0.75714117 -0.32507926 1.8076682 6447714
-0.73418891 -0.32499298 1.8325437 6447714
-0.75714421 -0.27502519 1.8077359 6447714
-0.7344225 -0.27519488 1.8323615 6447714
-0.75734681 -0.22455105 1.8075897 6447714
-0.73473537 -0.22504888 1.8320948 6447714
-0.75772887 -0.17498815 1.8072473 6447714
-0.73472941 -0.17503391 1.8321732 6447714
-0.7577498 -0.12514898 1.807296 6447714
-0.73480481 -0.12494099 1.832164 6447714
-0.75755876 -0.074614346 1.8075765 6447714
-0.73466206 -0.075181343 1.8323897 6447714
-0.75727552 -0.024819436 1.8079549 6447714
-0.73423398 -0.025058748 1.8329272 6447714
-0.75728327 0.024769561 1.8080181 6447714
-0.734254 0.025059676 1.8329767 6447714
-0.75729042 0.074906468 1.8080825 6447714
-0.73435187 0.075022943 1.8329427 6447714
-0.75729167 0.10755021 1.8076471 9145227
-0.73147178 0.10859387 1.8296789 9342606
-0.67496246 0.11413167 1.8246381 10197915
-0.62517679 0.11414961 1.8244367 6710886
-0.57511634 0.11416689 1.8249605 2894892
-0.52504611 0.11418416 1.8254775 2894892
-0.47495666 0.11420219 1.8252802 2894892
-0.42649624 0.11422089 1.8239285 2894892
-0.37469432 0.11424959 1.8141974 2894892
-0.3247571 0.11426687 1.8146498 2894892
-0.29563305 0.11428046 1.8116091 2894892
-0.70881915 -0.56791687 1.8596882 11711154
-0.68615896 -0.5680092 1.8842453 11711154
-0.70883238 -0.52497727 1.8597356 8816262
-0.68617761 -0.52502483 1.8842863 9013641
-0.70886779 -0.47500581 1.859768 6447714
-0.68620574 -0.47498333 1.88433 6447714
-0.70884395 -0.42493534 1.8598675 6447714
-0.68620956 -0.42503321 1.8843998 6447714
-0.70889169 -0.37491167 1.8598874 6447714
-0.68624091 -0.37504834 1.8844328 6447714
-0.70891899 -0.32493183 1.8599293 6447714
-0.68627465 -0.32499909 1.8844734 6447714
-0.70919788 -0.27461222 1.8597014 6447714
-0.68625331 -0.27497831 1.8845626 6447714
-0.70949632 -0.22494183 1.8594475 6447714
-0.68628639 -0.22498482 1.8846037 6447714
-0.70948857 -0.1749194 1.8595278 6447714
-0.68630362 -0.17498925 1.884655 6447714
-0.70957977 -0.12507619 1.8595027 6447714
-0.68640494 -0.124992 1.8846164 6447714
-0.70946848 -0.074999034 1.8596939 6447714
-0.68632746 -0.074992351 1.884778 6447714
-0.70961815 -0.024929445 1.8596041 6447714
-0.6863305 -0.024987679 1.8848404 6447714
-0.70963728 0.024930354 1.8596548 6447714
-0.68634903 0.024988592 1.8848964 6447714
-0.7095263 0.075005479 1.8598472 6447714
-0.68638515 0.074998736 1.8849244 6447714
-0.70960408 0.10709905 1.8598102 9276813
-0.68372893 0.10824046 1.8842905 9539985
-0.62473077 0.11408475 1.8860213 3618615
-0.57441795 0.11410215 1.8865079 2894892
-0.52487117 0.11411969 1.8865926 2894892
-0.47530973 0.11413684 1.8870811 2894892
-0.4249104 0.11416774 1.8747758 2894892
-0.37461901 0.1141987 1.8623934 2894892
-0.32528099 0.11421599 1.862669 2894892
-0.29901233 0.11423804 1.8506407 2894892
-0.66116184 -0.56795377 1.9113363 9211020
-0.63783681 -0.56796271 1.936617 2894892
-0.66119337 -0.52499878 1.9113661 7434609
-0.63788134 -0.52503192 1.9366297 2894892
-0.66121769 -0.47504175 1.9114097 5460819
-0.63786215 -0.47503322 1.9367222 2894892
-0.6612311 -0.4250403 1.9114685 5460819
-0.637887 -0.42503157 1.9367683 2894892
-0.66126961 -0.37503624 1.9114978 5460819
-0.63791376 -0.37506443 1.9368105 2894892
-0.66126084 -0.32502842 1.9115788 5460819
-0.63792014 -0.32505751 1.9368753 2894892
-0.66128165 -0.27501914 1.9116298 5460819
-0.6379416 -0.27500859 1.9369247 2894892
-0.66132414 -0.22509031 1.9116544 5526612
-0.63797671 -0.22495805 1.9369581 2894892
-0.66130817 -0.17507456 1.9117455 5460819
-0.63794786 -0.17498051 1.9370618 2894892
-0.66139525 -0.12489066 1.9117224 5526612
-0.6381315 -0.12522675 1.9369342 2894892
-0.66126281 -0.074992001 1.9119381 5526612
-0.63865757 -0.07485339 1.9364367 2894892
-0.66143167 -0.025099616 1.9118277 5526612
-0.63859546 -0.02487118 1.9365758 2894892
-0.66145498 0.025059108 1.911873 5526612
-0.63861316 0.0248721 1.9366286 2894892
-0.66131175 0.074956521 1.912101 5526612
-0.6387096 0.074859768 1.9365968 2894892
-0.66140419 0.10693866 1.9120466 7763574
-0.63631952 0.10805263 1.9351561 2894892
-0.57508999 0.11406095 1.9253008 2894892
-0.52491993 0.11407849 1.9255971 2894892
-0.47473475 0.11409608 1.9258932 2894892
-0.42247537 0.1141264 1.9148084 2894892
-0.37493476 0.11414476 1.9134262 2894892
-0.32855663 0.11416179 1.9129589 2894892
-0.61267453 -0.56802434 1.9638846 2894892
-0.58987838 -0.56799304 1.9885918 2894892
-0.61267197 -0.52495366 1.9639508 2894892
-0.58987802 -0.525011 1.9886545 2894892
-0.61269921 -0.47494692 1.9639937 2894892
-0.5899235 -0.47502494 1.9886775 2894892
-0.61269224 -0.42493728 1.9640721 2894892
-0.58992195 -0.42498505 1.9887502 2894892
-0.61272705 -0.37492561 1.9641081 2894892
-0.58993536 -0.37494281 1.9888067 2894892
-0.61272728 -0.32494959 1.9641767 2894892
-0.58993083 -0.32489806 1.9888827 2894892
-0.61277336 -0.27500945 1.9642007 2894892
-0.59000003 -0.27490118 1.9888813 2894892
-0.61274433 -0.22502777 1.9643028 2894892
-0.58996969 -0.22495344 1.988986 2894892
-0.61282057 -0.1750439 1.9642936 2894892
-0.59006286 -0.1750025 1.9889578 2894892
-0.61291313 -0.12483158 1.9642649 2894892
-0.58993995 -0.12504908 1.9891624 2894892
-0.61350656 -0.075220026 1.963694 2894892
-0.59007919 -0.074786909 1.9890846 2894892
-0.61341512 -0.025221676 1.9638647 2894892
-0.59003425 -0.024722992 1.9892049 2894892
-0.61343139 0.0252226 1.9639186 2894892
-0.59005028 0.024723917 1.9892586 2894892
-0.61355793 0.075226404 1.9638561 2894892
-0.59012753 0.074793324 1.9892472 2894892
-0.6131258 0.10754278 1.9633796 2894892
-0.58509612 0.10919435 1.9820262 2894892
-0.52497101 0.11403587 1.9659934 2894892
-0.47495013 0.11405316 1.966521 2894892
-0.42491168 0.11407088 1.9665965 2894892
-0.37486199 0.11408812 1.9671243 2894892
-0.33286205 0.1141039 1.9663677 2894892
-0.56521547 -0.56803221 2.0153203 2894892
-0.54190767 -0.56803834 2.0405803 2894892
-0.56526285 -0.52499092 2.0153306 2894892
-0.54190022 -0.52506614 2.0406501 2894892
-0.56525427 -0.47498101 2.0154121 2894892
-0.54193193 -0.47507003 2.0406883 2894892
-0.56529427 -0.4250409 2.0154419 2894892
-0.54195386 -0.42507067 2.040736 2894892
-0.56528151 -0.37502477 2.0155261 2894892
-0.54193085 -0.37506884 2.0408332 2894892
-0.56531948 -0.32500553 2.015558 2894892
-0.541987 -0.32506493 2.0408442 2894892
-0.565328 -0.27505779 2.0156212 2894892
-0.54199117 -0.27499098 2.040911 2894892
-0.56534457 -0.22503313 2.0156746 2894892
-0.54197574 -0.22498202 2.0410006 2894892
-0.56536573 -0.17489775 2.0157242 2894892
-0.54201072 -0.17509867 2.0410345 2894892
-0.56540024 -0.12494054 2.0157585 2894892
-0.54206657 -0.12495511 2.041045 2894892
-0.56538928 -0.075091466 2.015842 2894892
-0.54197836 -0.075061768 2.0412138 2894892
-0.56536561 -0.025055263 2.0159397 2894892
-0.5420962 -0.025177935 2.0411572 2894892
-0.56538129 0.025056167 2.0159945 2894892
-0.54211128 0.025178868 2.0412142 2894892
-0.56545281 0.075061612 2.0159881 2894892
-0.542023 0.075068168 2.0413811 2894892
-0.56529385 0.10745674 2.0154464 2894892
-0.53586054 0.1093261 2.0344388 2894892
-0.4744139 0.11399337 2.0233049 2894892
-0.4246048 0.11401103 2.0233667 2894892
-0.37478501 0.1140282 2.0239229 2894892
-0.33739853 0.11404284 2.0226433 2894892
-0.51659954 -0.56802052 2.0680079 2894892
-0.49340791 -0.56799012 2.0931416 2894892
-0.51665139 -0.52499056 2.068013 2894892
-0.49343574 -0.52493346 2.0931747 2894892
-0.5166226 -0.47500271 2.0681181 2894892
-0.49344909 -0.47493967 2.0932317 2894892
-0.51667017 -0.42497835 2.0681355 2894892
-0.49344653 -0.42494202 2.0933063 2894892
-0.51667374 -0.37505335 2.0682058 2894892
-0.49346554 -0.37484545 2.0933585 2894892
-0.51669139 -0.32509154 2.0682566 2894892
-0.49350041 -0.32484254 2.0933924 2894892
-0.5166918 -0.27502465 2.0683324 2894892
-0.49348718 -0.27493429 2.093478 2894892
-0.51670289 -0.22502257 2.0683873 2894892
-0.49348474 -0.22492552 2.0935533 2894892
-0.51673275 -0.17501961 2.0684323 2894892
-0.49349815 -0.17491356 2.0936096 2894892
-0.51670378 -0.12501144 2.0685313 2894892
-0.49355978 -0.12519236 2.0936155 2894892
-0.51683784 -0.074866965 2.0684619 2894892
-0.49356243 -0.075368993 2.0936842 2894892
-0.51672083 -0.0248535 2.0686574 2894892
-0.49355465 -0.025155112 2.0937653 2894892
-0.51673454 0.024854399 2.0687151 2894892
-0.49356845 0.025156036 2.0938227 2894892
-0.51688123 0.074873313 2.0686278 2894892
-0.49360323 0.075375423 2.0938575 2894892
-0.51642531 0.1073202 2.0687175 2894892
-0.48502654 0.11009386 2.0887046 2894892
-0.42514184 0.11394733 2.0835147 2894892
-0.37470323 0.11396469 2.0840988 2894892
-0.34214896 0.11397892 2.0815732 2894892
-0.46891987 -0.56806338 2.1196806 2894892
-0.4459745 -0.56801689 2.1445484 2894892
-0.46896493 -0.5250122 2.1196954 2894892
-0.44601297 -0.52493703 2.1445689 2894892
-0.46893713 -0.47500306 2.1197965 2894892
-0.44602102 -0.47504792 2.1446323 2894892
-0.46898034 -0.42495751 2.119822 2894892
-0.44604582 -0.42515549 2.1446769 2894892
-0.46898082 -0.37494317 2.1198924 2894892
-0.44606668 -0.37511376 2.1447263 2894892
-0.46899077 -0.32492614 2.1199541 2894892
-0.44603625 -0.32506672 2.1448324 2894892
-0.46899819 -0.27493936 2.120019 2894892
-0.44606972 -0.2751669 2.1448672 2894892
-0.46902129 -0.22498451 2.1200647 2894892
-0.44606489 -0.22511394 2.1449444 2894892
-0.46906576 -0.17502677 2.1200883 2894892
-0.44611156 -0.17476727 2.1449666 2894892
-0.46908054 -0.12499741 2.1201444 2894892
-0.44612813 -0.124564 2.1450212 2894892
-0.46891084 -0.074931823 2.1204021 2894892
-0.44611889 -0.07464987 2.1451027 2894892
-0.4691731 -0.024971362 2.120189 2894892
-0.44613099 -0.024883905 2.1451614 2894892
-0.4691861 0.024972275 2.1202466 2894892
-0.44614315 0.024884805 2.1452198 2894892
-0.46894985 0.074938171 2.1205752 2894892
-0.44615537 0.074656233 2.1452789 2894892
-0.46887881 0.10703689 2.1205752 2894892
-0.43857545 0.10932211 2.1401081 2894892
-0.37529892 0.11391447 2.1315074 2894892
-0.34618956 0.11392463 2.1316972 2894892
-0.42105174 -0.56813306 2.1715581 2894892
-0.3977237 -0.56791806 2.1968417 2894892
-0.42106214 -0.52505827 2.1716101 2894892
-0.39771461 -0.52484822 2.1969135 2894892
-0.42106953 -0.47504246 2.1716757 2894892
-0.39776239 -0.47480878 2.1969335 2894892
-0.4210363 -0.42505687 2.1717811 2894892
-0.39775494 -0.42506158 2.1970134 2894892
-0.42113134 -0.37503615 2.1717527 2894892
-0.39776576 -0.37501103 2.1970742 2894892
-0.4210631 -0.32501245 2.1718965 2894892
-0.39777672 -0.32495776 2.1971335 2894892
-0.42113853 -0.27501762 2.1718874 2894892
-0.3977876 -0.27490181 2.1971939 2894892
-0.42107326 -0.22502063 2.1720281 2894892
-0.39779851 -0.22484304 2.1972544 2894892
-0.42117295 -0.17508546 2.1719944 2894892
-0.39780945 -0.17478153 2.197315 2894892
-0.42106944 -0.12508239 2.1721749 2894892
-0.39782035 -0.12471729 2.1973746 2894892
-0.4212659 -0.075207308 2.172039 2894892
-0.39783123 -0.074650325 2.1974349 2894892
-0.42109239 -0.025198665 2.1722927 2894892
-0.39784217 -0.024580581 2.1974955 2894892
-0.42110431 0.025199572 2.172358 2894892
-0.39785296 0.024581466 2.1975541 2894892
-0.42130357 0.075181492 2.1722102 2894892
-0.39786384 0.074656658 2.1976151 2894892
-0.42057312 0.10744198 2.1719713 2894892
-0.38203874 0.11180566 2.1854463 2894892
-0.34884089 0.11388893 2.1645887 2894892
-0.37780219 -0.56808001 2.2184312 2894892
-0.37776205 -0.52501494 2.2185364 2894892
-0.37774274 -0.47499558 2.218631 2894892
-0.3777971 -0.42497453 2.2186425 2894892
-0.37776834 -0.37503007 2.2187474 2894892
-0.37780571 -0.32504258 2.2187767 2894892
-0.37780118 -0.27497336 2.2188554 2894892
-0.37780914 -0.22498006 2.2189162 2894892
-0.37783939 -0.17498583 2.2189589 2894892
-0.37779269 -0.12498637 2.2190785 2894892
-0.37795311 -0.074828692 2.2189782 2894892
-0.3778086 -0.024823437 2.2192051 2894892
-0.3778185 0.024824345 2.2192688 2894892
-0.37798408 0.074835017 2.2191591 2894892
-0.37726969 0.10701292 2.2199242 2894892
