# .PCD v0.7 - Point Cloud Data file format
VERSION 0.7
FIELDS x y z rgb
SIZE 4 4 4 4
TYPE F F F U
COUNT 1 1 1 1
WIDTH 1164
HEIGHT 1
VIEWPOINT 0 0 0 1 0 0 0
POINTS 1164
DATA ascii
0.48173103 -0.47491547 2.0258715 2894892
0.48183131 -0.42495933 2.0262187 2894892
0.48192957 -0.37498578 2.0266466 2894892
-0.59310627 -0.30488259 2.0250051 1588059
0.48202997 -0.3249903 2.026994 2894892
-0.94047803 -0.27504337 2.0258555 1778475
-0.87533855 -0.28931943 2.0241921 1782861
-0.82532924 -0.28942859 2.0249612 2768211
-0.77637696 -0.28952482 2.0225022 4083290
-0.72490525 -0.28962845 2.0206039 3622744
-0.67493427 -0.2897366 2.0210662 2111055
-0.62493032 -0.28984681 2.0221281 1322570
-0.59404546 -0.29345286 2.0242684 1059139
0.48212972 -0.27497575 2.0273721 2894892
-0.9470154 -0.22499508 2.024693 2039583
0.48231605 -0.22480842 2.0246913 2894892
-0.94689679 -0.17496711 2.0244124 2039583
0.48250663 -0.17496872 2.0218229 2894892
-0.94678199 -0.12495269 2.0242293 2039583
0.48259863 -0.12494434 2.0224741 2894892
-0.94666302 -0.075078398 2.023911 2039583
0.48270237 -0.075107351 2.0226989 2894892
-0.94654727 -0.025089627 2.0237384 2039583
0.48279551 -0.025146147 2.0233121 2894892
-0.94642925 0.025085451 2.0234861 2039583
0.48289713 0.025049042 2.0236344 2894892
-0.94290483 0.073445246 2.0239005 2040617
-0.87484831 0.090674318 2.0267155 2052498
-0.82482862 0.090575956 2.0241995 2447259
-0.77491724 0.090475857 2.0222795 2909091
-0.72511625 0.090377912 2.0197735 3041446
-0.67824399 0.090274595 2.0207691 2381207
-0.62494963 0.090120085 2.0329912 2052231
-0.59249485 0.094616607 2.0253558 1654373
0.48299623 0.075049564 2.0240362 2894892
-0.58518231 0.1067172 2.0256593 3228760
-0.52538854 0.10994471 2.0258191 10000536
-0.47459653 0.1098439 2.0239613 10000536
-0.42474163 0.10974494 2.0221384 10000536
-0.37147373 0.10960014 2.0316026 9934743
-0.32470039 0.10949694 2.0329356 9934743
-0.27518427 0.10939783 2.0313609 10000536
-0.2253281 0.10929888 2.0295236 10000536
-0.1751432 0.10920019 2.0274265 10000536
-0.12505005 0.10909992 2.025831 10000536
-0.075045586 0.10900158 2.0237401 10000536
-0.0251364 0.10890171 2.0221484 10000536
0.025105733 0.108802 2.0202978 10000536
0.074833445 0.10870419 2.0182188 10000536
0.12447498 0.10860483 2.0166371 10000536
0.17101623 0.10850134 2.0181928 10000536
0.22510661 0.10835541 2.0274889 10000536
0.27525166 0.10825597 2.0256283 10000536
0.32530472 0.10815671 2.023771 10000536
0.37526605 0.10805763 2.0219166 10000536
0.42906424 0.10791537 2.0303075 10000536
0.47455132 0.10593412 2.0287886 4013373
-0.71810269 -0.92078435 2.093677 3104661
-0.67408746 -0.91860747 2.0949647 2709648
-0.62446064 -0.91889048 2.0964074 2314376
-0.5977605 -0.9192304 2.0971835 1651276
0.4793047 -0.91486502 2.0775492 2894892
-0.70691413 -0.89028847 2.0941029 2907026
-0.67333406 -0.87622923 2.0951252 2643855
-0.62450343 -0.8746559 2.0965509 2380681
-0.59780163 -0.8749795 2.0973268 1585740
0.4794901 -0.87508571 2.0740836 2894892
-0.66150123 -0.83437324 2.0956068 2512782
-0.62433952 -0.82469612 2.0967195 2380937
-0.59784788 -0.82464772 2.0974901 1520204
0.4795832 -0.82509404 2.0746915 2894892
-0.61665547 -0.78028423 2.0970888 2645132
-0.59787899 -0.77473426 2.0976524 1520204
0.47968522 -0.7750811 2.07499 2894892
-0.95003521 -0.70623618 2.0942242 2185616
-0.92737806 -0.7072522 2.0751505 1918059
-0.87516207 -0.70745623 2.0774407 2642812
-0.82531059 -0.70772475 2.0782459 3102332
-0.77509904 -0.70793945 2.0791101 3561852
-0.72469419 -0.70776784 2.080606 3166840
-0.67500776 -0.70795095 2.0813556 2773366
-0.62351483 -0.71066672 2.0832531 2115695
-0.59643346 -0.72015232 2.0790932 1323084
0.47978225 -0.72494018 2.0754726 2894892
-0.95000857 -0.69493783 2.0941656 2382482
-0.93132806 -0.67513436 2.0833004 2314108
-0.87534577 -0.67447662 2.0899088 2843289
-0.82536578 -0.67474431 2.0913615 3501214
-0.77480364 -0.67561954 2.0928307 3171994
-0.72444254 -0.67496407 2.0942969 2709905
-0.67462212 -0.67462468 2.0957479 2974614
-0.62469625 -0.67509162 2.097198 2645132
-0.5979861 -0.67534137 2.0979745 1520460
0.47988451 -0.67499489 2.0757544 2894892
-0.93089604 -0.62548554 2.0842302 2248574
-0.87522817 -0.62457126 2.0900755 2909595
-0.82490492 -0.62474626 2.0915389 3435421
-0.77432513 -0.62518483 2.0930088 3171993
-0.72469264 -0.62541187 2.0944519 2578577
-0.67445809 -0.62469834 2.095916 2909077
-0.62474507 -0.62474757 2.0973616 2710925
-0.59796309 -0.62421393 2.0981996 1717839
0.47997838 -0.62502652 2.0763505 2894892
-0.93085712 -0.57537299 2.0843325 2182267
-0.87550676 -0.57505572 2.0902297 2975129
-0.82496858 -0.57453352 2.0917015 3303835
-0.77438527 -0.57493746 2.0931711 3106457
-0.72458971 -0.57533485 2.0946193 2710931
-0.67494267 -0.57525998 2.0960636 2843028
-0.62461931 -0.57462978 2.0975292 2579339
-0.59734702 -0.57474041 2.0987844 3558239
0.48016632 -0.57513601 2.0735788 2894892
-0.92934102 -0.52728271 2.0852702 2183039
-0.87570536 -0.52547145 2.0903857 3172763
-0.82484454 -0.52456808 2.0918682 3370141
-0.77444571 -0.52468175 2.0933347 3041178
-0.72464585 -0.5250448 2.0947816 2909592
-0.67477775 -0.52540803 2.096231 2843541
-0.62501746 -0.52514774 2.0976794 2579853
-0.59731698 -0.52487373 2.0987506 2637137
0.48026803 -0.5249452 2.0739062 2894892
-0.91025341 -0.49478495 2.0894811 2316689
-0.87182653 -0.48394057 2.0906343 3369627
-0.82512444 -0.47538161 2.0920212 3369627
-0.77450544 -0.47441864 2.0934963 2909336
-0.72470242 -0.47474676 2.0949447 2711957
-0.67483026 -0.47507527 2.0963943 2843797
-0.62488884 -0.47540414 2.0978458 2513803
-0.59734571 -0.47531682 2.0987074 2177102
0.48037079 -0.47496468 2.0741699 2894892
-0.81369841 -0.44252798 2.0924609 3172250
-0.77142662 -0.4297922 2.0937326 2711701
-0.72475874 -0.42444086 2.0951071 2711700
-0.67488283 -0.42473459 2.0965579 2711955
-0.62493819 -0.42502892 2.0980098 2447497
-0.59735495 -0.42519119 2.0988116 2637653
0.48046565 -0.42484388 2.0747242 2894892
-0.71723545 -0.38938949 2.0954411 2777492
-0.67269063 -0.37752905 2.0967758 2579599
-0.62498593 -0.37464547 2.0981724 2249349
-0.59740144 -0.3747887 2.0989749 2966618
0.48056853 -0.37494475 2.0749853 2894892
-0.65475929 -0.3466104 2.0973983 2380937
-0.6196534 -0.3367458 2.0984516 2315141
-0.59621447 -0.31998757 2.0887537 2572377
0.48066124 -0.32502815 2.0756042 2894892
-0.93044376 -0.27121797 2.0836916 2182775
-0.8750692 -0.27168697 2.0892551 2513805
-0.82458717 -0.27198219 2.0905259 2381449
-0.77452028 -0.27254406 2.0909789 2644617
-0.72489643 -0.27295819 2.0917184 2775688
-0.67500603 -0.27313349 2.0930538 2249090
-0.62508327 -0.27328765 2.0944583 1985147
-0.59640664 -0.28138733 2.0869679 2308690
0.48076147 -0.27496648 2.0759652 2894892
-0.93098336 -0.22469398 2.0847681 2314362
-0.875099 -0.22440687 2.091388 2645907
-0.8245582 -0.2245647 2.0928583 2316688
-0.77480465 -0.22471975 2.0943048 2251151
-0.7249822 -0.22487538 2.0957534 2448014
-0.67509121 -0.22503096 2.0972044 2118024
-0.62513077 -0.22518694 2.0986576 2051201
-0.59753948 -0.225273 2.0994596 2834777
0.48095259 -0.22490871 2.0731037 2894892
-0.93106335 -0.17502666 2.0847707 2314361
-0.87492651 -0.17520045 2.0915542 2580114
-0.82442558 -0.17458196 2.0930257 2184333
-0.77486485 -0.17440993 2.0944674 2053260
-0.72503859 -0.17453067 2.0959167 2315660
-0.6751436 -0.1746514 2.0973682 2250635
-0.62517953 -0.17477252 2.0988209 2315654
-0.5975861 -0.17483929 2.0996232 2045260
0.4810541 -0.1749175 2.073415 2894892
-0.93024915 -0.12542689 2.0850198 2314617
-0.87437606 -0.1256537 2.0917325 2579856
-0.8248831 -0.12517907 2.0931737 2118026
-0.77492386 -0.12495991 2.0946274 1986697
-0.7250939 -0.12504639 2.0960772 2183817
-0.67519516 -0.1251329 2.0975282 2250635
-0.62501574 -0.12470285 2.0989895 2315140
-0.59763277 -0.12439777 2.0997868 1913418
0.48115113 -0.12501197 2.0738788 2894892
-0.93035257 -0.075240828 2.0850439 2050164
-0.87444443 -0.075397946 2.0918946 2316429
-0.82474798 -0.075450063 2.0933409 2382222
-0.77498311 -0.075502247 2.0947881 2514320
-0.72514957 -0.075554468 2.0962377 2250379
-0.67524683 -0.07560683 2.097688 2052231
-0.62548929 -0.075156569 2.0991375 1919359
-0.59804624 -0.078980014 2.0999236 1584712
0.48125035 -0.074980795 2.0742781 2894892
-0.93038028 -0.025053948 2.0853386 1984629
-0.87451231 -0.025134386 2.092057 2249610
-0.824812 -0.025151772 2.093503 2514577
-0.77504343 -0.025169153 2.0949509 2646418
-0.7252056 -0.025186568 2.0964007 2118282
-0.67529964 -0.025203999 2.097852 1788035
-0.62598819 -0.025606232 2.0992851 1588085
-0.59942991 -0.046979986 2.099988 1059398
0.4813441 -0.024927394 2.0748711 2894892
-0.93038732 0.025054302 2.0853608 1852530
-0.87457943 0.025137 2.0922196 2051206
-0.82487613 0.025154375 2.0936654 2382478
-0.77510351 0.025171768 2.0951135 2382734
-0.72526246 0.025189187 2.0965641 1787521
-0.67535222 0.025206644 2.0980153 1589116
-0.62869918 0.024673192 2.0993707 1456499
0.48144227 0.024934165 2.0752943 2894892
-0.93041658 0.07081189 2.0850534 1852017
-0.87464714 0.071059451 2.0918643 1853057
-0.82492709 0.071074039 2.0931773 2249609
-0.77514476 0.071144305 2.0944488 2118280
-0.7253015 0.071159452 2.0957758 1721214
-0.67539614 0.071229406 2.0970409 1589371
-0.63100421 0.071147904 2.0977955 1721211
-0.59386319 0.094654478 2.073339 1783638
0.48154816 0.07492125 2.0754488 2894892
-0.58145708 0.10773681 2.0728018 5595503
-0.52493972 0.10979082 2.0705154 10000536
-0.47519913 0.10969312 2.0683901 10000536
-0.42510483 0.10959379 2.0665267 10000536
-0.37893325 0.10947614 2.072439 9934743
-0.32458538 0.10934184 2.0781658 9934743
-0.27440006 0.10924241 2.0762763 10000536
-0.22430581 0.10914315 2.0743897 10000536
-0.17430258 0.10904409 2.0725062 10000536
-0.12439 0.10894518 2.0706275 10000536
-0.071118519 0.10880038 2.0800934 10000536
-0.025022428 0.1086952 2.0823951 10000536
0.024992038 0.10859617 2.0804975 10000536
0.075339884 0.10849735 2.078325 10000536
0.12560003 0.10839691 2.0766809 10000536
0.17534047 0.10829844 2.0747931 10000536
0.22540841 0.10820018 2.0726326 10000536
0.27539814 0.10810029 2.070997 10000536
0.32528481 0.10800239 2.0688436 10000536
0.37509021 0.10790283 2.0672152 10000536
0.42046845 0.10779464 2.0708585 10000536
0.47610241 0.10511624 2.0772626 3552822
0.47743919 -0.95369911 2.1407568 2894892
-0.59695631 -0.92214561 2.1100373 10856362
0.47793606 -0.92395812 2.1254394 2894892
-0.59682608 -0.87499923 2.1091752 10790569
0.47805649 -0.87511134 2.1249952 2894892
-0.59670335 -0.82472664 2.108815 10790569
0.47814965 -0.82509875 2.1256046 2894892
-0.59657931 -0.77476692 2.1083741 10790569
0.47825047 -0.77518904 2.1259356 2894892
-0.59645337 -0.72512037 2.1078568 10790569
0.47834763 -0.72513533 2.1264079 2894892
-0.59633082 -0.67491174 2.107497 10790569
0.478448 -0.67493498 2.1267753 2894892
-0.59621292 -0.62557459 2.1072307 10856361
0.47854254 -0.62483948 2.1273496 2894892
-0.5961827 -0.5752036 2.1100545 9868950
0.47873834 -0.57478744 2.1243236 2894892
-0.59605855 -0.52526635 2.1096148 6513507
0.47884241 -0.52504534 2.1245282 2894892
-0.59593445 -0.47535008 2.1091752 6513507
0.47893271 -0.47497535 2.1252379 2894892
-0.59581572 -0.42423463 2.1090195 9737364
0.47910506 -0.42554229 2.1229904 2894892
-0.59578776 -0.37502813 2.1118333 11711154
0.47923225 -0.37496758 2.122442 2894892
-0.59565902 -0.325093 2.111232 11711154
0.47932819 -0.32503739 2.1229455 2894892
-0.59553641 -0.27488607 2.1108694 11711154
0.4794291 -0.27508783 2.1232753 2894892
-0.59541148 -0.22470048 2.1104274 11711154
0.47952422 -0.22511841 2.1238132 2894892
-0.59528583 -0.17512016 2.1099098 10921638
0.4796215 -0.17500201 2.1242845 2894892
-0.59516352 -0.12497727 2.109549 6513507
0.47972172 -0.12486524 2.1246502 2894892
-0.59529418 -0.072459035 2.1074343 5856094
0.47981712 -0.074832514 2.1251886 2894892
-0.6017136 -0.011537171 2.1000373 1389671
-0.59624672 -0.024772653 2.1044927 4082005
0.47991982 -0.024910361 2.1254497 2894892
-0.60394442 0.028773341 2.1001041 1455210
-0.59628022 0.025280898 2.1042483 4542557
0.48001781 0.024917137 2.125881 2894892
-0.60644281 0.071691111 2.100172 1851766
-0.59608477 0.073016897 2.1044631 6450038
0.48011106 0.074880041 2.1264896 2894892
-0.58143765 0.10770004 2.1142001 9934743
-0.52322125 0.10957719 2.1318321 9934743
-0.47499722 0.10947756 2.1312158 9934743
-0.42516965 0.10937897 2.1292968 9934743
-0.37499583 0.10928068 2.1270823 9934743
-0.32490394 0.10918061 2.1254354 9934743
-0.27490953 0.10908268 2.1232285 10000536
-0.2250012 0.10898298 2.121588 10000536
-0.1751854 0.10888541 2.1193883 10000536
-0.12501444 0.10878612 2.1174564 10000536
-0.079076514 0.10866965 2.1231656 10000536
-0.024710175 0.108532 2.1298561 10000536
0.024680546 0.10843434 2.1279399 10000536
0.074861772 0.10833511 2.1259925 10000536
0.12495178 0.10823608 2.1240489 10000536
0.17494975 0.10813722 2.1221089 10000536
0.22485702 0.10803852 2.1201725 10000536
0.27467278 0.10794003 2.1182396 10000536
0.32555354 0.1077844 2.1323502 10000536
0.37513325 0.10768543 2.1306987 10000536
0.42461452 0.10758861 2.1284771 10000536
0.47192213 0.10575929 2.1266267 3815994
0.47636083 -0.96238607 2.1783717 2894892
0.47655368 -0.92492157 2.1744578 2894892
0.476652 -0.8747825 2.1749027 2894892
0.47674844 -0.82488012 2.1753864 2894892
0.47684821 -0.77495545 2.175756 2894892
0.47694394 -0.72501081 2.1762784 2894892
0.47704151 -0.67504734 2.176722 2894892
0.4771373 -0.62506038 2.1772451 2894892
0.47724116 -0.57518774 2.1774628 2894892
0.47741377 -0.52578044 2.1752028 2894892
0.47753701 -0.47497994 2.174803 2894892
0.47771478 -0.42444575 2.1724508 2894892
0.47783703 -0.37511712 2.1719744 2894892
0.47793084 -0.3250502 2.1725667 2894892
0.47802681 -0.27495953 2.1730874 2894892
0.47812891 -0.22484919 2.1733823 2894892
0.47822362 -0.17497452 2.1739392 2894892
0.47832313 -0.12508176 2.1743078 2894892
0.47842076 -0.075166173 2.1747518 2894892
0.47851872 -0.02510554 2.1751971 2894892
0.47861701 0.025112396 2.1756434 2894892
0.47871491 0.075085267 2.1760883 2894892
-0.60538423 0.10959732 2.17661 9934743
-0.57476038 0.1095627 2.1678426 9934743
-0.52812916 0.10942833 2.1783552 9934743
-0.47518215 0.10930908 2.1805615 9934743
-0.42511094 0.10921016 2.1785889 9934743
-0.37513074 0.10911144 2.1766195 9934743
-0.32524046 0.10901287 2.1746535 9934743
-0.27544057 0.1089145 2.1726911 9934743
-0.22482727 0.10881454 2.170697 9934743
-0.1752079 0.10871655 2.1687417 9934743
-0.12410486 0.10860781 2.1689973 9934743
-0.075020149 0.10846041 2.1818039 9934743
-0.024839327 0.10836238 2.1795022 9934743
0.025258994 0.10826241 2.1778214 9934743
0.075259097 0.10816477 2.1755273 9934743
0.1251727 0.10806517 2.1738534 9934743
0.17499307 0.10796786 2.171567 9934743
0.22472303 0.10786861 2.1699002 9934743
0.27481279 0.10776974 2.1679111 9934743
0.32466948 0.10761748 2.1816518 9934743
0.37494123 0.1075143 2.180805 10000536
0.42424819 0.107417 2.1788321 10000536
0.47338623 0.10498624 2.1767371 3355443
0.47436744 -1.0025202 2.2460225 2894892
0.47494316 -0.97255093 2.2279208 2894892
0.47509429 -0.92530787 2.2262545 2894892
0.47528911 -0.87489003 2.2232938 2894892
0.47538465 -0.82486129 2.2238188 2894892
0.47548428 -0.77480853 2.2242062 2894892
0.47557911 -0.72489095 2.224755 2894892
0.47567776 -0.67495054 2.2251639 2894892
0.47577944 -0.62514782 2.2254534 2894892
0.47586986 -0.57547343 2.2261422 2894892
0.4760648 -0.52472097 2.223186 2894892
0.47617084 -0.47499204 2.2233174 2894892
0.47627273 -0.4250775 2.2236137 2894892
0.47636899 -0.375146 2.2241077 2894892
0.47646883 -0.32506031 2.2244849 2894892
0.47656208 -0.27508759 2.2250993 2894892
0.47666177 -0.22509237 2.2254741 2894892
0.47676075 -0.17494769 2.2258928 2894892
0.47685915 -0.12504447 2.2263033 2894892
0.47698125 -0.075679854 2.2258353 2894892
0.47715774 -0.024871273 2.2235482 2894892
0.47725481 0.024878016 2.2240005 2894892
0.47735786 0.074954011 2.2242708 2894892
-0.61169505 0.10946106 2.220293 9934743
-0.5745191 0.10938773 2.2188056 9934743
-0.52440649 0.10928883 2.2167997 9934743
-0.47006366 0.10914656 2.224858 9934743
-0.42457962 0.1090325 2.2301354 9934743
-0.37481114 0.10893324 2.2284606 9934743
-0.32466194 0.10883432 2.2264383 9934743
-0.27507275 0.10873768 2.2241051 9934743
-0.22556813 0.10863891 2.2224405 9934743
-0.17523171 0.10854075 2.2200902 9934743
-0.12586841 0.10843997 2.219094 9934743
-0.074968114 0.1082818 2.233918 9934743
-0.024969148 0.10818327 2.231885 9934743
0.024938894 0.1080849 2.2298555 9934743
0.074756257 0.1079867 2.2278299 9934743
0.12448319 0.1078887 2.2258079 9934743
0.17503801 0.10778908 2.2237525 9934743
0.22550009 0.1076896 2.2217004 9934743
0.27495393 0.10759212 2.2196896 9934743
0.32523134 0.10749304 2.2176452 9934743
0.37541673 0.10739413 2.2156045 9934743
0.42790231 0.10723835 2.2287514 9868950
0.4696638 0.1056548 2.2272222 3421236
0.47335365 -1.0102078 2.2814224 2894892
0.47355968 -0.97493893 2.276866 2894892
0.47367322 -0.92446715 2.2767899 2894892
0.4738616 -0.87504929 2.2739804 2894892
0.4739601 -0.82488638 2.274406 2894892
0.47405761 -0.77483511 2.2748721 2894892
0.47415301 -0.72503287 2.2753808 2894892
0.47430074 -0.67588907 2.2739892 2894892
0.47446433 -0.62477005 2.2721915 2894892
0.4745498 -0.57498664 2.2730565 2894892
0.47465771 -0.52520168 2.2731178 2894892
0.47475544 -0.47506261 2.2735856 2894892
0.47484732 -0.42491442 2.2742524 2894892
0.47494808 -0.37489945 2.2745919 2894892
0.4750421 -0.32502002 2.2751563 2894892
0.47514018 -0.27496573 2.275599 2894892
0.47523829 -0.22488864 2.2760403 2894892
0.47533825 -0.17494972 2.2764051 2894892
0.47543687 -0.12498739 2.2768199 2894892
0.47555611 -0.074241921 2.2765696 2894892
0.47574311 -0.025035236 2.2737737 2894892
0.47584069 0.025042072 2.2742395 2894892
0.47593057 0.074991822 2.2749603 2894892
-0.61983144 0.1092854 2.2766085 9934743
-0.5752154 0.10920514 2.2725465 9934743
-0.52531821 0.10910806 2.2701571 9934743
-0.47910818 0.10900096 2.2729523 9934743
-0.42497954 0.10884675 2.2846267 9934743
-0.37447268 0.10874732 2.2825396 9934743
-0.32500866 0.10864993 2.2804956 9934743
-0.27468479 0.10855087 2.2784162 9934743
-0.22445203 0.10845196 2.2763405 9934743
-0.17525625 0.10835512 2.2743077 9934743
-0.12520503 0.10825659 2.2722394 9934743
-0.075244136 0.10815823 2.270175 9934743
-0.025374524 0.10806005 2.2681143 9934743
0.025343282 0.10796022 2.2660186 9934743
0.075031094 0.10786237 2.2639654 9934743
0.1264465 0.10770245 2.2790005 10000536
0.1750855 0.10760284 2.2781155 10000536
0.22537528 0.10750269 2.2763722 10000536
0.27557448 0.10740513 2.2739303 10000536
0.32521787 0.10730746 2.2718625 10000536
0.37521976 0.10720787 2.2701297 10000536
0.42164236 0.1070792 2.2791071 9934743
0.47162253 0.10459366 2.2786875 3026478
0.47202027 -1.0207862 2.3279459 2894892
0.47217783 -0.97502625 2.3259349 2894892
0.47227708 -0.92494965 2.3263309 2894892
0.47236803 -0.8750093 2.3270218 2894892
0.47246659 -0.82520956 2.3274176 2894892
0.47256586 -0.77506834 2.3278184 2894892
0.47266281 -0.72490704 2.3283198 2894892
0.47285134 -0.67485482 2.3255546 2894892
0.47308698 -0.62501377 2.321089 2894892
0.47319093 -0.57465619 2.3213332 2894892
0.47328556 -0.52442396 2.3219109 2894892
0.47338027 -0.4748233 2.3224373 2894892
0.47347456 -0.42503816 2.3229902 2894892
0.47357538 -0.37491196 2.3233361 2894892
0.47366929 -0.32492509 2.3239174 2894892
0.4737713 -0.27507979 2.324204 2894892
0.47386217 -0.22505371 2.324894 2894892
0.47395945 -0.17500439 2.3253703 2894892
0.47406244 -0.12493782 2.3256335 2894892
0.47415721 -0.075011782 2.3261864 2894892
0.47425005 -0.025062202 2.326797 2894892
0.47434747 0.025069052 2.3272734 2894892
0.47444782 0.075059526 2.3276143 2894892
-0.65208834 0.10916441 2.3318479 10000536
-0.62473416 0.10911062 2.330699 10000536
-0.57497382 0.10901278 2.3286085 10000536
-0.52432919 0.10891319 2.3264813 10000536
-0.47474808 0.10881569 2.324399 10000536
-0.42525619 0.10871839 2.3223205 10000536
-0.37488464 0.1086193 2.3202047 10000536
-0.32460478 0.10852047 2.3180926 10197915
-0.27441639 0.10842177 2.3159845 10197915
-0.22431916 0.10832325 2.3138804 10197915
-0.17083353 0.1081932 2.3189001 10197915
-0.12446769 0.10806058 2.3290522 10197915
-0.074708886 0.10796412 2.3265653 10197915
-0.025045803 0.10786523 2.324841 10197915
0.025015365 0.10776685 2.3227205 10197915
0.074985281 0.10766862 2.3206038 10197915
0.12189697 0.10752863 2.332576 10197915
0.17417091 0.10740778 2.3356638 10197915
0.22428234 0.10730935 2.3335238 10197915
0.2743021 0.10721111 2.3313875 10197915
0.32423031 0.10711305 2.3292549 10197915
0.37502447 0.10701331 2.3270857 10197915
0.42572477 0.10691373 2.3249204 9934743
0.470103 0.10468572 2.3258641 2960685
0.47037002 -1.0579408 2.3836422 2894892
0.47064245 -1.0248055 2.3765676 2894892
0.47073659 -0.97512102 2.3771091 2894892
0.47083506 -0.92508501 2.3775413 2894892
0.47099838 -0.87618959 2.3755739 2894892
0.47114706 -0.825248 2.374279 2894892
0.47124404 -0.77524126 2.3747673 2894892
0.47134528 -0.7250216 2.3751218 2894892
0.47148469 -0.67397738 2.3741577 2894892
0.47165769 -0.62510926 2.3718383 2894892
0.47175676 -0.57479012 2.3722708 2894892
0.47184876 -0.52493346 2.372895 2894892
0.47195157 -0.4752216 2.373153 2894892
0.47204268 -0.42483985 2.3738699 2894892
0.47213972 -0.3749249 2.3743243 2894892
0.47224063 -0.32515538 2.3746393 2894892
0.47233447 -0.27503568 2.3752398 2894892
0.47243029 -0.22505881 2.3757522 2894892
0.47252619 -0.17506394 2.3762691 2894892
0.47262642 -0.12488443 2.3766427 2894892
0.47271904 -0.074844897 2.3772697 2894892
0.47282183 -0.024958232 2.3775275 2894892
0.47298393 0.023887921 2.3755903 2894892
0.47312927 0.074952081 2.3744323 2894892
-0.65818465 0.10904247 2.3712115 10000536
-0.62540036 0.1089781 2.3698113 10000536
-0.57480514 0.10887872 2.3676505 10000536
-0.52430141 0.10877953 2.3654938 10000536
-0.47487745 0.10868246 2.3633828 10000536
-0.42554164 0.10858557 2.3612761 10000536
-0.37288991 0.10842226 2.3765187 10066329
-0.3249613 0.10831921 2.377079 10197915
-0.2749868 0.10822248 2.3745337 10197915
-0.22509719 0.1081232 2.3727784 10197915
-0.17790644 0.10802297 2.3729722 10197915
-0.12567484 0.10785948 2.3885231 10197915
-0.075139672 0.10776035 2.386328 10197915
-0.024696684 0.10766142 2.3841369 10197915
0.024667086 0.10756459 2.3819931 10197915
0.074926451 0.10746602 2.3798099 10197915
0.12509435 0.10736759 2.3776307 10197915
0.17516989 0.1072694 2.3754554 10197915
0.22515452 0.10717134 2.3732843 10197915
0.27504721 0.1070735 2.3711176 10197915
0.32484952 0.1069758 2.3689539 10197915
0.37456036 0.10687831 2.3667948 10197915
0.42515311 0.10677907 2.3645973 9803157
0.46858567 0.10470635 2.3698251 2894892
0.4691298 -1.0680233 2.4268951 2894892
0.46926218 -1.0251486 2.4255507 2894892
0.46935871 -0.97510511 2.4260485 2894892
0.46945506 -0.92504108 2.4265473 2894892
0.46963987 -0.87383646 2.423995 2894892
0.46977916 -0.82495487 2.4228926 2894892
0.46987081 -0.77508956 2.4235411 2894892
0.46997228 -0.72503746 2.4238589 2894892
0.47006783 -0.67513371 2.4243824 2894892
0.47016418 -0.62504315 2.4248843 2894892
0.47025666 -0.57476217 2.4255323 2894892
0.47035334 -0.52462649 2.4260302 2894892
0.47045657 -0.47480479 2.4262798 2894892
0.47054991 -0.42529899 2.4268339 2894892
0.47076946 -0.37521076 2.4229622 2894892
0.47086617 -0.32508728 2.423461 2894892
0.47097099 -0.27494562 2.4236691 2894892
0.47105876 -0.22498521 2.4244552 2894892
0.47115543 -0.1750008 2.4249496 2894892
0.47125396 -0.12499614 2.4253733 2894892
0.47135183 -0.075176455 2.4257939 2894892
0.47144422 -0.025130238 2.4264367 2894892
0.47162437 0.026172707 2.4240651 2894892
0.47176811 0.075117864 2.422797 2894892
-0.66347945 0.10891436 2.4118831 9934743
-0.62507898 0.10883904 2.4102151 10000536
-0.57152992 0.10868265 2.4228847 10000536
-0.52527303 0.10857325 2.4263268 10000536
-0.47508046 0.10847344 2.4245536 10000536
-0.4249756 0.10837666 2.4219329 10000536
-0.37845021 0.10823648 2.4341955 10000536
-0.32533994 0.10810868 2.4387898 10197915
-0.27558383 0.10801121 2.4365911 10197915
-0.22490445 0.10791194 2.4343517 10197915
-0.17431806 0.10781284 2.4321163 10197915
-0.12483319 0.1077159 2.4299295 10197915
-0.075437821 0.10761915 2.4277468 10197915
-0.025125463 0.10752059 2.4255235 10197915
0.025094831 0.10742222 2.4233046 10197915
0.075223304 0.10732401 2.4210892 10197915
0.12526023 0.10722601 2.4188781 10197915
0.17520584 0.10712817 2.416671 10197915
0.22506037 0.1070305 2.4144678 10197915
0.27482411 0.10693302 2.4122689 10197915
0.32449725 0.10683574 2.4100735 10197915
0.37899023 0.10669476 2.4176674 10197915
0.4252536 0.10656569 2.4268618 9605778
0.46610698 0.10498771 2.4237692 2894892
0.46732539 -1.1063823 2.4879715 2894892
0.46772724 -1.0748056 2.4761672 2894892
0.46796554 -1.0252138 2.4716039 2894892
0.46805999 -0.97483432 2.4721918 2894892
0.46815351 -0.92504221 2.4727724 2894892
0.46825352 -0.8752287 2.4731243 2894892
0.46834576 -0.82498848 2.4737887 2894892
0.46844205 -0.77493018 2.4742968 2894892
0.46854246 -0.72505796 2.474649 2894892
0.46863633 -0.67495745 2.4752357 2894892
0.46872818 -0.62483668 2.4758959 2894892
0.46883261 -0.57490915 2.4760935 2894892
0.46892595 -0.52514809 2.4766753 2894892
0.46901795 -0.47517812 2.4773362 2894892
0.46912101 -0.42477965 2.477622 2894892
0.46934679 -0.37489468 2.4735153 2894892
0.46943823 -0.32491738 2.4741824 2894892
0.46953937 -0.27509299 2.4744933 2894892
0.46963671 -0.22507274 2.4749694 2894892
0.46972275 -0.17503652 2.4758291 2894892
0.46985382 -0.12580167 2.4750257 2894892
0.47004977 -0.074959256 2.4720566 2894892
0.47015446 -0.024997989 2.4722548 2894892
0.47024804 0.024798099 2.4728343 2894892
0.4703398 0.074803762 2.4734933 2894892
-0.70082939 0.10869584 2.4987409 10000536
-0.67258203 0.10870612 2.4783235 9934743
-0.62457901 0.10862229 2.4732206 10000536
-0.5785411 0.10850018 2.4805157 10000536
-0.52421314 0.10835037 2.4907992 10000536
-0.47425339 0.10825265 2.4885523 10000536
-0.42438367 0.10815511 2.4863098 10000536
-0.37460378 0.1080577 2.484071 10066329
-0.32491341 0.1079605 2.4818366 10197915
-0.27531233 0.10786346 2.4796059 10197915
-0.22477016 0.10776459 2.4773333 10197915
-0.17431991 0.10766593 2.4750645 10197915
-0.12498909 0.1075694 2.4728463 10197915
-0.074721962 0.10747106 2.4705856 10197915
-0.024546035 0.10737293 2.4683292 10197915
0.024516797 0.10727694 2.4661229 10197915
0.074511074 0.10717914 2.4638746 10197915
0.12543207 0.10707954 2.461585 10197915
0.17524321 0.10698209 2.4593446 10197915
0.2249632 0.10688482 2.4571085 10197915
0.27599287 0.1067126 2.4759567 10197915
0.3249636 0.10661372 2.4746547 10197915
0.37164187 0.10650811 2.4767299 10197915
0.42536476 0.10634213 2.4921012 9276813
0.46630713 0.10436818 2.4804711 2894892
0.46608448 -1.1162612 2.5312653 2894892
0.46623757 -1.0749698 2.5290656 2894892
0.46647093 -1.0249845 2.5246973 2894892
0.46661061 -0.97583801 2.5235868 2894892
0.46680588 -0.92504251 2.5206287 2894892
0.46689925 -0.87509638 2.5212288 2894892
0.4669933 -0.82492048 2.5218298 2894892
0.46708924 -0.77493078 2.5223479 2894892
0.46719187 -0.72492212 2.5226207 2894892
0.46728054 -0.67489415 2.5233817 2894892
0.46738058 -0.62505448 2.5237312 2894892
0.46747145 -0.57519156 2.5244124 2894892
0.46756753 -0.52509928 2.5249314 2894892
0.46766344 -0.47498646 2.5254488 2894892
0.46776384 -0.425064 2.5258 2894892
0.46786168 -0.37512124 2.5262384 2894892
0.46795088 -0.3249507 2.5270011 2894892
0.46804699 -0.27475566 2.5275204 2894892
0.46814761 -0.22475037 2.5278728 2894892
0.46823835 -0.17493506 2.528554 2894892
0.4683772 -0.12416375 2.5275979 2894892
0.46857142 -0.075133294 2.5245447 2894892
0.46868113 -0.025703942 2.5245247 2894892
0.46889701 0.025065267 2.5208316 2894892
0.46899739 0.075001061 2.5211811 2894892
-0.70718521 0.10855446 2.543947 10000536
-0.67518169 0.10849194 2.5424824 9934743
-0.62511182 0.10839415 2.5401902 10000536
-0.5751316 0.1082965 2.5379019 10000536
-0.52524191 0.10819906 2.5356181 10000536
-0.47438321 0.10809972 2.5332899 10000536
-0.42467391 0.1080026 2.5310144 10000536
-0.3750546 0.10790566 2.528743 10000536
-0.32447109 0.10780686 2.526427 10197915
-0.27503073 0.10771029 2.524164 10197915
-0.22567952 0.10761388 2.5219049 10197915
-0.17536904 0.1075156 2.5196016 10197915
-0.1251504 0.1074175 2.5173028 10197915
-0.075023301 0.10731959 2.5150082 10197915
-0.024987519 0.10722185 2.512717 10197915
0.024957219 0.10712427 2.5104311 10197915
0.074811138 0.1070269 2.5081489 10197915
0.12457451 0.10692969 2.5058706 10197915
0.17741524 0.10675922 2.5230887 10197915
0.22532582 0.1066561 2.5236826 10197915
0.27417687 0.10648733 2.5428574 10197915
0.32441103 0.10638282 2.5424225 10197915
0.37462401 0.10628486 2.5400817 10197915
0.42474458 0.10618711 2.5377452 9013641
0.4653362 0.10417155 2.5270746 2894892
0.46428394 -1.1548105 2.592191 2894892
0.46471682 -1.1245792 2.5791874 2894892
0.46487176 -1.0763361 2.5774648 2894892
0.46506715 -1.0247883 2.5745687 2894892
0.46520898 -0.97395444 2.573513 2894892
0.46539792 -0.92504466 2.5706306 2894892
0.46549371 -0.87495589 2.5711589 2894892
0.46558967 -0.82484972 2.5716898 2894892
0.46568301 -0.77471924 2.5723033 2894892
0.46578285 -0.72499716 2.5726538 2894892
0.46587542 -0.67503768 2.5732691 2894892
0.46596903 -0.62484783 2.5738823 2894892
0.46606889 -0.57506746 2.574234 2894892
0.46615997 -0.52483135 2.5749395 2894892
0.46625552 -0.47479066 2.5754666 2894892
0.46635759 -0.42515853 2.5757303 2894892
0.4664484 -0.37507802 2.5764322 2894892
0.46653926 -0.32497776 2.5771334 2894892
0.46664184 -0.27507254 2.5773983 2894892
0.46673724 -0.22514217 2.5779276 2894892
0.46683061 -0.17497945 2.578541 2894892
0.46692353 -0.12501185 2.5791581 2894892
0.46714363 -0.075377032 2.5752366 2894892
0.46729478 -0.023959531 2.5738945 2894892
0.46750394 0.024926564 2.5702968 2894892
0.46758503 0.074982941 2.5713406 2894892
-0.71377563 0.10840787 2.5908186 10000536
-0.67466271 0.10833157 2.5889955 10000536
-0.6247617 0.10823424 2.5866692 10000536
-0.5749504 0.10813708 2.5843475 10000536
-0.52522832 0.10804009 2.5820293 10000536
-0.47559536 0.1079433 2.579716 10000536
-0.42497554 0.10784455 2.5773561 10000536
-0.37444761 0.10774598 2.5750008 10066329
-0.32508439 0.1076497 2.5726993 10197915
-0.27473947 0.10755151 2.5703523 10197915
-0.22448562 0.10745347 2.5680101 10197915
-0.17538999 0.10735769 2.5657213 10197915
-0.12531768 0.10726005 2.5633872 10197915
-0.075335696 0.10716256 2.5610573 10197915
-0.025445173 0.10706522 2.5587313 10197915
0.025413753 0.10696604 2.5563605 10197915
0.075122193 0.10686906 2.5540433 10197915
0.12718992 0.10669553 2.5726366 10197915
0.17143258 0.10655212 2.5872526 10197915
0.2246497 0.10641477 2.5945637 10197915
0.27491641 0.10631689 2.5921767 10197915
0.3250913 0.10621916 2.5897944 10197915
0.37517342 0.10612161 2.5874164 10197915
0.42516422 0.10602427 2.585042 8816262
0.46419719 0.10415369 2.5748529 2894892
0.46325511 -1.1629785 2.6280861 2894892
0.46340328 -1.1253308 2.6257749 2894892
0.46358204 -1.0735285 2.6234896 2894892
0.46374366 -1.0245864 2.6215858 2894892
0.46383837 -0.97482538 2.6221206 2894892
0.46393868 -0.92482817 2.6224771 2894892
0.46402884 -0.87481254 2.6231992 2894892
0.4641268 -0.82477582 2.623646 2894892
0.46422166 -0.77493262 2.624181 2894892
0.46431893 -0.72507101 2.6246281 2894892
0.4644092 -0.67497385 2.6253481 2894892
0.46450889 -0.62529016 2.6256969 2894892
0.46459839 -0.57558328 2.6264179 2894892
0.46469352 -0.52563828 2.6269553 2894892
0.46479416 -0.47545457 2.6273136 2894892
0.46488771 -0.42503998 2.6279464 2894892
0.46502319 -0.37608039 2.6269705 2894892
0.46522573 -0.32500598 2.6237819 2894892
0.46532071 -0.27506015 2.6243184 2894892
0.46541604 -0.22509384 2.6248553 2894892
0.46552083 -0.1751111 2.6250472 2894892
0.46560636 -0.12510659 2.6259294 2894892
0.46584022 -0.074539252 2.6215909 2894892
0.46594492 -0.024980828 2.6217494 2894892
0.46604019 0.024987621 2.6222858 2894892
0.46613544 0.074976489 2.622822 2894892
-0.72061419 0.10825577 2.6394498 10000536
-0.67523009 0.10816737 2.6372948 10000536
-0.62550288 0.10807052 2.6349332 10000536
-0.57476228 0.10797169 2.6325245 10000536
-0.52521408 0.10787521 2.6301711 10000536
-0.47575504 0.10777887 2.6278226 10000536
-0.42528769 0.10768059 2.6254261 10000536
-0.37491244 0.10758246 2.623034 10066329
-0.3246288 0.10748453 2.6206462 10197915
-0.27443671 0.1073868 2.618263 10197915
-0.22433577 0.10728921 2.6158838 10197915
-0.17432579 0.1071918 2.6135097 10197915
-0.12440655 0.10709459 2.6111383 10197915
-0.074577801 0.10699755 2.6087728 10197915
-0.024839256 0.10690068 2.606411 10197915
0.024809316 0.10680398 2.6040533 10197915
0.075432032 0.10669836 2.6037083 10197915
0.12127637 0.10647842 2.6397152 10197915
0.17431258 0.10634398 2.6462982 10197915
0.22453736 0.10624631 2.6438677 10197915
0.27466995 0.10614883 2.6414421 10197915
0.32471067 0.10605155 2.6390207 10197915
0.37465972 0.10595441 2.6366036 10197915
0.42451733 0.10585747 2.6341913 8553090
0.46313789 0.10394402 2.6252093 2894892
0.46133947 -1.202163 2.6930494 2894892
0.4619008 -1.1725222 2.6754386 2894892
0.46203148 -1.1246161 2.6745479 2894892
0.46212569 -1.0749737 2.6750927 2894892
0.46221989 -1.0253111 2.675638 2894892
0.46232367 -0.9749679 2.6758986 2894892
0.4624106 -0.92482591 2.6767435 2894892
0.46251115 -0.87488216 2.6770957 2894892
0.46267214 -0.82668161 2.6751587 2894892
0.46285567 -0.7753861 2.672657 2894892
0.46294403 -0.72515517 2.6734493 2894892
0.46304753 -0.67517716 2.6736922 2894892
0.46313611 -0.62490427 2.6744878 2894892
0.46323043 -0.57516122 2.6750324 2894892
0.46332493 -0.52539772 2.6755784 2894892
0.46342736 -0.47505659 2.675885 2894892
0.46351379 -0.42498437 2.6767399 2894892
0.46367618 -0.37349677 2.6750126 2894892
0.46385682 -0.32481247 2.6724083 2894892
0.46395984 -0.27483186 2.6726644 2894892
0.46405458 -0.22504719 2.6732075 2894892
0.46414402 -0.17502378 2.6739509 2894892
0.46424767 -0.12475692 2.6742084 2894892
0.46432582 -0.074909762 2.6753399 2894892
0.46443692 -0.025056785 2.6752994 2894892
0.46453223 0.025063641 2.6758471 2894892
0.46461025 0.074957371 2.6769793 2894892
-0.75256443 0.10814629 2.6911476 10000536
-0.72432733 0.10809138 2.6897814 10000536
-0.67469317 0.10799487 2.6873796 10000536
-0.62514776 0.10789854 2.6849821 10000536
-0.57569051 0.10780235 2.6825891 10000536
-0.52520072 0.10770418 2.6801457 10000536
-0.47480202 0.10760619 2.6777074 10000536
-0.42561233 0.10751054 2.6753273 10000536
-0.37539536 0.10741289 2.6728973 10066329
-0.32526886 0.10731541 2.6704714 10197915
-0.27523395 0.10721811 2.6680508 10197915
-0.22528902 0.10712102 2.6656339 10197915
-0.17543511 0.10702407 2.6632216 10197915
-0.1245662 0.10692514 2.6607599 10197915
-0.074893683 0.10682857 2.6583564 10197915
-0.025311509 0.10673215 2.6559577 10197915
0.025280422 0.10663379 2.6535096 10197915
0.07468269 0.10653771 2.651119 10197915
0.1375517 0.10623983 2.6993635 10197915
0.17544973 0.10616627 2.697494 10197915
0.22553262 0.10606902 2.695024 10197915
0.27552316 0.105972 2.6925581 10197915
0.32542309 0.10587513 2.6900966 10197915
0.37523109 0.10577845 2.6876404 10197915
0.42494887 0.1056819 2.6851878 8355711
0.46201333 0.10372186 2.6776543 2894892
0.46033385 -1.2103914 2.7281182 2894892
0.46051314 -1.1749879 2.7245233 2894892
0.46061382 -1.124717 2.7248945 2894892
0.46070239 -1.0749753 2.7256434 2894892
0.46080193 -1.025213 2.7260075 2894892
0.46089289 -0.97516125 2.7266955 2894892
0.46098438 -0.92508215 2.7273855 2894892
0.4610863 -0.87498176 2.7276902 2894892
0.46127358 -0.82385224 2.725044 2894892
0.46143517 -0.7752946 2.7231081 2894892
0.4615272 -0.72512561 2.7237692 2894892
0.46162453 -0.67516375 2.7242253 2894892
0.46170762 -0.62517804 2.7251952 2894892
0.46180764 -0.57539654 2.7255442 2894892
0.46190891 -0.52492952 2.7259066 2894892
0.46199876 -0.4744238 2.7266724 2894892
0.46223193 -0.42543992 2.722229 2894892
0.46235102 -0.37467378 2.7219784 2894892
0.46244347 -0.32483879 2.7225983 2894892
0.46254328 -0.27498174 2.7229629 2894892
0.46263102 -0.22483112 2.7237761 2894892
0.46272728 -0.17493245 2.7242689 2894892
0.46282369 -0.12501679 2.724761 2894892
0.46292239 -0.07480412 2.7251933 2894892
0.46301144 -0.024844313 2.7259417 2894892
0.46310559 0.024851047 2.726496 2894892
0.46320561 0.074851617 2.7268612 2894892
-0.76042885 0.10798308 2.7436564 10000536
-0.72473001 0.10791378 2.7418954 10000536
-0.67413479 0.10781556 2.7393999 10000536
-0.62477791 0.10771974 2.7369652 10000536
-0.57550949 0.1076241 2.7345352 10000536
-0.52518535 0.10752641 2.7320528 10000536
-0.47495243 0.10742888 2.7295752 10000536
-0.42481062 0.10733154 2.727102 10000536
-0.37475964 0.10723438 2.7246332 10066329
-0.32479921 0.1071374 2.7221682 10197915
-0.27492902 0.10704059 2.7197092 10197915
-0.22514887 0.10694394 2.7172539 10197915
-0.17545854 0.10684747 2.7148027 10197915
-0.12585773 0.1067512 2.7123561 10197915
-0.075222395 0.1066529 2.7098587 10197915
-0.024679534 0.10655477 2.7073653 10197915
0.024649983 0.10645901 2.7049322 10197915
0.075008653 0.10636125 2.7024481 10197915
0.11299948 0.10628749 2.7005746 10197915
0.19593954 0.10594413 2.7497394 10197915
0.22543293 0.10588696 2.7482557 10197915
0.27527869 0.10579037 2.7457485 10197915
0.32503352 0.10569394 2.7432458 10197915
0.37469769 0.10559769 2.7407477 10197915
0.42427161 0.10550162 2.7382543 8092539
0.46044904 0.10380212 2.7308481 2894892
0.45906055 -1.220256 2.7725613 2894892
0.45920682 -1.1752743 2.7708941 2894892
0.45929536 -1.1252784 2.7716684 2894892
0.45939016 -1.0749764 2.7722406 2894892
0.45948514 -1.0246539 2.7728133 2894892
0.45958549 -0.97459596 2.7731791 2894892
0.4596757 -0.92481041 2.7738843 2894892
0.45976585 -0.87499613 2.7745872 2894892
0.45986745 -0.82516837 2.7748809 2894892
0.45995605 -0.77502865 2.7756555 2894892
0.46005246 -0.72486794 2.7761581 2894892
0.46015054 -0.67497778 2.7765892 2894892
0.4602395 -0.62477851 2.7773657 2894892
0.46033469 -0.57426983 2.7779405 2894892
0.460428 -0.52488875 2.7785025 2894892
0.46052092 -0.4754875 2.7790651 2894892
0.46076396 -0.42458206 2.7744265 2894892
0.46087885 -0.37536934 2.7742057 2894892
0.46097055 -0.32509288 2.7748859 2894892
0.46107122 -0.27503231 2.7752345 2894892
0.46118635 -0.22597443 2.7749922 2894892
0.46142137 -0.17504178 2.7706437 2894892
0.46151423 -0.12484834 2.7712808 2894892
0.4616175 -0.075217158 2.7715008 2894892
0.46170405 -0.025267189 2.772341 2894892
0.46179944 0.025274144 2.7729146 2894892
0.46190155 0.075265117 2.7732062 2894892
-0.76860684 0.10781337 2.798255 10000536
-0.72514844 0.10772914 2.7960689 10000536
-0.67472535 0.10763143 2.7935328 10000536
-0.62556332 0.10753616 2.79106 10000536
-0.57532132 0.10743878 2.788533 10000536
-0.52516949 0.10734161 2.7860103 10000536
-0.47510898 0.10724458 2.7834923 10000536
-0.42513815 0.10714774 2.7809787 10000536
-0.37525818 0.10705108 2.7784693 10066329
-0.32431096 0.10695233 2.7759073 10197915
-0.27461201 0.10685603 2.7734075 10197915
-0.22500318 0.10675988 2.7709122 10197915
-0.17433265 0.10666168 2.768364 10197915
-0.12490333 0.10656589 2.7658772 10197915
-0.075563401 0.10647028 2.7633958 10197915
-0.025167251 0.1063726 2.7608607 10197915
0.025136517 0.10627513 2.7583303 10197915
0.075348176 0.10617781 2.7558048 10197915
0.12546796 0.10608068 2.7532842 10197915
0.17095317 0.10599254 2.7509959 10197915
0.29811087 0.10555677 2.7998986 10197915
0.32462823 0.10550544 2.798537 10197915
0.3752929 0.10540743 2.7959375 10197915
0.42586353 0.10530963 2.7933428 7566195
0.46011475 0.10351398 2.780623 2894892
0.45723534 -1.2588474 2.8343577 2894892
0.45757979 -1.224816 2.8247917 2894892
0.4578203 -1.1754066 2.8201218 2894892
0.45793828 -1.1249914 2.8198805 2894892
0.45803252 -1.0749774 2.8204594 2894892
0.4581266 -1.0249436 2.8210385 2894892
0.45822629 -0.97517949 2.8214042 2894892
0.45831499 -0.92481774 2.8222013 2894892
0.45841077 -0.87501508 2.8227041 2894892
0.45850635 -0.82518947 2.8232098 2894892
0.45859256 -0.77505147 2.8240755 2894892
0.45869491 -0.72489977 2.8243706 2894892
0.45879334 -0.674721 2.8248091 2894892
0.45887846 -0.62510896 2.8256691 2894892
0.45897302 -0.57488936 2.8262508 2894892
0.45906767 -0.52464956 2.8268325 2894892
0.45916903 -0.47496888 2.8271224 2894892
0.45925292 -0.42498976 2.8280587 2894892
0.45934898 -0.37497947 2.828568 2894892
0.45944518 -0.32495248 2.829073 2894892
0.45954144 -0.27490184 2.8295825 2894892
0.45967376 -0.22390224 2.8288755 2894892
0.45990008 -0.17506412 2.8246641 2894892
0.46005926 -0.12670843 2.8228028 2894892
0.46025243 -0.075049661 2.8199887 2894892
0.46035889 -0.024835005 2.8201427 2894892
0.46045241 0.024841731 2.8207161 2894892
0.4605405 0.074807785 2.8215058 2894892
-0.66338819 0.10741676 2.8492348 10000536
-0.62399447 0.10734055 2.8472133 10000536
-0.57393444 0.10724371 2.8446445 10000536
-0.52396458 0.10714705 2.8420804 10000536
-0.47408476 0.10705055 2.8395214 10000536
-0.42429471 0.10695425 2.8369663 10000536
-0.37459415 0.1068581 2.8344159 10066329
-0.32498291 0.10676213 2.8318706 10197915
-0.27546063 0.1066663 2.8293293 10197915
-0.2248517 0.10656841 2.8267324 10197915
-0.17433479 0.10647069 2.8241405 10197915
-0.12508242 0.10637542 2.8216128 10197915
-0.074749 0.10627805 2.8190305 10197915
-0.024506915 0.10618085 2.8164525 10197915
0.024477771 0.1060861 2.8139391 10197915
0.074537911 0.10598925 2.8113699 10197915
0.12450743 0.10589258 2.8088062 10197915
0.17438522 0.10579611 2.8062468 10197915
0.22532925 0.10569753 2.8036323 10197915
0.27386993 0.10560364 2.801142 10197915
0.44626775 0.10507366 2.8497152 2894892
0.45902717 0.10332687 2.8316705 2894892
0.45594051 -1.2710541 2.8793867 2894892
0.45616764 -1.2247849 2.874948 2894892
0.45642084 -1.1741962 2.8699198 2894892
0.45653239 -1.125282 2.869792 2894892
0.45663917 -1.0749787 2.86994 2894892
0.45672116 -1.0246555 2.8709791 2894892
0.45681471 -0.97489959 2.8715661 2894892
0.4569079 -0.92512292 2.8721526 2894892
0.45700809 -0.87502962 2.8725193 2894892
0.45709559 -0.8249191 2.8733325 2894892
0.45718896 -0.77508116 2.8739197 2894892
0.45728251 -0.72522306 2.8745077 2894892
0.45737857 -0.67504805 2.8750241 2894892
0.45747757 -0.62456107 2.8754704 2894892
0.4575654 -0.57434249 2.8762853 2894892
0.45765904 -0.52440208 2.8768747 2894892
0.45775267 -0.4744412 2.8774629 2894892
0.45785227 -0.4247579 2.8778183 2894892
0.45793906 -0.37505749 2.8786349 2894892
0.45803285 -0.32503563 2.8792248 2894892
0.45813528 -0.27499524 2.8795118 2894892
0.45822066 -0.22493546 2.8804042 2894892
0.45844883 -0.17623125 2.8761122 2894892
0.45868865 -0.12314209 2.8717566 2894892
0.45885944 -0.074892856 2.8694751 2894892
0.45895317 -0.024968823 2.8700612 2894892
0.45904696 0.024975615 2.870646 2894892
0.4591406 0.074940458 2.8712325 2894892
-0.80111533 0.10768315 2.8563011 10000536
-0.7747184 0.10763212 2.8549478 10000536
-0.72438616 0.10753475 2.8523648 10000536
-0.68848729 0.10746532 2.8505232 10000536
-0.5069418 0.1069142 2.8996327 10000536
-0.47423035 0.10685104 2.8979199 10000536
-0.42462549 0.10675524 2.8953221 10000536
-0.37511024 0.10665965 2.892729 10066329
-0.32447878 0.10656188 2.8900776 10197915
-0.27514192 0.10646663 2.8874943 10197915
-0.22589393 0.10637154 2.8849149 10197915
-0.17553553 0.10627428 2.882278 10197915
-0.12526909 0.10617724 2.8796453 10197915
-0.075094394 0.10608036 2.8770175 10197915
-0.025011173 0.10598367 2.8743954 10197915
0.024980817 0.10588713 2.8717771 10197915
0.074881829 0.10579079 2.8691642 10197915
0.12469211 0.10569458 2.8665557 10197915
0.17441186 0.10559858 2.8639519 10197915
0.22404142 0.10550276 2.8613532 10197915
0.27475902 0.10540483 2.8586967 10197915
0.32538331 0.10530708 2.856046 10197915
0.37473935 0.10521179 2.853461 10197915
0.4204911 0.10512345 2.8510656 8355711
0.45919198 0.10230993 2.8715539 2894892
0.45438489 -1.3059642 2.9318976 2894892
0.45473334 -1.2731832 2.9220922 2894892
0.45489898 -1.2249402 2.9199898 2894892
0.4549832 -1.1749777 2.9209104 2894892
0.45507777 -1.1243869 2.9215169 2894892
0.45517021 -1.0749806 2.9221101 2894892
0.45526287 -1.0255549 2.9227047 2894892
0.45536363 -0.9752028 2.9230697 2894892
0.45545271 -0.92513853 2.9238305 2894892
0.45554167 -0.87504542 2.9245903 2894892
0.45564422 -0.82493925 2.9248712 2894892
0.45573351 -0.77480483 2.925633 2894892
0.45582446 -0.7249577 2.9263086 2894892
0.45591533 -0.67508632 2.9269891 2894892
0.45601994 -0.62520266 2.9271855 2894892
0.45610473 -0.57498598 2.9281096 2894892
0.45620778 -0.52474052 2.9283905 2894892
0.45628241 -0.47511151 2.9296303 2894892
0.45640451 -0.4256669 2.9291656 2894892
0.45667151 -0.37469846 2.9236805 2894892
0.45675892 -0.32469943 2.9244916 2894892
0.45685175 -0.27508041 2.9250841 2894892
0.45694533 -0.22503757 2.9256835 2894892
0.45720625 -0.17376456 2.9204385 2894892
0.45730981 -0.12491516 2.9205897 2894892
0.45741606 -0.075331606 2.9207041 2894892
0.45750254 -0.025416687 2.9215426 2894892
0.45759773 0.025423722 2.9221492 2894892
0.45769793 0.07537967 2.9225039 2894892
-0.80925453 0.10749792 2.9154637 10000536
-0.77496034 0.10743169 2.9136682 10000536
-0.72481585 0.10733489 2.9110422 10000536
-0.67476094 0.10723823 2.9084206 10000536
-0.62479693 0.10714177 2.9058046 10000536
-0.57492179 0.10704547 2.9031928 10000536
-0.53241521 0.1069634 2.9009669 10000536
-0.30551034 0.10631755 2.9497371 10197915
-0.27481017 0.10625841 2.948096 10197915
-0.2245291 0.1061615 2.9454072 10197915
-0.17556301 0.10606714 2.9427896 10197915
-0.12546341 0.1059706 2.9401104 10197915
-0.07545419 0.10587422 2.9374368 10197915
-0.025536576 0.10577804 2.9347682 10197915
0.025504937 0.10567965 2.9320388 10197915
0.075240068 0.10558382 2.9293799 10197915
0.12488433 0.10548814 2.9267254 10197915
0.17564662 0.10539033 2.9240115 10197915
0.22510989 0.105295 2.9213669 10197915
0.27448308 0.10519985 2.9187272 10197915
0.32496834 0.10510256 2.9160275 10197915
0.37536043 0.10500544 2.9133334 10197915
0.42565945 0.10490853 2.9106443 6974058
0.45682028 0.10301436 2.9192612 2894892
0.45312154 -1.3157589 2.9759932 2894892
0.45328498 -1.2751862 2.9733698 2894892
0.45338964 -1.2252401 2.9735644 2894892
0.4534646 -1.1749667 2.9748447 2894892
0.45357704 -1.1246876 2.9747937 2894892
0.45366034 -1.0749823 2.9757349 2894892
0.45376265 -1.0252564 2.9760113 2894892
0.45383736 -0.97491527 2.9772921 2894892
0.45394728 -0.92484462 2.9773178 2894892
0.4540351 -0.87506652 2.9780915 2894892
0.45413068 -0.82495695 2.9786212 2894892
0.45429149 -0.77644283 2.9767141 2894892
0.45451209 -0.72466516 2.9729352 2894892
0.45459831 -0.67512429 2.9737616 2894892
0.45468515 -0.62514263 2.9745901 2894892
0.45479167 -0.57475674 2.974762 2894892
0.45487776 -0.52514374 2.97559 2894892
0.45497724 -0.47510237 2.9759803 2894892
0.45508435 -0.42397329 2.9761817 2894892
0.45535499 -0.37504795 2.9704072 2894892
0.45544302 -0.32527313 2.9711792 2894892
0.45553881 -0.27516752 2.9717073 2894892
0.45563003 -0.22504166 2.9723983 2894892
0.45572096 -0.17489861 2.9730933 2894892
0.45581228 -0.12473088 2.9737849 2894892
0.45591745 -0.074552462 2.9739814 2894892
0.45600119 -0.024648648 2.9749198 2894892
0.45609313 0.024655269 2.9755204 2894892
0.45619547 0.074599698 2.9757957 2894892
-0.81773776 0.10730468 2.9771247 10000536
-0.77396178 0.10722031 2.9747839 10000536
-0.72401458 0.10712408 2.9721134 10000536
-0.67415684 0.10702797 2.9694476 10000536
-0.62438864 0.10693207 2.9667869 10000536
-0.57470942 0.10683636 2.9641309 10000536
-0.52511919 0.10674077 2.9614792 10000536
-0.47561747 0.10664538 2.958833 10000536
-0.42497045 0.10654779 2.9561245 10000536
-0.37441522 0.10645034 2.9534216 10132122
-0.33010045 0.10636494 2.9510524 10197915
-0.058405261 0.10562573 2.9994965 10197915
-0.024841664 0.10556118 2.9976637 10197915
0.024811724 0.10546567 2.994952 10197915
0.074375361 0.10537037 2.9922452 10197915
0.1250848 0.10527284 2.9894757 10197915
0.17570123 0.10517551 2.9867108 10197915
0.2249926 0.1050807 2.984019 10197915
0.27542377 0.10498372 2.9812648 10197915
0.32576269 0.10488689 2.9785159 10197915
0.37478405 0.10479263 2.9758391 10197915
0.42493922 0.10469617 2.9730995 6776679
0.45559818 0.10280268 2.9754846 2894892
0.45117465 -1.3552971 3.0420361 2894892
0.45161596 -1.3241951 3.0288022 2894892
0.4518699 -1.2763965 3.0235302 2894892
0.45202187 -1.2249955 3.0221624 2894892
0.45210868 -1.1747348 3.0230181 2894892
0.45220131 -1.1248695 3.0236368 2894892
0.4522942 -1.074984 3.0242584 2894892
0.45238689 -1.0250772 3.0248778 2894892
0.45247954 -0.97515035 3.0254984 2894892
