# .PCD v0.7 - Point Cloud Data file format
VERSION 0.7
FIELDS x y z rgb
SIZE 4 4 4 4
TYPE F F F U
COUNT 1 1 1 1
WIDTH 1152
HEIGHT 1
VIEWPOINT 0 0 0 1 0 0 0
POINTS 1152
DATA ascii
-0.54221553 -0.27475381 1.6019444 6513507
-0.55219609 -0.22451527 1.6274477 6513507
-0.54274607 -0.22453463 1.6035122 6513507
-0.55273068 -0.17479114 1.6290231 6513507
-0.54327071 -0.17488007 1.6050621 6513507
-0.55326629 -0.12497064 1.6306016 6513507
-0.54379648 -0.12512894 1.6066152 6513507
-0.55380279 -0.075053491 1.6321832 6513507
-0.54432315 -0.075281881 1.6081715 6513507
-0.55434048 -0.025039416 1.6337677 6513507
-0.54485077 -0.025337752 1.6097305 6513507
-0.55487919 0.025071861 1.6353556 8158332
-0.54537952 0.024702892 1.6112925 8158332
-0.55541897 0.075280622 1.6369461 10197915
-0.54590929 0.074841179 1.6128577 10197915
-1.2711953 0.11427641 1.624223 10197915
-1.2246778 0.11423308 1.6224037 10197915
-1.1750014 0.11416747 1.6305934 10197915
-1.1249807 0.11411814 1.6300668 10197915
-1.0750006 0.11406951 1.6291946 10197915
-1.0250611 0.11402061 1.6284961 10197915
-0.97493941 0.11397116 1.6279665 10197915
-0.92486441 0.11392277 1.6269261 10197915
-0.87505472 0.11387366 1.6263977 10197915
-0.82506263 0.11382437 1.6258698 10197915
-0.77511215 0.11377578 1.6249999 10197915
-0.72498214 0.11372666 1.6243027 10197915
-0.674891 0.1136776 1.6235976 10197915
-0.62484753 0.11362859 1.6229017 10197915
-0.57408899 0.11302879 1.6227578 10197915
-0.54616016 0.10945545 1.6099193 10197915
-0.57633233 -0.7523756 1.6862292 11711154
-0.57191038 -0.72318375 1.6751592 11711154
-0.57208371 -0.67478347 1.6758147 11711154
-0.57257205 -0.62506592 1.677273 8618883
-0.57313532 -0.57490128 1.6789234 6513507
-0.57376689 -0.52498317 1.6807445 6316128
-0.57425821 -0.47496977 1.6822121 9013641
-0.57489204 -0.42485461 1.6840403 11711154
-0.57530868 -0.37498915 1.685318 11711154
-0.57305205 -0.32875124 1.6798086 11711154
-0.56695729 -0.27278593 1.6646203 9539985
-0.56687438 -0.2251716 1.6646225 9539985
-0.56742793 -0.17499496 1.6662492 9539985
-0.5680477 -0.12507066 1.6680409 6513507
-0.56853122 -0.075041875 1.6694875 6513507
-0.56915325 -0.024922179 1.6712867 6513507
-0.56970376 0.024954321 1.6729035 8092539
-0.57011515 0.074925475 1.6741675 10197915
-1.3175436 0.11422023 1.6781586 10197915
-1.2750293 0.11419208 1.6704816 10197915
-1.2253654 0.11414278 1.6701412 10197915
-1.1751901 0.11407558 1.6789001 10197915
-1.1253188 0.11402678 1.6781819 10197915
-1.0751444 0.1139774 1.6775993 10197915
-1.025009 0.11392862 1.6767371 10197915
-0.97492206 0.11387932 1.6761556 10197915
-0.92487174 0.11383058 1.6752946 10197915
-0.87487257 0.1137814 1.674714 10197915
-0.82456088 0.11373215 1.6739898 10197915
-0.77464241 0.11368358 1.6731305 10197915
-0.72476965 0.11363448 1.6725522 10197915
-0.67493552 0.11358599 1.6716942 10197915
-0.62514967 0.11353698 1.6711168 10197915
-0.58004469 0.111463 1.671273 10197915
-0.5936082 -0.76182479 1.7299447 11711154
-0.59267431 -0.72503883 1.7277436 11711154
-0.59317803 -0.67523926 1.7292411 11447982
-0.59376335 -0.62498617 1.7309475 6776679
-0.60009521 -0.55810982 1.7472827 6513507
-0.59336537 -0.5781436 1.7301481 6513507
-0.60048282 -0.52514678 1.7484113 5658198
-0.58952236 -0.52536225 1.7206492 5526612
-0.60090452 -0.48927623 1.7496396 11711154
-0.59010106 -0.47521624 1.7223386 10921638
-0.59068108 -0.42497215 1.7240314 11711154
-0.59125417 -0.37533867 1.725704 11711154
-0.58732051 -0.32255912 1.7159756 11711154
-0.58707827 -0.27503604 1.715574 11711154
-0.58765316 -0.22479346 1.7172536 11711154
-0.58814967 -0.1748154 1.718734 10592673
-0.58871627 -0.12508856 1.7203907 6513507
-0.58928829 -0.075264879 1.7220614 6513507
-0.58993882 -0.024993131 1.7239333 6513507
-0.5905112 0.025025457 1.7256054 8026746
-0.59100252 0.074776575 1.7270716 10197915
-1.3619039 0.11417162 1.7270867 10197915
-1.3251475 0.11414451 1.7219074 10197915
-1.2750161 0.11409517 1.7213192 10197915
-1.2249306 0.11404649 1.7204289 10197915
-1.1748873 0.11399722 1.7198418 10197915
-1.1248862 0.11394864 1.7189524 10197915
-1.0729426 0.11389132 1.7216022 10197915
-1.0249541 0.11383083 1.7280322 10197915
-0.97514081 0.11378209 1.727293 10197915
-0.925125 0.11373319 1.7265508 10197915
-0.87515557 0.1136839 1.7260143 10197915
-0.82522994 0.11363547 1.725068 10197915
-0.77510172 0.11358681 1.7241259 10197915
-0.72478575 0.11353689 1.7237805 10197915
-0.67474419 0.11348832 1.7228338 10197915
-0.62498814 0.11343927 1.7223003 10197915
-0.59193534 0.11029188 1.7184815 10197915
-0.62011582 -0.80175847 1.7969064 11711154
-0.61521286 -0.7728864 1.7846168 11711154
-0.61410725 -0.72802114 1.7820163 11711154
-0.61000097 -0.6753279 1.7718505 10066329
-0.61060029 -0.62529159 1.7735916 6513507
-0.61120111 -0.5751574 1.7753363 6513507
-0.61180282 -0.52492398 1.7770844 6579300
-0.60825562 -0.47071856 1.7683415 11711154
-0.60725111 -0.42473009 1.7660021 11711154
-0.60792398 -0.37497705 1.7679274 11711154
-0.60843337 -0.32512331 1.7694401 11711154
-0.60910845 -0.27517495 1.7713726 11711154
-0.60962015 -0.22512798 1.7728914 11711154
-0.61029768 -0.17498337 1.7748311 10132122
-0.61081159 -0.12474183 1.7763559 6513507
-0.61140186 -0.074767031 1.7780744 6513507
-0.61207724 -0.025068741 1.7800059 6513507
-0.61267281 0.025101257 1.7817378 7960953
-0.61317962 0.074992269 1.7832438 10197915
-1.4103643 0.11409731 1.7916741 10197915
-1.3745159 0.11408857 1.7773309 10197915
-1.3253396 0.11404181 1.77591 10197915
-1.2752484 0.11399236 1.7753693 10197915
-1.2249564 0.1139437 1.7743828 10197915
-1.1749545 0.11389522 1.773404 10197915
-1.1249964 0.11384601 1.7728616 10197915
-1.0764754 0.11379459 1.7742264 10197915
-1.0246478 0.11372682 1.7824426 10197915
-0.97512633 0.11367811 1.7818516 10197915
-0.9252705 0.1136294 1.7810881 10197915
-0.87508821 0.11358069 1.7801515 10197915
-0.82494855 0.11353139 1.7795517 10197915
-0.77485114 0.11348273 1.7786165 10197915
-0.72479975 0.11343349 1.778018 10197915
-0.67478681 0.11338496 1.7770842 10197915
-0.62571251 0.11162119 1.7776252 10197915
-0.63205844 -0.80842859 1.8271252 11711154
-0.63247687 -0.77487469 1.8283347 11711154
-0.63041216 -0.7207939 1.8233464 11711154
-0.62760633 -0.67467713 1.8164454 8224125
-0.62822032 -0.62486333 1.8182222 6513507
-0.62901574 -0.57495499 1.8204592 6513507
-0.62945211 -0.52495259 1.8217866 7829367
-0.63006938 -0.47484532 1.8235743 11711154
-0.63077414 -0.42501396 1.8255808 11711154
-0.63129908 -0.37509143 1.8271328 11711154
-0.63200641 -0.325064 1.829147 11711154
-0.63253355 -0.27494746 1.8307058 11711154
-0.63314503 -0.22510411 1.8324761 11711154
-0.63193327 -0.1790324 1.8296121 10329501
-0.62838626 -0.12446628 1.8208715 6513507
-0.62899321 -0.074750304 1.8226309 6513507
-0.62960148 -0.024938185 1.824393 6513507
-0.63021088 0.024970362 1.8261584 7895160
-0.63082129 0.074975602 1.8279278 10197915
-1.4595655 0.11404049 1.8474402 10197915
-1.4252148 0.11403468 1.8323575 10197915
-1.3749875 0.11398087 1.8340558 10197915
-1.3246472 0.11393139 1.8334475 10197915
-1.2747295 0.11388265 1.8326633 10197915
-1.2252407 0.11383469 1.8317037 10197915
-1.1750265 0.11378532 1.831097 10197915
-1.124855 0.1137367 1.8301266 10197915
-1.074729 0.1136874 1.8295212 10197915
-1.024642 0.11363888 1.8285526 10197915
-0.97460395 0.11358965 1.8279482 10197915
-0.92460126 0.1135412 1.8269809 10197915
-0.87465096 0.11349209 1.8263781 10197915
-0.82473224 0.11344372 1.8254125 10197915
-0.7748695 0.11339468 1.8248103 10197915
-0.72466034 0.11334568 1.8240217 10197915
-0.67487365 0.11329743 1.8230579 10197915
-0.63711166 0.11170451 1.8223159 10197915
-0.65719086 -0.82246411 1.8907198 11711154
-0.64440942 -0.81532639 1.8583783 11711154
-0.65781105 -0.77462912 1.8925034 11711154
-0.64493036 -0.77437454 1.8598804 11711154
-0.65845132 -0.72515565 1.8943459 10395294
-0.64555711 -0.72499454 1.8616875 11711154
-0.6590929 -0.67558587 1.8961916 6513507
-0.64618498 -0.6755178 1.8634982 6513507
-0.65974587 -0.62514228 1.8980703 6513507
-0.64682376 -0.6251815 1.8653406 6513507
-0.66024899 -0.5862748 1.8995181 6513507
-0.64746392 -0.57474571 1.8671865 5921370
-0.64809561 -0.52497667 1.8690079 9803157
-0.64872831 -0.47510985 1.8708328 11711154
-0.64936244 -0.4251461 1.8726619 11711154
-0.65016407 -0.36197814 1.8749737 11711154
-0.64984125 -0.38741916 1.8740424 11711154
-0.65063441 -0.32492453 1.8763298 11711154
-0.65126246 -0.27544034 1.8781407 11711154
-0.65190142 -0.22508477 1.8799837 11711154
-0.65254176 -0.17463081 1.8818307 9013641
-0.64010811 -0.16175106 1.8503952 6645093
-0.65317345 -0.12485591 1.883652 6513507
-0.6405651 -0.12504031 1.8517162 6513507
-0.65380645 -0.074984513 1.8854775 6513507
-0.64118481 -0.075248942 1.8535075 6513507
-0.65444052 -0.025016386 1.8873057 6513507
-0.64180565 -0.025360623 1.8553023 6513507
-0.65507585 0.025048768 1.8891388 7829367
-0.64242792 0.024623903 1.8571007 7829367
-0.6557126 0.075211234 1.8909745 10197915
-0.64305115 0.074705936 1.8589027 10197915
-1.5046734 0.1139904 1.8975701 10197915
-1.4727278 0.11398051 1.8858788 10197915
-1.424991 0.11393652 1.8837678 10197915
-1.374844 0.11388797 1.8827606 10197915
-1.3247447 0.11383873 1.8821511 10197915
-1.2746814 0.11379025 1.8811456 10197915
-1.2246703 0.11374108 1.8805373 10197915
-1.1746907 0.11369273 1.8795331 10197915
-1.1247674 0.11364365 1.8789258 10197915
-1.0744847 0.1135946 1.8781149 10197915
-1.024637 0.11354636 1.8771133 10197915
-0.97483873 0.11349741 1.8765081 10197915
-0.92468518 0.11344849 1.8756993 10197915
-0.87496942 0.11340037 1.8747 10197915
-0.82529551 0.11335155 1.8740963 10197915
-0.77527118 0.11330274 1.8732896 10197915
-0.72490555 0.11325398 1.872286 10197915
-0.67314386 0.11245203 1.8736596 10197915
-0.64446205 0.10897987 1.8595563 10197915
-0.67009217 -0.854945 1.9232515 11711154
-0.6704967 -0.82436413 1.9244134 11711154
-0.6711508 -0.77489197 1.92629 11711154
-0.67180538 -0.72532189 1.9281689 9079434
-0.67247182 -0.67486638 1.9300812 6513507
-0.67312896 -0.62510151 1.931968 6513507
-0.66956961 -0.57081157 1.9231944 5197647
-0.66764027 -0.52500278 1.9185115 11645361
-0.66840041 -0.47499737 1.9206599 11711154
-0.66894913 -0.42488697 1.9222728 11711154
-0.66971213 -0.37468353 1.9244294 11711154
-0.67036486 -0.32477206 1.9263043 11711154
-0.6709066 -0.27516937 1.9278976 11711154
-0.67156142 -0.22506489 1.9297795 11711154
-0.67221773 -0.17486249 1.9316654 8553090
-0.66663653 -0.12543967 1.9177492 6513507
-0.66687107 -0.074710824 1.9185693 6513507
-0.66751897 -0.024660066 1.9204332 6513507
-0.66815782 0.024691528 1.9222714 7763574
-0.6688081 0.074936226 1.9241425 10197915
-1.5134244 0.11392938 1.9341581 10197915
-1.4749259 0.11388714 1.9359977 10197915
-1.4245839 0.1138381 1.9351636 10197915
-1.3746908 0.11378986 1.9341208 10197915
-1.3248466 0.11374088 1.9335115 10197915
-1.2746333 0.11369194 1.9326794 10197915
-1.2248724 0.11364385 1.9316391 10197915
-1.1751519 0.11359499 1.9310313 10197915
-1.1250679 0.11354616 1.9302014 10197915
-1.0750279 0.11349823 1.9289479 10197915
-1.0250403 0.11344869 1.9285442 10197915
-0.97508532 0.11340001 1.9277167 10197915
-0.92517316 0.11335135 1.9268899 10197915
-0.87490499 0.11330276 1.9258486 10197915
-0.82467985 0.11325341 1.9252248 10197915
-0.77489668 0.11320488 1.9244 10197915
-0.72476155 0.11315644 1.9233609 10197915
-0.68099713 0.11205879 1.9213474 10197915
-0.69258827 -0.86774969 1.9801739 11711154
-0.69134605 -0.82533282 1.9772172 11711154
-0.69203103 -0.77530384 1.9791747 11579568
-0.70007706 -0.71996063 1.9998007 6513507
-0.69027811 -0.72900832 1.9749413 7237230
-0.68632722 -0.67492503 1.9651753 6513507
-0.68699944 -0.62505937 1.9670997 6513507
-0.68767291 -0.57509595 1.9690279 7039851
-0.6883477 -0.52503449 1.9709603 11711154
-0.68902373 -0.47487459 1.9728962 11711154
-0.68970126 -0.42461622 1.9748358 11711154
-0.69036919 -0.37507209 1.9767481 11711154
-0.69103807 -0.32543141 1.9786642 11711154
-0.69171953 -0.27487844 1.9806153 11711154
-0.6923914 -0.22504379 1.9825385 11711154
-0.69306439 -0.17511174 1.9844657 8092539
-0.6867398 -0.1247751 1.9686706 6513507
-0.68740278 -0.07509584 1.9705716 6513507
-0.68795729 -0.024919296 1.9721996 6513507
-0.68862265 0.024951424 1.9741062 7697781
-0.68928903 0.07491871 1.9760175 10197915
-1.5610131 0.11389757 1.9759971 10197915
-1.5290931 0.11388176 1.9674431 10197915
-1.475448 0.11381078 1.9763608 10197915
-1.4248857 0.11376155 1.9755056 10197915
-1.3743668 0.11371233 1.9746512 10197915
-1.3247187 0.11366399 1.9738117 10197915
-1.2751129 0.11361568 1.9729726 10197915
-1.2211487 0.11354466 1.9817479 10197915
-1.1748086 0.1134919 1.9849695 10197915
-1.1249785 0.1134434 1.9841135 10197915
-1.0756127 0.11339488 1.9835083 10197915
-1.0254546 0.11334646 1.982426 10197915
-0.97534674 0.11329725 1.9818003 10197915
-0.92527318 0.11324894 1.9807199 10197915
-0.87525356 0.11319979 1.9800956 10197915
-0.82526416 0.11315154 1.9790167 10197915
-0.77491885 0.11310165 1.9786144 10197915
-0.72461021 0.11305352 1.9773026 10197915
-0.69132644 0.10929511 1.9743233 10197915
-0.71238554 -0.90414923 2.0301557 11711154
-0.71279323 -0.8752082 2.0313172 11711154
-0.71349198 -0.82552391 2.033309 11711154
-0.71419173 -0.77574128 2.0353024 10066329
-0.71160877 -0.72094643 2.0290046 6513507
-0.70815718 -0.67460036 2.0204687 6513507
-0.70859838 -0.62499398 2.021807 6118749
-0.70953822 -0.57528937 2.0244091 8882055
-0.71011442 -0.52506405 2.0260921 11711154
-0.71093673 -0.47474954 2.0283992 11711154
-0.71076781 -0.42701605 2.0281832 11711154
-0.7048195 -0.37534365 2.0133479 11711154
-0.70550376 -0.32561311 2.0153024 11711154
-0.70620108 -0.27495441 2.0172942 11711154
-0.70689952 -0.22419603 2.0192895 11711154
-0.70757651 -0.17500626 2.0212233 7631988
-0.70825464 -0.12572162 2.0231605 6513507
-0.70894581 -0.075504929 2.0251346 6513507
-0.70963806 -0.025190162 2.027113 6513507
-0.71033186 0.025222989 2.0290945 7697781
-0.71101552 0.074891865 2.0310471 10197915
-1.6096892 0.11383343 2.0353243 10197915
-1.5743743 0.11382551 2.0208549 10197915
-1.525139 0.11377856 2.0194907 10197915
-1.4747247 0.11372995 2.0183766 10197915
-1.4252006 0.11368132 2.0177646 10197915
-1.3752925 0.11363272 2.0169022 10197915
-1.3250108 0.11358426 2.0157907 10197915
-1.2751859 0.11353577 2.01493 10197915
-1.2293906 0.11348078 2.0195909 10197915
-1.1752729 0.11341073 2.0277667 10197915
-1.1252251 0.11336201 2.026896 10197915
-1.0752198 0.11331337 2.026026 10197915
-1.0252576 0.11326476 2.0251567 10197915
-0.97533816 0.11321621 2.0242884 10197915
-0.92546183 0.11316767 2.0234203 10197915
-0.87478387 0.11311836 2.0225389 10197915
-0.82499313 0.11306991 2.0216727 10197915
-0.77151346 0.11300609 2.0269251 10197915
-0.72784364 0.11191776 2.032407 10197915
-0.72767615 -0.91280836 2.0688455 11711154
-0.72822201 -0.8748914 2.0703976 11711154
-0.72893751 -0.82509482 2.0724316 11711154
-0.72965431 -0.77519965 2.0744693 8487297
-0.73037207 -0.72520638 2.0765104 6513507
-0.73109132 -0.6751141 2.0785551 6513507
-0.73181206 -0.62492383 2.0806041 5131854
-0.73252183 -0.5754872 2.0826221 11711154
-0.73324531 -0.52509958 2.0846791 11711154
-0.73397022 -0.47461277 2.08674 11711154
-0.73206615 -0.42135489 2.0821545 11711154
-0.72761339 -0.3749201 2.0710828 11711154
-0.72818977 -0.32504442 2.0727654 11711154
-0.72903192 -0.27507469 2.0751209 11711154
-0.72961068 -0.22500578 2.0768101 11711154
-0.73045582 -0.17483908 2.0791743 7105644
-0.72333008 -0.12553266 2.0613449 6513507
-0.72403717 -0.075220384 2.0633605 6513507
-0.72474563 -0.024810221 2.0653791 6513507
-0.72544342 0.024842069 2.0673678 7631988
-0.72614253 0.074590057 2.0693605 10197915
-1.6587366 0.11376673 2.0962427 10197915
-1.6233847 0.11375974 2.0812416 10197915
-1.5747752 0.11371411 2.0795152 10197915
-1.5250194 0.11366574 2.0786314 10197915
-1.4753064 0.1136174 2.0777478 10197915
-1.4252089 0.1135692 2.0765901 10197915
-1.3751427 0.11352001 2.0759661 10197915
-1.3251286 0.1134719 2.0748093 10197915
-1.2751507 0.1134228 2.0741882 10197915
-1.225219 0.11337477 2.0730333 10197915
-1.1753293 0.11332576 2.072413 10197915
-1.1250465 0.11327685 2.0715182 10197915
-1.0752478 0.11322895 2.0703673 10197915
-1.0254822 0.11318003 2.0697486 10197915
-0.97490185 0.11313136 2.0685921 10197915
-0.92478919 0.11308264 2.0676928 10197915
-0.87516278 0.11303388 2.067076 10197915
-0.82513827 0.11298527 2.0661867 10197915
-0.77797925 0.11293479 2.0677667 10197915
-0.73443586 0.11013633 2.0759346 10197915
-0.75969619 -0.95652229 2.1497526 11711154
-0.74356222 -0.92180437 2.1090424 11711154
-0.74424398 -0.87542254 2.1109762 11711154
-0.74497628 -0.82551014 2.1130536 11711154
-0.74571025 -0.77549946 2.1151354 6908265
-0.7464456 -0.72539002 2.1172206 6513507
-0.74718219 -0.67518175 2.1193106 6513507
-0.74792051 -0.62487411 2.1214046 6381921
-0.74866027 -0.5744673 2.1235025 11711154
-0.74938869 -0.52483231 2.1255689 11711154
-0.75024652 -0.46636766 2.1280024 11711154
-0.74987495 -0.49169189 2.1269481 11711154
-0.75084966 -0.42527169 2.1297128 11711154
-0.75158238 -0.37534535 2.1317909 11711154
-0.75231636 -0.325322 2.133873 11711154
-0.75305188 -0.2752004 2.1359591 11711154
-0.75378883 -0.2249812 2.1380494 11711154
-0.75451428 -0.17554696 2.1401069 6579300
-0.75525415 -0.12513182 2.1422057 6513507
-0.73899782 -0.12446783 2.1010342 6513507
-0.75599545 -0.074618354 2.1443081 6513507
-0.73970908 -0.074925482 2.1030564 6513507
-0.75672513 -0.024894122 2.1463778 6513507
-0.74042207 -0.025287084 2.105083 6513507
-0.75745618 0.024926182 2.1484513 7500402
-0.74114859 0.025320167 2.1071489 7566195
-0.75791371 0.056109019 2.1497493 10197915
-0.74186409 0.075151458 2.1091833 10197915
-1.6714101 0.11371925 2.1278546 10197915
-1.6249247 0.11367409 2.1270094 10197915
-1.5749042 0.11362551 2.1261003 10197915
-1.5249263 0.11357694 2.1251915 10197915
-1.4749914 0.11352844 2.1242838 10197915
-1.4250991 0.11347996 2.1233768 10197915
-1.375249 0.11343152 2.1224709 10197915
-1.325442 0.11338315 2.1215651 10197915
-1.275677 0.11333479 2.1206605 10197915
-1.2250674 0.11328562 2.1197402 10197915
-1.1745012 0.11323649 2.1188211 10197915
-1.1208863 0.11316825 2.1263154 10197915
-1.0754296 0.11310954 2.1331062 10197915
-1.0250553 0.11306117 2.1319015 10197915
-0.97473228 0.11301174 2.1312621 10197915
-0.92489034 0.11296333 2.1303487 10197915
-0.87509108 0.11291496 2.1294367 10197915
-0.82490081 0.11286675 2.1282356 10197915
-0.77602351 0.11282046 2.126714 10197915
-0.74384212 0.10872041 2.1106627 10197915
-0.77592683 -0.96500999 2.1908252 11711154
-0.76883185 -0.92537326 2.1730311 11711154
-0.76943862 -0.87537104 2.1747906 11711154
-0.76946878 -0.82728118 2.1750815 9868950
-0.76242208 -0.77493131 2.1574667 6513507
-0.76317579 -0.72469985 2.1595991 6513507
-0.76391762 -0.67525262 2.1616986 6513507
-0.76467437 -0.62482327 2.1638396 7697781
-0.76543242 -0.57429457 2.1659849 11711154
-0.76617849 -0.52455431 2.1680965 11711154
-0.76692623 -0.47471708 2.1702125 11711154
-0.76767552 -0.42478245 2.1723325 11711154
-0.76842624 -0.37475008 2.1744564 11711154
-0.76917833 -0.3246198 2.1765847 11711154
-0.76993209 -0.27439135 2.1787181 11711154
-0.77067351 -0.22496417 2.1808164 11316396
-0.7714166 -0.17544113 2.1829183 6513507
-0.77217454 -0.12491973 2.1850636 6513507
-0.77292037 -0.075204104 2.1871738 6513507
-0.77366781 -0.025391733 2.1892889 6513507
-0.77443027 0.02542509 2.1914463 7500402
-0.76778668 0.077906139 2.1748531 10197915
-1.7191455 0.11365852 2.1848943 10197915
-1.6751395 0.11362997 2.1766257 10197915
-1.6248357 0.11358116 2.1756902 10197915
-1.5750425 0.11353225 2.1750672 10197915
-1.5252788 0.11348452 2.1738389 10197915
-1.4751143 0.11343465 2.1735113 10197915
-1.4249901 0.11338715 2.1719747 10197915
-1.3749006 0.11333853 2.1710429 10197915
-1.3253175 0.11328983 2.1704228 10197915
-1.2753164 0.11324127 2.1694934 10197915
-1.2249079 0.11319293 2.1682539 10197915
-1.1749898 0.11314446 2.1673253 10197915
-1.1285452 0.11309109 2.1708183 10197915
-1.0750028 0.11301526 2.1823511 10197915
-1.0248345 0.11296655 2.1814113 10197915
-0.97470921 0.11291791 2.1804717 10197915
-0.92462724 0.11286931 2.179533 10197915
-0.87458813 0.11282075 2.1785953 10197915
-0.82459247 0.11277223 2.1776586 10197915
-0.77623355 0.10979957 2.1752958 10197915
-0.79437947 -1.0001581 2.237406 11711154
-0.79478031 -0.97469145 2.2385349 11711154
-0.79555327 -0.92551124 2.2407124 11711154
-0.79634142 -0.87532079 2.2429321 11711154
-0.79435259 -0.82188118 2.238132 6776679
-0.78869092 -0.77539569 2.2239993 6513507
-0.78785032 -0.72830129 2.2220805 6513507
-0.78135002 -0.67442423 2.2058558 5723991
-0.78211206 -0.624771 2.2080071 9737364
-0.78287542 -0.57502002 2.2101619 11711154
-0.78364033 -0.52517253 2.2123218 11711154
-0.78440678 -0.47522691 2.2144856 11711154
-0.78517485 -0.42518428 2.2166538 11711154
-0.7859441 -0.37504277 2.2188258 11711154
-0.78671509 -0.32480356 2.2210023 11711154
-0.78747362 -0.27538151 2.2231433 11711154
-0.78824753 -0.22494587 2.2253282 10790052
-0.78902292 -0.17441161 2.2275174 6513507
-0.7897858 -0.12469901 2.229671 6513507
-0.79055017 -0.074890204 2.2318289 6513507
-0.79131591 -0.024984892 2.2339909 6513507
-0.79208332 0.025017191 2.2361574 7434609
-0.79285204 0.075116344 2.2383273 10197915
-1.7615092 0.11361594 2.2296243 10197915
-1.724947 0.11358047 2.2289286 10197915
-1.6752954 0.1135323 2.2279832 10197915
-1.6247503 0.11348328 2.2270212 10197915
-1.575183 0.1134352 2.2260778 10197915
-1.5256585 0.11338717 2.2251353 10197915
-1.4752421 0.11333828 2.2241757 10197915
-1.4248695 0.11328942 2.223217 10197915
-1.3745402 0.11324061 2.222259 10197915
-1.324254 0.11319184 2.2213023 10197915
-1.2749416 0.113144 2.2203634 10197915
-1.2256706 0.11309621 2.2194257 10197915
-1.1755126 0.11304757 2.2184706 10197915
-1.1253979 0.11299896 2.2175171 10197915
-1.0753263 0.11295038 2.2165639 10197915
-1.0252976 0.11290189 2.2156115 10197915
-0.97150564 0.11282572 2.2271819 10197915
-0.92528272 0.11277129 2.2313333 10197915
-0.87498552 0.11272254 2.2303684 10197915
-0.8252086 0.11267489 2.2290809 10197915
-0.79290432 0.11046977 2.2253947 10197915
-0.81300431 -1.0108124 2.2845323 11711154
-0.81358826 -0.97459674 2.2861736 11711154
-0.81439561 -0.9243679 2.2884414 11711154
-0.81518948 -0.87497246 2.2906725 10263708
-0.81598502 -0.82547998 2.292908 6513507
-0.8167972 -0.77495462 2.2951901 6513507
-0.81759578 -0.72526717 2.2974343 6513507
-0.79897475 -0.70760965 2.2503488 6513507
-0.81824481 -0.6848855 2.299258 4144959
-0.79949492 -0.67448229 2.2518139 5066061
-0.80033427 -0.62102652 2.254178 11711154
-0.79994327 -0.64592844 2.2530768 11711154
-0.80105931 -0.57485175 2.2562201 11711154
-0.80184388 -0.52489018 2.2584295 11711154
-0.80262983 -0.4748306 2.2606435 11711154
-0.80341733 -0.42467275 2.2628617 11711154
-0.80420649 -0.37441638 2.2650843 11711154
-0.80498254 -0.32499492 2.2672701 11711154
-0.80576009 -0.27547741 2.2694597 11711154
-0.80655372 -0.22492741 2.2716954 10395294
-0.8073343 -0.17521688 2.2738941 6513507
-0.80811638 -0.12540947 2.2760968 6513507
-0.80891472 -0.074563205 2.2783453 6513507
-0.80969995 -0.0245611 2.2805564 6513507
-0.81047177 0.024592308 2.2827301 7303023
-0.81125987 0.074787803 2.2849505 10197915
-1.8014333 0.11358698 2.2659004 10197915
-1.7756994 0.11356205 2.2654028 10197915
-1.7252138 0.1135131 2.2644267 10197915
-1.6705859 0.1134394 2.2742569 10197915
-1.6251342 0.11338116 2.2807956 10197915
-1.5748562 0.11333311 2.2794697 10197915
-1.5246156 0.11328376 2.2788358 10197915
-1.4748954 0.11323558 2.2778668 10197915
-1.4247503 0.11318766 2.2765443 10197915
-1.3746349 0.11313844 2.2759123 10197915
-1.3245727 0.11309056 2.2745919 10197915
-1.2745461 0.11304145 2.2739613 10197915
-1.2245672 0.11299367 2.2726431 10197915
-1.1746285 0.1129446 2.2720137 10197915
-1.1247324 0.11289692 2.2706971 10197915
-1.0748825 0.11284795 2.2700694 10197915
-1.025069 0.11280035 2.2687547 10197915
-0.97962558 0.11274159 2.2755911 10197915
-0.92501587 0.11266802 2.2853425 10197915
-0.87445557 0.11261904 2.284349 10197915
-0.82567644 0.11113366 2.2841053 10197915
-0.83243245 -1.0219262 2.3336914 11711154
-0.83319843 -0.97544777 2.3358393 11711154
-0.83402771 -0.92507845 2.3381636 11711154
-0.83485848 -0.87460941 2.3404925 8224125
-0.83567524 -0.8249945 2.3427823 6513507
-0.83649337 -0.77528244 2.3450763 6513507
-0.83731329 -0.72547299 2.3473749 6513507
-0.83082968 -0.6750586 2.3311772 7500402
-0.81921297 -0.62465751 2.3019783 11711154
-0.82001632 -0.57467574 2.3042357 11711154
-0.82080609 -0.52554119 2.3064551 11711154
-0.82161266 -0.47536409 2.3087213 11711154
-0.82242054 -0.42508891 2.310992 11711154
-0.82321513 -0.37566572 2.3132241 11711154
-0.82402647 -0.32519346 2.3155038 11711154
-0.824839 -0.27462232 2.3177881 11711154
-0.82563818 -0.22490788 2.3200336 9934743
-0.82643878 -0.17509708 2.322283 6513507
-0.827241 -0.12518957 2.3245375 6513507
-0.82804483 -0.07518512 2.3267958 6513507
-0.82885015 -0.025083372 2.3290586 6513507
-0.82965702 0.02511592 2.331326 7303023
-0.83046544 0.075413041 2.3335974 10197915
-1.8567175 0.1134984 2.3415396 10197915
-1.8213714 0.11349271 2.3258593 10197915
-1.7749083 0.11345526 2.3209736 10197915
-1.7251363 0.11340705 2.3199873 10197915
-1.6788423 0.11335323 2.3237991 10197915
-1.6245587 0.11327364 2.3369024 10197915
-1.5745091 0.11322518 2.3359029 10197915
-1.5245026 0.11317677 2.334904 10197915
-1.4745384 0.11312842 2.3339062 10197915
-1.4246175 0.11308009 2.3329091 10197915
-1.3747386 0.11303177 2.3319128 10197915
-1.3249027 0.11298354 2.3309171 10197915
-1.2751091 0.11293533 2.3299232 10197915
-1.2253582 0.11288717 2.3289292 10197915
-1.1746755 0.1128381 2.3279171 10197915
-1.1250098 0.11279002 2.3269253 10197915
-1.0753869 0.11274198 2.3259344 10197915
-1.0248343 0.11269304 2.3249245 10197915
-0.97432554 0.11264415 2.3239157 10197915
-0.92483038 0.11259623 2.322927 10197915
-0.87537777 0.11254835 2.3219392 10197915
-0.83549613 0.11058488 2.3255467 10197915
-0.85228866 -1.0586942 2.3838203 11711154
-0.85284549 -1.025782 2.3853781 11711154
-0.85369611 -0.97536576 2.3877566 11711154
-0.85454822 -0.92484856 2.3901398 11382189
-0.85538536 -0.87520492 2.3924818 6513507
-0.85622442 -0.82546341 2.3948283 6513507
-0.85708147 -0.7746464 2.3972256 6513507
-0.85779142 -0.73255002 2.3992114 6447714
-0.8384037 -0.65923214 2.3504317 11711154
-0.83895791 -0.6255604 2.3519857 11711154
-0.83978271 -0.57545668 2.3542981 11711154
-0.84060919 -0.52525455 2.3566146 11711154
-0.84143722 -0.47495338 2.3589361 11711154
-0.8422668 -0.42455304 2.3612618 11711154
-0.84308213 -0.37502563 2.3635473 11711154
-0.84389889 -0.32540172 2.3658373 11711154
-0.84473354 -0.27470586 2.3681772 11711154
-0.84555352 -0.2248878 2.370476 9474192
-0.84637517 -0.1749723 2.3727794 6513507
-0.84719849 -0.12496033 2.3750875 6513507
-0.8480233 -0.074850313 2.3773999 6513507
-0.84884989 -0.024643285 2.3797169 6513507
-0.85003543 0.047388755 2.3830409 10197915
-0.84962904 0.022699567 2.3819015 6908265
-0.85049117 0.075076655 2.3843181 10197915
-1.8722351 0.11343881 2.3810115 10197915
-1.8251398 0.11339326 2.380055 10197915
-1.7750802 0.11334483 2.3790381 10197915
-1.725063 0.11329644 2.3780224 10197915
-1.6750884 0.11324807 2.3770077 10197915
-1.6251565 0.11319976 2.3759937 10197915
-1.5752672 0.11315151 2.3749807 10197915
-1.5254207 0.11310328 2.3739684 10197915
-1.4756165 0.1130551 2.372957 10197915
-1.4258547 0.11300694 2.3719463 10197915
-1.3751411 0.11295788 2.3709168 10197915
-1.3244717 0.11290888 2.3698881 10197915
-1.2748386 0.11286085 2.36888 10197915
-1.2252476 0.11281288 2.3678732 10197915
-1.1756986 0.11276493 2.3668668 10197915
-1.1252024 0.11271607 2.3658412 10197915
-1.0747495 0.11266728 2.3648167 10197915
-1.0253284 0.11261944 2.3638132 10197915
-0.97496223 0.11257072 2.3627906 10197915
-0.92463946 0.11252205 2.3617687 10197915
-0.87063599 0.11136594 2.3656087 10197915
-0.84578782 0.11244576 2.3601677 10197915
-0.87348014 -1.0703892 2.4374433 11711154
-0.87426829 -1.0248605 2.4396431 11711154
-0.87514287 -0.97428781 2.4420826 11711154
-0.87600166 -0.92460805 2.4444799 9276813
-0.87686229 -0.87483078 2.4468813 6513507
-0.87763834 -0.8299489 2.4490466 6513507
-0.85820472 -0.70804334 2.4003673 2039583
-0.85876763 -0.67467058 2.4019418 10855845
-1.9168925 -0.61839896 2.4365671 11711154
-1.8921962 -0.61823404 2.4463623 11711154
-0.85961336 -0.62453538 2.4043069 11711154
-1.9168181 -0.57489967 2.4366629 7105644
-1.8920504 -0.57524163 2.4464846 7039851
-0.86044389 -0.57528692 2.40663 11711154
-1.9162182 -0.52499545 2.4369698 6513507
-1.8914889 -0.52497864 2.446784 6513507
-0.86129278 -0.52495509 2.4090044 11711154
-1.916309 -0.47489285 2.437016 6513507
-1.8916153 -0.47512165 2.4468076 6513507
-0.86214328 -0.47452441 2.4113834 11711154
-1.9163494 -0.42497265 2.4370708 6513507
-1.8915659 -0.42484757 2.4469042 6513507
-0.86297882 -0.42498559 2.4137204 11711154
-1.9162863 -0.37504953 2.4371722 6513507
-1.8916161 -0.37498131 2.4469595 6513507
-0.86381614 -0.37535051 2.4160616 11711154
-1.9163809 -0.32503152 2.4372079 6513507
-1.8917338 -0.32521972 2.4469881 6513507
-0.8646546 -0.32561913 2.4184077 11711154
-1.9165531 -0.27515164 2.4372194 6513507
-1.8917282 -0.27473697 2.4470658 6513507
-0.86549515 -0.27579105 2.4207587 11711154
-1.9165449 -0.22508387 2.4372976 6513507
-1.8917725 -0.22506651 2.4471231 6513507
-0.86633718 -0.22586602 2.4231138 9013641
-1.9165348 -0.17469117 2.4373727 6513507
-1.8918159 -0.17539382 2.4471817 6513507
-0.86718076 -0.17584372 2.4254732 6513507
-1.9164079 -0.1247486 2.4375038 6513507
-1.8923713 -0.12528704 2.447037 6513507
-0.86802626 -0.12572393 2.4278376 6513507
-1.9167955 -0.075285085 2.4374259 6513507
-1.8926816 -0.075017996 2.4469881 6513507
-0.86887306 -0.075506322 2.4302065 6513507
-1.9166697 -0.025246076 2.4375489 6513507
-1.8927271 -0.025344452 2.4470453 6513507
-0.86972177 -0.025190623 2.43258 6513507
-1.9167151 0.025246894 2.4375982 6513507
-1.8927721 0.02534524 2.4471037 6513507
-0.87057203 0.025223456 2.4349585 7171437
-1.9169319 0.075290605 2.4376004 6513507
-1.8928169 0.07502348 2.4471614 6513507
-0.87140685 0.074724667 2.4372933 10197915
-1.91594 0.10713678 2.4366496 8816262
-1.8877834 0.10841696 2.4399152 9079434
-1.8250927 0.11331608 2.420531 10197915
-1.7751995 0.11326786 2.4195015 10197915
-1.7253491 0.11321966 2.4184711 10197915
-1.6755409 0.1131715 2.4174426 10197915
-1.6247598 0.1131224 2.4163938 10197915
-1.5750371 0.11307433 2.4153674 10197915
-1.5253568 0.11302631 2.414341 10197915
-1.4747059 0.11297733 2.413295 10197915
-1.4251107 0.11292937 2.4122713 10197915
-1.3755574 0.11288147 2.4112475 10197915
-1.3250363 0.11283264 2.4102042 10197915
-1.2745589 0.11278382 2.409162 10197915
-1.2216811 0.11269972 2.4253426 10197915
-1.1752727 0.11264891 2.4275081 10197915
-1.1249914 0.11259951 2.4268856 10197915
-1.0747702 0.11255176 2.425415 10197915
-1.0250844 0.11250376 2.4243801 10197915
-0.97494787 0.11245448 2.4237602 10197915
-0.92484081 0.11240688 2.4222925 10197915
-0.88014352 0.11130056 2.4206631 10197915
-0.89519554 -1.1078947 2.4922779 11711154
-0.89577127 -1.0755413 2.4938805 11711154
-0.89666933 -1.0249084 2.4963808 11711154
-0.89755106 -0.97518986 2.4988353 11711154
-0.87807 -0.80498201 2.4502511 6513507
-0.87858862 -0.77498209 2.4516985 6513507
-0.87945437 -0.7249102 2.4541144 5921370
-0.8803218 -0.67473954 2.4565351 11711154
-1.8665226 -0.61826545 2.4565461 11711154
-1.840852 -0.61846656 2.4727256 11645361
-0.88119096 -0.62446988 2.4589603 11711154
-1.8665226 -0.57502401 2.4566121 7039851
-1.840867 -0.57495546 2.4725647 6908265
-0.88204426 -0.57510942 2.4613416 11711154
-1.8665787 -0.52502924 2.4566629 6513507
-1.8407402 -0.52495283 2.4726729 6513507
-0.8828994 -0.52565265 2.4637277 11711154
-1.8666673 -0.47498226 2.4567049 6513507
-1.8408132 -0.47495815 2.4724605 6513507
-0.88377357 -0.475088 2.4661672 11711154
-1.8665923 -0.42503056 2.4568086 6513507
-1.8406883 -0.42502779 2.4726312 6513507
-0.88464957 -0.42442304 2.4686117 11711154
-1.8668431 -0.37502694 2.4567842 6513507
-1.8407139 -0.37489992 2.4723659 6513507
-0.88550973 -0.3746742 2.4710119 11711154
-1.8666216 -0.32497463 2.4569485 6513507
-1.8406328 -0.3249045 2.4724965 6513507
-0.88637155 -0.32482785 2.4734168 11711154
-1.866909 -0.27510846 2.4569097 6513507
-1.8406438 -0.27491525 2.4722567 6513507
-0.88723499 -0.27488512 2.475826 11711154
-1.8668606 -0.22491279 2.457006 6513507
-1.8405628 -0.22492728 2.4724009 6513507
-0.88810027 -0.22484425 2.4782403 8421504
-1.8668435 -0.1750375 2.4570854 6513507
-1.8405612 -0.17486984 2.4721653 6513507
-0.88896698 -0.17470635 2.4806592 6513507
-1.8674873 -0.1249104 2.456907 6513507
-1.8405181 -0.12481891 2.4723716 6513507
-0.88981777 -0.12549639 2.4830339 6513507
-1.8676844 -0.075229898 2.4569032 6513507
-1.8404826 -0.074631855 2.4721277 6513507
-0.89068812 -0.075163625 2.4854622 6513507
-1.8678449 -0.025361184 2.4569159 6513507
-1.8404698 -0.024580961 2.4722052 6513507
-0.8915599 -0.024732975 2.4878948 6513507
-1.8678894 0.025361963 2.4569726 6513507
-1.840696 0.024659319 2.4738414 6513507
-0.89241558 0.024764622 2.4902833 7039851
-1.867816 0.075235419 2.457078 6513507
-1.8406634 0.074689053 2.4737558 6513507
-0.89327317 0.074357338 2.4926758 10197915
-1.8680092 0.10684379 2.457046 8750469
-1.8375217 0.1078373 2.4718864 8947848
-1.7742858 0.1131871 2.4613397 10197915
-1.7246083 0.1131391 2.4602959 10197915
-1.6749735 0.11309114 2.4592531 10197915
-1.6253799 0.11304323 2.4582109 10197915
-1.5724084 0.11298322 2.4617324 10197915
-1.5242146 0.1129043 2.4777062 10197915
-1.4748363 0.11285748 2.4762001 10197915
-1.4255027 0.11280895 2.4756148 10197915
-1.3751674 0.11276118 2.4741068 10197915
-1.3248844 0.11271179 2.4734819 10197915
-1.2751538 0.11266375 2.4724281 10197915
-1.2292814 0.11259892 2.4822378 10197915
-1.1748122 0.11252579 2.4918573 10197915
-1.1247766 0.11247748 2.4907877 10197915
-1.0747839 0.11242922 2.4897187 10197915
-1.024834 0.11238099 2.488651 10197915
-0.97492695 0.11233281 2.4875839 10197915
-0.92506284 0.11228468 2.4865177 10197915
-0.89433056 0.10851482 2.490401 10197915
-0.89843428 -0.92537272 2.5012946 7237230
-0.89931947 -0.87545806 2.5037591 6513507
-0.90033317 -0.81829363 2.5065811 6513507
-0.89988029 -0.84383202 2.5053201 6513507
-0.90109509 -0.77533251 2.5087016 6513507
-0.90198535 -0.72512108 2.5111806 7500402
-0.90287733 -0.67481095 2.5136645 11711154
-1.8579602 -0.61844504 2.5308805 10461087
-1.8481574 -0.61830699 2.5061662 11250603
-0.90375298 -0.62543058 2.5161021 11711154
-1.8577702 -0.57487965 2.5305948 6513507
-1.8480272 -0.57517338 2.5060301 6513507
-0.9046486 -0.57492226 2.5185955 11711154
-1.8575877 -0.52502668 2.5303566 6513507
-1.8478373 -0.52528483 2.5057721 6513507
-0.90554601 -0.52431446 2.5210941 11711154
-1.8574216 -0.47483334 2.5301592 6513507
-1.8476471 -0.47540653 2.5055144 6513507
-0.90642685 -0.47464165 2.523546 11711154
-1.8572043 -0.42500031 2.5298331 6513507
-1.8474797 -0.42501852 2.505316 6513507
-0.90730935 -0.42487216 2.5260034 11711154
-1.857039 -0.37517726 2.5296388 6513507
-1.8472627 -0.37464091 2.5049927 6513507
-0.90819365 -0.37500557 2.5284653 11711154
-1.8568209 -0.3250151 2.5293119 6513507
-1.8470727 -0.32479364 2.5047359 6513507
-0.90907955 -0.32504171 2.5309317 11711154
-1.8566122 -0.27503806 2.529007 6513507
-1.8468828 -0.27495664 2.504478 6513507
-0.90996736 -0.27498025 2.5334034 11711154
-1.8564731 -0.22507282 2.5288768 6513507
-1.8466927 -0.22512983 2.5042205 6513507
-0.9108569 -0.22482099 2.5358794 7829367
-1.8562635 -0.17511466 2.5285721 6513507
-1.8464761 -0.17480133 2.5038979 6513507
-0.91174793 -0.17456357 2.5383604 6513507
-1.8569945 -0.12600434 2.5306327 6513507
-1.8473344 -0.1231234 2.5062907 6513507
-0.91264075 -0.12420767 2.5408466 6513507
-1.8580078 -0.074466452 2.533417 6513507
-1.8473303 -0.074766032 2.5064962 6513507
-0.91351682 -0.074805565 2.5432854 6513507
-1.8581655 -0.025196098 2.5340331 6513507
-1.8471404 -0.024919735 2.506238 6513507
-0.91439456 -0.025307829 2.5457289 6513507
-1.8579723 0.025192618 2.5337694 6513507
-1.8480865 0.024458637 2.5088437 6513507
-0.91529268 0.025340961 2.5482295 7039851
-1.8577101 0.075223967 2.5333309 6513507
-1.8479685 0.074832976 2.5087688 6513507
-0.91583616 0.05598554 2.5497422 10197915
-1.8579202 0.10669158 2.5339997 8092539
-1.8321199 0.11070172 2.5066996 9474192
-1.7734722 0.11306488 2.525059 10197915
-1.7250493 0.11301336 2.5265322 10197915
-1.6751519 0.11296702 2.5245016 10197915
-1.6252904 0.11291889 2.5234265 10197915
-1.5764542 0.11286801 2.524343 10197915
-1.5251487 0.11277869 2.5441394 10197915
-1.4749775 0.11273029 2.543047 10197915
-1.4248487 0.11268191 2.5419564 10197915
-1.3747634 0.11263359 2.5408661 10197915
-1.3247205 0.11258533 2.5397773 10197915
-1.274721 0.11253711 2.5386894 10197915
-1.224764 0.1124889 2.5376017 10197915
-1.1748502 0.11244076 2.5365157 10197915
-1.1249787 0.11239263 2.5354307 10197915
-1.0751499 0.11234457 2.5343459 10197915
-1.0253634 0.11229654 2.5332623 10197915
-0.97562003 0.11224855 2.5321798 10197915
-0.92908955 0.11220367 2.5311675 10197915
-0.91840303 -1.1202586 2.5510039 11711154
-0.91923255 -1.0747257 2.5533082 11711154
-0.92013812 -1.0249599 2.555824 11711154
-0.92104554 -0.97509581 2.5583441 10000536
-0.92195463 -0.92513317 2.5608692 6513507
-0.92286557 -0.875072 2.5633996 6513507
-0.92377824 -0.82491183 2.5659349 6513507
-0.92469281 -0.77465224 2.568475 4934475
-0.92560935 -0.72429299 2.5710201 10855845
-0.92650813 -0.67488652 2.5735171 11711154
-1.8755615 -0.61850196 2.575254 9145227
-0.92740899 -0.62538326 2.5760198 11711154
-1.875293 -0.57497668 2.5747709 6513507
-0.92833084 -0.57472759 2.5785794 11711154
-1.8751611 -0.52491885 2.5746601 6513507
-0.92923522 -0.52502996 2.5810919 11711154
-1.8749673 -0.47500652 2.574393 6513507
-0.93014121 -0.47523475 2.5836084 11711154
-1.8747671 -0.42496759 2.574111 6513507
-0.93104917 -0.42534301 2.5861304 11711154
-1.8745598 -0.37507322 2.5738103 6513507
-0.93195868 -0.3753531 2.5886569 11711154
-1.8744085 -0.32518992 2.5736494 6513507
-0.93287009 -0.32526609 2.5911884 11711154
-1.874133 -0.27505133 2.5731771 6513507
-0.93378335 -0.27508032 2.5937254 11711154
-1.8740197 -0.22492151 2.5731168 6513507
-0.93469834 -0.22479689 2.5962667 7237230
-1.8737781 -0.17493638 2.5727301 6513507
-0.93559563 -0.1754875 2.5987585 6513507
-1.8735319 -0.12509339 2.5723283 6513507
-1.8744303 -0.075617388 2.5748148 6513507
-1.8744353 -0.024849353 2.5750525 6513507
-1.8742425 0.024845958 2.5747886 6513507
-1.8742034 0.07496617 2.574913 6513507
-0.91626769 0.080321066 2.5509436 10197915
-1.8703252 0.10891912 2.5778575 8487297
-1.824912 0.1130245 2.5734179 10197915
-1.7781787 0.11294437 2.5908034 10197915
-1.7255042 0.11288336 2.5950053 10197915
-1.6753328 0.112835 2.5938935 10197915
-1.625204 0.11278667 2.5927825 10197915
-1.5751183 0.1127384 2.5916729 10197915
-1.5250752 0.11269016 2.590564 10197915
-1.4750751 0.11264195 2.5894561 10197915
-1.4251176 0.11259381 2.5883489 10197915
-1.3752029 0.11254568 2.5872428 10197915
-1.325331 0.11249762 2.5861378 10197915
-1.2755011 0.11244956 2.5850337 10197915
-1.2257143 0.11240159 2.5839303 10197915
-1.1748892 0.1123526 2.582804 10197915
-1.1241078 0.11230366 2.5816789 10197915
-1.0744499 0.11225579 2.5805786 10197915
-1.0248344 0.11220796 2.5794787 10197915
-0.97526109 0.11216016 2.5783801 10197915
-0.93090677 0.10986954 2.5686147 10197915
-0.94225341 -1.158614 2.6112423 11711154
-0.94288862 -1.1247505 2.6130025 11711154
-0.94381922 -1.074931 2.6155818 11711154
-0.94475174 -1.0250139 2.6181664 11711154
-0.94568628 -0.97499722 2.6207557 7631988
-0.94662279 -0.92488223 2.6233509 6513507
-0.94756097 -0.87466717 2.6259506 6513507
-0.94850093 -0.82435316 2.6285553 6513507
-0.9494226 -0.77501273 2.6311102 5921370
-0.95040667 -0.72234958 2.6338372 11711154
-0.9499445 -0.74708605 2.6325562 11711154
-0.95129186 -0.67496508 2.6362906 11711154
-1.9017239 -0.61876577 2.6412117 7105644
-1.8923825 -0.6183551 2.6176622 7763574
-0.95223933 -0.62425381 2.6389165 11711154
-1.9015135 -0.5754863 2.6408734 6513507
-1.8922129 -0.57492524 2.6174283 6513507
-0.95316845 -0.57452333 2.6414907 11711154
-1.9019192 -0.52922618 2.6421018 6513507
-1.8928776 -0.5239799 2.6193295 6513507
-0.95409948 -0.52469587 2.6440711 11711154
-1.9024585 -0.47424594 2.6437047 6513507
-1.8931491 -0.47509074 2.6202309 6513507
-0.95503217 -0.47477084 2.6466558 11711154
-1.9022641 -0.42491609 2.643435 6513507
-1.8928773 -0.42511451 2.6197677 6513507
-0.9558652 -0.43019167 2.6489639 11711154
-1.9031199 -0.3716411 2.6458282 6513507
-1.8927479 -0.37496799 2.6196651 6513507
-1.9031911 -0.32506329 2.646214 6513507
-1.892562 -0.32482904 2.6194186 6513507
-1.9030249 -0.27514988 2.6460171 6513507
-1.8923668 -0.27488184 2.619149 6513507
-1.9028262 -0.22470073 2.645741 6513507
-1.8921242 -0.22512843 2.6187568 6513507
-1.9026598 -0.17480227 2.6455433 6513507
-1.8919482 -0.17520121 2.6185374 6513507
-1.9024063 -0.1254859 2.6451232 6513507
-1.8917331 -0.12492666 2.6182184 6513507
-0.9365142 -0.12500791 2.6013105 6513507
-1.9022404 -0.075607955 2.6449263 6513507
-1.8915848 -0.074840143 2.6180656 6513507
-0.93743438 -0.074429832 2.6038668 6513507
-1.9020423 -0.02520032 2.6446507 6513507
-1.8913902 -0.024944432 2.6177964 6513507
-0.93833697 -0.024831178 2.6063735 6513507
-1.9018441 0.025196826 2.6443753 6513507
-1.8911947 0.024941007 2.6175268 6513507
-0.93924123 0.024863072 2.608885 6908265
-1.9016464 0.075583503 2.6441 6513507
-1.8909998 0.074816152 2.6172576 6513507
-0.94014722 0.074653208 2.6114018 10197915
-1.9014461 0.10777581 2.6441736 7368816
-1.8848342 0.10878845 2.6282856 8224125
-1.8248256 0.11288698 2.6454787 10197915
-1.7747471 0.11283875 2.6443484 10197915
-1.724712 0.11279058 2.6432192 10197915
-1.674719 0.11274242 2.6420906 10197915
-1.6247691 0.11269432 2.6409638 10197915
-1.5748616 0.11264622 2.639837 10197915
-1.524997 0.11259823 2.6387115 10197915
-1.4751744 0.11255024 2.6375864 10197915
-1.4253947 0.11250228 2.6364629 10197915
-1.3745525 0.11245332 2.6353152 10197915
-1.3248581 0.11240545 2.6341937 10197915
-1.2752063 0.11235761 2.6330733 10197915
-1.2244943 0.11230879 2.6319282 10197915
-1.1749279 0.11226105 2.6308103 10197915
-1.1254035 0.11221334 2.6296918 10197915
-1.0748221 0.11216462 2.6285508 10197915
-1.0242844 0.11211596 2.6274097 10197915
-0.97488779 0.11206837 2.6262949 10197915
-0.94267905 0.10757697 2.6161683 10197915
-0.96775931 -1.1728361 2.6757817 11711154
-0.96869677 -1.1240391 2.6783743 11711154
-0.96965599 -1.0740592 2.6810262 11711154
-0.97059637 -1.0250704 2.6836262 10263708
-0.97153854 -0.97598583 2.6862314 6513507
-0.9725036 -0.92571217 2.6888993 6513507
-0.97347045 -0.87533849 2.6915727 6513507
-0.9744392 -0.82486469 2.6942515 5987163
-0.97541004 -0.77429014 2.6969354 8421504
-0.97621334 -0.73243779 2.6991568 11711154
-1.9152393 -0.61834061 2.6752887 6513507
-1.9150794 -0.57491827 2.6750779 6513507
-1.9149282 -0.52499253 2.674917 6513507
-1.9147233 -0.47493947 2.6746237 6513507
-1.9145175 -0.42489326 2.6743267 6513507
-0.95633298 -0.40515122 2.6502604 11711154
-1.9151417 -0.37585226 2.6761198 6513507
-0.9569034 -0.37462735 2.6518407 11711154
-1.9154893 -0.32513854 2.6772182 6513507
-0.95784163 -0.32440829 2.6544411 11711154
-1.9153252 -0.27504012 2.6770284 6513507
-0.95876116 -0.27518597 2.6569898 11711154
-1.9151092 -0.2249514 2.6767077 6513507
-0.9596824 -0.22586834 2.6595435 6710886
-1.9148942 -0.1748755 2.6763868 6513507
-0.96062636 -0.17535701 2.6621587 6513507
-1.9146259 -0.12480751 2.6759336 6513507
-0.96157187 -0.12474627 2.6647789 6513507
-1.9146384 -0.074903153 2.676188 6513507
-0.96249866 -0.075139612 2.6673474 6513507
-1.9142315 -0.025027698 2.6753819 6513507
-0.96342725 -0.0254365 2.6699214 6513507
-1.9140333 0.025024246 2.6751051 6513507
-0.96437836 0.02546997 2.6725564 6908265
-1.9140465 0.074879125 2.6753597 6513507
-0.96531069 0.075366788 2.6751401 10197915
-1.9132832 0.10763374 2.6792746 6513507
-1.874702 0.11283953 2.6967306 7566195
-1.8247669 0.11279149 2.6955817 8553090
-1.7748741 0.11274347 2.6944342 9539985
-1.725024 0.11269548 2.6932878 10197915
-1.675216 0.11264756 2.6921425 10197915
-1.6254501 0.11259966 2.6909978 10197915
-1.5757273 0.1125518 2.6898541 10197915
-1.5249177 0.11250293 2.6886857 10197915
-1.4741521 0.11245406 2.6875179 10197915
-1.4245573 0.11240633 2.6863775 10197915
-1.3750048 0.11235866 2.6852379 10197915
-1.3254939 0.11231101 2.6840992 10197915
-1.2749017 0.11226231 2.6829357 10197915
-1.224353 0.11221369 2.6817729 10197915
-1.1749698 0.11216617 2.6806369 10197915
-1.1256288 0.11211868 2.6795027 10197915
-1.0752095 0.11207017 2.6783428 10197915
-1.0248336 0.11202164 2.6771841 10197915
-0.97840899 0.11040147 2.6763225 10197915
-0.9940505 -1.2133085 2.742193 11711154
-0.99479669 -1.1755614 2.7442517 11711154
-0.99578452 -1.1255164 2.7469757 11711154
-0.99657565 -1.0854118 2.7491586 11711154
-0.97667897 -0.70817578 2.7004445 11711154
-0.97731483 -0.67504817 2.7022023 11711154
-1.9348348 -0.61880982 2.7246876 6513507
-0.97827011 -0.62528217 2.7048435 11711154
-1.9347075 -0.57511735 2.724561 6513507
-0.97922713 -0.575418 2.70749 11711154
-1.9345292 -0.5250203 2.724333 6513507
-0.98018622 -0.52545667 2.7101412 11711154
-1.9343623 -0.47512159 2.7241337 6513507
-0.98114711 -0.47539687 2.7127986 11711154
-1.9351768 -0.42441297 2.7264123 6513507
-0.98210984 -0.42523947 2.7154601 11711154
-1.9354185 -0.37493861 2.7272427 6513507
-0.98307443 -0.37498283 2.7181275 11711154
-1.9351637 -0.32486877 2.7268219 6513507
-0.98404104 -0.32462814 2.7207994 11711154
-1.9350008 -0.2749725 2.7266347 6513507
-0.98498785 -0.27529618 2.7234175 11184810
-1.9347465 -0.2250872 2.726213 6513507
-0.98593658 -0.22586922 2.7260408 6513507
-1.9346012 -0.17504895 2.7260702 6513507
-0.98690861 -0.17522001 2.7287285 6513507
-1.9343829 -0.1250211 2.7257419 6513507
-0.98788285 -0.12447152 2.7314222 6513507
-1.9341098 -0.074848421 2.7252758 6513507
-0.98883706 -0.074753441 2.7340605 6513507
-1.934001 -0.024839042 2.7252252 6513507
-0.98979336 -0.024939233 2.7367048 6513507
-1.9338032 0.024835646 2.7249453 6513507
-0.99075133 0.024971407 2.7393534 6710886
-1.9335117 0.074824415 2.7244332 6513507
-0.9917112 0.074978761 2.742007 10197915
-1.9292645 0.1077873 2.7306252 6513507
-1.8744483 0.11274011 2.7487857 6579300
-1.8247057 0.11269229 2.7476192 6052956
-1.7750058 0.11264449 2.7464542 9211020
-1.7253476 0.11259675 2.74529 10197915
-1.675732 0.11254904 2.744127 10197915
-1.6250056 0.11250027 2.742938 10197915
-1.5743232 0.11245155 2.7417495 10197915
-1.524835 0.11240394 2.7405896 10197915
-1.4753891 0.11235642 2.7394304 10197915
-1.4248362 0.11230779 2.738245 10197915
-1.3743269 0.11225922 2.7370613 10197915
-1.3250078 0.11221182 2.7359049 10197915
-1.275731 0.11216445 2.7347496 10197915
-1.2253505 0.112116 2.7335691 10197915
-1.1750135 0.1120676 2.732389 10197915
-1.1247202 0.11201925 2.7312098 10197915
-1.0744704 0.11197093 2.7300317 10197915
-1.0242637 0.11192264 2.7288549 10197915
-0.99231946 0.10908163 2.7351663 10197915
-0.99705982 -1.060871 2.7504945 11711154
-0.99776506 -1.0251281 2.7524402 7631988
-0.99875849 -0.97478431 2.7551806 6513507
-1.0001082 -0.90638363 2.7589035 6513507
-0.99962097 -0.93107313 2.75756 6513507
-1.000729 -0.87491864 2.7606163 6513507
-1.0017283 -0.8242752 2.7633729 4737096
-1.0027074 -0.77465898 2.7660735 11711154
-1.0036882 -0.7249456 2.7687795 11711154
-1.0046711 -0.6751349 2.7714908 11711154
-1.0056559 -0.62522656 2.7742074 11711154
-1.0066427 -0.57522017 2.7769294 11711154
-1.0076313 -0.52511567 2.7796566 11711154
-1.0086217 -0.47491261 2.7823892 11711154
-1.9561371 -0.41899171 2.7792804 6513507
-1.9474373 -0.41631594 2.7573597 6513507
-1.0096143 -0.42461082 2.7851274 11711154
-1.9572721 -0.37491322 2.7823381 6513507
-1.9484118 -0.37504721 2.7600005 6513507
-1.0106089 -0.37420988 2.7878709 11711154
-1.9570876 -0.32502803 2.7820942 6513507
-1.9482098 -0.32470226 2.7597136 6513507
-1.0115827 -0.32485873 2.7905569 11711154
-1.9569037 -0.2751509 2.7818513 6513507
-1.9480067 -0.27436787 2.7594266 6513507
-1.0125583 -0.2754117 2.7932487 10526880
-1.9566662 -0.22499397 2.781477 6513507
-1.9478408 -0.22460857 2.7592297 6513507
-1.0135586 -0.22471625 2.7960081 6513507
-1.9565965 -0.17436381 2.7815268 6513507
-1.9475754 -0.17545247 2.7587779 6513507
