# .PCD v0.7 - Point Cloud Data file format
VERSION 0.7
FIELDS x y z rgb
SIZE 4 4 4 4
TYPE F F F U
COUNT 1 1 1 1
WIDTH 1216
HEIGHT 1
VIEWPOINT 0 0 0 1 0 0 0
POINTS 1216
DATA ascii
1.3248506 -0.074838303 2.4411318 2894892
1.3753548 -0.074945122 2.4446163 2894892
1.4133241 -0.075025521 2.4472368 2894892
1.0921466 -0.025118111 2.4252067 2960685
1.124326 -0.025141118 2.4274275 2960685
1.1742634 -0.025176806 2.4308743 2960685
1.2243415 -0.025212597 2.4343305 2894892
1.2745621 -0.0252485 2.4377961 2894892
1.3249264 -0.025284495 2.441272 2894892
1.3754343 -0.02532061 2.444757 2894892
1.4134053 -0.025347743 2.4473777 2894892
1.0922102 0.025120057 2.4253485 2960685
1.1243933 0.02514307 2.4275696 2960685
1.1743321 0.025178773 2.4310167 2960685
1.2244134 0.025214566 2.4344726 3355443
1.2746373 0.025250472 2.4379389 3815994
1.3250039 0.025286471 2.4414153 3881787
1.3755156 0.025322596 2.4449015 3881787
1.4134887 0.025349723 2.4475222 3947580
1.0922743 0.075364083 2.4254901 3947580
1.1244578 0.075433157 2.4277115 4013373
1.1744009 0.075540215 2.4311583 4079166
1.2244853 0.075647637 2.4346154 7171437
1.2744545 0.075259931 2.4380627 10197915
1.3250806 0.074851729 2.4415553 10197915
1.3755937 0.074958652 2.4450409 10132122
1.4135702 0.075038992 2.4476633 10132122
1.091048 0.1067936 2.4199445 10197915
1.1245017 0.10646313 2.4237275 10197915
1.1744976 0.10659444 2.4267373 10197915
1.2246183 0.1067261 2.4297557 10197915
1.2758158 0.10633667 2.4332583 10197915
1.3252167 0.106018 2.4366415 10197915
1.3755686 0.10612464 2.4399304 10197915
1.416437 0.10684142 2.4379261 10197915
1.4750248 0.11085145 2.4105494 10197915
1.5255373 0.11089353 2.4114647 10197915
1.575076 0.11093482 2.4123623 10197915
1.6246523 0.11097612 2.4132605 10197915
1.6752782 0.11101832 2.4141784 10197915
1.7249289 0.1110597 2.4150779 10197915
1.7746167 0.11110111 2.4159782 10197915
1.8253567 0.11114341 2.4168978 10197915
1.8751192 0.11118487 2.4177997 10197915
1.9117022 0.11121535 2.4184625 10197915
1.1242173 -0.62001258 2.4737659 2960685
1.1242042 -0.57506585 2.4734972 2960685
1.1241628 -0.52507329 2.4735913 2960685
1.1241511 -0.47539011 2.4732597 2960685
1.1251249 -0.44821903 2.458879 2960685
1.4392331 0.11071023 2.4516523 10197915
1.4757609 0.11068553 2.4730041 10197915
1.5245084 0.11072358 2.4748511 10197915
1.5748279 0.11076663 2.4753458 10197915
1.6251822 0.11080734 2.4767232 10197915
1.6750609 0.11084885 2.4776521 10197915
1.7207744 0.11092152 2.4655051 10197915
1.7748169 0.1109896 2.457839 10197915
1.8254036 0.11103172 2.4587712 10197915
1.8749952 0.11107299 2.459686 10197915
1.9246236 0.11111432 2.4606011 10197915
1.9535894 0.11113844 2.4611349 10197915
1.1223102 -0.61970598 2.5013931 2960685
1.1222826 -0.57409483 2.5013323 2960685
1.1222526 -0.52433974 2.5012653 2960685
1.1221478 -0.47298828 2.5022655 2960685
1.4904156 0.11051808 2.5406315 10197915
1.5255538 0.11054727 2.5413022 10197915
1.5745639 0.11058798 2.5422382 10197915
1.6246766 0.11062962 2.543195 10197915
1.6748267 0.11067128 2.5441535 10197915
1.728001 0.11076676 2.5259368 10197915
1.7751335 0.1108145 2.5236242 10197915
1.8244193 0.11085675 2.5240796 10197915
1.8748027 0.11089736 2.525511 10197915
1.9252273 0.11094055 2.5259876 10197915
1.9691731 0.11098436 2.5240862 10197915
1.5288146 0.11042621 2.587811 10197915
1.575467 0.11046492 2.5887179 10197915
1.6254107 0.11050637 2.5896893 10197915
1.6753917 0.11054786 2.5906613 10197915
1.7254101 0.11058936 2.591634 10197915
1.7754661 0.11063088 2.5926073 10197915
1.8255597 0.11067245 2.5935819 10197915
1.8756912 0.11071404 2.5945563 10197915
1.9258598 0.11075568 2.5955322 10197915
1.9791052 0.110833 2.5841393 10197915
2.0203185 0.11088108 2.579731 10197915
2.0580053 0.11086534 2.5981021 10197915
1.5432431 0.11030965 2.6362689 10197915
1.5752965 0.11033623 2.636904 10197915
1.6250639 0.11037747 2.6378899 10197915
1.6748677 0.11041874 2.6388762 10197915
1.7247095 0.11046005 2.6398635 10197915
1.7745881 0.1105014 2.6408515 10197915
1.8245045 0.11054277 2.6418405 10197915
1.8744578 0.11058417 2.6428299 10197915
1.9244491 0.11062561 2.6438203 10197915
1.9744771 0.11066708 2.6448114 10197915
2.0245435 0.11070858 2.6458035 10197915
2.0746469 0.1107501 2.6467953 10197915
2.1024971 0.11077318 2.6473472 10197915
1.5830052 0.11020915 2.687077 10197915
1.6258311 0.11024461 2.6879411 10197915
1.6754527 0.11028567 2.6889429 10197915
1.7251114 0.11032679 2.6899447 10197915
1.7748071 0.11036792 2.6909478 10197915
1.8245399 0.1104091 2.691952 10197915
1.8743097 0.1104503 2.692956 10197915
1.9241166 0.11049154 2.6939619 10197915
1.9739609 0.11053281 2.6949682 10197915
2.024977 0.11057504 2.6959977 10197915
2.0760312 0.11061731 2.6970284 10197915
2.1237171 0.11065678 2.6979904 10197915
1.5979059 0.11008301 2.7393413 10197915
1.6254808 0.1101058 2.7399085 10197915
1.6749122 0.11014667 2.7409253 10197915
1.72438 0.11018754 2.7419431 10197915
1.7750366 0.11022945 2.7429855 10197915
1.8257314 0.11027136 2.7440283 10197915
1.8753114 0.11031235 2.7450485 10197915
1.9249287 0.11035337 2.7460692 10197915
1.9757375 0.11039541 2.7471149 10197915
2.025429 0.11043646 2.7481372 10197915
2.0751581 0.1104776 2.7491605 10197915
2.1087155 0.11050534 2.749851 10197915
1.6391766 0.10997299 2.7942162 10197915
1.6755205 0.11000299 2.7949784 10197915
1.7247914 0.11004367 2.7960122 10197915
1.7752731 0.11008537 2.7970712 10197915
1.8257924 0.11012708 2.7981312 10197915
1.8751742 0.11016785 2.7991672 10197915
1.9069376 0.11019409 2.7998335 10197915
2.1330278 0.11052544 2.750351 10197915
2.1689332 0.11055513 2.7510898 10197915
1.9316545 0.11021449 2.8003523 10197915
1.9752256 0.11025045 2.8012667 10197915
2.0258968 0.1102923 2.8023295 10197915
2.0754271 0.11033322 2.8033688 10197915
2.1249943 0.11037412 2.8044086 10197915
2.1745977 0.11041509 2.80545 10197915
2.2159612 0.11044925 2.8063178 10132122
1.6797446 0.10985665 2.8512871 10197915
1.7240243 0.10989315 2.8522351 10197915
1.7743229 0.10993463 2.8533115 10197915
1.8246596 0.10997614 2.8543892 10197915
1.8750341 0.11001767 2.8554671 10197915
1.9254469 0.11005925 2.8565457 10197915
1.9758977 0.11010086 2.8576252 10197915
2.0251837 0.11014149 2.8586807 10197915
2.0745068 0.11018216 2.8597362 10197915
2.1250701 0.11022385 2.8608181 10197915
2.1756723 0.1102656 2.8619015 10197915
2.2251058 0.11030636 2.8629591 10066329
2.2637129 0.11033819 2.8637855 10000536
1.6975714 0.10971519 2.9102011 10197915
1.7244451 0.10973732 2.9107878 10197915
1.7745541 0.10977858 2.9118822 10197915
1.824701 0.10981987 2.9129777 10197915
1.8748852 0.1098612 2.9140735 10197915
1.9251076 0.10990255 2.9151702 10197915
1.9753679 0.10994393 2.9162683 10197915
2.025666 0.10998537 2.9173672 10197915
2.0747733 0.11002579 2.9184394 10197915
2.1251469 0.11006726 2.9195395 10197915
2.1755574 0.11010879 2.9206407 10197915
2.2247753 0.11014931 2.9217162 10066329
2.2752616 0.11019088 2.9228184 10000536
2.313458 0.11022232 2.9236529 10000536
1.7411019 0.10958845 2.9721608 10197915
1.776046 0.10961716 2.97294 10197915
1.825996 0.10965823 2.9740539 10197915
1.8759835 0.10969933 2.9751687 10197915
1.9260085 0.10974046 2.976284 10197915
1.9760708 0.10978162 2.9774005 10197915
2.026171 0.10982282 2.9785178 10197915
2.0750544 0.10986302 2.9796076 10197915
2.1239741 0.10990324 2.9806988 10197915
2.174185 0.10994454 2.981818 10197915
2.2244341 0.10998584 2.9829392 10000536
2.2747207 0.11002719 2.9840603 10000536
2.3250456 0.11006854 2.9851823 10000536
2.3628123 0.11009961 2.9860244 10000536
1.7839733 0.10945392 3.0367544 10197915
1.8247919 0.10948741 3.037684 10197915
1.8745718 0.1095283 3.0388174 10197915
1.9243891 0.10956918 3.039952 10197915
1.9755223 0.10961115 3.0411167 10197915
2.0254149 0.10965212 3.0422535 10197915
2.0753448 0.10969312 3.0433905 10197915
2.1253116 0.10973412 3.0445285 10197915
2.1753166 0.10977519 3.0456676 10197915
2.2253585 0.10981626 3.0468073 10000536
2.2754381 0.10985737 3.0479481 10000536
2.3255551 0.10989852 3.0490894 10000536
2.3577001 0.10992491 3.0498219 10000536
2.3821416 0.10994497 3.0503783 10000536
2.4130275 0.10997033 3.0510819 10000536
1.8287528 0.10931357 3.1042221 10197915
1.8744061 0.10935098 3.1052847 10197915
1.9240072 0.10939164 3.1064389 10197915
1.9749529 0.10943339 3.1076245 10197915
2.0259364 0.1094752 3.1088111 10197915
2.0756505 0.10951593 3.1099684 10197915
2.1254015 0.1095567 3.1111262 10197915
2.1751897 0.1095975 3.1122851 10132122
2.2250152 0.10963836 3.113445 10000536
2.2748775 0.10967922 3.1146049 10000536
2.3247776 0.10972013 3.1157668 10000536
2.3747144 0.10976105 3.1169291 10000536
2.4246883 0.10980201 3.1180921 10000536
2.4654832 0.10983544 3.1190417 10000536
1.8742303 0.10916562 3.1747189 10197915
1.9249412 0.10920709 3.1759255 10197915
1.9756904 0.10924862 3.1771333 10197915
2.025141 0.10928908 3.1783099 10197915
2.0746288 0.10932957 3.1794875 10197915
2.1254921 0.10937119 3.1806982 10197915
2.1750536 0.10941175 3.1818769 10132122
2.224653 0.10945231 3.1830575 10000536
2.2756305 0.10949402 3.1842709 10000536
2.325304 0.10953466 3.1854522 10000536
2.3750141 0.10957536 3.1866355 10000536
2.4247613 0.10961607 3.1878195 10000536
2.4745457 0.10965679 3.1890037 10000536
2.5189786 0.10969315 3.1900613 10000536
1.8958803 0.10898957 3.2478619 10197915
1.9245515 0.10901298 3.248559 10197915
1.9668958 0.10904757 3.2495902 10197915
1.9928617 0.10906877 3.2502215 10197915
2.0256774 0.10909557 3.2510204 10197915
2.0749292 0.1091358 3.2522194 10197915
2.124217 0.10917606 3.2534187 10197915
2.1749122 0.10921746 3.254653 10132122
2.2256455 0.10925889 3.2558877 10000536
2.2750449 0.10929925 3.2570901 10000536
2.324481 0.10933962 3.2582934 10000536
2.3739536 0.10938003 3.2594972 10000536
2.4248383 0.10942159 3.2607362 10000536
2.4757617 0.10946319 3.2619755 10000536
2.5253458 0.10950369 3.2631822 10000536
2.5735874 0.10954309 3.2643566 10000536
1.9437134 0.10882591 3.3250854 10197915
1.9758744 0.10885212 3.3258862 10197915
2.024842 0.10889205 3.327106 10197915
2.0738459 0.10893199 3.3283267 10197915
2.1242876 0.10897312 3.3295832 10197915
2.1747673 0.10901427 3.3308406 10132122
2.2252851 0.10905546 3.332099 10000536
2.275841 0.10909668 3.3333583 10000536
2.3250294 0.10913677 3.3345838 10000536
2.3742535 0.1091769 3.3358097 10000536
2.424922 0.10921822 3.3370719 10000536
2.4756291 0.10925955 3.3383348 10000536
2.5249648 0.10929977 3.3395634 10000536
2.5743363 0.10934002 3.3407931 10000536
2.6251566 0.10938146 3.3420596 10000536
2.6548178 0.10940564 3.3427985 10000536
1.9924411 0.10865294 3.406029 10197915
2.0253966 0.10867974 3.4068694 10197915
2.0755761 0.10872057 3.4081492 10197915
2.1257932 0.10876144 3.40943 10197915
2.1746116 0.10880116 3.4106755 10132122
2.2249031 0.10884207 3.4119577 10000536
2.2752323 0.10888304 3.4132419 10000536
2.3241601 0.10892284 3.4144897 10000536
2.3745642 0.10896385 3.4157755 10000536
2.4250066 0.10900489 3.417062 10000536
2.4740434 0.10904479 3.4183128 10000536
2.5245609 0.10908589 3.4196012 10000536
2.5751164 0.10912703 3.420891 10000536
2.624263 0.10916702 3.4221439 10000536
2.6748941 0.10920821 3.4234357 10000536
2.7125282 0.10923884 3.4243958 10000536
2.0421348 0.10847032 3.4909792 10197915
2.0759251 0.10849775 3.4918623 10197915
2.1259058 0.10853834 3.4931684 10197915
2.1759238 0.10857894 3.4944749 10066329
2.2259791 0.10861958 3.4957836 10000536
2.276072 0.10866027 3.4970922 10000536
2.3262024 0.10870098 3.4984028 10000536
2.3689892 0.10873572 3.4995205 10000536
2.3940842 0.10875609 3.5001762 10000536
2.4250987 0.10878128 3.5009868 10000536
2.4738626 0.10882088 3.5022612 10000536
2.5241413 0.1088617 3.5035753 10000536
2.5744576 0.10890256 3.5048902 10000536
2.6248121 0.10894345 3.506206 10000536
2.6752045 0.10898437 3.5075231 10000536
2.7256343 0.10902531 3.5088406 10000536
2.771647 0.10906268 3.5100439 10000536
2.09286 0.10827696 3.5802288 10197915
2.1245124 0.1083026 3.5810764 10197915
2.1742806 0.10834292 3.5824096 10066329
2.2255955 0.1083845 3.5837843 10000536
2.275439 0.10842489 3.5851202 10000536
2.3253191 0.10846529 3.5864558 10000536
2.375237 0.10850574 3.5877938 10000536
2.4251916 0.10854622 3.5891321 10000536
2.475184 0.10858673 3.5904715 10000536
2.5252132 0.10862725 3.5918117 10000536
2.5752804 0.10866782 3.593153 10000536
2.6253843 0.10870843 3.5944955 10000536
2.6755261 0.10874905 3.5958385 10000536
2.724184 0.10878847 3.5971422 10000536
2.7744002 0.10882916 3.5984874 10000536
2.8155122 0.10886247 3.5995891 10000536
2.8398876 0.10888223 3.6002426 10000536
2.8566501 0.1088958 3.6006913 10000536
2.1447046 0.1080724 3.6741264 10197915
2.1741042 0.10809615 3.6749332 10000536
2.2251961 0.10813744 3.6763375 10000536
2.2763271 0.10817879 3.677743 10000536
2.3259456 0.10821889 3.6791062 10000536
2.3756011 0.10825903 3.6804709 10000536
2.4252937 0.10829921 3.6818361 10000536
2.4750228 0.1083394 3.6832035 10000536
2.5247891 0.10837964 3.6845715 10000536
2.5745921 0.1084199 3.68594 10000536
2.6244326 0.1084602 3.6873095 10000536
2.6743097 0.10850051 3.6886804 10000536
2.7242241 0.10854086 3.690052 10000536
2.7741759 0.10858125 3.6914251 10000536
2.8241644 0.10862166 3.6927991 10000536
2.8741906 0.1086621 3.6941738 10000536
2.9195583 0.10869876 3.6954205 10000536
2.1993372 0.10785662 3.7730742 10000536
2.2247717 0.10787711 3.7737908 10000536
2.274076 0.10791686 3.7751815 10000536
2.3250089 0.10795794 3.7766185 10000536
2.3759806 0.10799904 3.7780564 10000536
2.4253964 0.1080389 3.7794504 10000536
2.474849 0.10807879 3.7808456 10000536
2.5259352 0.10811998 3.7822869 10000536
2.5754616 0.10815991 3.783684 10000536
2.6250248 0.10819989 3.7850826 10000536
2.6746247 0.10823989 3.7864821 10000536
2.7242615 0.10827992 3.7878819 10000536
2.7755377 0.10832127 3.7893286 10000536
2.8252492 0.10836136 3.7907307 10000536
2.8749976 0.10840148 3.792135 10000536
2.9247823 0.10844162 3.7935386 10000536
2.9746044 0.10848182 3.7949448 10000536
3.0099828 0.10851035 3.7959425 10000536
2.2798738 0.10764727 3.8781612 10000536
2.3256567 0.10768411 3.8794875 10000536
2.3747437 0.10772359 3.8809104 10000536
2.4238672 0.1077631 3.882334 10000536
2.4746661 0.10780396 3.8838062 10000536
2.5255024 0.10784486 3.8852794 10000536
2.5747366 0.10788445 3.8867061 10000536
2.6240065 0.10792409 3.8881338 10000536
2.6749575 0.10796507 3.8896103 10000536
2.7259459 0.10800609 3.8910878 10000536
2.7753274 0.10804582 3.8925192 10000536
2.8247454 0.10808557 3.8939509 10000536
2.8741992 0.10812534 3.8953846 10000536
2.9236896 0.10816516 3.8968186 10000536
2.9748683 0.10820632 3.8983014 10000536
3.0178208 0.10824088 3.8995461 10000536
3.0426145 0.10826083 3.9002652 10000536
3.0756879 0.10828743 3.9012237 10000536
3.1021554 0.10830871 3.9019904 10066329
2.3364336 0.10740323 3.9884262 10197915
2.3751252 0.10743426 3.9895785 10197915
2.4256246 0.10747477 3.9910834 10197915
2.476162 0.10751531 3.9925883 10197915
2.5250509 0.10755453 3.994045 10197915
2.5739758 0.10759378 3.9955025 10197915
2.6246257 0.10763441 3.9970119 10197915
2.675313 0.10767508 3.9985213 10197915
2.7125072 0.10770492 3.9996295 10132122
2.7378798 0.10772528 4.0003858 10066329
2.7751105 0.10775514 4.0014944 10000536
2.8242183 0.10779453 4.0029578 10000536
2.8750572 0.10783532 4.0044723 10000536
2.9259341 0.10787613 4.0059876 10000536
2.9751518 0.10791562 4.0074544 10000536
3.0244064 0.10795514 4.0089216 10000536
3.0753968 0.10799602 4.0104403 10000536
3.1247239 0.10803562 4.01191 10000536
3.1706812 0.10807248 4.0132794 10000536
2.3962996 0.10714469 4.1051378 10197915
2.4257457 0.10716822 4.1060395 10197915
2.4742718 0.10720704 4.1075268 10197915
2.5245688 0.10724728 4.1090679 10197915
2.5749021 0.10728753 4.110611 10197915
2.6252747 0.10732784 4.1121545 10197915
2.6756842 0.10736816 4.1136994 10197915
2.7243917 0.10740713 4.1151929 10197915
2.7748764 0.10744751 4.1167397 10197915
2.8253987 0.10748793 4.1182885 10197915
2.8742144 0.10752696 4.1197844 10197915
2.9248123 0.10756745 4.1213355 10197915
2.9754469 0.10760797 4.1228871 10197915
3.0243723 0.10764708 4.1243868 10197915
3.0750825 0.10768764 4.1259408 10197915
3.1258309 0.10772826 4.1274962 10197915
3.1748655 0.10776748 4.1289992 10197915
3.2239361 0.10780673 4.1305027 10066329
3.2677789 0.1078418 4.1318469 10000536
2.4812005 0.10688784 4.229568 10197915
2.5240619 0.10692202 4.2309213 10197915
2.5741017 0.10696193 4.2325006 10197915
2.6241784 0.10700186 4.2340808 10197915
2.6742921 0.10704182 4.2356615 10197915
2.7244442 0.10708182 4.2372446 10197915
2.7746332 0.10712185 4.2388282 10197915
2.8248599 0.10716192 4.2404137 10197915
2.8751237 0.10720199 4.2419996 10197915
2.9254258 0.10724212 4.243587 10197915
2.9757652 0.10728226 4.2451758 10197915
3.0261426 0.10732244 4.2467656 10197915
3.0765574 0.10736264 4.2483563 10197915
3.114392 0.10739283 4.2495508 10197915
1.9304527 -1.9039581 4.2632051 2960685
1.9785862 -1.9043459 4.2664495 2960685
2.0253289 -1.9050446 4.2695985 2960685
2.075701 -1.9062359 4.2729907 2960685
2.1259873 -1.906299 4.276381 2960685
2.1755173 -1.9077857 4.279716 2960685
2.226032 -1.9078475 4.2831216 2960685
2.2748122 -1.9089926 4.2864079 2960685
2.3257415 -1.9096792 4.2898393 2960685
2.3744183 -1.9102032 4.2931199 2960685
2.4243371 -1.9116992 4.2964816 2960685
2.4632173 -1.9110849 4.2991037 2960685
1.9304885 -1.8757334 4.2632847 2960685
1.975745 -1.8745745 4.2663407 2960685
2.0253687 -1.8750108 4.2696829 2960685
2.0749726 -1.8753252 4.2730241 2960685
2.1260319 -1.8744482 4.2764707 2960685
2.1755629 -1.8759102 4.279808 2960685
2.2248709 -1.8742214 4.2831349 2960685
2.2748625 -1.8752944 4.2865028 2960685
2.3246295 -1.8749849 4.2898588 2960685
2.3744736 -1.874676 4.29322 2960685
2.4246187 -1.875881 4.2965965 2960685
2.4629254 -1.8743366 4.2991838 2960685
1.9308752 -1.8256783 4.2634454 2960685
1.9760154 -1.824254 4.2664928 2960685
2.025435 -1.8255419 4.2698231 2960685
2.0746682 -1.8246962 4.2731433 2960685
2.1261015 -1.8249007 4.2766113 2960685
2.1759903 -1.825763 4.2799716 2960685
2.2252495 -1.8242056 4.2832975 2960685
2.2749376 -1.8256304 4.2866435 2960685
2.3245676 -1.824653 4.2899923 2960685
2.3745503 -1.8249339 4.2933593 2960685
2.424624 -1.8255948 4.2967348 2960685
2.4615057 -1.8238651 4.2992258 2960685
1.9304123 -1.7747074 4.2635527 2960685
1.9762007 -1.7746886 4.2666392 2960685
2.0257194 -1.7757881 4.2699771 2960685
2.0745795 -1.7743071 4.2732739 2960685
2.1250238 -1.7757436 4.2766719 2960685
2.1745598 -1.7747318 4.2800131 2960685
2.2253227 -1.7745767 4.2834358 2960685
2.2750118 -1.7759629 4.2867837 2960685
2.3244791 -1.7741935 4.2901225 2960685
2.37463 -1.7751889 4.2935023 2960685
2.4246302 -1.7753054 4.2968726 2960685
2.4608719 -1.7751269 4.2993164 2960685
1.9305643 -1.7241786 4.263701 2960685
1.9756429 -1.7256513 4.2667379 2960685
2.0250933 -1.7249614 4.2700696 2960685
2.0749507 -1.7244018 4.2734361 2960685
2.1244071 -1.7257463 4.2767658 2960685
2.1737247 -1.7245702 4.2800946 2960685
2.2253954 -1.7249454 4.2835779 2960685
2.2753856 -1.7258687 4.2869473 2960685
2.324861 -1.7240918 4.2902865 2960685
2.374707 -1.72544 4.293643 2960685
2.4246356 -1.7250128 4.2970104 2960685
2.4598145 -1.7241853 4.2993832 2960685
1.9307451 -1.674606 4.2638526 2960685
1.9745044 -1.6757636 4.2667971 2960685
2.023484 -1.6745561 4.270102 2960685
2.0750191 -1.6748847 4.2735772 2960685
2.1247742 -1.6757671 4.2769279 2960685
2.1737943 -1.6742178 4.2802353 2960685
2.2254686 -1.6753104 4.2837172 2960685
2.2752819 -1.6752484 4.2870765 2960685
2.3249371 -1.6743786 4.2904267 2960685
2.3747849 -1.6756893 4.2937837 2960685
2.4246407 -1.6747179 4.2971468 2960685
2.4587998 -1.6756513 4.299448 2960685
1.9308077 -1.6251976 4.2639852 2960685
1.9749604 -1.6256231 4.2669649 2960685
2.0237558 -1.6241841 4.270257 2960685
2.0750856 -1.6253642 4.273715 2960685
2.1246662 -1.625263 4.2770557 2960685
2.174088 -1.6243571 4.2803922 2960685
2.2255416 -1.6256717 4.2838588 2960685
2.2751191 -1.6246275 4.2872019 2960685
2.3250141 -1.6246631 4.2905669 2960685
2.3748636 -1.6259344 4.2939234 2960685
2.424546 -1.6242959 4.2972784 2960685
2.4581237 -1.624499 4.299542 2960685
1.9308705 -1.5757872 4.2641263 2960685
1.9744613 -1.5747111 4.2670732 2960685
2.0239427 -1.5745687 4.2704067 2960685
2.075155 -1.5758401 4.2738557 2960685
2.1243253 -1.5744956 4.277173 2960685
2.1741593 -1.5747552 4.2805309 2960685
2.2257349 -1.5758989 4.2840071 2960685
2.2750156 -1.5741371 4.287333 2960685
2.3250899 -1.5749434 4.2907081 2960685
2.3750625 -1.5760335 4.2940731 2960685
2.4247549 -1.5739856 4.2974305 2960685
2.4565232 -1.5751719 4.2995682 2960685
1.9312578 -1.5257095 4.2642932 2960685
1.9744842 -1.5241777 4.2672071 2960685
2.0240088 -1.525081 4.270546 2960685
2.0755892 -1.5257907 4.2740197 2960685
2.1245694 -1.5241044 4.2773275 2960685
2.1742301 -1.525151 4.2806711 2960685
2.2259834 -1.5256126 4.2841597 2960685
2.2753901 -1.5240294 4.2874951 2960685
2.3251653 -1.5252213 4.2908487 2960685
2.3752604 -1.5257192 4.2942243 2960685
2.424957 -1.5240525 4.2975793 2960685
2.4562452 -1.5258681 4.299684 2960685
1.930683 -1.4745681 4.2643905 2960685
1.9747666 -1.4744431 4.2673612 2960685
2.0240755 -1.4755906 4.2706852 2960685
2.0752933 -1.4750129 4.274138 2960685
2.124759 -1.4743929 4.2774754 2960685
2.1743011 -1.4755427 4.2808123 2960685
2.2257624 -1.4749646 4.2842836 2960685
2.2754643 -1.4743425 4.2876353 2960685
2.3252432 -1.4754952 4.2909894 2960685
2.37516 -1.4752795 4.2943554 2960685
2.4250362 -1.4742486 4.2977185 2960685
2.4546602 -1.4749335 4.2997155 2960685
1.9310644 -1.4240034 4.2645559 2960685
1.9748313 -1.4249882 4.2675037 2960685
2.0243633 -1.4258341 4.2708387 2960685
2.0749955 -1.4242328 4.2742572 2960685
2.1248279 -1.4248203 4.2776165 2960685
2.1743724 -1.4259315 4.2809539 2960685
2.2255421 -1.4243132 4.2844052 2960685
2.2755384 -1.4246521 4.2877774 2960685
2.3253171 -1.425766 4.2911286 2960685
2.3751175 -1.4248338 4.2944894 2960685
2.4251161 -1.4244417 4.2978621 2960685
2.4543324 -1.4285762 4.2998204 2960685
1.9311274 -1.3745793 4.2646976 2960685
1.9748956 -1.3755296 4.267643 2960685
2.024426 -1.3753268 4.2709823 2960685
2.0754321 -1.3741735 4.2744222 2960685
2.1248982 -1.3752447 4.2777562 2960685
2.1748116 -1.3757941 4.2811198 2960685
2.2257898 -1.3740174 4.2845597 2960685
2.2756135 -1.3749589 4.2879148 2960685
2.3253951 -1.376034 4.2912703 2960685
2.3750174 -1.3742518 4.2946205 2960685
2.4251957 -1.3746314 4.2980032 2960685
2.4529688 -1.3752301 4.2998734 2960685
1.93119 -1.3251516 4.2648325 2960685
1.9750797 -1.3259249 4.2677875 2960685
2.0238426 -1.3243427 4.2710824 2960685
2.0754995 -1.324634 4.2745624 2960685
2.1249676 -1.3256657 4.2778959 2960685
2.1745627 -1.3250523 4.281239 2960685
2.2259839 -1.3242267 4.2847104 2960685
2.2756882 -1.325262 4.2880583 2960685
2.3256953 -1.3260341 4.2914276 2960685
2.3752148 -1.3239257 4.2947721 2960685
2.4252751 -1.3248179 4.2981439 2960685
2.4530265 -1.3396339 4.2999744 2960685
1.9312524 -1.2757211 4.2649713 2960685
1.9752966 -1.275365 4.2679429 2960685
2.0243447 -1.2740605 4.2712522 2960685
2.0755668 -1.2750899 4.2747016 2960685
2.1250374 -1.2760835 4.2780337 2960685
2.1741788 -1.2741878 4.2813549 2960685
2.2256844 -1.2748623 4.2848234 2960685
2.2753448 -1.2752377 4.2881718 2960685
2.3257711 -1.2755336 4.2915707 2960685
2.3754144 -1.2740031 4.2949204 2960685
2.4253554 -1.2750014 4.2982845 2960685
1.931595 -1.2257862 4.26513 2960685
1.9747021 -1.2243023 4.2680411 2960685
2.0244112 -1.2245537 4.2713914 2960685
2.0756347 -1.2255429 4.2748446 2960685
2.1255181 -1.2256585 4.2782068 2960685
2.1746626 -1.2239108 4.2815228 2960685
2.2242894 -1.2248664 4.2848654 2960685
2.2739952 -1.2258238 4.2882147 2960685
2.3255978 -1.2249156 4.291697 2960685
2.3754921 -1.2242221 4.2950611 2960685
2.4238648 -1.2253832 4.2983198 2960685
1.9311115 -1.1746211 4.2652383 2960685
1.9751579 -1.1741295 4.268209 2960685
2.0244768 -1.1750436 4.2715325 2960685
2.075702 -1.175993 4.274982 2960685
2.1248868 -1.1744738 4.2783027 2960685
2.1747336 -1.1742833 4.2816644 2960685
2.2243626 -1.1752002 4.2850065 2960685
2.27407 -1.1761189 4.2883549 2960685
2.3254092 -1.1742955 4.291822 2960685
2.3755708 -1.1744381 4.2952042 2960685
2.4235404 -1.1754493 4.2984347 2960685
1.9306402 -1.1251669 4.2653375 2960685
1.9730532 -1.1339979 4.2681756 2960685
2.0245264 -1.1379093 4.2716355 2960685
2.0757535 -1.1388284 4.2750878 2960685
2.1252325 -1.1364465 4.27843 2960685
2.174787 -1.1370604 4.2817693 2960685
2.2244167 -1.1379486 4.2851124 2960685
2.2745686 -1.1385616 4.2884912 2960685
2.3255203 -1.1363474 4.2919331 2960685
2.3756289 -1.1370974 4.2953091 2960685
2.4218712 -1.137922 4.2984238 2960685
1.9175082 -1.0959712 4.264535 2960685
3.137825 0.1074115 4.2502904 10197915
3.173893 0.10744027 4.2514281 10197915
3.2244186 0.10748058 4.2530231 10197915
3.2749827 0.10752092 4.2546186 10197915
3.3255839 0.10756125 4.2562156 10197915
3.3689861 0.10759588 4.2575855 10197915
2.487309 -1.9118062 4.3007264 2960685
2.5244122 -1.912917 4.303225 2960685
2.5753176 -1.9132886 4.3066564 2960685
2.6248019 -1.9141386 4.3099899 2960685
2.6756363 -1.9152081 4.3134131 2960685
2.7255073 -1.9153641 4.3167758 2960685
2.7759778 -1.9168723 4.3201742 2960685
2.8250988 -1.9169308 4.3234859 2960685
2.875284 -1.9180485 4.3268661 2960685
2.9265482 -1.9188488 4.3303208 2960685
2.9748974 -1.9192291 4.3335795 2960685
3.0238762 -1.9206897 4.3368773 2894892
3.0749688 -1.9205352 4.3403225 2894892
3.1258452 -1.9219329 4.3437476 2894892
3.1755431 -1.9224095 4.3470979 2894892
3.2091653 -1.9226159 4.3493648 2894892
2.486923 -1.8737479 4.3008032 2960685
2.5244744 -1.875525 4.3033309 2960685
2.5745921 -1.8746684 4.3067131 2960685
2.6248705 -1.8749044 4.310101 2960685
2.6751838 -1.8755542 4.3134918 2960685
2.7255809 -1.8742819 4.3168926 2960685
2.776052 -1.8757575 4.3202906 2960685
2.8247356 -1.8744285 4.3235774 2960685
2.8753653 -1.8750799 4.3269901 2960685
2.9260337 -1.8753207 4.3304057 2960685
2.9749854 -1.8744007 4.3337078 2960685
3.0239661 -1.8758273 4.3370056 2894892
3.0751798 -1.8743498 4.3404632 2894892
3.125941 -1.8752021 4.3438816 2894892
3.1750259 -1.8752543 4.3471909 2894892
3.2082865 -1.8753901 4.3494329 2894892
2.4855981 -1.824553 4.3008485 2960685
2.5245574 -1.8256655 4.303472 2960685
2.5746579 -1.8244971 4.3068533 2960685
2.6249554 -1.8249676 4.3102431 2960685
2.675272 -1.8255773 4.3136339 2960685
2.7255459 -1.8243804 4.3170261 2960685
2.7760015 -1.8255714 4.320425 2960685
2.8248909 -1.8244698 4.3237233 2960685
2.8754616 -1.8249465 4.3271317 2960685
2.9260247 -1.8255666 4.3305392 2960685
2.9750843 -1.82419 4.3338504 2960685
3.0240674 -1.8255783 4.3371487 2894892
3.0750949 -1.8247097 4.340591 2894892
3.1260412 -1.824874 4.3440266 2894892
3.1749389 -1.825865 4.3473196 2894892
3.2074795 -1.8235772 4.3495207 2894892
2.4848266 -1.7738763 4.3009343 2960685
2.5246406 -1.775804 4.3036141 2960685
2.5747223 -1.7743218 4.3069954 2960685
2.6250436 -1.7750269 4.3103848 2960685
2.6753604 -1.7755976 4.313776 2960685
2.7238925 -1.7741947 4.3170519 2960685
2.7743661 -1.7755915 4.3204503 2960685
2.8249626 -1.7746489 4.3238645 2960685
2.8754284 -1.7749268 4.3272662 2960685
2.9258943 -1.7758151 4.330667 2960685
2.9751825 -1.7739761 4.3339949 2960685
3.0241673 -1.7753259 4.3372931 2894892
3.075088 -1.775063 4.3407273 2894892
3.1261487 -1.7745414 4.344171 2894892
3.1753612 -1.7758954 4.3474855 2894892
3.2060542 -1.7759055 4.3495541 2894892
2.4839079 -1.7248365 4.3010068 2960685
2.5247231 -1.725938 4.3037553 2960685
2.5747871 -1.7241441 4.3071361 2960685
2.625129 -1.725083 4.3105259 2960685
2.6754482 -1.7256141 4.3139176 2960685
2.7239823 -1.7241738 4.3171945 2960685
2.7744577 -1.7255309 4.3205938 2960685
2.8250349 -1.7248251 4.3240051 2960685
2.8737733 -1.7246208 4.3272915 2960685
2.924484 -1.7259817 4.3307066 2960685
2.9755106 -1.7240232 4.3341527 2960685
3.0242665 -1.7250699 4.3374367 2894892
3.075012 -1.7255448 4.3408575 2894892
3.1262527 -1.724206 4.3443151 2894892
3.1754663 -1.7255216 4.3476291 2894892
3.2057889 -1.7263319 4.3496714 2894892
2.4827492 -1.674305 4.3010664 2960685
2.5248067 -1.6760696 4.3038979 2960685
2.5748518 -1.6739632 4.3072772 2960685
2.6252155 -1.6751353 4.3106694 2960685
2.6755369 -1.6756283 4.3140593 2960685
2.7240725 -1.6741493 4.317337 2960685
2.7745485 -1.675467 4.3207364 2960685
2.8251069 -1.6749976 4.3241458 2960685
2.8738685 -1.6744792 4.327435 2960685
2.9245818 -1.6758009 4.3308496 2960685
2.9755251 -1.6743577 4.3342891 2960685
3.0243664 -1.674811 4.3375816 2894892
3.075084 -1.675889 4.3409963 2894892
3.1264796 -1.6740001 4.3444676 2894892
3.1755731 -1.6751441 4.347774 2894892
3.2039983 -1.6758817 4.3496885 2894892
2.4822176 -1.6251119 4.3011646 2960685
2.5250118 -1.6260644 4.3040466 2960685
2.5750585 -1.6239095 4.3074284 2960685
2.6253014 -1.6251848 4.3108106 2960685
2.6756246 -1.6256384 4.3142028 2960685
2.7241626 -1.6241217 4.3174787 2960685
2.7746406 -1.6254002 4.3208795 2960685
2.8251793 -1.6251674 4.3242865 2960685
2.8739634 -1.6243345 4.3275785 2960685
2.9246776 -1.6256166 4.3309932 2960685
2.9755378 -1.6248279 4.3344254 2894892
3.0244663 -1.6245489 4.3377252 2894892
3.0749071 -1.6261951 4.3411202 2894892
3.1261663 -1.623992 4.344583 2894892
3.1756775 -1.6247637 4.3479171 2894892
3.203872 -1.6278502 4.3498106 2894892
2.4805651 -1.5750607 4.3011889 2960685
2.5251606 -1.5758047 4.304194 2960685
2.5751436 -1.5739939 4.3075695 2960685
2.6253879 -1.5752299 4.3109531 2960685
2.6757128 -1.5756437 4.3143454 2960685
2.7242525 -1.5740895 4.3176208 2960685
2.7747321 -1.5753295 4.321022 2960685
2.8251886 -1.5754739 4.3244228 2960685
2.8740587 -1.5741862 4.3277202 2960685
2.9247754 -1.5754293 4.3311362 2894892
2.9755096 -1.5752957 4.334559 2894892
3.0245674 -1.5742823 4.3378687 2894892
3.0736322 -1.575482 4.3411732 2894892
3.1245883 -1.5751916 4.3446088 2894892
3.1757832 -1.5743799 4.3480644 2894892
3.2023158 -1.5750273 4.3498497 2894892
2.4802406 -1.5250729 4.3013039 2960685
2.5251224 -1.5255498 4.3043284 2960685
2.5752289 -1.5240766 4.3077102 2960685
2.6254752 -1.5252738 4.3110957 2960685
2.6758013 -1.5256482 4.3144865 2960685
2.7243428 -1.524056 4.3177643 2960685
2.7748237 -1.5252554 4.3211637 2960685
2.8253021 -1.5257734 4.3245659 2960685
2.8741539 -1.5240346 4.3278646 2894892
2.9248714 -1.525238 4.3312812 2894892
2.9754174 -1.5257651 4.3346863 2894892
3.0246675 -1.5240136 4.3380132 2894892
3.0737345 -1.5251753 4.3413157 2894892
3.1243734 -1.5258862 4.3447289 2894892
3.1758895 -1.5239929 4.3482075 2894892
3.2023988 -1.5354214 4.3499632 2894892
2.4787552 -1.4754903 4.3013387 2960685
2.5251877 -1.4754144 4.3044696 2960685
2.5753138 -1.4741553 4.3078527 2960685
2.6255615 -1.4753137 4.3112373 2960685
2.6758893 -1.4756494 4.3146286 2960685
2.7244322 -1.4740181 4.3179059 2960685
2.7749155 -1.4751787 4.3213067 2960685
2.8252487 -1.4760774 4.324698 2894892
2.8742495 -1.4738803 4.3280082 2894892
2.9249694 -1.4750434 4.3314233 2894892
2.9756432 -1.4760771 4.334837 2894892
3.0249979 -1.4740062 4.3381701 2894892
3.0738363 -1.4748644 4.3414607 2894892
3.1248708 -1.4760321 4.3448982 2894892
3.1763761 -1.4741365 4.3483763 2894892
2.478137 -1.4251224 4.3014326 2960685
2.5252519 -1.4252754 4.3046107 2960685
2.5753973 -1.4242309 4.3079934 2960685
2.6256473 -1.4253498 4.3113785 2960685
2.675977 -1.4256456 4.3147712 2960685
2.7245219 -1.4239771 4.3180485 2960685
2.7750068 -1.4250982 4.3214488 2894892
2.8255699 -1.4262217 4.3248553 2894892
2.8744676 -1.4238533 4.3281579 2894892
2.9250641 -1.4248453 4.3315659 2894892
2.9758649 -1.4259715 4.3349876 2894892
3.0250554 -1.424423 4.3383102 2894892
3.0739381 -1.4245502 4.3416033 2894892
3.1249759 -1.425678 4.3450422 2894892
3.1747348 -1.4255166 4.3483968 2894892
2.4770646 -1.375749 4.3014975 2960685
2.5253077 -1.3750062 4.3047514 2960685
2.5754824 -1.3743029 4.3081365 2960685
2.6257343 -1.3753824 4.3115206 2960685
2.6759834 -1.3757814 4.3149085 2960685
2.724612 -1.3739324 4.3181911 2894892
2.7750976 -1.3750148 4.3215914 2894892
2.8256629 -1.3760983 4.3249979 2894892
2.8746271 -1.3741019 4.3283052 2894892
2.9251618 -1.374645 4.3317094 2894892
2.9759638 -1.3757309 4.3351321 2894892
3.0249219 -1.3751225 4.3384342 2894892
3.0740397 -1.374233 4.3417482 2894892
3.1250803 -1.3753214 4.3451872 2894892
3.1739945 -1.3759388 4.3484836 2894892
2.4760499 -1.3253876 4.3015652 2960685
2.525363 -1.3247343 4.3048925 2960685
2.575567 -1.3243722 4.3082767 2960685
2.6239581 -1.325374 4.3115368 2960685
2.6742883 -1.3259052 4.3149295 2894892
2.7247009 -1.3238845 4.3183327 2894892
2.7751901 -1.3249274 4.3217344 2894892
2.8257568 -1.325972 4.3251405 2894892
2.8746359 -1.324492 4.3284407 2894892
2.9252591 -1.3244396 4.3318529 2894892
2.9760625 -1.3254871 4.3352757 2894892
3.0248098 -1.3258188 4.3385615 2894892
3.0741429 -1.3239124 4.3418913 2894892
3.1251829 -1.3249605 4.3453312 2894892
3.1728044 -1.3262162 4.3485379 2894892
2.4753742 -1.2760009 4.3016553 2960685
2.5253625 -1.2744615 4.3050294 2960685
2.5756528 -1.2744377 4.3084207 2960685
2.6240442 -1.2754016 4.3116789 2894892
2.6743767 -1.2758943 4.3150721 2894892
2.7247906 -1.2738338 4.3184762 2894892
2.7752817 -1.2748371 4.3218775 2894892
2.8258505 -1.2758421 4.3252845 2894892
2.8746452 -1.2748804 4.3285756 2894892
2.9253552 -1.2742329 4.3319974 2894892
2.9761622 -1.2752398 4.3354192 2894892
3.0250368 -1.2760794 4.3387127 2894892
3.0745606 -1.2739861 4.3420572 2894892
3.1252866 -1.274597 4.3454747 2894892
3.1724937 -1.2756827 4.3486547 2894892
2.4495113 -1.2220834 4.3000584 2960685
2.4754541 -1.2261417 4.3017955 2960685
2.5254741 -1.22418 4.3051734 2960685
2.575737 -1.2245001 4.3085613 2894892
2.6241317 -1.2254268 4.3118224 2894892
2.6743596 -1.2260125 4.3152065 2894892
2.7248812 -1.2237799 4.3186188 2894892
2.7753735 -1.2247435 4.322021 2894892
2.8259439 -1.225709 4.3254275 2894892
2.8745935 -1.2254063 4.3287082 2894892
2.925452 -1.2240222 4.3321404 2894892
2.9762592 -1.2249891 4.3355627 2894892
3.0252621 -1.2259218 4.3388634 2894892
3.0744498 -1.2247757 4.3421836 2894892
3.1246119 -1.2246698 4.3455663 2894892
3.1699736 -1.2244843 4.3486242 2894892
2.4493415 -1.1742538 4.3001776 2960685
2.4755366 -1.1762792 4.3019385 2960685
2.525418 -1.1739038 4.3053079 2894892
2.5758212 -1.1745588 4.3087034 2894892
2.6242177 -1.1754481 4.3119645 2894892
2.6745527 -1.1761175 4.3153558 2894892
2.7249713 -1.1737227 4.3187618 2894892
2.7754657 -1.1746471 4.3221626 2894892
2.8260372 -1.1755726 4.3255711 2894892
2.8744984 -1.1760699 4.3288364 2894892
2.9246433 -1.1742562 4.3322225 2894892
2.9753828 -1.1742525 4.3356423 2894892
3.0253625 -1.1756296 4.3390079 2894892
3.0740147 -1.1758575 4.3422871 2894892
3.1236012 -1.1738245 4.3456359 2894892
3.1684031 -1.1751839 4.3486524 2894892
2.447794 -1.1383846 4.3001714 2960685
2.476371 -1.1381519 4.3020978 2960685
2.5281746 -1.1252723 4.3056259 2894892
2.5759065 -1.1246148 4.3088465 2894892
2.624305 -1.1254659 4.3121071 2894892
2.6745164 -1.1262296 4.3154898 2894892
2.7250621 -1.1236615 4.3189044 2894892
2.7755573 -1.1245468 4.3223062 2894892
2.8261316 -1.1254331 4.3257141 2894892
2.8749075 -1.1262881 4.3290005 2894892
2.9240801 -1.1239535 4.3323202 2894892
2.9745748 -1.1244454 4.3357239 2894892
3.0254631 -1.1253344 4.3391538 2894892
3.074543 -1.126192 4.3424597 2894892
3.1241562 -1.1242574 4.345809 2894892
3.1672502 -1.1242112 4.3487148 2894892
2.5313802 -1.0739179 4.3059821 2894892
2.5759921 -1.0746675 4.3089871 2894892
2.6243906 -1.0754814 4.3122487 2894892
2.6747286 -1.0763264 4.31564 2894892
2.725276 -1.073728 4.319056 2894892
2.7750111 -1.0748544 4.3224049 2894892
2.8255243 -1.0748473 4.32581 2894892
2.8750031 -1.0761073 4.329143 2894892
2.923986 -1.074572 4.3324494 2894892
2.9746733 -1.0741863 4.3358679 2894892
3.0255637 -1.0750356 4.3392973 2894892
3.074645 -1.0758549 4.3426027 2894892
3.1234832 -1.0755862 4.3458962 2894892
3.1663206 -1.0744389 4.3487883 2894892
2.5296059 -1.0239724 4.3059988 2894892
2.5742164 -1.0246872 4.3090038 2894892
2.6244764 -1.0254925 4.3123908 2894892
2.6748168 -1.026299 4.3157821 2894892
2.7253447 -1.0239369 4.3191938 2894892
2.7738686 -1.0243065 4.3224659 2894892
2.8244433 -1.0251139 4.3258739 2894892
2.8750982 -1.0259225 4.3292866 2894892
2.9238279 -1.0253301 4.3325729 2894892
2.974772 -1.023924 4.3360114 2894892
3.0256646 -1.0247337 4.3394399 2894892
3.074748 -1.0255141 4.3427467 2894892
3.1237824 -1.0261652 4.3460517 2894892
3.1658771 -1.0243306 4.3488941 2894892
2.5296886 -0.97405428 4.3061399 2894892
2.5743017 -0.97473407 4.3091455 2894892
2.6245635 -0.97550023 4.3125329 2894892
2.6749046 -0.97626746 4.3159242 2894892
2.7254128 -0.97414219 4.3193359 2894892
2.7739599 -0.97419775 4.3226075 2894892
2.824537 -0.97496587 4.3260159 2894892
2.8751929 -0.97573507 4.3294287 2894892
2.9237339 -0.97608095 4.3327012 2894892
2.9749956 -0.97377938 4.336164 2894892
3.025764 -0.97442812 4.3395839 2894892
3.0748489 -0.97517067 4.3428926 2894892
3.1240094 -0.97591442 4.3462043 2894892
3.1639724 -0.97632605 4.3488975 2894892
2.5297725 -0.92413306 4.306282 2894892
2.5743864 -0.92477816 4.309289 2894892
2.6246495 -0.92550516 4.312674 2894892
2.6749938 -0.92623317 4.3160672 2894892
2.725482 -0.92434466 4.3194771 2894892
2.7740512 -0.92408586 4.3227515 2894892
2.8246307 -0.92481411 4.3261595 2894892
2.875289 -0.92554396 4.3295732 2894892
2.9241459 -0.92624766 4.3328657 2894892
2.9753118 -0.92426801 4.3363194 2894892
3.0258651 -0.92411923 4.3397288 2894892
3.0749514 -0.92482364 4.3430352 2894892
3.1241152 -0.92552906 4.3463478 2894892
3.1638741 -0.92609936 4.3490281 2894892
2.5298553 -0.87420869 4.3064241 2894892
2.574471 -0.87481898 4.3094296 2894892
2.6247363 -0.8755067 4.3128176 2894892
2.6750813 -0.87619519 4.3162098 2894892
2.7255502 -0.87454325 4.3196168 2894892
2.774143 -0.87397039 4.3228941 2894892
2.8247235 -0.8746599 4.3263021 2894892
2.8753834 -0.8753497 4.3297157 2894892
2.9242432 -0.87601513 4.3330083 2894892
2.9748256 -0.8754378 4.3364196 2894892
3.025965 -0.87380707 4.3398714 2894892
3.0750537 -0.87447292 4.3431797 2894892
3.124218 -0.87513995 4.3464923 2894892
3.1622367 -0.87589216 4.3490543 2894892
2.5299387 -0.82428116 4.3065662 2894892
2.5745561 -0.82485676 4.3095722 2894892
2.6248236 -0.82550484 4.3129592 2894892
2.6751699 -0.82615441 4.3163509 2894892
2.7256188 -0.82487673 4.3197556 2894892
2.7742352 -0.8238517 4.3230371 2894892
2.8248172 -0.82450134 4.3264456 2894892
2.875479 -0.82515186 4.3298588 2894892
2.9243395 -0.82577926 4.3331509 2894892
2.9749272 -0.82618815 4.3365607 2894892
3.0264449 -0.82402098 4.3400393 2894892
3.0751555 -0.82411933 4.3433228 2894892
3.1243231 -0.8247478 4.3466363 2894892
3.161829 -0.82585299 4.3491621 2894892
2.5300217 -0.77435046 4.3067079 2894892
2.57464 -0.77489066 4.3097153 2894892
2.6249101 -0.77549988 4.3131008 2894892
2.6752584 -0.77610976 4.3164945 2894892
2.725625 -0.77534825 4.3198915 2894892
2.7743261 -0.77372962 4.3231797 2894892
2.8249106 -0.77433974 4.3265886 2894892
2.8755739 -0.77495128 4.3300018 2894892
2.9244361 -0.77553993 4.3332944 2894892
2.9752576 -0.77615327 4.3367195 2894892
3.0260098 -0.77525502 4.3401437 2894892
3.075258 -0.77376205 4.3434668 2894892
3.1244259 -0.77435225 4.3467808 2894892
3.1603992 -0.77478397 4.3492045 2894892
2.5301056 -0.72441584 4.3068476 2894892
2.5747256 -0.72492164 4.3098564 2894892
2.6249959 -0.72549134 4.3132448 2894892
2.6753469 -0.72606224 4.3166356 2894892
2.7256308 -0.72581685 4.3200278 2894892
2.7744176 -0.72360432 4.3233223 2894892
2.8250029 -0.7241751 4.3267303 2894892
2.8756683 -0.72474629 4.3301444 2894892
2.9245324 -0.72529763 4.333437 2894892
2.9753561 -0.72587097 4.3368621 2894892
3.0260284 -0.72618282 4.3402777 2894892
3.075808 -0.72420341 4.3436408 2894892
3.1245296 -0.72395319 4.3469248 2894892
3.1597731 -0.72545731 4.3492966 2894892
2.5301888 -0.67447829 4.3069897 2894892
2.5748096 -0.67494905 4.3099976 2894892
2.6250813 -0.67547959 4.313386 2894892
2.6754336 -0.67601109 4.3167791 2894892
2.7256358 -0.67628247 4.3201604 2894892
2.7746332 -0.6736055 4.3234735 2894892
2.8250968 -0.67400712 4.3268743 2894892
2.8757632 -0.67453903 4.3302889 2894892
2.9246297 -0.67505175 4.3335814 2894892
2.9754543 -0.67558515 4.3370066 2894892
3.0263584 -0.67611992 4.3404369 2894892
3.0750015 -0.6756947 4.3437181 2894892
3.1249485 -0.67394638 4.3470898 2894892
3.1587148 -0.67390674 4.3493667 2894892
2.5285354 -0.62436903 4.3070149 2894892
2.5748951 -0.62497348 4.3101392 2894892
2.6251686 -0.62546486 4.3135266 2894892
2.6755219 -0.62595677 4.3169208 2894892
2.7259545 -0.62644953 4.3203192 2894892
2.7748933 -0.62415141 4.3236251 2894892
2.8251905 -0.62383556 4.3270168 2894892
2.8758581 -0.62432772 4.3304315 2894892
2.9247262 -0.62480259 4.333725 2894892
2.9736693 -0.62527823 4.3370233 2894892
3.0245724 -0.62577266 4.3404522 2894892
3.075556 -0.62626827 4.3438892 2894892
3.1244013 -0.62538213 4.3471851 2894892
3.157805 -0.62520623 4.3494382 2894892
2.528497 -0.57457638 4.3071494 2894892
2.5749791 -0.57499456 4.3102813 2894892
2.6252553 -0.57544672 4.3136702 2894892
2.6756101 -0.57589936 4.3170624 2894892
2.7260447 -0.57635248 4.3204618 2894892
2.7746475 -0.57513946 4.3237419 2894892
2.8252838 -0.57366085 4.3271589 2894892
2.8759532 -0.57411367 4.330575 2894892
2.9248235 -0.57455027 4.333868 2894892
2.973767 -0.57498753 4.3371668 2894892
3.0246725 -0.57544231 4.3405991 2894892
3.0756571 -0.57589775 4.3440332 2894892
3.1248317 -0.57633728 4.3473487 2894892
3.1569171 -0.57529843 4.349514 2894892
2.5285802 -0.52463055 4.3072906 2894892
2.5750656 -0.52501202 4.3104239 2894892
2.6253417 -0.52542502 4.3138118 2894892
2.6754482 -0.52605772 4.3171873 2894892
2.7258503 -0.52601653 4.3205867 2894892
2.7743998 -0.52612555 4.3238592 2894892
2.8255007 -0.52360326 4.3273115 2894892
2.8760486 -0.52389598 4.3307185 2894892
2.9249196 -0.52429432 4.3340111 2894892
2.9738653 -0.52469331 4.3373113 2894892
3.0247731 -0.52510822 4.3407431 2894892
3.0757589 -0.5255242 4.3441777 2894892
3.1249347 -0.52592516 4.3474917 2894892
3.155735 -0.52749741 4.3495646 2894892
2.5286632 -0.4746815 4.3074312 2894892
2.5751498 -0.4750267 4.310564 2894892
2.6254282 -0.47540033 4.3139534 2894892
2.6739202 -0.4757604 4.3172226 2894892
2.7243552 -0.47613496 4.320621 2894892
2.7748694 -0.47651011 4.3240261 2894892
2.825824 -0.47430375 4.3274655 2894892
2.8761442 -0.47367507 4.330862 2894892
2.9250174 -0.47403532 4.3341556 2894892
2.9739637 -0.47439614 4.3374548 2894892
3.0248737 -0.47477141 4.3408856 2894892
3.0758624 -0.47514707 4.3443222 2894892
3.1250396 -0.47550976 4.3476362 2894892
3.1552429 -0.47630379 4.3496709 2894892
2.5287468 -0.42472899 4.3075719 2894892
2.5752332 -0.42503789 4.3107066 2894892
2.6255147 -0.42537206 4.3140965 2894892
2.6740086 -0.42569435 4.3173652 2894892
2.7244449 -0.42602962 4.3207636 2894892
2.774961 -0.42636532 4.3241687 2894892
2.8250723 -0.42583513 4.3275485 2894892
2.876364 -0.42358035 4.3310127 2894892
2.9251132 -0.42377287 4.3342996 2894892
2.974062 -0.42409536 4.3375978 2894892
3.0249736 -0.42443097 4.3410301 2894892
3.0759649 -0.42476696 4.3444667 2894892
3.1251421 -0.425091 4.3477807 2894892
3.1535475 -0.42527819 4.3496962 2894892
2.5288303 -0.37477311 4.3077159 2894892
2.5753193 -0.37504593 4.3108482 2894892
2.6256013 -0.37534073 4.3142376 2894892
2.6740961 -0.37562507 4.3175063 2894892
2.7245352 -0.37592095 4.3209057 2894892
2.7750525 -0.37621722 4.3243108 2894892
2.8239183 -0.37663102 4.3276052 2894892
2.8745854 -0.37487102 4.3310251 2894892
2.9252114 -0.37350708 4.3344426 2894892
2.9741616 -0.37379143 4.3377414 2894892
3.0250742 -0.3740873 4.3411736 2894892
3.0760679 -0.37438336 4.3446107 2894892
3.1252499 -0.37466887 4.3479261 2894892
3.1533301 -0.37783489 4.3498111 2894892
2.5289133 -0.32481411 4.3078566 2894892
2.5754032 -0.32505041 4.3109908 2894892
2.6256878 -0.32530594 4.3143806 2894892
2.674185 -0.32555249 4.3176489 2894892
2.7246253 -0.32580885 4.3210483 2894892
2.7751443 -0.32606557 4.3244543 2894892
2.8238673 -0.3263132 4.3277388 2894892
2.8743141 -0.32632899 4.3311396 2894892
2.9254377 -0.32488626 4.3345895 2894892
2.9742603 -0.323484 4.3378859 2894892
3.0251746 -0.32373992 4.3413172 2894892
3.0761688 -0.32399622 4.3447552 2894892
3.1253514 -0.32424361 4.3480706 2894892
3.1518626 -0.32437673 4.3498569 2894892
2.5289962 -0.27485171 4.3079987 2894892
2.575489 -0.27505153 4.3111324 2894892
2.6257746 -0.2752679 4.3145232 2894892
2.674273 -0.27547657 4.3177905 2894892
2.7247152 -0.27569354 4.3211927 2894892
2.7752364 -0.27591071 4.3245978 2894892
2.8239622 -0.27612033 4.3278823 2894892
2.8746402 -0.27633822 4.3312988 2894892
2.9252737 -0.27642706 4.334712 2894892
2.9743552 -0.27497017 4.3380241 2894892
3.0257506 -0.27412948 4.3414917 2894892
3.0762708 -0.27360594 4.3448997 2894892
3.1254575 -0.27381471 4.3482141 2894892
3.1519408 -0.28654003 4.3499656 2894892
2.5290804 -0.22488606 4.3081408 2894892
2.5755737 -0.22504967 4.3112755 2894892
2.6258614 -0.22522664 4.3146658 2894892
2.6743617 -0.22539736 4.3179345 2894892
2.7248058 -0.22557476 4.3213344 2894892
2.7753282 -0.22575259 4.3247404 2894892
2.8240554 -0.22592402 4.3280249 2894892
2.8747356 -0.22610238 4.3314409 2894892
2.9254944 -0.22628103 4.3348646 2894892
2.9744496 -0.22645327 4.3381624 2894892
3.0248888 -0.22563568 4.341567 2894892
3.0763698 -0.22501211 4.3450379 2894892
3.1259501 -0.22460194 4.3483834 2894892
2.5291624 -0.1749171 4.3082824 2894892
2.575659 -0.17504443 4.3114176 2894892
2.6259475 -0.17518204 4.3148074 2894892
2.6744497 -0.17531481 4.3180761 2894892
2.7248955 -0.17545287 4.3214779 2894892
2.7754202 -0.1755911 4.3248839 2894892
2.8241479 -0.17572446 4.3281693 2894892
2.874831 -0.17586321 4.3315854 2894892
2.9255917 -0.17600213 4.3350067 2894892
2.9745491 -0.17613611 4.3383069 2894892
3.0242867 -0.1767052 4.3416586 2894892
3.0752223 -0.17598782 4.3450952 2894892
3.1238978 -0.1764162 4.3483758 2894892
2.5292463 -0.12494489 4.3084259 2894892
2.5757427 -0.12503581 4.3115587 2894892
2.6260338 -0.1251341 4.3149509 2894892
2.6745381 -0.12522896 4.3182197 2894892
2.7249851 -0.12532757 4.3216209 2894892
2.7755115 -0.12542637 4.3250265 2894892
2.8242421 -0.12552166 4.3283119 2894892
2.8749256 -0.12562069 4.331728 2894892
2.925688 -0.12571996 4.3351502 2894892
2.9746473 -0.1258156 4.3384509 2894892
3.0236809 -0.12591156 4.3417563 2894892
3.0746806 -0.12601124 4.3451943 2894892
3.1238658 -0.12610735 4.3485107 2894892
2.5293295 -0.074969336 4.308567 2894892
2.5742495 -0.075255141 4.3115931 2894892
2.6245074 -0.074859932 4.3149834 2894892
2.6746264 -0.075139776 4.3183622 2894892
2.7250752 -0.075198948 4.3217635 2894892
2.7756031 -0.075258225 4.3251696 2894892
2.8243358 -0.075315416 4.3284545 2894892
2.875021 -0.075374842 4.3318715 2894892
2.9257855 -0.075434409 4.3352947 2894892
2.9747465 -0.075491823 4.3385944 2894892
3.023782 -0.075549349 4.3419008 2894892
3.0747826 -0.075609192 4.3453383 2894892
3.1222227 -0.075815946 4.348537 2894892
2.529413 -0.024990518 4.3087082 2894892
2.5740497 -0.025007958 4.3117175 2894892
2.6243441 -0.025027633 4.3151078 2894892
2.6747143 -0.025047339 4.3185053 2894892
2.7251656 -0.025067054 4.3219056 2894892
2.7756951 -0.025086816 4.3253121 2894892
2.8244293 -0.025105877 4.3285985 2894892
2.8751159 -0.02512568 4.3320141 2894892
2.9258826 -0.025145538 4.3354383 2894892
2.9748447 -0.02516469 4.338738 2894892
3.0238814 -0.025183858 4.3420444 2894892
3.0748832 -0.025203794 4.3454828 2894892
3.1219299 -0.025506744 4.3486538 2894892
2.5294962 0.024991607 4.3088498 2894892
2.5741377 0.025009053 4.3118606 2894892
2.6244304 0.025028735 4.3152504 2894892
2.6748021 0.025048429 4.3186474 2894892
2.7252555 0.025068162 4.3220496 2894892
2.7757869 0.025087917 4.3254566 2894892
2.8245232 0.025106972 4.3287411 2894892
2.8752117 0.025126796 4.332159 2894892
2.9259791 0.025146658 4.3355818 2894892
2.9749434 0.025165802 4.3388815 2894892
3.0239828 0.025184967 4.3421884 2894892
3.0749876 0.025204923 4.3456273 2894892
3.1203907 0.02522267 4.3486896 2894892
2.5295787 0.07497701 4.3089919 6316128
2.5742214 0.07502941 4.3120017 6381921
2.6245167 0.075088397 4.3153939 6447714
2.6748908 0.07514751 4.3187904 6447714
2.7253466 0.075206675 4.3221917 6579300
2.7758787 0.075265989 4.3255982 6579300
2.8246155 0.075323142 4.3288841 6579300
2.8753071 0.075382635 4.3323026 6645093
2.9260764 0.07544218 4.3357248 6645093
2.9750416 0.075499617 4.3390265 6710886
3.0240834 0.07555715 4.3423338 6776679
