# .PCD v0.7 - Point Cloud Data file format
VERSION 0.7
FIELDS x y z rgb
SIZE 4 4 4 4
TYPE F F F U
COUNT 1 1 1 1
WIDTH 1172
HEIGHT 1
VIEWPOINT 0 0 0 1 0 0 0
POINTS 1172
DATA ascii
0.27480373 0.083763078 3.547116 10197915
0.32345325 0.083803326 3.54882 6447714
-1.6260525 0.081376694 3.5713708 728636
-1.5750747 0.08141844 3.5732031 3753304
-1.5240446 0.081460238 3.575037 10197915
-1.4744227 0.081500866 3.5768206 10197915
-1.424751 0.081541538 3.5786057 10197915
-1.3750297 0.081582263 3.5803928 10197915
-1.3252589 0.081623018 3.5821815 10197915
-1.2754383 0.081663825 3.583972 10197915
-1.2255678 0.081704661 3.5857642 10197915
-1.1756473 0.081745535 3.587558 10197915
-1.125677 0.081786454 3.5893543 10197915
-1.0756567 0.081827424 3.591152 10197915
-1.025586 0.08186841 3.5929513 9081241
-0.97546524 0.081909478 3.5947528 5926016
-0.9252941 0.081950553 3.5965557 10197915
-0.8750729 0.08199168 3.5983608 10197915
-0.83959377 0.082020737 3.5996361 8753050
-0.81444597 0.082041338 3.6005397 6584462
-0.7744785 0.082074068 3.6019759 9343123
-0.7241056 0.0821153 3.6037865 10197915
-0.67516601 0.082155384 3.6055455 10197915
-0.62617826 0.082195505 3.607306 10197915
-0.575656 0.082236893 3.6091218 10197915
-0.52508301 0.082278289 3.6109395 10197915
-0.47445893 0.082319751 3.6127589 10197915
-0.42527533 0.082360029 3.6145265 10197915
-0.37604305 0.082400337 3.6162953 10197915
-0.32526872 0.082441933 3.6181204 10197915
-0.27444312 0.082483537 3.6199472 10197915
-0.2250635 0.082523979 3.6217217 10197915
-0.17563497 0.082564458 3.6234987 10197915
-0.12465814 0.082606196 3.6253302 10197915
-0.075131536 0.082646772 3.6271105 10197915
-0.025555762 0.082687356 3.6288919 10197915
0.025573002 0.082729243 3.6307299 10197915
0.07524728 0.082769915 3.632515 10197915
0.12497091 0.082810633 3.6343012 10197915
0.17474301 0.08285138 3.6360903 10197915
0.22456464 0.082892187 3.6378813 10197915
0.2744348 0.082933016 3.6396735 10197915
0.32435468 0.082973905 3.6414673 7105644
0.35311651 0.082997464 3.6425014 6447714
-1.6718925 0.080481738 3.665381 663100
-1.6240807 0.080520481 3.6671448 2240585
-1.5747273 0.080560483 3.6689663 10197915
-1.5253242 0.080600493 3.6707895 10197915
-1.474373 0.080641791 3.6726696 10197915
-1.4248707 0.08068189 3.6744962 10197915
-1.3753186 0.080722034 3.6763248 10197915
-1.3242136 0.080763452 3.6782107 9606810
-1.2745619 0.080803685 3.6800432 5663361
-1.2248601 0.080843955 3.6818774 10197915
-1.1751091 0.08088427 3.6837132 10197915
-1.125308 0.080924623 3.6855509 10197915
-1.0754578 0.08096502 3.6873903 10197915
-1.0255574 0.081005447 3.6892319 4612995
-0.97560745 0.081045926 3.6910751 7962502
-0.92560709 0.081086449 3.69292 10132122
-0.87555724 0.081126988 3.6947672 7636118
-0.82545686 0.081167579 3.6966157 2377322
-0.77530664 0.081208214 3.6984668 9277329
-0.74184704 0.081235342 3.699702 10000536
-0.71597427 0.081256293 3.7006562 10132122
-0.67485517 0.081289619 3.7021742 10197915
-0.62455362 0.081330374 3.70403 10197915
-0.57420212 0.081371173 3.705888 10197915
-0.52532792 0.081410781 3.7076917 10197915
-0.47487628 0.081451654 3.7095535 10197915
-0.42437446 0.08149258 3.711417 10197915
-0.3753542 0.081532292 3.7132258 10197915
-0.32475185 0.081573293 3.7150936 10197915
-0.27409899 0.081614338 3.7169626 10197915
-0.22493213 0.081654176 3.7187772 10197915
-0.17571729 0.081694052 3.720593 10197915
-0.12491383 0.081735209 3.7224677 10197915
-0.074059673 0.081776418 3.7243445 10197915
-0.024697293 0.081816427 3.7261662 10197915
0.024713393 0.081856459 3.7279897 10197915
0.07417246 0.081896536 3.7298145 10197915
0.12522814 0.081937909 3.731699 10197915
0.1763349 0.081979312 3.7335849 10197915
0.22594255 0.082019508 3.7354155 10197915
0.27559888 0.082059741 3.7372479 10197915
0.325304 0.082100011 3.7390819 7631988
0.35794768 0.082126476 3.7402871 6447714
-1.7202113 0.07953839 3.7644734 662845
-1.6757332 0.079574019 3.7661598 662329
-1.6250724 0.079614602 3.7680807 10000793
-1.5743603 0.079655237 3.770004 6715790
-1.5251353 0.079694673 3.7718704 8357001
-1.4758615 0.079734147 3.7737386 10197915
-1.4249965 0.079774901 3.7756672 10197915
-1.3740799 0.079815693 3.7775979 10197915
-1.3246564 0.0798553 3.7794721 4086910
-1.2751837 0.079894923 3.781348 8357001
-1.225662 0.079934604 3.7832258 10132122
-1.1760908 0.079974316 3.7851055 10066329
-1.1249189 0.080015324 3.7870462 10066329
-1.0736951 0.080056362 3.7889884 7636117
-1.0239729 0.080096208 3.790874 4216174
-0.97420102 0.080136061 3.7927611 10000536
-0.92437989 0.080175988 3.7946503 10000536
-0.87450886 0.080215938 3.796541 4089232
-0.82458818 0.080255933 3.7984338 4543589
-0.7918027 0.080282204 3.7996774 10066329
-0.76680654 0.080302224 3.8006248 10197915
-0.72459751 0.080336042 3.8022256 10132122
-0.67452735 0.080376156 3.8041244 10000536
-0.62440699 0.080416322 3.8060248 10132122
-0.57423651 0.080456503 3.8079271 10197915
-0.5240159 0.080496743 3.8098311 10197915
-0.47374514 0.080537021 3.8117375 10197915
-0.42499748 0.080576077 3.813586 10197915
-0.37620202 0.08061517 3.8154359 10197915
-0.32578307 0.08065556 3.817348 10197915
-0.27531362 0.080695994 3.819262 10197915
-0.22479358 0.080736473 3.8211768 10197915
-0.17422277 0.080776982 3.8230944 10197915
-0.12518413 0.080816276 3.8249545 10197915
-0.07609728 0.080855601 3.8268156 10197915
-0.025377097 0.080896229 3.8287392 10197915
0.025394093 0.080936916 3.8306639 10197915
0.074627139 0.08097636 3.832531 10197915
0.1239087 0.081015848 3.8343995 10197915
0.17483017 0.08105664 3.8363307 9276813
0.22580293 0.081097461 3.838263 8947848
0.27523154 0.081137069 3.8401375 8355711
0.324709 0.081176721 3.8420136 7303023
0.36304554 0.081207432 3.8434672 6447714
-3.0965037 -1.721808 3.8969882 2039583
-3.0966985 -1.6750892 3.8970933 2039583
-3.0968268 -1.6251085 3.8973844 2039583
-3.0970299 -1.5751573 3.8975086 2039583
-3.0971575 -1.5251638 3.8978014 2039583
-3.0973606 -1.475204 3.8979259 2039583
-3.0974884 -1.4251977 3.898217 2039583
-3.0976913 -1.375229 3.8983426 2039583
-3.0978191 -1.3252102 3.898634 2039583
-3.098588 -1.275604 3.8975031 2039583
-3.0986843 -1.2465786 3.897624 2039583
-1.7696401 0.078543864 3.8691339 662844
-1.7255237 0.07857877 3.8708539 727865
-1.675058 0.07861872 3.872822 9408915
-1.624541 0.078658722 3.8747919 6519443
-1.5739726 0.078698739 3.8767636 5990003
-1.5249358 0.078737549 3.8786757 10197915
-1.4758496 0.078776404 3.880589 10132122
-1.4251299 0.078816555 3.8825669 10132122
-1.3743582 0.078856744 3.8845475 6059152
-1.3251241 0.078895725 3.8864667 5924210
-1.2758409 0.078934722 3.8883886 10197915
-1.2249166 0.078975037 3.8903739 10197915
-1.1739408 0.079015389 3.8923616 10197915
-1.124508 0.079054512 3.8942885 9146517
-1.0750263 0.07909368 3.8962188 2772340
-1.0254956 0.079132892 3.8981504 8751244
-0.99031639 0.079160728 3.8995211 10000536
-3.0783784 -1.755551 3.9366789 2039583
-3.0840104 -1.7247272 3.9245813 2039583
-3.0843325 -1.6749151 3.924438 2039583
-3.0844254 -1.6248556 3.924809 2039583
-3.08465 -1.5750464 3.9248817 2039583
-3.0847747 -1.5250643 3.9251826 2039583
-3.0849719 -1.4749882 3.9253201 2039583
-3.0851126 -1.4249958 3.9255838 2039583
-3.0852897 -1.3750787 3.9257646 2039583
-3.0854421 -1.3249899 3.9260051 2039583
-3.0874963 -1.2789233 3.9219902 2039583
-3.0969217 -1.2478204 3.9015069 2039583
-0.96471471 0.079181001 3.9005198 10000536
-0.92468464 0.079212695 3.9020808 7504532
-0.87500483 0.079252005 3.9040177 2311789
-0.82527542 0.079291366 3.905957 5332332
-0.77549678 0.079330772 3.9078979 10000536
-0.72566831 0.079370208 3.9098411 10197915
-0.67418075 0.079410963 3.9118485 10197915
-0.62425196 0.079450496 3.9137952 10197915
-0.57427281 0.079490051 3.9157438 10197915
-0.52424455 0.079529651 3.9176946 10197915
-0.47578222 0.079568006 3.9195845 10197915
-0.42565519 0.079607688 3.9215393 10197915
-0.37547868 0.079647399 3.9234955 10197915
-0.32525152 0.079687156 3.9254539 10197915
-0.2749747 0.079726957 3.9274139 10197915
-0.22464713 0.079766795 3.9293768 10197915
-0.17426975 0.079806678 3.9313414 10197915
-0.12546922 0.079845287 3.9332435 10197915
-0.074992083 0.079885259 3.9352124 10197915
-0.024464944 0.079925247 3.9371824 10197915
0.02448074 0.07996399 3.9390907 10197915
0.075108103 0.080004074 3.9410655 10197915
0.12578566 0.080044188 3.9430418 10197915
0.17487718 0.080083035 3.9449546 6710886
0.22401635 0.080121942 3.9468713 6513507
0.27484396 0.08016216 3.9488528 6513507
0.30273646 0.080184251 3.9499409 6579300
-3.0595436 -1.7649311 3.9782152 2039583
-3.0612831 -1.7249955 3.9748278 2039583
-3.0614634 -1.6750768 3.9750032 2039583
-3.0615888 -1.6249769 3.9752991 2039583
-3.0618184 -1.5748736 3.9753714 2039583
-3.0624566 -1.5249555 3.9745317 2039583
-3.0626981 -1.4749999 3.9745708 2039583
-3.0628605 -1.4251274 3.9747837 2039583
-3.0630679 -1.3750697 3.9748981 2039583
-3.0631888 -1.3250946 3.9752035 2039583
-3.0674691 -1.2915164 3.9661293 2039583
-1.8202767 0.07749372 3.979846 662845
-1.7749206 0.07752917 3.9816661 662329
-1.7246577 0.077568419 3.9836829 9277072
-1.6759677 0.077606477 3.9856369 7176084
-1.6256039 0.077645831 3.9876578 4807021
-1.5751897 0.077685215 3.9896805 10000536
-1.5247239 0.077724643 3.9917057 10000536
-1.4742072 0.077764116 3.9937329 10000536
-1.4252712 0.077802375 3.9956968 7570324
-1.3746529 0.077841915 3.9977281 4018796
-1.3337959 0.077873841 3.9993677 10132122
0.32736397 0.080203734 3.950901 6513507
0.36843279 0.080236249 3.9525023 6447714
-3.0309165 -1.8040582 4.0410638 2039583
-3.0379019 -1.7740173 4.0259657 2039583
-3.0384233 -1.7250834 4.0253735 2039583
-3.0385845 -1.675143 4.0255885 2039583
-3.0388668 -1.6250134 4.0255404 2039583
-3.0389106 -1.5748789 4.0260201 2039583
-3.0508943 -1.5246183 4.0001011 2039583
-3.0390732 -1.5249228 4.0262351 2039583
-3.0510559 -1.4749806 4.0003128 2039583
-3.0396447 -1.4752877 4.0255413 2039583
-3.0508831 -1.4197017 4.0013289 2039583
-3.0398147 -1.4252845 4.0257378 2039583
-3.0507655 -1.3745025 4.0021071 2039583
-3.0396032 -1.3749642 4.026783 2039583
-3.0509219 -1.3264879 4.0023127 2039583
-3.0410354 -1.333281 4.0240951 2039583
-1.309265 0.077892996 4.0003514 10197915
-1.2748996 0.077919856 4.0017304 10197915
-1.2257669 0.077958241 4.0037026 10197915
-1.1749456 0.077997945 4.0057421 7307927
-1.124073 0.078037709 4.0077834 2049393
-1.0747917 0.078076221 4.0097613 5266797
-1.0254618 0.078114763 4.0117407 10000536
-0.97608322 0.078153342 4.0137219 10000536
-0.9250071 0.07819324 4.0157714 3891597
-0.87387937 0.07823319 4.0178232 1453384
-0.82435077 0.078271896 4.0198112 9343122
-0.77477342 0.078310631 4.0218 3561081
-0.72514671 0.078349404 4.0237918 10066329
-0.67547101 0.078388229 4.025785 10197915
-0.62574583 0.078427084 4.0277805 10197915
-0.57597154 0.078465953 4.0297775 10197915
-0.52614784 0.078504905 4.0317774 10197915
-0.47627461 0.078543879 4.0337787 10197915
-0.42635185 0.078582883 4.0357819 10197915
-0.37637946 0.078621916 4.037787 10197915
-0.32635745 0.07866101 4.039794 10197915
-0.27628562 0.07870014 4.0418038 10197915
-0.22616401 0.0787393 4.0438147 10197915
-0.17599246 0.078778505 4.0458283 10197915
-0.12577091 0.078817748 4.0478435 10197915
-0.085558988 0.078849159 4.0494571 10197915
-3.0135658 -1.8125933 4.079329 2039583
-3.0155149 -1.7749938 4.0754561 2039583
-3.0156803 -1.7250884 4.0756569 2039583
-3.0164816 -1.674904 4.0744624 2039583
-3.0165968 -1.6250429 4.0747819 2039583
-3.0168126 -1.5751783 4.0748758 2039583
-3.0169663 -1.5250138 4.0751166 2039583
-3.0175586 -1.4747123 4.074379 2039583
-3.0179021 -1.4250342 4.0741925 2039583
-3.0184071 -1.3757836 4.0736432 2039583
-3.0247259 -1.3435308 4.0600405 2039583
-1.1759143 -0.80153775 4.0889125 2039583
-1.2055359 -0.77595675 4.0984464 2039583
-1.1735528 -0.77502871 4.0876174 2039583
-1.205537 -0.72666979 4.0988631 5658198
-1.17369 -0.72486979 4.0880413 5789784
-1.2032266 -0.67066073 4.0982924 6447714
-1.1732953 -0.67522216 4.0882916 6447714
-1.2020531 -0.62479532 4.0981503 6447714
-1.1721753 -0.62487459 4.0883064 6447714
-1.2021936 -0.57562596 4.0986285 6447714
-1.1723782 -0.57472271 4.0889239 6447714
-1.2016149 -0.52902603 4.0987611 6447714
-1.1723468 -0.5249334 4.0892715 6447714
-1.2005266 -0.47375757 4.0987363 6447714
-1.1722904 -0.47538459 4.0895381 6447714
-1.200667 -0.4245635 4.0992155 6447714
-1.1725956 -0.42531824 4.0901399 6447714
-1.2008072 -0.37535784 4.0996938 6447714
-1.1727266 -0.37452495 4.0905962 6447714
-1.2008893 -0.34650838 4.0999746 6447714
-1.1730751 -0.32454929 4.0911975 6447714
-1.1727625 -0.27546355 4.091331 3356992
-1.1740974 -0.22586836 4.0915227 3758974
-1.1742867 -0.17498608 4.0915971 3561854
-1.173184 -0.12442157 4.0916767 2904698
-1.1729461 -0.07532303 4.0918679 2313077
-1.1732599 -0.025431301 4.0924487 2050676
-1.1722997 0.024896353 4.0925264 1721197
-1.8722304 0.076382987 4.0971484 728637
-1.8272294 0.07641767 4.0990081 662328
-1.1716083 0.064429857 4.0926099 1720426
-0.060409829 0.078868814 4.0504661 10197915
-0.0251776 0.078896336 4.0518794 10197915
0.02519433 0.078935705 4.0539012 10197915
0.075616546 0.078975096 4.0559244 10197915
0.12608911 0.07901454 4.0579505 10197915
0.17492695 0.079052694 4.0599098 6974058
0.22381249 0.079090886 4.0618715 6513507
0.2744332 0.079130433 4.0639033 6513507
0.32510465 0.079170033 4.0659366 6513507
0.37413487 0.079208352 4.067904 6447714
-2.9835987 -1.8522575 4.1451349 2039583
-3.0017791 -1.8186707 4.1053219 2039583
-2.9902995 -1.8233811 4.1306496 2039583
-3.0019598 -1.7750962 4.1054225 2039583
-2.9908013 -1.7749286 4.1300974 2039583
-3.0021806 -1.7241879 4.1055193 2039583
-2.9910152 -1.7250336 4.1301966 2039583
-3.0029302 -1.6749079 4.1044283 2039583
-2.9911907 -1.6751366 4.1303825 2039583
-3.0030792 -1.6252592 4.1046696 2039583
-2.9912932 -1.6251076 4.1307316 2039583
-3.0029202 -1.5737981 4.1056118 2039583
-2.9911826 -1.5755321 4.1315451 2039583
-3.0027781 -1.5250241 4.1064849 2039583
-2.9916251 -1.5251954 4.131145 2039583
-3.0029216 -1.4750905 4.1067419 2039583
-2.9918084 -1.4750791 4.1313148 2039583
-3.0030634 -1.4251505 4.1070008 2039583
-2.9919417 -1.4250889 4.1315951 2039583
-3.0032935 -1.3823165 4.1069856 2039583
-2.9933846 -1.3888028 4.1288195 2039583
-1.3104378 -0.80206168 4.1456103 2039583
-1.2735443 -0.80140239 4.1289515 2039583
-1.2270623 -0.80158359 4.1079535 2039583
-1.3106304 -0.77496517 4.145926 2039583
-1.2746173 -0.77502126 4.1296592 2039583
-1.2293912 -0.77507925 4.1092305 2039583
-1.3096708 -0.72654426 4.1459012 5658198
-1.274894 -0.72509837 4.1302052 5723991
-1.2290069 -0.72482157 4.1094794 5723991
-1.3088284 -0.67502415 4.145957 6447714
-1.2747126 -0.67489678 4.130547 6447714
-1.2272184 -0.67507362 4.1090932 6447714
-1.0169085 -0.6561352 4.1426225 6513507
-0.97388244 -0.65610892 4.1235991 6513507
-0.94295269 -0.65642697 4.1370115 6513507
-1.3089834 -0.62528723 4.1464467 6447714
-1.2752188 -0.624951 4.1311989 6447714
-1.2275833 -0.62485027 4.109683 6447714
-1.0120624 -0.63326693 4.1405821 6839902
-0.97399324 -0.62504333 4.123848 7100761
-0.94398308 -0.62496293 4.1351566 7361620
-1.3091378 -0.5755381 4.1469369 6447714
-1.2752237 -0.57512218 4.1316218 6447714
-1.2279739 -0.57476497 4.1102805 6447714
-1.0044934 -0.57424045 4.1375856 7680305
-0.97351724 -0.57519615 4.1240587 7028813
-0.94401538 -0.57499701 4.1357102 6250365
-1.307896 -0.52637005 4.146791 6447714
-1.2749999 -0.52502352 4.1319432 6447714
-1.226519 -0.52456617 4.1100488 6447714
-1.0046027 -0.52458698 4.1380339 6566193
-0.97428977 -0.52496397 4.1247973 5721183
-0.94423622 -0.5250228 4.1358509 5733795
-1.3073533 -0.47535038 4.1469765 6447714
-1.2759454 -0.47489944 4.1327934 6447714
-1.2259345 -0.47494951 4.1102028 6447714
-1.0047116 -0.47492278 4.138484 6507596
-0.97426426 -0.47497582 4.1251698 5659759
-0.94417417 -0.47503117 4.1366081 5405089
-1.3076026 -0.42441151 4.1475196 6447714
-1.2753813 -0.42517886 4.1329589 6447714
-1.2265954 -0.42475334 4.1109262 6447714
-1.0048207 -0.42524782 4.1389337 6513507
-0.97388083 -0.42510241 4.1254163 5531773
-0.94433051 -0.42503616 4.1368895 5142434
-1.3075536 -0.37564859 4.1479082 6447714
-1.2757063 -0.37490702 4.1335306 6447714
-1.2260748 -0.37528563 4.1111083 6447714
-1.151006 -0.35193241 4.1038032 6447714
-1.1399115 -0.35147026 4.1283727 5460819
-1.0049299 -0.37556189 4.1393833 6513507
-0.97460598 -0.37470639 4.1261373 5400186
-0.94448757 -0.37503624 4.1371713 4748192
-1.3058707 -0.33677685 4.1474776 6447714
-1.2757255 -0.33556744 4.1339884 6447714
-1.2250431 -0.3354302 4.1125779 6447714
-1.1510605 -0.32474491 4.1039977 6447714
-1.1419293 -0.33076379 4.1242018 5789784
-1.0050429 -0.32415146 4.1398478 5658198
-0.97419924 -0.32518932 4.1263413 5005430
-0.94442725 -0.32465756 4.137929 4091036
-1.1511595 -0.27546179 4.1043506 3825800
-1.1469548 -0.27438313 4.1136727 6192024
-1.005152 -0.27444369 4.1402979 2894892
-0.97456503 -0.27526584 4.1269083 2900311
-0.94471103 -0.2749998 4.1379299 3565207
-1.1521039 -0.22267197 4.1028719 2973583
-1.1470535 -0.22497945 4.1140275 6193832
-1.0052612 -0.22472508 4.140748 5921370
-0.97512841 -0.224833 4.1275468 4610928
-0.94471139 -0.22460622 4.138557 3105173
-1.1577159 -0.17285907 4.1024332 2578826
-1.1471523 -0.17556717 4.1143808 5208227
-1.0053705 -0.17499575 4.1411977 6513507
-0.97431868 -0.17530499 4.1276131 4874616
-0.9448058 -0.17490171 4.1389704 2842515
-1.1653922 -0.12552214 4.1023154 2117763
-1.1472547 -0.12444206 4.114749 4025501
-1.0054797 -0.12525548 4.1416478 6513507
-0.97488183 -0.12485032 4.1282487 4874358
-0.94490021 -0.12518707 4.1393833 2645394
-1.1526105 -0.074800417 4.1034656 1985661
-1.1473535 -0.075012542 4.1151032 3237529
-1.005589 -0.075504526 4.1420979 6513507
-0.97498673 -0.075260162 4.1286907 4808565
-0.94499457 -0.075462632 4.1397972 2448272
-1.1527095 -0.025502065 4.1038189 1854074
-1.1474522 -0.025574395 4.1154571 2909078
-1.0056983 -0.025742643 4.1425481 6513507
-0.97509056 -0.02565928 4.1291361 4743028
-0.94623572 -0.025712628 4.1377115 2184845
-1.1623511 0.027851243 4.1032538 1920381
-1.1475544 0.025577432 4.1158242 2382479
-1.0043683 0.02788659 4.1423697 6513507
-0.97395706 0.025230883 4.1290493 4611187
-0.94633317 0.025716161 4.1381392 2053258
-1.8022137 0.076436959 4.1000438 662070
-1.7755113 0.076457523 4.1011462 9211536
-1.7254105 0.076496132 4.1032176 7110805
-1.6752589 0.076534763 4.1052904 3360608
-1.6250567 0.076573454 4.1073651 10000536
-1.5748038 0.076612189 4.1094432 10000536
-1.5245 0.076650947 4.1115217 10000536
-1.4741451 0.076689735 4.1136026 8423828
-1.4237393 0.076728582 4.1156859 2573414
-1.3749657 0.076766171 4.1177025 10000536
-1.3261431 0.076803781 4.11972 8226190
-1.2755873 0.076842748 4.1218095 10132122
-1.2266682 0.076880448 4.1238317 9738138
-1.1666703 0.064595334 4.1031222 1787770
-1.1391932 0.069072202 4.120317 2050939
-1.0762359 0.076996349 4.1300497 2969203
-1.0129066 0.069138974 4.1381702 9803157
-0.97358447 0.065117352 4.1290474 6518670
-0.93963003 0.068205327 4.1375751 2248575
-0.87608552 0.077150583 4.1383224 4806503
-0.82507217 0.077189893 4.1404314 6848149
-0.77400649 0.077229246 4.1425414 5924726
-0.72459382 0.077267326 4.1445837 10000536
-0.67513198 0.077305436 4.1466284 10000536
-0.62562174 0.077343583 4.148675 10066329
-0.59828675 0.077364668 4.149806 10197915
-2.9675779 -1.8602053 4.1804657 2039583
-2.9700906 -1.8249409 4.1753163 2039583
-2.9701931 -1.7749738 4.1756587 2039583
-2.9704468 -1.7251024 4.1756749 2039583
-2.9706659 -1.6754724 4.1757565 2039583
-2.9714131 -1.6250291 4.1746902 2039583
-2.9715998 -1.5749512 4.1748476 2039583
-2.9722786 -1.5248896 4.173923 2039583
-2.9725246 -1.4749212 4.173954 2039583
-2.9734869 -1.4274366 4.1723714 2039583
-2.9811621 -1.396596 4.1557574 2039583
-1.4144555 -0.80188757 4.192596 2039583
-1.3744423 -0.80197066 4.1745219 2039583
-1.3335418 -0.80149806 4.1560512 2039583
-1.4157888 -0.77509171 4.1934247 2039583
-1.3750486 -0.77502334 4.1750221 2039583
-1.3346332 -0.77494371 4.1567683 2039583
-1.4163218 -0.72527671 4.1940861 5723991
-1.3753397 -0.72495115 4.1755772 5723991
-1.3336701 -0.72413427 4.1567626 5723991
-1.4149231 -0.67587626 4.1938715 6447714
-1.3752882 -0.67499626 4.1759772 6447714
-1.3329378 -0.67507446 4.156846 6447714
-1.1220068 -0.65642208 4.1908364 6052956
-1.0762634 -0.65645629 4.1698499 6447714
-1.0404611 -0.65673852 4.1534233 6513507
-0.92532873 -0.6562112 4.1754336 6513507
-1.4129671 -0.62441701 4.1934228 6447714
-1.3744334 -0.62544841 4.1760087 6447714
-1.3329778 -0.6249966 4.1572862 6447714
-1.1208787 -0.64069468 4.1906118 6118749
-1.0755699 -0.63976902 4.1724696 6447714
-1.0378385 -0.63782299 4.1618309 6513507
-0.92962945 -0.6304335 4.1667871 7034711
-1.4123683 -0.57482696 4.193572 6447714
-1.3733181 -0.57512093 4.1759281 6447714
-1.333467 -0.57488775 4.1579323 6447714
-0.93363464 -0.57494396 4.15834 3359591
-1.4126548 -0.52474731 4.1941237 6447714
-1.3743129 -0.52514458 4.1768007 6447714
-1.331557 -0.52448386 4.1574936 6447714
-0.93384814 -0.52504855 4.1584949 2380155
-1.4112982 -0.4756628 4.1939254 6447714
-1.3736353 -0.47503591 4.1769185 6447714
-1.3318411 -0.4748427 4.1580424 6447714
-0.93380404 -0.47468695 4.1592193 2511483
-1.4107265 -0.42486328 4.1940966 6447714
-1.3746306 -0.42502695 4.1777897 6447714
-1.3314427 -0.42496416 4.1582832 6447714
-0.9340573 -0.42478308 4.1592879 2445436
-1.4111043 -0.37536603 4.194685 6447714
-1.3739762 -0.37490287 4.1779175 6447714
-1.3318467 -0.37470108 4.1588898 6447714
-1.1189723 -0.35203558 4.1747279 4408131
-0.93399149 -0.37482145 4.1600542 2248057
-1.4112325 -0.33716524 4.1950669 6447714
-1.3744134 -0.33574033 4.1789074 6447714
-1.3286197 -0.33498228 4.1615138 6447714
-1.2739621 -0.32368308 4.1780729 6447714
-1.2356857 -0.32363188 4.177412 6447714
-1.1539549 -0.32352257 4.1760006 6447714
-1.120281 -0.33566368 4.1750684 4408131
-0.93424481 -0.32490602 4.1601233 2050936
-0.93417913 -0.27491608 4.1608896 1852788
-0.93443251 -0.22498885 4.1609592 1919094
-0.93436688 -0.17497033 4.1617255 2051194
-0.93462008 -0.12503146 4.1617951 2051707
-0.93455458 -0.074984536 4.1625619 1919607
-0.93597811 -0.02518934 4.1600785 1920123
-0.93607289 0.025192743 4.1605 1655669
-0.93586135 0.063042477 4.1614323 1523056
-0.57264292 0.077384405 4.1508646 5009044
-0.52474236 0.07742133 4.1528449 6121846
-0.47508362 0.077459589 4.1548972 10132122
-0.4253751 0.077497892 4.1569514 10197915
-0.37561813 0.077536233 4.1590085 10197915
-0.32581118 0.077574618 4.1610665 10197915
-0.27423519 0.077614352 4.1631985 10197915
-0.22432841 0.077652805 4.1652613 10197915
-0.17437159 0.077691302 4.1673265 10197915
-0.12436582 0.077729829 4.1693931 10197915
-0.074309826 0.077768408 4.1714621 10197915
-0.024204703 0.077807009 4.173533 10197915
0.024220159 0.077844337 4.1755347 10197915
0.07442376 0.077883013 4.1776094 10197915
0.12467672 0.077921741 4.179687 10197915
0.17498024 0.077960499 4.181766 7434609
0.22533326 0.077999294 4.183847 6513507
0.27399784 0.0780368 4.1858587 6513507
0.32445005 0.078075662 4.1879435 6513507
0.37495202 0.078114592 4.1900315 6447714
0.4045783 0.07813742 4.191256 6447714
-2.9541798 -1.8667309 4.2100186 2039583
-2.9429817 -1.8724592 4.2347097 2039583
-2.9544601 -1.8248951 4.209877 2039583
-2.9434524 -1.8250258 4.2342167 2039583
-2.9546502 -1.7749891 4.210031 2039583
-2.9436874 -1.7749541 4.2342715 2039583
-2.9544454 -1.7238402 4.2110715 2039583
-2.9434493 -1.7257251 4.2353635 2039583
-2.954541 -1.6739073 4.211432 2039583
-2.9432847 -1.674926 4.2363086 2039583
-2.9550891 -1.6247422 4.2107878 2039583
-2.9433804 -1.6247014 4.2366757 2039583
-2.9552822 -1.574677 4.2109337 2039583
-2.9436014 -1.5748584 4.2367592 2039583
-2.9554224 -1.5248188 4.2111979 2039583
-2.9437366 -1.5250148 4.2370338 2039583
-2.9555616 -1.4749529 4.211462 2039583
-2.9438725 -1.47497 4.237308 2039583
-2.956259 -1.4374239 4.21035 2039583
-2.9456968 -1.4440546 4.2336287 2039583
-1.5249498 -0.80241913 4.2425022 2039583
-1.4763602 -0.80210525 4.2205567 2039583
-1.4418548 -0.80251193 4.204967 2039583
-1.5215698 -0.77521718 4.2412043 2039583
-1.4758688 -0.77502531 4.2205629 2039583
-1.4404637 -0.77481699 4.2045727 2039583
-1.5195466 -0.72482646 4.2407174 2236962
-1.4757413 -0.72513044 4.2209268 5723991
-1.4407465 -0.7247265 4.2051229 5789784
-1.5197901 -0.67493242 4.2412486 2236962
-1.4761108 -0.67508292 4.2215176 6447714
-1.4398383 -0.67425174 4.2051401 6447714
-1.1681184 -0.65641922 4.2119923 6052956
-1.1450621 -0.65719801 4.2014084 2039583
-0.90758395 -0.65668887 4.2141089 6513507
-0.89604664 -0.65649509 4.2392621 6513507
-1.5203314 -0.62521207 4.2419124 2236962
-1.4764787 -0.62502009 4.2221055 6447714
-1.4388415 -0.62486768 4.2051063 6447714
-1.1675338 -0.63944054 4.216403 5789784
-1.1300699 -0.63558483 4.2177296 4934475
-1.074074 -0.63324946 4.2224779 6447714
-1.0387726 -0.63316852 4.2199941 6513507
-0.91390115 -0.6383127 4.217586 6513507
-0.89584053 -0.64114457 4.2399511 6513507
-1.5198431 -0.57569933 4.2421093 5642007
-1.4762678 -0.57494903 4.222434 6447714
-1.4391996 -0.57498062 4.2056904 6447714
-1.5180762 -0.52458411 4.2417426 4461588
-1.476392 -0.52515799 4.2229095 6447714
-1.4395574 -0.52507865 4.2062726 6447714
-1.5185459 -0.47454253 4.2423787 3807001
-1.4772317 -0.47519445 4.223712 6447714
-1.4374851 -0.47423115 4.2057667 6447714
-1.5187234 -0.42538029 4.2428737 1976371
-1.4754844 -0.42442212 4.223351 6447714
-1.4363981 -0.42601854 4.2056828 6447714
-1.5162778 -0.37602928 4.2421856 2436663
-1.4729966 -0.37506667 4.2226439 6447714
-1.4358771 -0.37489903 4.2058783 6447714
-1.1042297 -0.3512271 4.2073779 6447714
-1.0917338 -0.35221928 4.235033 6447714
-1.5144436 -0.33700031 4.2416873 2567733
-1.4731195 -0.3357698 4.2244134 6447714
-1.4326935 -0.33361474 4.2124276 6447714
-1.3742343 -0.32427707 4.2309909 6447714
-1.3248842 -0.32421085 4.2301278 6447714
-1.2755544 -0.32414478 4.2292647 6447714
-1.2438519 -0.32410225 4.2287102 6447714
-1.1611156 -0.32399151 4.2272654 4737096
-1.1118908 -0.33148754 4.2158718 5263440
-1.0926154 -0.33673185 4.2333384 6447714
-1.9256238 0.075206108 4.2216501 728893
-1.8741281 0.075245187 4.2238445 1122364
-1.824298 0.075283013 4.2259669 9934743
-1.7744176 0.075320885 4.2280941 6321808
-1.7244873 0.075358786 4.2302203 2440020
-1.6745064 0.075396724 4.2323503 10197915
-1.6244757 0.075434722 4.2344828 7043722
-1.5743937 0.07547272 4.2366161 9408658
-1.5242622 0.075510778 4.2387528 9409174
-1.4758109 0.075547561 4.2408175 1522791
-1.4255791 0.075585686 4.2429581 9408659
-1.375297 0.075623855 4.2451005 4086909
-1.3249637 0.075662069 4.2472448 8685708
-1.2797952 0.075696349 4.2491698 10132122
-2.9217596 -1.9078394 4.2812285 2039583
0.33787319 -1.9109166 4.2954793 6447714
0.37134209 -1.9075606 4.2803693 6447714
0.40908608 -1.9036064 4.2633314 6447714
-2.9251895 -1.8750473 4.2740221 2039583
0.33806807 -1.874856 4.2956967 6447714
0.37401193 -1.8750259 4.2794366 6447714
0.40969992 -1.8748449 4.2632957 6447714
-2.9252665 -1.8250128 4.2744236 2039583
0.33882141 -1.826048 4.2957678 6447714
0.37406385 -1.8249663 4.2798371 5855577
0.40977865 -1.8249732 4.2636819 4276545
-2.9255025 -1.7749724 4.2744803 2039583
0.33986405 -1.7750306 4.2957277 6447714
0.37422806 -1.774897 4.2801847 5395026
0.4098573 -1.7750926 4.2640667 2039583
-2.9256239 -1.7249259 4.274785 2039583
0.33994463 -1.7250086 4.296113 6447714
0.37421492 -1.7248214 4.2806144 5395026
0.40993589 -1.7252035 4.2644534 2039583
-2.9258544 -1.6749878 4.274848 2039583
0.33997697 -1.6749763 4.2965212 6447714
0.37417051 -1.6747335 4.2810569 6118749
0.40991512 -1.6750121 4.2648869 4934475
-2.9259865 -1.625038 4.2751317 2039583
0.34089571 -1.6263418 4.2965159 6447714
0.37428641 -1.6248705 4.2814255 6447714
0.40989453 -1.6248102 4.2653193 6447714
-2.926028 -1.5749809 4.2756138 2039583
0.34179109 -1.5748688 4.2965465 6447714
0.37428954 -1.5750004 4.2818456 6447714
0.4099732 -1.5748929 4.2657061 6447714
-2.9263127 -1.5249112 4.2755589 2039583
0.34179348 -1.5247256 4.2969694 6447714
0.37435704 -1.5250021 4.282238 6447714
0.41005203 -1.5249662 4.2660933 6447714
-2.9278653 -1.4802001 4.2726402 2039583
0.34191641 -1.4745855 4.2973371 6447714
0.37442499 -1.4749941 4.28263 6447714
0.41013062 -1.475031 4.266479 6447714
0.34311852 -1.4255314 4.2972078 6447714
0.37437987 -1.4248607 4.2830734 6447714
0.41020924 -1.425087 4.2668672 6447714
0.34361029 -1.3744441 4.2974167 6447714
0.37443182 -1.3748338 4.2834735 6447714
0.4100489 -1.3751262 4.2673607 6447714
0.34364265 -1.3247187 4.297822 6447714
0.37438667 -1.3249164 4.283916 6447714
0.41012761 -1.3251617 4.2677469 6447714
0.34367508 -1.2749838 4.2982283 6447714
0.37445414 -1.2748697 4.2843065 6447714
0.41020653 -1.2751886 4.2681332 6447714
0.34524825 -1.2258382 4.2979312 6447714
0.37458676 -1.2249323 4.2846699 6447714
0.41034469 -1.2249157 4.2684984 6447714
0.34545916 -1.1752741 4.2982621 6447714
0.37457365 -1.174987 4.2850966 6447714
0.41040918 -1.1746434 4.2689433 6447714
0.34549174 -1.1255201 4.2986689 6447714
0.37464148 -1.1249138 4.2854886 6447714
0.41035348 -1.1249435 4.2694449 6447714
0.34565547 -1.0773829 4.2990017 6447714
0.3747091 -1.0748315 4.285881 6447714
0.4103972 -1.075532 4.2698984 6447714
0.34727579 -1.0257989 4.2987037 6513507
0.374648 -1.0248559 4.2863312 6447714
0.41028312 -1.0255098 4.2704229 6447714
0.34730861 -0.97602576 4.2991095 6513507
0.37469962 -0.97498858 4.2867289 6447714
0.4102571 -0.97569066 4.2708778 6447714
0.34734139 -0.92624319 4.2995157 6513507
0.37475118 -0.92511266 4.287127 6447714
0.40894559 -0.92451984 4.2716651 6447714
0.34736949 -0.88356513 4.2998633 6513507
0.37480277 -0.87522745 4.2875247 6447714
0.40884316 -0.87432772 4.2721362 6447714
-1.5629684 -0.80236465 4.2596755 2039583
-1.546778 -0.80157602 4.2523689 2039583
0.37491888 -0.82521379 4.2878952 6447714
0.4088814 -0.82484788 4.2725368 6447714
-1.561718 -0.77535099 4.2593389 2039583
-1.5466597 -0.77439284 4.2525449 2039583
0.37492236 -0.77519315 4.2883153 6447714
0.40891984 -0.7753588 4.2729368 6447714
-1.5616724 -0.72463942 4.2597466 2039583
-1.5449492 -0.72579032 4.2521825 2039583
0.374973 -0.72504359 4.2887168 6447714
0.40895823 -0.72586066 4.2733388 6447714
-1.5620335 -0.67423165 4.2603359 2039583
-1.5452305 -0.67535126 4.2527351 2039583
-0.88031626 -0.65673834 4.2735486 6513507
0.37575579 -0.67536461 4.2887812 6447714
0.40885565 -0.67562598 4.2738085 6447714
-1.5615611 -0.62606305 4.2605281 2039583
-1.5452237 -0.62437421 4.2531629 2039583
-1.2023507 -0.63403136 4.2868681 6447714
-1.1748184 -0.63387477 4.2743154 5197647
-1.125939 -0.63378364 4.2732587 6447714
-1.0753149 -0.6336897 4.2722125 6447714
-1.0447128 -0.63361669 4.2697463 6513507
-0.95304358 -0.6335876 4.2838678 6566193
-0.92537212 -0.63342667 4.2708521 6511965
-0.8819052 -0.64006501 4.2748346 6513507
0.37666017 -0.62517792 4.2887974 6447714
0.40908375 -0.62471998 4.2741356 6447714
-1.5602834 -0.57539743 4.2603788 5575186
-1.5447778 -0.57292324 4.253396 5575186
0.37660044 -0.57535326 4.2892451 6447714
0.40917134 -0.57413983 4.2745233 6447714
-1.5604665 -0.52603835 4.26088 4329231
-1.5435793 -0.52509773 4.2532592 4329231
0.37659344 -0.52526546 4.2896714 6447714
0.40911436 -0.52423626 4.2749705 6447714
-1.5588354 -0.4751555 4.2605729 3480873
-1.5418458 -0.47625133 4.2528887 3873311
0.37791136 -0.47562122 4.2894936 6447714
0.40915278 -0.47469068 4.2753711 6447714
-1.5585533 -0.42438948 4.2608733 2179684
-1.5419326 -0.42522982 4.2533588 3622743
0.37845919 -0.42514464 4.2896719 6447714
0.40919119 -0.42513597 4.2757726 6447714
-1.5589148 -0.37427962 4.2614603 2311526
-1.5406262 -0.37241629 4.2532144 3228245
-1.0718771 -0.35218152 4.2789974 6447714
0.37856972 -0.37487584 4.2900472 6447714
0.40922961 -0.37557194 4.2761745 6447714
-1.5590979 -0.32488444 4.2619605 2114405
-1.5315708 -0.31883532 4.2636728 2832454
-1.4735066 -0.32488137 4.2852025 6447714
-1.4235039 -0.32481432 4.2843175 6447714
-1.3735218 -0.32474717 4.2834325 6447714
-1.3235604 -0.32468012 4.2825475 6447714
-1.2754027 -0.32461548 4.2816954 6447714
-1.1684546 -0.32447207 4.2798033 3750201
-1.123921 -0.32441232 4.2790151 2500134
-1.0744456 -0.33597943 4.2762513 6381921
0.37868002 -0.32459867 4.2904215 6447714
0.40926802 -0.32599869 4.2765756 6447714
-1.5592805 -0.27547783 4.2624598 2435889
-1.530378 -0.27525073 4.265934 2567733
0.38047335 -0.2743043 4.2900362 6447714
0.40921095 -0.2760444 4.2770233 6447714
-1.5594636 -0.22605944 4.2629609 2177879
-1.5304871 -0.22534038 4.2663226 2240832
0.38037094 -0.22396535 4.2905083 6447714
0.40943831 -0.22471526 4.2773538 6447714
-1.559653 -0.1748639 4.2634778 1654372
-1.5306661 -0.17513131 4.2665567 1781056
0.38040683 -0.17421162 4.2909122 6447714
0.40938601 -0.17367963 4.2778091 6447714
-1.5598425 -0.12365609 4.2639961 1720164
-1.5310787 -0.12449685 4.2666254 1649984
0.38055539 -0.12458565 4.2912636 6447714
0.40942448 -0.12406842 4.2782111 6447714
-1.5600259 -0.074202172 4.2644973 1654371
-1.5309699 -0.074251421 4.2673178 1584191
0.38219008 -0.074662507 4.2909455 6447714
0.40946302 -0.074447893 4.2786126 6447714
-1.5602088 -0.024736645 4.2649965 1522785
-1.5311006 -0.024752351 4.2676845 1518141
0.38222599 -0.024889585 4.2913504 6447714
0.40950146 -0.024818027 4.2790146 6447714
-1.560392 0.02474051 4.2654977 1324380
-1.531234 0.024755223 4.2680535 1452092
0.38226211 0.02489271 4.2917538 6447714
0.40953985 0.02482114 4.2794166 6447714
-1.5605296 0.061855644 4.2658739 2376036
-1.5313361 0.061891358 4.2683392 3622487
-1.2554574 0.075714827 4.2502074 10000536
-1.2450229 0.075722754 4.2506518 7964307
-1.1649506 0.075783521 4.2540631 1390947
-1.1248658 0.075813964 4.2557721 2706034
-1.0760243 0.075851031 4.257853 7699331
-1.0446029 0.075874887 4.259192 10197915
-0.92571265 0.075965129 4.2642579 1256262
-0.87492388 0.076003693 4.2664223 9343122
-0.82408416 0.076042287 4.2685885 2049390
-0.77494818 0.076079592 4.2706823 9803414
-0.72576392 0.076116912 4.272778 10000536
-0.67477196 0.076155633 4.2749505 9737623
-0.62372869 0.076194383 4.2771254 4021631
-0.57439595 0.076231822 4.2792287 2773371
-0.5250147 0.076269314 4.281333 7962501
-0.47558475 0.076306827 4.2834382 10132122
-0.42610618 0.076344386 4.2855468 10000536
-0.37480888 0.07638333 4.2877331 10132122
-0.32345983 0.076422311 4.2899213 10197915
-0.2738314 0.076459982 4.2920356 10197915
-0.224154 0.076497689 4.2941527 10197915
-0.17442755 0.076535448 4.2962718 10197915
-0.12465204 0.07657323 4.2983923 10197915
-0.092629425 0.076597542 4.299758 10197915
0.38229039 0.06401369 4.2920728 6447714
0.40957013 0.063829616 4.2797322 6447714
-2.9060318 -1.9154372 4.3159184 2039583
-2.8948357 -1.9210567 4.34061 2039583
0.23331562 -1.9215659 4.3426809 6447714
0.27461591 -1.9171621 4.324039 6447714
0.31352267 -1.913409 4.3064728 6447714
-2.9066761 -1.8748651 4.3149595 2039583
-2.8951235 -1.874939 4.3405032 2039583
0.23459049 -1.8757824 4.3424935 6447714
0.27592185 -1.8748628 4.3238053 6447714
0.31400609 -1.8751546 4.3065777 6447714
-2.9068301 -1.8249085 4.3151908 2039583
-2.8953218 -1.8249857 4.3406377 2039583
0.23577519 -1.8252035 4.3423834 6447714
0.27586755 -1.8250092 4.3242517 6447714
0.31483379 -1.8243824 4.3066335 6447714
-2.9070113 -1.7751268 4.3153639 2039583
-2.8954329 -1.7750288 4.3409653 2039583
0.2356851 -1.7751986 4.3428469 6447714
0.27589387 -1.7750144 4.3246617 6447714
0.31579107 -1.7750582 4.3066134 6447714
-2.9071403 -1.7253371 4.31565 2039583
-2.8955884 -1.7247658 4.3411989 2039583
0.23567921 -1.7251866 4.3432736 6447714
0.27603474 -1.7248859 4.3250213 6447714
0.31582093 -1.725264 4.3070235 6447714
-2.9072955 -1.6753649 4.3158798 2039583
-2.8957064 -1.675097 4.3415074 2039583
0.23668297 -1.6758348 4.3432331 6447714
0.27594626 -1.6747433 4.3254848 6447714
0.31587809 -1.6752617 4.3074207 6447714
-2.90745 -1.6253872 4.3161101 2039583
-2.8958957 -1.62542 4.3416605 2039583
0.23751041 -1.624833 4.3432927 6447714
0.27597243 -1.6247234 4.3258958 6447714
0.31691128 -1.6245829 4.3073792 6447714
-2.9076056 -1.5754038 4.3163409 2039583
-2.8961837 -1.5758774 4.3415928 2039583
0.23754868 -1.5748245 4.3436952 6447714
0.276097 -1.5748187 4.326261 6447714
0.31763601 -1.5753834 4.3074675 6447714
-2.9077978 -1.5252365 4.3164949 2039583
-2.8970182 -1.5255661 4.3403258 2039583
0.23755549 -1.5248067 4.3441157 6447714
0.2760247 -1.5249076 4.3267155 6447714
0.31770304 -1.5253806 4.3078609 6447714
-2.9092457 -1.4923204 4.3136716 2039583
-2.8999171 -1.4993379 4.3342171 2039583
0.23884808 -1.4755487 4.3439484 6447714
0.27605098 -1.4748572 4.3271255 6447714
0.31769621 -1.4753724 4.3082843 6447714
0.23946702 -1.4251251 4.3440933 6447714
0.2760773 -1.4247979 4.327538 6447714
0.31904581 -1.4247897 4.3081026 6447714
0.23938105 -1.375121 4.3445563 6447714
0.27621114 -1.3749849 4.3278966 6447714
0.31948194 -1.3750107 4.3083262 6447714
0.23940392 -1.3248501 4.3449678 6447714
0.27612945 -1.3251612 4.3283553 6447714
0.31951213 -1.3251582 4.3087325 6447714
0.24079132 -1.2751714 4.3447609 6447714
0.27615565 -1.2750736 4.3287663 6447714
0.31960937 -1.2751354 4.3091125 6447714
0.24120712 -1.2246547 4.3450017 6447714
0.27618188 -1.2249762 4.3291779 6447714
0.32118401 -1.2250106 4.3088217 6447714
0.23995514 -1.175421 4.3459806 6447714
0.27493626 -1.174589 4.3301663 6447714
0.32139954 -1.175132 4.3091469 6447714
0.23944639 -1.1247437 4.3466425 6513507
0.27448717 -1.1249567 4.33079 6513507
0.32135856 -1.125104 4.309588 6447714
0.24130946 -1.0754063 4.3462148 6513507
0.27451336 -1.0749407 4.3311996 6513507
0.32174221 -1.0748261 4.3098378 6447714
0.24130034 -1.0255324 4.3466392 6513507
0.27455595 -1.0249149 4.331604 6513507
0.32314393 -1.0251069 4.3096256 6447714
0.24141897 -0.97566855 4.3470068 6513507
0.27456537 -0.97488111 4.3320212 6513507
0.32326892 -0.97506988 4.3099914 6447714
0.24154088 -0.92654663 4.3473668 6513507
0.27462476 -0.92483586 4.3324175 6513507
0.32320532 -0.92502433 4.3104424 6447714
0.24312666 -0.87525856 4.3470831 6513507
0.27461752 -0.87478268 4.3328438 6513507
0.32386324 -0.87462032 4.3105721 6447714
0.24314985 -0.82491094 4.3474979 6513507
0.27469379 -0.82471877 4.3332324 6513507
0.32499096 -0.82502866 4.3104801 6513507
0.24317308 -0.77455348 4.3479123 6513507
0.27473634 -0.77476579 4.3336344 6513507
0.32513559 -0.77497351 4.3108373 6513507
0.24356537 -0.72605318 4.3481455 6513507
0.27477902 -0.72480375 4.3340368 6513507
0.32505265 -0.72490811 4.3112969 6513507
-0.85903293 -0.65681589 4.3199439 6513507
-0.84774882 -0.65696031 4.3445411 6513507
0.24497691 -0.67368716 4.3479495 6513507
0.27494001 -0.67495167 4.3343854 6513507
0.32519859 -0.67508876 4.3116522 6513507
0.35095221 -0.66271168 4.300108 6513507
-1.2083004 -0.63441133 4.3288798 6447714
-1.1754706 -0.63432425 4.3252311 5263440
-1.1251386 -0.63423461 4.3246202 7231062
-1.0765116 -0.6341393 4.3230305 8667714
-0.95654744 -0.63396293 4.3258209 6566193
-0.92484993 -0.6338737 4.3217068 6506825
-0.86695021 -0.63857287 4.3217239 6447714
-0.84777325 -0.64257967 4.3446665 6447714
0.24493484 -0.62418056 4.3483863 6513507
0.27474758 -0.62497103 4.3348951 6513507
0.32511401 -0.62525916 4.3121123 6513507
0.35097823 -0.62356514 4.300427 6513507
0.24508752 -0.57565218 4.3487277 6513507
0.27477369 -0.57474077 4.3353076 6513507
0.32514474 -0.57529306 4.3125196 6513507
0.35101137 -0.57373393 4.3008327 6513507
0.24552275 -0.53002906 4.3489156 6513507
0.27468306 -0.52461851 4.3357725 6513507
0.32517564 -0.52531719 4.3129277 6513507
0.35104451 -0.52389348 4.301239 6513507
0.24682604 -0.4756352 4.3487859 6513507
0.27472565 -0.47460741 4.3361735 6513507
0.32520634 -0.47533175 4.3133359 6513507
0.35251144 -0.4710058 4.3010216 6513507
0.24684963 -0.42522958 4.3492007 6513507
0.27476823 -0.42458722 4.3365784 6513507
0.32523715 -0.42533734 4.3137441 6513507
0.35282904 -0.42410773 4.3012743 6513507
-1.0573466 -0.35185528 4.311173 6513507
0.24687316 -0.3748143 4.3496161 6513507
0.27476004 -0.37467575 4.3370037 6513507
0.32526788 -0.37533292 4.3141537 6513507
0.35286236 -0.37424794 4.3016806 6513507
-1.517446 -0.32542378 4.3397856 6447714
-1.4740322 -0.32536545 4.3390069 6447714
-1.4252093 -0.32529977 4.3381324 6447714
-1.3764063 -0.32523417 4.3372569 6447714
-1.3258165 -0.32516617 4.3363509 6447714
-1.284276 -0.32511032 4.3356061 6513507
-1.2012386 -0.3249988 4.3341184 6447714
-1.1741745 -0.32496244 4.3336339 3026478
-1.1236693 -0.32489452 4.3327284 2039583
-1.0631981 -0.33375198 4.3174624 5855577
0.24689001 -0.3387979 4.3499126 6513507
0.27485311 -0.32487795 4.3373823 6513507
0.32529873 -0.32531938 4.3145604 6513507
0.35289574 -0.32437879 4.3020868 6513507
0.27497992 -0.27519295 4.3377457 6513507
0.32532951 -0.27529627 4.3149705 6513507
0.35456353 -0.2738885 4.3017592 6513507
0.27526054 -0.22574702 4.3380342 6513507
0.32536033 -0.22526367 4.3153801 6513507
0.35468045 -0.22457163 4.3021226 6513507
0.27509844 -0.17603275 4.3385301 6513507
0.32539111 -0.17522159 4.3157873 6513507
0.35471389 -0.17468326 4.3025289 6513507
0.27623242 -0.12617539 4.3384366 6513507
0.32542199 -0.12517002 4.3161964 6513507
0.35490757 -0.12424492 4.3028669 6513507
0.27678394 -0.075491965 4.3386154 6513507
0.32545283 -0.07510896 4.3166046 6513507
0.35649863 -0.074864648 4.3025641 6513507
0.27681035 -0.025166105 4.3390293 6513507
0.32548368 -0.025038434 4.3170152 6513507
0.35653237 -0.024956984 4.3029709 6513507
0.27683663 0.025169294 4.3394423 6513507
0.32551447 0.025041588 4.3174233 6513507
0.35656595 0.024960125 4.3033781 6513507
-0.06770651 0.076616451 4.3008189 10197915
-0.024953412 0.076648906 4.3026409 10197915
0.024969844 0.0766868 4.3047681 10197915
0.074942484 0.07672473 4.3068976 10197915
0.1249646 0.076762713 4.3090296 10197915
0.17503624 0.076800711 4.3111625 7763574
0.2251575 0.076838769 4.3132987 6513507
0.27771944 0.064576678 4.3360882 6513507
0.32551059 0.064389579 4.3173532 6513507
0.35659245 0.064187057 4.3036976 6513507
0.18977039 -1.9501166 4.3625131 6447714
-2.8891435 -1.9242928 4.3531575 2039583
0.1933974 -1.9253025 4.3608255 6447714
0.20729449 -1.924101 4.3544302 6447714
-2.8892941 -1.8756965 4.3533831 2039583
0.19332765 -1.8754678 4.361239 6447714
0.20836645 -1.8739808 4.3543687 6447714
-2.8894496 -1.8252956 4.3536181 2039583
0.19334273 -1.8250188 4.361578 6447714
0.20925635 -1.8250132 4.3543806 6447714
-2.8896053 -1.7748888 4.3538527 2039583
0.19336121 -1.7745943 4.3619957 6447714
0.20938267 -1.7749702 4.3547454 6447714
-2.8897612 -1.7244771 4.3540869 2039583
0.19337976 -1.7241598 4.3624139 6447714
0.2091897 -1.7252207 4.3552532 6447714
-2.8899167 -1.6740593 4.3543215 2039583
0.19331162 -1.6743021 4.3628659 6447714
0.21039024 -1.6742957 4.3551412 6447714
-2.890043 -1.6245254 4.3546124 2039583
0.1934161 -1.6250637 4.363235 6447714
0.21106388 -1.6251773 4.3552513 6447714
-2.8904407 -1.5730982 4.3543234 2039583
0.19352067 -1.5758176 4.3636026 6447714
0.21112035 -1.5750637 4.3556499 6447714
-2.8911381 -1.5288143 4.3532906 2039583
0.19345254 -1.5259312 4.3640552 6447714
0.21114039 -1.5249407 4.3560619 6447714
0.19347107 -1.4754492 4.3644733 6447714
0.21251278 -1.4743112 4.3558707 6447714
0.1934896 -1.4249574 4.3648906 6447714
0.21302439 -1.4250149 4.3560543 6447714
0.19350812 -1.3744559 4.3653107 6447714
0.21296518 -1.374842 4.3565049 6447714
0.19352667 -1.323945 4.3657274 6447714
0.2129855 -1.3248831 4.3569179 6447714
0.1934561 -1.2746089 4.3661761 6447714
0.21448261 -1.2748698 4.3566637 6447714
0.19364919 -1.2259202 4.3664999 6447714
0.21476138 -1.2252127 4.3569579 6447714
0.19358101 -1.1759641 4.3669543 6447714
0.21481001 -1.175184 4.3573575 6447714
0.19359957 -1.1254152 4.3673716 6513507
0.21485865 -1.1251466 4.3577595 6513507
0.19361809 -1.0748566 4.3677893 6513507
0.21667817 -1.0750029 4.357358 6513507
0.19363667 -1.0242879 4.3682084 6513507
0.21672431 -1.0249152 4.3577604 6513507
0.19356847 -0.97429109 4.3686614 6513507
0.21677025 -0.97481918 4.3581634 6513507
0.19376163 -0.92555267 4.3689871 6513507
0.21675192 -0.92460275 4.3585949 6513507
0.19369107 -0.87613899 4.3694353 6513507
0.21841426 -0.87504137 4.3582635 6513507
0.19370963 -0.82553238 4.3698564 6513507
0.21845777 -0.82505608 4.3586645 6513507
0.19372822 -0.77491599 4.3702736 6513507
0.21852483 -0.77506191 4.3590574 6513507
0.19374682 -0.72429001 4.3706942 6513507
0.21917842 -0.72458255 4.3591871 6513507
-0.83531183 -0.65712106 4.3716507 6513507
0.19367856 -0.67423362 4.3711457 6513507
0.22051959 -0.675116 4.3589988 6513507
-1.2155427 -0.63487399 4.3800173 6184542
-1.1752636 -0.6347875 4.3778577 7549490
-1.1243192 -0.63469678 4.3772321 9777457
-1.0823232 -0.63460881 4.375236 9842993
-0.96265066 -0.63442534 4.3771462 6566193
-0.92522973 -0.63433754 4.3742924 6501428
-0.87527168 -0.63425291 4.3741708 6446686
-0.83584398 -0.64075071 4.3742166 6447714
0.19387183 -0.62544501 4.3714728 6513507
0.2203276 -0.62490773 4.359509 6513507
0.19380122 -0.57597226 4.3719211 6513507
0.22023247 -0.57453924 4.3599768 6513507
0.19381987 -0.52530813 4.3723416 6513507
0.22095697 -0.52416188 4.3600769 6513507
0.19383846 -0.47463426 4.3727598 6513507
0.22215299 -0.47504792 4.3599501 6513507
0.19385707 -0.4239507 4.3731818 6513507
0.22245188 -0.42549512 4.3602338 6513507
0.193875 -0.37506795 4.3735857 6513507
0.22231241 -0.37564105 4.3607178 6513507
-1.5075427 -0.32590595 4.3947773 6513507
-1.47457 -0.32586154 4.3941789 6447714
-1.4251263 -0.32579502 4.3932815 6447714
-1.3757032 -0.32572845 4.3923836 6447714
-1.3244708 -0.32565948 4.3914537 6447714
-1.2915461 -0.32561517 4.3908558 6513507
-1.2092766 -0.32550448 4.3893633 5789784
-1.174558 -0.32545775 4.3887339 2039583
-1.1252369 -0.32539135 4.3878384 2039583
-1.0850639 -0.32533729 4.3871088 2039583
0.19389299 -0.32617614 4.3739905 6513507
0.22325572 -0.32473123 4.3607221 6513507
0.19391155 -0.27546403 4.3744092 6513507
0.22400063 -0.27460751 4.3608079 6513507
0.19393018 -0.22474211 4.3748298 6513507
0.22402218 -0.22404326 4.3612261 6513507
0.19394879 -0.17401055 4.3752503 6513507
0.22358534 -0.17434625 4.3618431 6513507
0.19396676 -0.1250816 4.3756557 6513507
0.22452168 -0.12562218 4.3618312 6513507
0.25050697 -0.11894555 4.3501334 6513507
0.19398476 -0.076143488 4.376061 6513507
0.224085 -0.075906627 4.3624473 6513507
0.25052744 -0.075698547 4.3504896 6513507
0.19400333 -0.025383331 4.3764811 6513507
0.22410639 -0.025304366 4.3628659 6513507
0.25055137 -0.025234994 4.3509054 6513507
0.194022 0.025386583 4.3769016 6513507
0.2241279 0.025307594 4.3632836 6513507
0.25057533 0.025238201 4.3513207 6513507
-2.0053458 0.073938124 4.3529348 795200
-1.9735178 0.073961906 4.3543348 728380
-1.9239693 0.073998913 4.356513 1647933
-1.8743714 0.07403595 4.3586946 7368816
-1.824724 0.074073039 4.3608775 5335947
-1.7750264 0.074110158 4.3630629 2899797
-1.7252791 0.074147299 4.3652496 9934743
-1.6754819 0.074184492 4.3674397 3955066
-1.6291976 0.07421907 4.3694749 7700362
-1.5240058 0.074297637 4.3741002 1523049
-1.4757929 0.074333653 4.3762212 8488329
-1.425745 0.074371032 4.3784208 4941445
-1.3756467 0.074408449 4.3806248 7239294
-1.3254979 0.074445903 4.3828287 10000536
-1.2896485 0.074472688 4.3844056 8620949
-1.2088888 0.074533001 4.3879571 1721979
-1.1747488 0.074558504 4.3894587 2245480
-1.1243976 0.074596107 4.3916717 5135985
-1.084802 0.074625686 4.3934131 10197915
-0.96582144 0.074714541 4.3986449 1256262
-0.94235307 0.07473208 4.3996773 1058884
0.19403598 0.06347011 4.3772173 6513507
0.224144 0.063272633 4.3635979 6513507
0.25205764 0.064591497 4.3509827 6513507
-1.9679736 -0.80312639 4.442349 1190469
-1.9276386 -0.8033427 4.4241276 9343897
-1.8891157 -0.80327314 4.4136014 11711154
-1.9672995 -0.77507442 4.4422827 1322568
-1.9262329 -0.77505815 4.4237318 9475483
-1.8891016 -0.77481967 4.4137788 11711154
-1.9674885 -0.7249468 4.44279 1322568
-1.9261291 -0.7249952 4.4241076 5988454
-1.8890948 -0.72498041 4.4144788 7039851
-1.9681594 -0.6747852 4.4435167 1322824
-1.9268427 -0.6749202 4.4248533 5330780
-1.8892444 -0.6751554 4.4147367 6447714
-1.6691768 -0.65844536 4.4418521 2039583
-1.6397386 -0.65781021 4.4283509 2039583
-0.81173015 -0.65722018 4.4230561 6447714
-1.9661442 -0.6258561 4.4430199 1256519
-1.9269199 -0.62499976 4.4253082 5330524
-1.8896109 -0.62504488 4.414968 6447714
-1.6659967 -0.64350951 4.4405127 2039583
-1.6390615 -0.64168131 4.4281721 2039583
-1.2231191 -0.6353578 4.4335165 5393484
-1.1750511 -0.63526201 4.4317813 9580592
-1.1253209 -0.63517338 4.4311619 9842993
-1.0900848 -0.63509053 4.4284501 9842993
-0.96897447 -0.63490659 4.4305811 6566193
