# .PCD v0.7 - Point Cloud Data file format
VERSION 0.7
FIELDS x y z rgb
SIZE 4 4 4 4
TYPE F F F U
COUNT 1 1 1 1
WIDTH 1161
HEIGHT 1
VIEWPOINT 0 0 0 1 0 0 0
POINTS 1161
DATA ascii
-0.77483797 0.10946141 1.2231787 10197915
-0.72493154 0.10959645 1.2248292 10197915
-0.67403716 0.10973927 1.2250873 10197915
-0.62508702 0.10988757 1.222254 10197915
-0.57505679 0.11002288 1.2239404 10197915
-0.52500206 0.11015928 1.22532 10197915
-0.47492486 0.11029563 1.2267466 10197915
-0.42565995 0.11044452 1.2240067 10197915
-0.37487289 0.11058648 1.2244103 10197915
-0.32407948 0.11072751 1.2250874 10197915
-0.27500987 0.11087693 1.2220389 10197915
-0.2250614 0.1110125 1.2235759 10197915
-0.17499071 0.11114871 1.2250342 10197915
-0.12489773 0.11128481 1.2265314 10197915
-0.07638628 0.11142519 1.2255809 10197915
-0.025099793 0.111575 1.2241796 10197915
0.025564093 0.11171489 1.2250664 9013641
0.061446775 0.11182761 1.2218759 6513507
-1.0102105 0.10858384 1.2829306 9934743
-0.97487986 0.10871529 1.2740334 10066329
-0.9249658 0.10885115 1.2754666 10197915
-0.87506056 0.10898667 1.2769881 10197915
-0.82411486 0.10912907 1.2773777 10197915
-0.77487326 0.10927934 1.2742536 10197915
-0.72639519 0.10941946 1.2733366 10197915
-0.67506635 0.1095708 1.2715521 10197915
-0.62500554 0.10970668 1.2730649 10197915
-0.57508105 0.10984147 1.2748199 10197915
-0.52503234 0.10997787 1.2762107 10197915
-0.47512242 0.11011297 1.2778414 10197915
-0.42441016 0.11026873 1.2743052 10197915
-0.37495205 0.11040566 1.2750655 10197915
-0.32572052 0.11055613 1.2718879 10197915
-0.2750259 0.11069773 1.2722982 10197915
-0.22495963 0.11083312 1.2739799 10197915
-0.17490333 0.11096901 1.2755101 10197915
-0.12498806 0.11110438 1.2770972 10197915
-0.073632263 0.11125597 1.2752423 10197915
-0.025020583 0.11139619 1.2744091 10197915
0.024104992 0.11153366 1.2747836 9276813
0.062949769 0.1116545 1.2716509 6513507
-1.0566618 0.10826167 1.3365196 9934743
-1.0230265 0.10840355 1.3233593 10000536
-0.97493505 0.10853989 1.323207 10132122
-0.92483568 0.10867571 1.3247929 10197915
-0.8748762 0.10881087 1.3264368 10197915
-0.82506526 0.10894544 1.3281513 10197915
-0.77573407 0.10908124 1.3291581 10197915
-0.72308868 0.10925699 1.321541 10197915
-0.67484111 0.10939749 1.3203586 10197915
-0.62501496 0.10953288 1.3218486 10197915
-0.57506514 0.1096676 1.3236188 10197915
-0.52512759 0.10980294 1.3252138 10197915
-0.47506744 0.10993834 1.3268865 10197915
-0.42488152 0.1100746 1.3284216 10197915
-0.37601286 0.11021025 1.3290769 10197915
-0.32417944 0.11038934 1.3198977 10197915
-0.27494052 0.11052543 1.3207247 10197915
-0.22501445 0.11066101 1.3222387 10197915
-0.1751017 0.11079571 1.3239902 10197915
-0.12506656 0.11093171 1.3254732 10197915
-0.075048581 0.11106659 1.3272634 10197915
-0.025043579 0.11120228 1.3288126 10197915
0.024844088 0.11134851 1.327306 9276813
0.0643638 0.11148795 1.319492 6513507
-1.1040781 0.10792609 1.3931006 9934743
-1.0709862 0.10807758 1.3768176 9934743
-1.0250444 0.10821442 1.3748273 10132122
-0.97513956 0.10834965 1.376426 10197915
-0.92589104 0.1084846 1.3775806 10197915
-0.87521374 0.10864408 1.3729898 10197915
-0.8250497 0.10877963 1.374701 10197915
-0.77417654 0.10892124 1.3752784 10197915
-0.72516716 0.10907391 1.3712695 10197915
-0.67515618 0.10920855 1.3731228 10197915
-0.62502527 0.10934539 1.3744414 10197915
-0.57504803 0.10947967 1.3763707 10197915
-0.52494913 0.1096148 1.3781496 10197915
-0.47540328 0.1097706 1.3736891 10197915
-0.42464036 0.10991068 1.3745998 10197915
-0.3737123 0.11005452 1.3745986 10197915
-0.32520869 0.1102036 1.371187 10197915
-0.27513102 0.1103389 1.3729103 10197915
-0.22507261 0.11047481 1.3744394 10197915
-0.17503144 0.11061 1.3761605 10197915
-0.12501226 0.11074439 1.3780752 10197915
-0.076421179 0.11089186 1.3752035 10197915
-0.02486112 0.11104006 1.3744773 10197915
0.026541833 0.11118759 1.373805 9211020
0.06588988 0.11130757 1.3713207 6513507
-1.1166625 0.10777559 1.4253628 9934743
-1.0750716 0.10790075 1.423205 10000536
-1.0250528 0.10803565 1.4249847 10197915
-0.97491211 0.10817087 1.4267682 10197915
-0.92421311 0.10831111 1.4275918 10197915
-0.87509453 0.10846645 1.4229254 10197915
-0.82512975 0.10860154 1.4246061 10197915
-0.77503663 0.10873636 1.4264663 10197915
-0.72516513 0.10889571 1.4212753 10197915
-0.67482066 0.10903278 1.4227064 10197915
-0.6249069 0.10916825 1.4242355 10197915
-0.57486868 0.10930247 1.4262254 10197915
-0.52490073 0.10943772 1.4278693 10197915
-0.47452676 0.10959833 1.422714 10197915
-0.42521074 0.1097327 1.4240962 10197915
-0.3753759 0.10986731 1.4257989 10197915
-0.32690823 0.11000778 1.4247917 10197915
-0.27491596 0.11016462 1.4219798 10197915
-0.22491838 0.11029961 1.4237218 10197915
-0.17499736 0.11043438 1.4254612 10197915
-0.12514748 0.11056896 1.4271988 10197915
-0.073675416 0.11072706 1.4236141 10197915
-0.025058188 0.11086499 1.4234378 10197915
0.025099011 0.11100042 1.4251771 9474192
0.067688949 0.11111394 1.4270705 6513507
-1.1653004 0.10742562 1.4850311 9934743
-1.1263999 0.10757834 1.4729961 9934743
-1.0749309 0.10773759 1.4690918 10132122
-1.0250779 0.10787094 1.471174 10197915
-0.97509801 0.10800644 1.4727578 10197915
-0.92499763 0.10814047 1.4748498 10197915
-0.87496686 0.10827564 1.4765598 10197915
-0.8252151 0.10840963 1.478387 10197915
-0.7753365 0.10854393 1.4802183 10197915
-0.72493553 0.10870685 1.4744464 10197915
-0.67692637 0.10885 1.472313 10197915
-0.62499797 0.10900525 1.4698991 10197915
-0.57516301 0.10913952 1.4717096 10197915
-0.52520162 0.10927415 1.473525 10197915
-0.47512019 0.10940908 1.4753445 10197915
-0.42511356 0.10954381 1.4771613 10197915
-0.37478441 0.10967942 1.47899 10197915
-0.32300034 0.10983313 1.4768946 10197915
-0.27508715 0.1099758 1.4748318 10197915
-0.22651498 0.11012673 1.4709641 10197915
-0.17505187 0.11027347 1.4705684 10197915
-0.12504362 0.11040786 1.472491 10197915
-0.0749112 0.11054343 1.4741683 10197915
-0.024862818 0.11067836 1.4759647 10197915
0.024903003 0.1108125 1.4777542 9605778
0.069060616 0.11093052 1.4796365 6513507
-1.2120754 0.10710086 1.5391004 9934743
-1.1751052 0.10723159 1.5316961 9934743
-1.122763 0.10741623 1.5213541 10066329
-1.0749857 0.10756255 1.5181602 10197915
-1.0248967 0.10769675 1.5201973 10197915
-0.97489029 0.10783069 1.5222356 10197915
-0.92475635 0.10796601 1.5239984 10197915
-0.87470198 0.10810059 1.525898 10197915
-0.82514644 0.1082338 1.5277749 10197915
-0.77525717 0.10836796 1.5296717 10197915
-0.72483242 0.10850351 1.5315852 10197915
-0.67335081 0.10868698 1.5208952 10197915
-0.6250959 0.10883192 1.5184603 10197915
-0.57506025 0.10896702 1.5201975 10197915
-0.52510911 0.10910039 1.5223498 10197915
-0.47503355 0.10923559 1.5240911 10197915
-0.42504105 0.10937009 1.5259649 10197915
-0.37492824 0.10950494 1.5278491 10197915
-0.32489851 0.10963948 1.5297233 10197915
-0.27516887 0.10977328 1.5315903 10197915
-0.22475743 0.1099548 1.5205919 10197915
-0.17490044 0.11010314 1.5184916 10197915
-0.12472154 0.11023717 1.5206301 10197915
-0.074836917 0.11037195 1.5223433 10197915
-0.025043847 0.11050597 1.5241916 10197915
0.025084626 0.11064088 1.5260519 9671571
0.070687957 0.1107625 1.5280576 6513507
-1.2586418 0.10680055 1.5864599 9934743
-1.2237614 0.10694106 1.5746717 9934743
-1.1748772 0.1070748 1.5758789 9934743
-1.1248351 0.10724128 1.5688146 10132122
-1.0750452 0.10737438 1.5709213 10197915
-1.0251303 0.10750891 1.5727295 10197915
-0.97508842 0.1076432 1.5746946 10197915
-0.92492235 0.1077784 1.576508 10197915
-0.87484866 0.10791168 1.5787835 10197915
-0.82506889 0.10804587 1.5805807 10197915
-0.77508378 0.1082129 1.5733178 10197915
-0.72513348 0.10834617 1.5754986 10197915
-0.67432511 0.10851204 1.5692133 10197915
-0.62520158 0.10864729 1.5701841 10197915
-0.57516688 0.10878058 1.5724325 10197915
-0.52500683 0.10891639 1.574073 10197915
-0.47472626 0.1090503 1.5763314 10197915
-0.42474779 0.10918509 1.5781157 10197915
-0.37486595 0.10931904 1.5800523 10197915
-0.32728979 0.10946397 1.5770857 10197915
-0.27501994 0.1096185 1.5751445 10197915
-0.22370853 0.10978402 1.5693499 10197915
-0.1751709 0.10991905 1.5699216 10197915
-0.12524398 0.11005321 1.5718375 10197915
-0.075191163 0.11018769 1.5737587 10197915
-0.025019743 0.11032253 1.5756838 10197915
0.025060438 0.11045709 1.5776062 9803157
0.072207011 0.11058259 1.5797451 6513507
-1.3010564 0.1064994 1.6373636 9934743
-1.2696689 0.1066343 1.6243707 9934743
-1.2248623 0.10677255 1.6210769 9934743
-1.1750689 0.10690655 1.6229345 10066329
-1.1249334 0.10704148 1.6248027 10197915
-1.0748888 0.10717431 1.6271765 10197915
-1.024938 0.10730935 1.6288676 10197915
-0.97607589 0.10746741 1.6232325 10197915
-0.92511147 0.10761088 1.6233555 10197915
-0.87508255 0.10774492 1.6253814 10197915
-0.82428461 0.10788193 1.6271896 10197915
-0.77467334 0.1080481 1.6198816 10197915
-0.72500843 0.10818058 1.6220486 10197915
-0.67500329 0.10831585 1.6237214 10197915
-0.62487161 0.10844965 1.6259022 10197915
-0.57505673 0.10858317 1.6279038 10197915
-0.52643728 0.10871807 1.6285713 10197915
-0.4751907 0.10888468 1.6224265 10197915
-0.42530096 0.10901849 1.6244208 10197915
-0.37495899 0.10915393 1.6263045 10197915
-0.32282603 0.10931785 1.6216084 10197915
-0.27508888 0.1094554 1.6208442 10197915
-0.2249998 0.10958975 1.6228334 10197915
-0.17501448 0.10972323 1.6249863 10197915
-0.12490641 0.10985823 1.62681 10197915
-0.074895635 0.109993 1.6286221 10197915
-0.027474359 0.11013301 1.6269057 10197915
0.024889184 0.11029348 1.6233755 9934743
0.073398419 0.11042365 1.6252912 6513507
-1.319276 0.10628191 1.6839345 9934743
-1.2774456 0.1064344 1.6742958 9934743
-1.2251415 0.10659449 1.6708175 10000536
-1.1750501 0.10672895 1.6727802 10132122
-1.1248318 0.10686278 1.6750225 10197915
-1.0751638 0.10699611 1.6769634 10197915
-1.0253721 0.10712875 1.6791919 10197915
-0.97412115 0.10729939 1.6719272 10197915
-0.92508286 0.10743397 1.6730233 10197915
-0.87533492 0.10756706 1.675096 10197915
-0.82501298 0.10770167 1.6771975 10197915
-0.7772817 0.10784604 1.6745049 10197915
-0.72488195 0.1080057 1.6712313 10197915
-0.67482704 0.10814015 1.6731647 10197915
-0.6249947 0.10827252 1.6755071 10197915
-0.57504052 0.1084072 1.6772966 10197915
-0.5232299 0.10855521 1.6768173 10197915
-0.47522822 0.1087103 1.6713316 10197915
-0.42520252 0.10884424 1.6733909 10197915
-0.37505749 0.1089785 1.6754546 10197915
-0.3250142 0.10911248 1.6775146 10197915
-0.27771294 0.10925495 1.6750163 10197915
-0.22505902 0.10941576 1.6716175 10197915
-0.17471947 0.10955056 1.673677 10197915
-0.12495024 0.10968485 1.6754339 10197915
-0.075062864 0.10981745 1.6777542 10197915
-0.022530576 0.10998028 1.6736858 10197915
0.025170352 0.11012191 1.6717364 10000536
0.074896671 0.11025449 1.6739397 6513507
0.10042004 0.11025137 1.6950477 6513507
-1.3636959 0.10598348 1.7324862 9934743
-1.3248174 0.10610035 1.7304993 9934743
-1.2726259 0.10626461 1.7257549 9934743
-1.2252054 0.10640571 1.7237414 10132122
-1.175028 0.10653894 1.7261124 10197915
-1.1273216 0.10668937 1.7216982 10197915
-1.0748662 0.10684563 1.7194173 10197915
-1.024858 0.10697918 1.7215668 10197915
-0.97507393 0.10711268 1.7235534 10197915
-0.92516816 0.10724542 1.7258508 10197915
-0.87513494 0.10737959 1.7278485 10197915
-0.82498074 0.107513 1.7301573 10197915
-0.7725268 0.10767864 1.7252487 10197915
-0.7252115 0.10781852 1.7234874 10197915
-0.67511213 0.10795238 1.7256265 10197915
-0.62716848 0.10809042 1.7248707 10197915
-0.57476324 0.10825852 1.7192296 10197915
-0.52483952 0.10839196 1.7213484 10197915
-0.47515053 0.10852528 1.7233064 10197915
-0.4249793 0.10865939 1.7254355 10197915
-0.37504402 0.10879223 1.7277068 10197915
-0.32498032 0.10892667 1.7296799 10197915
-0.27228835 0.10909215 1.7249942 10197915
-0.2248839 0.10923143 1.7234585 10197915
-0.17512183 0.10936595 1.7251499 10197915
-0.12591596 0.10949831 1.7270007 10197915
-0.075125329 0.10967072 1.7188779 10197915
-0.024951482 0.10980435 1.7211303 10197915
0.024991956 0.10993792 1.7232239 10132122
0.074695177 0.1100714 1.7251538 6513507
0.10125663 0.11013433 1.7285448 6513507
-1.409211 0.10567241 1.7837056 9934743
-1.3750927 0.10580529 1.7734531 9934743
-1.3249609 0.10593826 1.775856 9934743
-1.2750596 0.10607127 1.7780851 10000536
-1.2250394 0.10620571 1.7799864 10197915
-1.1748888 0.1063382 1.7825595 10197915
-1.1227791 0.10650821 1.7761365 10197915
-1.0750352 0.10664523 1.7755105 10197915
-1.0256793 0.10681596 1.7667272 10197915
-0.9750331 0.10695335 1.7683095 10197915
-0.92490673 0.10708697 1.7705193 10197915
-0.87501413 0.10722061 1.772553 10197915
-0.82500148 0.10735338 1.7749242 10197915
-0.77485925 0.10748772 1.7769681 10197915
-0.72495663 0.10761962 1.779502 10197915
-0.67493618 0.10775419 1.781374 10197915
-0.62246531 0.107912 1.778669 10197915
-0.57509655 0.10806105 1.7743659 10197915
-0.52724552 0.10820054 1.7731528 10197915
-0.47484341 0.10836928 1.7673327 10197915
-0.4248392 0.10850273 1.7695088 10197915
-0.37508115 0.10863493 1.7718383 10197915
-0.32519537 0.10876865 1.7738457 10197915
-0.27519444 0.10890151 1.7761859 10197915
-0.22543107 0.1090343 1.7783521 10197915
-0.17518087 0.109169 1.7803746 10197915
-0.12385371 0.10931046 1.7813538 10197915
-0.074936181 0.10947744 1.7732539 10197915
-0.025009256 0.10960913 1.7758548 10197915
0.023234781 0.10976851 1.7693665 10197915
0.075114325 0.10991742 1.7686797 6513507
0.10306787 0.10998583 1.7716373 6513507
-1.4526398 0.10538463 1.8300378 9934743
-1.4222376 0.10550242 1.8210658 9934743
-1.3751332 0.10563504 1.8211825 9934743
-1.3251127 0.10576746 1.8236547 9934743
-1.2749696 0.1059015 1.8257762 10132122
-1.2246971 0.10603462 1.8282607 10197915
-1.1750365 0.10616738 1.8303547 10197915
-1.1252506 0.10629918 1.8328224 10197915
-1.074968 0.10643295 1.8351284 10197915
-1.0268687 0.1066176 1.8214328 10197915
-0.9749831 0.10678668 1.815107 10197915
-0.92463094 0.10692009 1.8175607 10197915
-0.87488651 0.10705319 1.8196318 10197915
-0.82502335 0.1071853 1.822069 10197915
-0.77503037 0.10731905 1.824151 10197915
-0.72491997 0.10745184 1.8265997 10197915
-0.67505187 0.1075846 1.8288568 10197915
-0.62543637 0.10771737 1.8309213 10197915
-0.57494909 0.10785114 1.8333881 10197915
-0.52219683 0.10801266 1.8298602 10197915
-0.4772723 0.108175 1.8199147 10197915
-0.42469144 0.10833782 1.8158916 10197915
-0.37512013 0.10846927 1.8182834 10197915
-0.32504854 0.1086027 1.8205202 10197915
-0.27485418 0.10873646 1.8227623 10197915
-0.22492026 0.10887013 1.8248144 10197915
-0.17485185 0.10900292 1.827229 10197915
-0.12504503 0.10913693 1.8290904 10197915
-0.075120546 0.10926869 1.8316842 10197915
-0.025067344 0.10940204 1.8339201 10197915
0.026267152 0.10957557 1.8259115 10197915
0.07265085 0.10973115 1.8190008 6710886
0.10421874 0.10982757 1.8169616 6513507
-1.4685444 0.10519403 1.8709147 9934743
-1.4249498 0.10532255 1.8693997 9934743
-1.3751765 0.10545542 1.8715527 9934743
-1.3248967 0.10558898 1.8739225 10066329
-1.2748727 0.1057211 1.8764741 10197915
-1.2250942 0.10585333 1.8788205 10197915
-1.174816 0.10598754 1.8809963 10197915
-1.1247864 0.10612044 1.8833483 10197915
-1.07575 0.10625142 1.8854526 10197915
-1.0204397 0.1064704 1.8678372 10197915
-0.97493315 0.10660967 1.8648186 10197915
-0.92471987 0.10674381 1.8669631 10197915
-0.87475264 0.10687667 1.8692805 10197915
-0.82504636 0.10700808 1.8717874 10197915
-0.7748313 0.10714156 1.8741225 10197915
-0.72487718 0.10727505 1.8762481 10197915
-0.67479521 0.10740747 1.8787738 10197915
-0.62459129 0.10754159 1.8809104 10197915
-0.57503122 0.10767266 1.8834124 10197915
-0.52534854 0.10780543 1.8855245 10197915
-0.47221223 0.1080177 1.8680545 10197915
-0.42453587 0.10816404 1.8647711 10197915
-0.37516123 0.10829468 1.867229 10197915
-0.32527688 0.10842739 1.8695174 10197915
-0.27488956 0.10856216 1.8716348 10197915
-0.22514679 0.10869379 1.8741102 10197915
-0.17528351 0.10882714 1.8762033 10197915
-0.12529908 0.10895942 1.8786904 10197915
-0.075190067 0.10909344 1.8807945 10197915
-0.02496217 0.10922635 1.883293 10197915
0.025002673 0.10935929 1.8855854 10197915
0.075191341 0.10955771 1.86968 6776679
0.10543878 0.10965977 1.8650082 6513507
-1.5129458 -0.85664546 1.9294742 2039583
-1.4879891 -0.8598097 1.9435978 2039583
-1.5143315 -0.82502842 1.9288517 2039583
-1.4886669 -0.82494503 1.9433942 2039583
-1.5141196 -0.77479398 1.9292309 2039583
-1.4886445 -0.77546161 1.943661 2039583
-1.5140346 -0.7249794 1.9295371 2039583
-1.4889476 -0.72495687 1.9437506 2039583
-1.5141829 -0.67495805 1.9297103 2039583
-1.4890889 -0.67496532 1.943929 2039583
-1.5143158 -0.62501848 1.9298936 2039583
-1.4892287 -0.62496465 1.9441071 2039583
-1.5144668 -0.5750702 1.9300659 2039583
-1.4897617 -0.5752576 1.9440629 2039583
-1.5145695 -0.52505118 1.9302659 2039583
-1.4900701 -0.5250566 1.9441468 2039583
-1.5147499 -0.47496182 1.9304229 2039583
-1.4901919 -0.4751184 1.9443357 2039583
-1.5148559 -0.42495477 1.9306216 2039583
-1.4904011 -0.42527905 1.9444743 2039583
-1.5147462 -0.37477067 1.930943 2039583
-1.4907718 -0.37546492 1.9445215 2039583
-1.5146189 -0.3250213 1.9312704 2039583
-1.4906293 -0.32501376 1.9448637 2039583
-1.514739 -0.27508339 1.9314597 2039583
-1.4907748 -0.274883 1.9450387 2039583
-1.5149275 -0.22504869 1.9316125 2039583
-1.4912176 -0.22520629 1.945045 2039583
-1.51494 -0.17500487 1.9318633 2039583
-1.4915831 -0.17486492 1.945098 2039583
-1.5151139 -0.12500954 1.9320233 2039583
-1.4917204 -0.12491494 1.945277 2039583
-1.5153985 -0.074803032 1.9321208 2039583
-1.4918931 -0.075056188 1.945438 2039583
-1.5154209 -0.024816852 1.9323671 2039583
-1.4925587 -0.024983197 1.9453187 2039583
-1.5153219 0.025043068 1.9326794 2039583
-1.4924712 0.024540871 1.9456248 2039583
-1.5152631 0.074795224 1.9329711 2039583
-1.4922739 0.074977249 1.9459964 2039583
-1.5138509 0.10287169 1.9303625 5131854
-1.4813095 0.10403224 1.9298003 7763574
-1.4248716 0.10513322 1.9225918 9934743
-1.375222 0.1052656 1.924788 9934743
-1.3250552 0.10539857 1.9272195 10132122
-1.2751566 0.10553013 1.9298502 10197915
-1.2251239 0.10566353 1.9320641 10197915
-1.1749747 0.10579571 1.9347064 10197915
-1.1275439 0.10595963 1.9262892 10197915
-1.0740432 0.10611805 1.9242259 10197915
-1.0252147 0.10629052 1.9145212 10197915
-0.97527432 0.10642231 1.9171147 10197915
-0.92558831 0.10655414 1.91949 10197915
-0.87538964 0.10668807 1.9216819 10197915
-0.82507038 0.10682086 1.9242945 10197915
-0.77501118 0.10695367 1.9266874 10197915
-0.72522479 0.10708657 1.9288526 10197915
-0.67531133 0.10721824 1.9314529 10197915
-0.62527639 0.10735177 1.9336296 10197915
-0.57912523 0.10748702 1.9322479 10197915
-0.5247674 0.10766615 1.9250544 10197915
-0.47424468 0.10784589 1.9146562 10197915
-0.42515728 0.10797857 1.9163252 10197915
-0.37480494 0.10811082 1.9191135 10197915
-0.32512909 0.10824426 1.9210337 10197915
-0.27531886 0.10837655 1.9233812 10197915
-0.22499266 0.10850946 1.9259647 10197915
-0.17454377 0.10864419 1.9281312 10197915
-0.12476788 0.10877563 1.9306896 10197915
-0.074868366 0.10890888 1.9328293 10197915
-0.024851192 0.10904101 1.9353993 10197915
0.024719063 0.10922042 1.924336 10197915
0.077578776 0.1093998 1.9158915 6710886
0.10711148 0.10948589 1.9151298 6513507
-1.4631293 -0.86294222 1.957667 2039583
-1.4241802 -0.86786103 1.9797091 2039583
-1.3944565 -0.87162685 1.9965293 2039583
-1.4632235 -0.82498866 1.9578098 2039583
-1.425045 -0.82489359 1.9794406 2039583
-1.3944907 -0.8255111 1.996747 2039583
-1.4635285 -0.77487296 1.9578952 2039583
-1.4247488 -0.77498829 1.9798661 2039583
-1.3941863 -0.77509803 1.9971815 2039583
-1.4640507 -0.72500581 1.9578561 2039583
-1.4249067 -0.72500128 1.9800367 2039583
-1.3947923 -0.72566545 1.9970934 2039583
-1.4641891 -0.67494154 1.9580369 2039583
-1.4249657 -0.67502528 1.9802592 2039583
-1.3950208 -0.67507356 1.9972252 2039583
-1.4643371 -0.62499708 1.9582109 2039583
-1.425164 -0.62500167 1.980407 2039583
-1.3951527 -0.62496889 1.9974085 2039583
-1.464896 -0.57479388 1.958154 2039583
-1.4252952 -0.5749684 1.9805894 2039583
-1.3954066 -0.57546204 1.997522 2039583
-1.4651597 -0.52492964 1.9582617 2039583
-1.4254104 -0.52500176 1.9807816 2039583
-1.3960427 -0.52488166 1.9974232 2039583
-1.4653122 -0.47492382 1.9584332 2039583
-1.4255116 -0.47506478 1.9809828 2039583
-1.3961442 -0.47503662 1.9976231 2039583
-1.4652957 -0.42462984 1.9587023 2039583
-1.4254433 -0.42517373 1.9812788 2039583
-1.3962445 -0.42518181 1.9978231 2039583
-1.4655762 -0.37500265 1.9588004 2039583
-1.4251328 -0.37491345 1.981715 2039583
-1.3966224 -0.37649453 1.9978592 2039583
-1.4656897 -0.32497972 1.9589927 2039583
-1.4247314 -0.32501993 1.9822011 2039583
-1.396549 -0.32467395 1.9981687 2039583
-1.4658628 -0.27497691 1.959154 2039583
-1.4249054 -0.27501047 1.98236 2039583
-1.3966622 -0.27486154 1.998361 2039583
-1.4663576 -0.22482286 1.9591326 2039583
-1.4250488 -0.22497146 1.9825348 2039583
-1.3967906 -0.22520842 1.9985458 2039583
-1.4666389 -0.17501272 1.9592305 2039583
-1.4251595 -0.17501985 1.9827316 2039583
-1.3974385 -0.17606571 1.9984316 2039583
-1.4668074 -0.12503596 1.9593922 2039583
-1.4253528 -0.12507717 1.9828798 2039583
-1.3976427 -0.12502573 1.9985806 2039583
-1.4670979 -0.075169422 1.9594859 2039583
-1.4252567 -0.074952073 1.983192 2039583
-1.3977736 -0.07452549 1.9987675 2039583
-1.4676406 -0.025164505 1.9594355 2039583
-1.4256825 -0.024920357 1.9832095 2039583
-1.3980256 -0.026144948 1.9988736 2039583
-1.4672962 0.025282111 1.9598923 2039583
-1.42532 0.024832837 1.9836718 2039583
-1.3986237 0.024842722 1.9987979 2039583
-1.4674788 0.075209647 1.9600457 2039583
-1.4250748 0.074969947 1.9840685 2039583
-1.3987379 0.074264742 1.9989882 2039583
-1.4664447 0.10271695 1.9604534 4802889
-1.4242043 0.10305689 1.9808984 5723991
-1.3772663 0.10478814 1.9827293 9474192
-1.325223 0.10519703 1.9836365 10132122
-1.2781562 0.10535818 1.9757121 10197915
-1.2252494 0.10551261 1.9742961 10197915
-1.1751943 0.10564513 1.9767755 10197915
-1.1235676 0.10582899 1.9660993 10197915
-1.0746952 0.1059626 1.9673328 10197915
-1.0250237 0.10609336 1.9700017 10197915
-0.9752267 0.10622609 1.9722242 10197915
-0.92530876 0.10635745 1.9749055 10197915
-0.87526214 0.10649082 1.9771405 10197915
-0.82509619 0.10662287 1.9798337 10197915
-0.77520204 0.10675502 1.9822878 10197915
-0.72628236 0.10688895 1.9834796 10197915
-0.67431188 0.10707338 1.9729124 10197915
-0.62440622 0.1072056 1.9753492 10197915
-0.57015353 0.10738035 1.9693041 10197915
-0.52496547 0.10751972 1.9659903 10197915
-0.47545224 0.1076502 1.9686202 10197915
-0.42541024 0.10778286 1.9710463 10197915
-0.37484527 0.10791771 1.9732747 10197915
-0.32455361 0.10805107 1.9757053 10197915
-0.27495554 0.10818093 1.9785709 10197915
-0.22524269 0.10831437 1.9805195 10197915
-0.17539795 0.10844649 1.9829358 10197915
-0.12877691 0.10858134 1.9820365 10197915
-0.075228706 0.10876159 1.9738834 10197915
-0.025376044 0.10889381 1.9762832 10197915
0.024834279 0.10907686 1.9646951 10197915
0.074982785 0.10920917 1.9673178 6974058
0.10891173 0.10929684 1.9695975 6513507
-1.3558221 -0.90149397 2.0182655 2039583
-1.3200226 -0.90601587 2.0385258 2039583
-1.3690987 -0.87436908 2.0108836 2039583
-1.3250682 -0.87500483 2.0358279 2039583
-1.3695799 -0.82505894 2.0108647 2039583
-1.3257658 -0.82497627 2.0356898 2039583
-1.369705 -0.77501571 2.0110528 2039583
-1.3258924 -0.77499479 2.0358765 2039583
-1.3703251 -0.72488958 2.0109603 2039583
-1.3259797 -0.72502494 2.0360856 2039583
-1.3702143 -0.67483747 2.0112817 2039583
-1.3260094 -0.67531097 2.036325 2039583
-1.3700902 -0.62501472 2.0116096 2039583
-1.3262572 -0.62500721 2.0364461 2039583
-1.3703326 -0.57489973 2.0117309 2039583
-1.3263699 -0.57503963 2.036638 2039583
-1.3709564 -0.52499348 2.0116358 2039583
-1.3264948 -0.52504015 2.0368257 2039583
-1.3710892 -0.47493866 2.0118182 2039583
-1.3269931 -0.47514728 2.0368032 2039583
-1.3712063 -0.42496949 2.0120099 2039583
-1.3274171 -0.42497683 2.0368195 2039583
-1.371634 -0.37483552 2.0120256 2039583
-1.327444 -0.37497374 2.0370634 2039583
-1.3720245 -0.32499796 2.0120621 2039583
-1.3276041 -0.32500759 2.0372295 2039583
-1.3721738 -0.27500904 2.0122354 2039583
-1.3282238 -0.27512679 2.0371368 2039583
-1.3723259 -0.22498821 2.0124078 2039583
-1.3284938 -0.22499946 2.0372422 2039583
-1.3725479 -0.17481397 2.0125411 2039583
-1.3281037 -0.17507069 2.0377204 2039583
-1.3726023 -0.12501644 2.0127664 2039583
-1.3281829 -0.12496786 2.037935 2039583
-1.3726373 -0.075056456 2.0130048 2039583
-1.3287697 -0.07508675 2.0378599 2039583
-1.3729273 -0.024892665 2.0130999 2039583
-1.329025 -0.025183251 2.0379732 2039583
-1.3734905 0.025019722 2.0130389 2039583
-1.3291609 0.025161901 2.0381544 2039583
-1.3736184 0.075065285 2.0132263 2039583
-1.3293386 0.074850023 2.0383117 2039583
-1.3736876 0.10259403 2.0133276 4868682
-1.3284185 0.10289983 2.0359433 5789784
-1.2729224 0.1052257 2.0170281 10066329
-1.224565 0.10535807 2.018199 10132122
-1.1746161 0.10548925 2.0209744 10197915
-1.1249417 0.10562053 2.0234904 10197915
-1.075143 0.10575219 2.0260127 10197915
-1.0248194 0.10588607 2.0283134 10197915
-0.97476983 0.10601839 2.0308475 10197915
-0.92501241 0.10614901 2.0336149 10197915
-0.87495804 0.10633529 2.021023 10197915
-0.82490957 0.10646767 2.0235393 10197915
-0.77473569 0.10660035 2.0260611 10197915
-0.72187942 0.10675251 2.0252473 10197915
-0.67490983 0.10691694 2.0163176 10197915
-0.62514442 0.10704949 2.018559 10197915
-0.57525575 0.10718063 2.0212908 10197915
-0.52524257 0.10731383 2.0235448 10197915
-0.47510862 0.10744562 2.0262887 10197915
-0.42526194 0.10757752 2.0287752 10197915
-0.37488195 0.1077117 2.0310457 10197915
-0.32478738 0.10784428 2.0335369 10197915
-0.2754837 0.10802351 2.0223041 10197915
-0.22470222 0.10816136 2.0238581 10197915
-0.17460842 0.10829398 2.0263395 10197915
-0.12010782 0.10846788 2.0207319 10197915
-0.074768074 0.10861104 2.0164888 10197915
-0.025090534 0.10874178 2.0191782 10197915
0.02513146 0.10887478 2.0216484 10197915
0.075051136 0.10900787 2.0238554 7039851
0.11037846 0.10909846 2.0264254 6513507
-1.2727344 -0.91203058 2.0652874 2039583
-1.2297837 -0.91743165 2.0895951 2039583
-1.3002659 -0.85099047 2.0500035 2039583
-1.2750642 -0.87502623 2.064158 2039583
-1.2309836 -0.87515402 2.0891349 2039583
-1.3003294 -0.82470232 2.0501034 2039583
-1.2751766 -0.82502061 2.0643535 2039583
-1.2315792 -0.82500434 2.0890541 2039583
-1.3004497 -0.77466351 2.0502934 2039583
-1.2752789 -0.77500647 2.0645533 2039583
-1.2316643 -0.77496886 2.089263 2039583
-1.3005705 -0.72461528 2.0504837 2039583
-1.2753752 -0.72500539 2.0647573 2039583
-1.2317905 -0.7249527 2.0894547 2039583
-1.3009946 -0.67133331 2.0505188 2039583
-1.2752588 -0.67483342 2.0650804 2039583
-1.231908 -0.67541897 2.0896413 2039583
-1.3014349 -0.62523204 2.0505068 2039583
-1.2749802 -0.62498528 2.0654962 2039583
-1.2320213 -0.6250065 2.0898366 2039583
-1.3015555 -0.57516474 2.0506971 2039583
-1.2751037 -0.57498038 2.0656846 2039583
-1.2321259 -0.57497168 2.090034 2039583
-1.301676 -0.52508837 2.0508871 2039583
-1.2752516 -0.52498668 2.0658619 2039583
-1.2322617 -0.52496004 2.0902171 2039583
-1.3022275 -0.47263885 2.0508459 2039583
-1.2753574 -0.47500512 2.0660586 2039583
-1.2327538 -0.47524929 2.0901904 2039583
-1.3020008 -0.42397451 2.0512254 2039583
-1.2749362 -0.42508379 2.0665543 2039583
-1.2331114 -0.42502013 2.0902534 2039583
-1.3020377 -0.37480316 2.0514579 2039583
-1.2749472 -0.37501478 2.0668063 2039583
-1.2332408 -0.37499532 2.0904341 2039583
-1.3021424 -0.32489786 2.0516567 2039583
-1.2750875 -0.32498831 2.0669854 2039583
-1.2333721 -0.32506174 2.09062 2039583
-1.3028439 -0.27410546 2.0515218 2039583
-1.275161 -0.27497262 2.0672016 2039583
-1.2339952 -0.27522847 2.0905218 2039583
-1.3030233 -0.22524516 2.051672 2039583
-1.2753671 -0.22494881 2.0673432 2039583
-1.2342027 -0.22501993 2.0906653 2039583
-1.303144 -0.17511243 2.0518615 2039583
-1.2753726 -0.17493756 2.0675988 2039583
-1.2343291 -0.17500809 2.0908532 2039583
-1.3033669 -0.12439701 2.0519981 2039583
-1.2753143 -0.12482517 2.0678906 2039583
-1.2343373 -0.12541811 2.0911014 2039583
-1.3040107 -0.074806049 2.0518889 2039583
-1.2751608 -0.074828729 2.0682347 2039583
-1.2345786 -0.075337246 2.0912306 2039583
-1.3041317 -0.02465404 2.0520797 2039583
-1.2750891 -0.024851706 2.0685329 2039583
-1.234672 -0.025126813 2.0914304 2039583
-1.3042508 0.02465703 2.0522671 2039583
-1.2752059 0.024854759 2.0687234 2039583
-1.2347867 0.025129942 2.0916224 2039583
-1.3043542 0.076640904 2.0524766 2039583
-1.2752314 0.074665353 2.0689671 2039583
-1.2350293 0.075198554 2.0917499 2039583
-1.3044382 0.1028927 2.0525646 5592405
-1.2735574 0.10289366 2.0682571 5855577
-1.2295444 0.10387541 2.0846646 7566195
-1.1751853 0.10526911 2.0822992 10000536
-1.1248668 0.10545676 2.0695071 10132122
-1.0747702 0.10558898 2.0721021 10197915
-1.0245481 0.10572153 2.0747035 10197915
-0.97503984 0.1058522 2.0772674 10197915
-0.92540872 0.10598321 2.079838 10197915
-0.87505591 0.10617162 2.0668588 10197915
-0.8251375 0.10630438 2.0691602 10197915
-0.77508789 0.10643561 2.0719979 10197915
-0.72491962 0.10656902 2.0743113 10197915
-0.67504221 0.10670072 2.076875 10197915
-0.62504864 0.10683085 2.0799763 10197915
-0.57493305 0.10696507 2.0820205 10197915
-0.52844274 0.10711934 2.0755723 10197915
-0.47462425 0.1072851 2.0717006 10197915
-0.42535937 0.10741526 2.074214 10197915
-0.37512198 0.10754799 2.076777 10197915
-0.32476097 0.10768104 2.0793464 10197915
-0.2748045 0.10786778 2.0665426 10197915
-0.22499089 0.10800038 2.0688047 10197915
-0.17506883 0.10813142 2.0715933 10197915
-0.12544312 0.1082626 2.0741065 10197915
-0.075268291 0.10839615 2.0763862 10197915
-0.024975117 0.10852816 2.0791945 10197915
0.025015667 0.10866032 2.0817261 10197915
0.071117222 0.10879657 2.0800202 7368816
0.11151888 0.10894424 2.0706093 6513507
-1.156553 -0.95166832 2.1309087 2039583
-1.1460993 -0.95300919 2.1368246 2039583
-1.205819 -0.92053193 2.1031566 2039583
-1.1746306 -0.923922 2.1208088 2039583
-1.1464078 -0.92490947 2.136795 2039583
-1.2055571 -0.87426394 2.1035438 2039583
-1.1748468 -0.87507635 2.1209393 2039583
-1.1465244 -0.87488598 2.1369872 2039583
-1.206069 -0.82491636 2.1035075 2039583
-1.1749177 -0.82502276 2.1211576 2039583
-1.1465905 -0.82502812 2.1372063 2039583
-1.2062241 -0.77505511 2.103678 2039583
-1.175022 -0.77500468 2.1213574 2039583
-1.146708 -0.77498543 2.1373987 2039583
-1.2063022 -0.72500908 2.1038926 2039583
-1.1751367 -0.72497702 2.1215501 2039583
-1.1468524 -0.72475898 2.1375763 2039583
-1.2067218 -0.67431992 2.1039159 2039583
-1.1752243 -0.67498749 2.1217582 2039583
-1.1469299 -0.67487305 2.1377902 2039583
-1.2072121 -0.62503183 2.1038928 2039583
-1.1753819 -0.62498933 2.1219273 2039583
-1.1470157 -0.62515461 2.1379981 2039583
-1.2072904 -0.57508552 2.1041069 2039583
-1.1754391 -0.57498223 2.1221528 2039583
-1.1471324 -0.57507557 2.138191 2039583
-1.2074267 -0.52497119 2.1042871 2039583
-1.1754516 -0.52493495 2.1224041 2039583
-1.1478268 -0.52598464 2.1380508 2039583
-1.2079591 -0.47451797 2.1042471 2039583
-1.1749986 -0.47499758 2.1229184 2039583
-1.147355 -0.47488961 2.1385822 2039583
-1.2082666 -0.42506993 2.1043279 2039583
-1.1751225 -0.42497537 2.1231058 2039583
-1.1474607 -0.42531335 2.1387782 2039583
-1.2084228 -0.37504914 2.1044974 2039583
-1.1752561 -0.37501323 2.1232896 2039583
-1.1475511 -0.37513208 2.1389861 2039583
-1.2085215 -0.32489058 2.1047006 2039583
-1.1752633 -0.32505926 2.123544 2039583
-1.1476904 -0.32466257 2.1391678 2039583
-1.2084564 -0.27468583 2.1049967 2039583
-1.1747392 -0.27498198 2.1241 2039583
-1.1477803 -0.27475792 2.1393747 2039583
-1.2087519 -0.22506705 2.1050847 2039583
-1.1749264 -0.22496314 2.1242509 2039583
-1.1478858 -0.22514483 2.1395702 2039583
-1.2089064 -0.17512619 2.1052556 2039583
-1.174988 -0.17500518 2.1244745 2039583
-1.1479911 -0.17552269 2.1397672 2039583
-1.2089653 -0.12473513 2.1054833 2039583
-1.1751198 -0.12511086 2.1246555 2039583
-1.1480983 -0.12500496 2.139967 2039583
-1.2097336 -0.075009033 2.1053038 2039583
-1.1750904 -0.074919425 2.1249316 2039583
-1.1482056 -0.074477844 2.1401677 2039583
-1.2098441 -0.025295803 2.1054986 2039583
-1.1754124 -0.024844483 2.1250088 2039583
-1.148311 -0.024827978 2.1403637 2039583
-1.2099583 0.025298962 2.105695 2039583
-1.1755197 0.024847565 2.125205 2039583
-1.1484168 0.024831019 2.1405609 2039583
-1.2101685 0.075225621 2.1058333 2039583
-1.1754354 0.074917324 2.1255116 2039583
-1.148522 0.074499145 2.1407573 2039583
-1.2107862 0.10206306 2.1056216 4671303
-1.1747084 0.10287181 2.1254995 6052956
-1.1283045 0.10484936 2.1206923 9276813
-1.0752363 0.10541504 2.1205428 10000536
-1.0255544 0.10554594 2.1231763 10066329
-0.97532064 0.10567931 2.1255589 10132122
-0.92496437 0.10581102 2.1285081 10197915
-0.87490827 0.10594289 2.1311617 10197915
-0.82929444 0.1060919 2.1254945 10197915
-0.77545977 0.10626418 2.1198206 10197915
-0.72542274 0.10639611 2.1224523 10197915
-0.6752612 0.10652834 2.1250904 10197915
-0.62497485 0.10666091 2.1277351 10197915
-0.57456309 0.10679383 2.1303866 10197915
-0.52189189 0.10698219 2.1192615 10197915
-0.47498757 0.10711415 2.1193953 10197915
-0.42502293 0.10724697 2.1217177 10197915
-0.37494114 0.10737808 2.1246171 10197915
-0.3247281 0.10751154 2.1269517 10197915
-0.27527741 0.10764096 2.1298184 10197915
-0.22569416 0.10777277 2.1321199 10197915
-0.17466916 0.10796459 2.1187212 10197915
-0.12478913 0.10809624 2.1213048 10197915
-0.074786574 0.10822822 2.1238945 10197915
-0.024662498 0.10836051 2.1264908 10197915
0.024702033 0.1084908 2.1290479 10197915
0.079074912 0.10866556 2.123085 7105644
0.11317582 0.10878118 2.1176598 6513507
-1.1543969 0.10502679 2.1667652 10000536
-1.124707 0.10510488 2.1683762 10000536
-1.0748414 0.10523606 2.171082 10000536
-1.0248518 0.10536754 2.1737952 10000536
-0.97473645 0.10549936 2.1765149 10000536
-0.92449635 0.10563152 2.1792412 10000536
-0.87501442 0.10576169 2.1819265 10066329
-0.82181662 0.10594935 2.1714115 10197915
-0.77540332 0.10608584 2.169889 10197915
-0.72551078 0.1062161 2.1728764 10197915
-0.67548263 0.10634883 2.1752682 10197915
-0.62534386 0.10647974 2.1782691 10197915
-0.57551581 0.10661086 2.1809523 10197915
-0.5281114 0.10677902 2.1713278 10197915
-0.47447753 0.10693832 2.1691222 10197915
-0.42467383 0.10706948 2.1717827 10197915
-0.37474781 0.10720097 2.1744492 10197915
-0.32469895 0.10733277 2.1771228 10197915
-0.27452701 0.10746489 2.1798034 10197915
-0.22424826 0.10760159 2.1812854 10197915
-0.17515261 0.10778672 2.1682518 10197915
-0.12500201 0.10791887 2.1709101 10197915
-0.075178847 0.10805123 2.1732438 10197915
-0.02523887 0.10818175 2.1761978 10197915
0.024829671 0.10831477 2.1785436 10197915
0.07501141 0.10844589 2.1815116 7434609
0.1134721 0.10859432 2.1703441 6513507
-1.1696149 0.10478197 2.2233927 2829099
-1.1246201 0.10491545 2.2215862 5329233
-1.0748791 0.10504723 2.2240224 9803157
-1.0250143 0.10517697 2.2271247 10000536
-0.97502345 0.10530941 2.2295732 10000536
-0.92798799 0.10547695 2.2198253 10000536
-0.8744868 0.10563719 2.2172592 10000536
-0.82497942 0.10576725 2.2199898 10000536
-0.7753495 0.10589764 2.2227266 10066329
-0.72469169 0.10603072 2.2255201 10197915
-0.67481464 0.1061618 2.2282705 10197915
-0.6248135 0.10629315 2.2310283 10197915
-0.57468909 0.10642484 2.2337921 10197915
-0.52321273 0.10661851 2.2202477 10197915
-0.47485453 0.10675071 2.2214696 10197915
-0.42476025 0.10688242 2.2242107 10197915
-0.37500635 0.10701437 2.2266076 10197915
-0.32512286 0.10714433 2.2296612 10197915
-0.27931193 0.10729504 2.2236793 10197915
-0.22504199 0.10747141 2.2171986 10197915
-0.17473574 0.10760373 2.2199292 10197915
-0.12430622 0.10773639 2.2226658 10197915
-0.074672095 0.10786696 2.2253594 10197915
-0.024917539 0.1079978 2.2280593 10197915
0.024957893 0.10812902 2.2307661 10197915
0.074954651 0.10826053 2.233479 7500402
0.11712142 0.10842819 2.2198379 6513507
-1.2078607 0.10449931 2.2724171 2039583
-1.1749338 0.1045856 2.2742932 2039583
-1.1254483 0.10471528 2.2771137 4276545
-1.0749196 0.10484771 2.2799933 10000536
-1.0242635 0.10498047 2.2828801 10000536
-0.97440332 0.10511112 2.2857215 10000536
-0.92261428 0.10530856 2.2713568 10000536
-0.87458307 0.10543986 2.2725666 10000536
-0.82523298 0.10557055 2.2749999 10000536
-0.77528811 0.10570148 2.2778354 10000536
-0.72881597 0.10584351 2.274806 10000536
-0.67465621 0.10603163 2.2649288 10066329
-0.62475669 0.10616256 2.2677259 10197915
-0.57473403 0.10629382 2.2705297 10197915
-0.52458727 0.10642543 2.2733407 10197915
-0.47431636 0.10655733 2.2761586 10197915
-0.42485541 0.10668712 2.2789309 10197915
-0.37527296 0.10681725 2.2817104 10197915
-0.32463092 0.10695013 2.2845485 10197915
-0.27122793 0.1071424 2.2729063 10197915
-0.22490251 0.10727783 2.27161 10197915
-0.17477162 0.10741069 2.2740474 10197915
-0.12498156 0.10754146 2.2768152 10197915
-0.07508558 0.10766996 2.2802906 10197915
-0.025320377 0.10786819 2.2640877 10197915
0.025362052 0.10800137 2.2668827 10197915
0.075227365 0.10813237 2.2696321 7566195
0.11765895 0.10824385 2.2719724 6513507
-1.2531013 0.10410081 2.3483777 2039583
-1.2260392 0.10425609 2.3262389 2039583
-1.1757262 0.10444561 2.3129237 2039583
-1.1254001 0.10457732 2.3158405 7237230
-1.0749468 0.10470937 2.3187647 10000536
-1.0253041 0.1048393 2.3216417 10000536
-0.97553718 0.10496957 2.3245261 10000536
-0.92470437 0.10510259 2.3274724 10000536
-0.87468821 0.10523351 2.3303716 10000536
-0.82549381 0.10536227 2.3332229 10000536
-0.7752288 0.10549382 2.3361361 10000536
-0.72055823 0.10568341 2.3262632 10000536
-0.67487741 0.1058276 2.3220031 10000536
-0.62514585 0.10595654 2.3252301 9934743
-0.57527429 0.10608847 2.3277259 10000536
-0.52907413 0.10624526 2.3203452 10132122
-0.47552297 0.10641857 2.3141527 10197915
-0.42523602 0.10655039 2.3170187 10197915
-0.37482521 0.10668249 2.3198917 10197915
-0.32524353 0.1068124 2.3227174 10197915
-0.27554086 0.10694267 2.3255496 10197915
-0.22571686 0.10707324 2.3283892 10197915
-0.17577103 0.10720415 2.3312356 10197915
-0.12570296 0.10733534 2.3340895 10197915
-0.075512141 0.1074669 2.3369496 10197915
-0.024991106 0.10766783 2.3205869 10197915
0.025031703 0.10779905 2.3234138 10197915
0.074686915 0.10793059 2.3258424 7697781
0.11916019 0.10804419 2.3292055 6513507
-1.2639272 0.10392524 2.3890729 2039583
-1.2205353 0.10408764 2.3778808 2039583
-1.1745815 0.10423362 2.3733296 4013373
-1.1243693 0.10436339 2.3767071 10000536
-1.0789679 0.1045179 2.3693197 10000536
-1.0254273 0.10469588 2.3618016 10000536
-0.97575539 0.10482571 2.3647304 10000536
-0.92500126 0.10495835 2.3677232 10000536
-0.8741191 0.10509136 2.3707232 10000536
-0.8250351 0.10521965 2.3736172 10000536
-0.77583039 0.10534824 2.3765185 10000536
-0.72553742 0.10547971 2.3794837 10000536
-0.67511851 0.10561149 2.382457 10000536
-0.62457365 0.10574359 2.3854368 10000536
-0.5748781 0.10587348 2.3883669 10000536
-0.52224052 0.10607035 2.3748305 9934743
-0.47546941 0.10620726 2.3734698 9934743
-0.42534244 0.10633694 2.3767998 10066329
-0.37929335 0.10648688 2.3712153 10132122
-0.32490534 0.10667245 2.3622363 10197915
-0.27435556 0.10680474 2.3651662 10197915
-0.22465639 0.10693483 2.3680465 10197915
-0.17483515 0.10706521 2.3709345 10197915
-0.12489312 0.10719595 2.3738291 10197915
-0.074828193 0.10732698 2.3767309 10197915
-0.024641486 0.10745832 2.3796396 10197915
0.024680948 0.10758741 2.3824983 10197915
0.075112462 0.10771941 2.385421 7829367
0.12169601 0.10784134 2.3881214 6513507
-1.2751317 0.1037434 2.4312005 2039583
-1.2252961 0.10387326 2.4342446 2039583
-1.1753347 0.10400347 2.4372957 8684676
-1.1252488 0.10413401 2.4403548 10000536
-1.0717049 0.10433201 2.4272346 10000536
-1.0251347 0.10447321 2.4245124 10000536
-0.97848701 0.1046117 2.4226234 10000536
-0.92530924 0.10480905 2.4093897 10000536
-0.87548637 0.10493909 2.4123797 10000536
-0.82455957 0.10507201 2.4154348 10000536
-0.77448714 0.1052027 2.4184391 10000536
-0.72527504 0.10533112 2.4213915 10000536
-0.67495435 0.10546247 2.4244113 10000536
-0.6245088 0.10559414 2.4274383 10000536
-0.57492954 0.10572355 2.430413 9934743
-0.52522868 0.10585327 2.4333947 9934743
-0.47540566 0.10598332 2.4363842 9934743
-0.4254601 0.10611366 2.4393809 9934743
-0.37131307 0.10630905 2.4274571 10000536
-0.32537165 0.10645024 2.4242322 10066329
-0.27499887 0.10658329 2.4268134 10197915
-0.22547942 0.1067809 2.4105983 10197915
-0.17486247 0.10691901 2.4119527 10197915
-0.12505241 0.1070492 2.4148896 10197915
-0.075120889 0.10717971 2.4178336 10197915
-0.025067465 0.10731054 2.4207845 10197915
0.025108302 0.10744169 2.423743 10197915
0.075406864 0.10757314 2.4267092 7895160
0.12279869 0.10769702 2.4295034 6513507
-1.3115619 0.10349053 2.4733005 2039583
-1.2748222 0.10358612 2.475585 2039583
-1.2250711 0.10371561 2.4786789 4144959
-1.1751955 0.1038454 2.4817808 10000536
-1.1251948 0.10397549 2.4848902 10000536
-1.0750687 0.10410594 2.488008 10000536
-1.0248169 0.1042367 2.4911327 10000536
-0.97044969 0.10442033 2.482677 10000536
-0.92529249 0.10457704 2.4744885 10000536
-0.87918842 0.10473426 2.4669013 10000536
-0.82406688 0.10491895 2.4587498 10000536
-0.77409506 0.10504918 2.4618013 10000536
-0.72500247 0.10517713 2.4647996 10000536
-0.67578942 0.1053054 2.4678056 10000536
-0.62544858 0.10543659 2.4708803 10000536
-0.57498205 0.1055681 2.4739623 9934743
-0.52438962 0.10569996 2.4770527 9934743
-0.47468662 0.10582951 2.480088 9934743
-0.42486078 0.10595935 2.4831309 9934743
-0.37491336 0.10608952 2.486182 9934743
-0.32484221 0.10622003 2.4892399 10000536
-0.27464867 0.10635084 2.4923055 9934743
-0.22439618 0.10656011 2.4734092 10132122
-0.1749052 0.10668761 2.4768548 10197915
-0.1252173 0.10689729 2.4573956 10197915
-0.075423904 0.10702727 2.4603832 10197915
-0.02550843 0.10715754 2.463378 10197915
0.024527878 0.10728813 2.4663804 10197915
0.074687108 0.10741905 2.4693899 8026746
0.12394031 0.1075476 2.4723446 6513507
-1.3240391 0.10329419 2.5184789 2039583
-1.2755113 0.10342029 2.5215528 2039583
-1.224836 0.10355194 2.5247631 7631988
-1.1750494 0.10368129 2.5279167 10000536
-1.1251374 0.10381097 2.5310786 10000536
-1.0751013 0.10394096 2.5342479 10000536
-1.0249389 0.10407129 2.537426 10000536
-0.97465116 0.10420194 2.5406113 10000536
-0.92526716 0.10433023 2.5437396 10000536
-0.87193882 0.1045351 2.5285239 10000536
-0.829108 0.10469218 2.5183904 10000536
-0.77470875 0.10488754 2.5066869 10000536
-0.72472018 0.10501762 2.5097959 10000536
-0.67460805 0.10514801 2.512912 10000536
-0.62539744 0.10527608 2.5159726 9934743
-0.5750373 0.10540711 2.5191042 9934743
-0.52455258 0.10553849 2.5222442 9934743
-0.47497559 0.10566749 2.5253274 9934743
-0.4252772 0.10579682 2.5284183 9934743
-0.37545705 0.10592648 2.5315163 9934743
-0.32551461 0.10605643 2.5346224 10000536
-0.27544948 0.10618671 2.5377359 10000536
-0.22526123 0.10631732 2.5408571 9934743
-0.17494935 0.10644826 2.5439858 10000536
-0.12443431 0.10666102 2.5243037 10197915
-0.078823745 0.10681333 2.5177028 10197915
-0.024927387 0.10700165 2.5075572 10197915
0.024967769 0.1071317 2.5106046 10197915
0.074984364 0.10726204 2.5136592 8092539
0.12512277 0.10739271 2.5167217 6513507
-1.360624 0.10302937 2.5638163 2039583
-1.324643 0.10312269 2.5661383 2039583
-1.2751974 0.10325094 2.56933 3223857
-1.2256283 0.10337952 2.57253 10000536
-1.1748985 0.1035111 2.5758038 10000536
-1.1240405 0.10364303 2.5790865 10000536
-1.0740943 0.10377258 2.5823102 10000536
-1.0250677 0.10389974 2.5854747 10000536
-0.97592014 0.10402722 2.5886471 10000536
-0.92560244 0.10415774 2.5918949 10000536
-0.87515855 0.10428858 2.5951505 10000536
-0.82040185 0.1044911 2.5817103 10000536
-0.7743063 0.10472245 2.5533023 10000536
-0.72442722 0.10485205 2.5564618 10000536
-0.67442423 0.10498197 2.5596297 9934743
-0.62429744 0.1051122 2.5628045 9934743
-0.57509464 0.10524002 2.5659213 9934743
-0.5257712 0.10536817 2.5690458 9934743
-0.47527468 0.10549938 2.5722449 9934743
-0.42465222 0.10563088 2.5754511 9934743
-0.37496236 0.10575997 2.578599 10000536
-0.32515001 0.10588941 2.5817544 10000536
-0.27521649 0.10601915 2.5849171 10000536
-0.2251596 0.10614919 2.5880888 10000536
-0.1749806 0.10627955 2.5912669 10000536
-0.12467733 0.10641024 2.5944536 9934743
-0.070716359 0.10661149 2.5807512 10132122
-0.02892139 0.1067944 2.5625548 10197915
0.025423763 0.10696966 2.5564473 10197915
0.075292528 0.10709942 2.5595481 8158332
0.1252833 0.1072295 2.5626574 6513507
0.15191811 0.1072988 2.5643134 6513507
-1.3734505 0.10281976 2.6124654 2039583
-1.3242217 0.10294729 2.6157057 2039583
-1.2748709 0.10307508 2.6189523 7105644
-1.2253965 0.10320318 2.6222079 10000536
-1.1747428 0.10333434 2.6255403 10000536
-1.12502 0.1034631 2.6288114 10000536
-1.0751721 0.10359216 2.6320908 10000536
-1.0252008 0.10372157 2.6353788 10000536
-0.97510338 0.1038513 2.6386752 10000536
-0.9248814 0.10398134 2.641979 10000536
-0.8756057 0.10410894 2.6452212 10000536
-0.82728446 0.10423405 2.6483998 10000536
-0.77494729 0.10454848 2.6016188 10000536
-0.72518355 0.1046776 2.604831 10000536
-0.67529768 0.10480696 2.6080511 9934743
-0.62528741 0.10493669 2.6112792 9934743
-0.57515413 0.10506673 2.6145148 9934743
-0.52489549 0.10519709 2.6177585 9934743
-0.47451293 0.10532779 2.6210103 9934743
-0.42508039 0.10545599 2.6242013 10000536
-0.37552756 0.10558452 2.6273997 10000536
-0.32585365 0.10571337 2.6306059 10000536
-0.27497411 0.10584533 2.6338899 10000536
-0.22396824 0.10597764 2.6371818 10000536
-0.17501324 0.10610462 2.640342 10000536
-0.12593992 0.1062319 2.6435096 10000536
-0.075654656 0.10636235 2.6467555 10000536
-0.026211532 0.10659714 2.6200356 10066329
0.024816792 0.10679864 2.6039236 10197915
0.074530438 0.10692781 2.6070728 8355711
0.12436448 0.10705728 2.6102293 6513507
0.15258002 0.10713059 2.6120167 6513507
-1.4123492 0.10253597 2.6612823 2039583
-1.3750478 0.1026324 2.6637843 2039583
-1.3248527 0.10276213 2.6671522 2960685
-1.2756016 0.10288938 2.6704545 10000536
-1.225154 0.10301977 2.6738389 10000536
-1.1745794 0.10315049 2.6772316 10000536
-1.1249559 0.10327876 2.6805611 10000536
-1.0752089 0.10340734 2.6838977 10000536
-1.0253377 0.10353626 2.6872439 10000536
-0.9753418 0.10366548 2.6905978 10000536
-0.92522138 0.10379503 2.6939602 10000536
-0.87497526 0.10392489 2.697331 10000536
-0.83310467 0.10407446 2.6885481 10000536
-0.77453482 0.10437064 2.6518705 10000536
-0.72488916 0.10449918 2.6551363 9934743
-0.67512101 0.10462806 2.6584113 9934743
-0.62523007 0.10475723 2.6616933 9934743
-0.57521582 0.10488675 2.664984 9934743
-0.5250777 0.10501658 2.6682825 9934743
-0.47481525 0.10514672 2.6715896 10066329
-0.42442808 0.10527719 2.6749051 10000536
-0.37501556 0.10540512 2.6781552 10000536
-0.32548198 0.10553341 2.6814148 10000536
-0.27472323 0.10566481 2.6847539 10000536
-0.22494598 0.10579372 2.6880288 10000536
-0.17504629 0.10592294 2.6913116 10000536
-0.12502539 0.10605245 2.6946027 10000536
-0.074881114 0.10618229 2.6979015 10000536
-0.019713182 0.10647101 2.6605923 10000536
0.025287198 0.10662417 2.6532705 10132122
0.0748417 0.1067527 2.6564686 8421504
0.1245167 0.10688154 2.6596754 6513507
0.15437394 0.10695899 2.6616025 6513507
-1.4505575 0.10224689 2.7121038 2039583
-1.4245209 0.10231404 2.7138853 2039583
-1.3745323 0.10244302 2.7173057 2039583
-1.3244172 0.10257231 2.7207355 7105644
-1.2741759 0.10270195 2.7241743 10000536
-1.2249045 0.10282912 2.7275476 10000536
-1.1755095 0.10295656 2.7309277 10000536
-1.1248906 0.10308716 2.7343922 10000536
-1.0752479 0.10321522 2.7377889 10000536
-1.0254813 0.10334363 2.741195 10000536
-0.97448057 0.10347519 2.7446852 10000536
-0.92446351 0.10360425 2.7481081 10000536
-0.89885581 0.10367031 2.7498603 10000536
-0.81692958 0.10407493 2.7012246 10000536
-0.77520466 0.10418279 2.7040246 9934743
-0.72568369 0.10431078 2.7073464 9934743
-0.67493671 0.10444196 2.7107511 9934743
-0.62516969 0.1045706 2.7140896 9934743
-0.57527912 0.10469953 2.7174368 9934743
-0.52526629 0.10482881 2.7207918 10000536
-0.47512883 0.1049584 2.7241554 10197915
-0.42486823 0.10508833 2.7275271 10197915
-0.37560356 0.10521566 2.7308321 10197915
-0.32509515 0.1053462 2.7342207 10066329
-0.27446222 0.10547709 2.7376175 10000536
-0.22483216 0.10560536 2.7409465 10000536
