# .PCD v0.7 - Point Cloud Data file format
VERSION 0.7
FIELDS x y z rgb
SIZE 4 4 4 4
TYPE F F F U
COUNT 1 1 1 1
WIDTH 1169
HEIGHT 1
VIEWPOINT 0 0 0 1 0 0 0
POINTS 1169
DATA ascii
0.37516454 0.1140954 1.1241307 10197915
0.42498738 0.11406901 1.1238035 10197915
0.47497407 0.11404237 1.1235754 10197915
0.52503014 0.11401576 1.1233122 10197915
0.57506222 0.11398916 1.123051 10197915
0.62507224 0.11396261 1.1227551 10197915
0.67515004 0.11393597 1.1224933 10197915
0.72620559 0.11390395 1.1251736 10197915
0.77511388 0.11387522 1.1265745 10197915
0.82509136 0.11384875 1.1262704 10197915
0.87193465 0.11381919 1.1288471 10197915
0.90565723 0.11377279 1.1460137 10197915
-0.95178413 0.11469073 1.1984335 10197915
-0.91978449 0.11470032 1.182053 10197915
-0.87500644 0.11468267 1.1780411 10197915
-0.82503879 0.11465625 1.177691 10197915
-0.77499473 0.11462972 1.1773797 10197915
-0.72507387 0.11460319 1.1771061 10197915
-0.67517352 0.11457666 1.1768346 10197915
-0.62510258 0.11454987 1.1766775 10197915
-0.575055 0.11452352 1.1762494 10197915
-0.52502948 0.11449683 1.1760149 10197915
-0.47502854 0.11447008 1.1758583 10197915
-0.42504942 0.1144437 1.1754692 10197915
-0.37480229 0.11441702 1.1751977 10197915
-0.32477143 0.11439041 1.1749206 10197915
-0.27505866 0.11436398 1.1746501 10197915
-0.22507513 0.1143373 1.1744555 10197915
-0.1750177 0.11431082 1.1741043 10197915
-0.12508193 0.11428409 1.1739476 10197915
-0.075070128 0.11425781 1.1734838 10197915
-0.024986863 0.11423095 1.173363 10197915
0.024979111 0.11420439 1.1730901 10197915
0.075015791 0.11417805 1.172665 10197915
0.12503132 0.11415122 1.1725439 10197915
0.17492589 0.11412483 1.172194 10197915
0.22489403 0.11409826 1.1719236 10197915
0.27493563 0.11407153 1.1717253 10197915
0.32514781 0.1140449 1.1714144 10197915
0.37514424 0.1140184 1.1711006 10197915
0.42501849 0.11399186 1.1708317 10197915
0.47506499 0.11396517 1.1706327 10197915
0.52508664 0.11393864 1.1703229 10197915
0.57508534 0.113912 1.1700863 10197915
0.62538981 0.11387813 1.1741499 10197915
0.67491531 0.11385111 1.1743135 10197915
0.72382671 0.11382018 1.1770462 10197915
0.77494043 0.11378971 1.178785 10197915
0.82495284 0.11376299 1.1785885 10197915
0.87503815 0.11373664 1.1781583 10197915
0.91966695 0.11370602 1.1821153 10197915
0.9514904 0.11366265 1.1980637 10197915
-0.963866 0.11464659 1.2293278 10197915
-0.92493314 0.11463378 1.2242916 10197915
-0.87502205 0.11460723 1.2240634 10197915
-0.82500619 0.11458077 1.2236978 10197915
-0.77501577 0.11455389 1.2236037 10197915
-0.72517455 0.11452769 1.2231582 10197915
-0.67438161 0.1144991 1.2238532 10197915
-0.62503445 0.11446556 1.2280347 10197915
-0.57494318 0.11443911 1.227661 10197915
-0.52487457 0.11441246 1.227419 10197915
-0.47493082 0.11438607 1.2270467 10197915
-0.42501161 0.11435941 1.22685 10197915
-0.37481016 0.11433268 1.2266088 10197915
-0.32473132 0.11430622 1.2262342 10197915
-0.27488178 0.11427975 1.2259512 10197915
-0.22495207 0.11425316 1.2257098 10197915
-0.17494591 0.11422651 1.2254701 10197915
-0.12496066 0.11420018 1.2250526 10197915
-0.075000696 0.11417337 1.2249436 10197915
-0.024961827 0.11414701 1.224527 10197915
0.024954097 0.1141205 1.2242427 10197915
0.074946463 0.11409372 1.2240891 10197915
0.12501669 0.1140675 1.2235878 10197915
0.17506371 0.11404063 1.2234759 10197915
0.22508849 0.11401417 1.2231028 10197915
0.275089 0.11398751 1.2229058 10197915
0.32526809 0.11396098 1.2225349 10197915
0.37522388 0.11393438 1.2222903 10197915
0.42495218 0.1139079 1.2220517 10197915
0.47496027 0.11388163 1.2215945 10197915
0.52504647 0.11385474 1.2214811 10197915
0.57500917 0.1138282 1.2211969 10197915
0.624309 0.11379475 1.2253649 10197915
0.67485172 0.11376642 1.2259617 10197915
0.7248379 0.11373991 1.2256486 10197915
0.77492601 0.11371323 1.2254159 10197915
0.82498896 0.113687 1.2249123 10197915
0.87502944 0.11366016 1.2247889 10197915
0.92504829 0.1136336 1.2245024 10197915
0.96381849 0.11360495 1.2291889 10197915
-1.0121683 0.11457709 1.2876381 10197915
-0.97463053 0.11457758 1.2749577 10197915
-0.92507488 0.11455207 1.2741729 10197915
-0.87503886 0.11452544 1.273926 10197915
-0.82492054 0.11449876 1.2736807 10197915
-0.77493054 0.11447246 1.2732368 10197915
-0.72517771 0.11444592 1.2730412 10197915
-0.67576551 0.11441846 1.2734873 10197915
-0.62487239 0.11438326 1.2781681 10197915
-0.57496029 0.11435649 1.2780575 10197915
-0.52507335 0.11433031 1.2775763 10197915
-0.47494358 0.11430361 1.2773421 10197915
-0.42483607 0.1142771 1.2769815 10197915
-0.37475356 0.11425045 1.2767475 10197915
-0.32482415 0.11422387 1.2764801 10197915
-0.27505267 0.11419747 1.2761869 10197915
-0.22503994 0.1141711 1.2757663 10197915
-0.17504896 0.11414438 1.2755938 10197915
-0.12494994 0.11411785 1.2752662 10197915
-0.075005159 0.11409145 1.2749069 10197915
-0.025085254 0.11406486 1.2746738 10197915
0.025077445 0.11403821 1.2743763 10197915
0.074950926 0.11401185 1.2740175 10197915
0.12480288 0.1139853 1.2737848 10197915
0.17489405 0.1139586 1.2735486 10197915
0.22496188 0.11393215 1.273191 10197915
0.2750079 0.11390556 1.272894 10197915
0.32476455 0.11387926 1.272536 10197915
0.3747648 0.11385271 1.2722433 10197915
0.42500141 0.11382598 1.2720045 10197915
0.47495431 0.11379945 1.2717083 10197915
0.5250138 0.11377282 1.2714413 10197915
0.57505006 0.11374641 1.2710547 10197915
0.6250627 0.11371976 1.2708482 10197915
0.67620939 0.11368953 1.2724061 10197915
0.72486901 0.11365736 1.2759826 10197915
0.77490747 0.11363081 1.2756886 10197915
0.82502979 0.11360405 1.2754865 10197915
0.87502259 0.11357784 1.2749925 10197915
0.92499167 0.11355101 1.274891 10197915
0.9745509 0.11352407 1.2749871 10197915
1.0121071 0.11348294 1.2876924 10197915
1.0323303 -0.60157663 1.3480251 1717328
1.0577912 -0.60075355 1.3445405 1783377
1.0342062 -0.57512468 1.3478138 1651791
1.0593417 -0.57502812 1.3443726 1651535
1.0346972 -0.52497715 1.3478329 1849170
1.0594075 -0.52505618 1.3444498 1849169
1.0349531 -0.4751249 1.3478842 1783634
1.0594739 -0.47507846 1.3445276 1783634
1.0353274 -0.42498156 1.3479197 1520206
1.0595151 -0.42503271 1.3446081 1520463
1.0352553 -0.37535554 1.3480154 1323085
1.059182 -0.37470382 1.3447403 1454414
1.035431 -0.32500204 1.3480775 1388878
1.0591359 -0.32481706 1.3448334 1454926
1.0359801 -0.27526492 1.3480892 1454926
1.0591762 -0.27474749 1.3449141 1520719
1.0360848 -0.2251258 1.3481621 1389133
1.059229 -0.2248193 1.3449934 1454670
1.0366294 -0.17482032 1.348173 1586510
1.059341 -0.17509267 1.345064 1586767
1.0367585 -0.1250632 1.3482419 1388876
1.0594094 -0.12530018 1.3451399 1323340
1.0373243 -0.075163081 1.3482498 1323340
1.0594411 -0.075236529 1.345222 1389389
1.0375568 -0.025392724 1.3483042 1389132
1.059503 -0.025080137 1.3453006 1323339
1.0378811 0.025137441 1.3483478 1257033
1.0595645 0.025082072 1.3453772 1257290
1.0383704 0.074937947 1.3483661 1058628
1.0596275 0.075250104 1.3454564 992835
-1.0589434 0.11451251 1.3424243 10197915
-1.0241494 0.11451453 1.3297157 10197915
-0.97495383 0.1144899 1.3285253 10197915
-0.92492408 0.11446314 1.3283573 10197915
-0.87505716 0.11443676 1.3280129 10197915
-0.82521361 0.11441027 1.3277433 10197915
-0.77511573 0.11438375 1.3274004 10197915
-0.72518104 0.1143574 1.3270222 10197915
-0.67526668 0.1143308 1.326786 10197915
-0.62510103 0.11430408 1.3265458 10197915
-0.57509845 0.11427785 1.3260645 10197915
-0.52511698 0.11425117 1.3258619 10197915
-0.47515979 0.1142246 1.3255886 10197915
-0.42508617 0.1141983 1.325145 10197915
-0.37476444 0.11417135 1.3249705 10197915
-0.32473651 0.1141448 1.3246628 10197915
-0.27501091 0.11411868 1.3242173 10197915
-0.22503041 0.11409192 1.324049 10197915
-0.1749379 0.11406543 1.3237066 10197915
-0.12500483 0.11403903 1.3233315 10197915
-0.074959345 0.11401235 1.3231254 10197915
-0.024935989 0.11398586 1.3227832 10197915
0.024928279 0.11395942 1.322476 10197915
0.075041018 0.11393297 1.3221018 10197915
0.12513217 0.11390627 1.3218595 10197915
0.17506199 0.11387975 1.3215866 10197915
0.22496919 0.11385345 1.321178 10197915
0.27485207 0.11382683 1.3209721 10197915
0.3247126 0.11380039 1.3206311 10197915
0.37482494 0.11377383 1.3203592 10197915
0.42504799 0.11374717 1.3200479 10197915
0.47497362 0.11372092 1.3196057 10197915
0.52501512 0.11369421 1.3193984 10197915
0.57503211 0.11366784 1.31899 10197915
0.62502539 0.11364092 1.3189194 10197915
0.67376298 0.11361312 1.3198113 10197915
0.72698295 0.11357106 1.3279244 10197915
0.77494395 0.11354119 1.3303434 10197915
0.824772 0.11351457 1.3301402 10197915
0.87498647 0.11348817 1.3296912 10197915
0.9250412 0.11346149 1.3294827 10197915
0.97493428 0.11343487 1.3292421 10197915
1.0325768 0.10921484 1.3409415 7304831
1.0594162 0.10736901 1.3448352 6121076
0.7940008 -0.61021101 1.3859529 1718096
0.82434928 -0.60792428 1.3764892 1718096
0.87390566 -0.60643011 1.3697063 1783889
0.92341119 -0.60489911 1.3629316 1652305
0.97279048 -0.60337448 1.3561736 1586512
1.0085489 -0.60228956 1.3512799 1652048
0.79419547 -0.57516569 1.385165 1389390
0.82513249 -0.57496095 1.3764386 1455183
0.87496614 -0.57504016 1.3696162 1455183
0.92480397 -0.5749861 1.3627925 1520719
0.97464299 -0.57499051 1.3559687 1586512
1.008864 -0.57481331 1.351284 1586512
0.79423153 -0.52497715 1.3851453 1059400
0.82519418 -0.52495587 1.3765169 1059144
0.87502044 -0.52503175 1.3696946 1124937
0.92485285 -0.52500373 1.3628726 1256779
0.97470051 -0.52500224 1.3560475 1454413
1.0093501 -0.52500021 1.3513038 1783633
0.79425985 -0.47489172 1.3852298 1124937
0.82526731 -0.47498116 1.3765934 1059144
0.87508053 -0.47500581 1.3697739 1124681
0.92494053 -0.47501531 1.3629456 1322572
0.97482061 -0.47499511 1.356118 1388364
1.0096769 -0.47477296 1.3513451 1652561
0.79428554 -0.42501861 1.3853273 1191499
0.82525533 -0.42497665 1.3766807 1191499
0.87508792 -0.42502123 1.369858 1191499
0.92490643 -0.42500889 1.3630377 1257292
0.97475982 -0.42500553 1.3562119 1323085
1.0099707 -0.42499244 1.3513911 1389134
0.79434061 -0.37510526 1.3853538 1125706
0.82531685 -0.37494147 1.3767585 1191498
0.87514162 -0.37505415 1.3699361 1191755
0.92501432 -0.37499747 1.3631095 1257291
0.97491598 -0.37502211 1.3562764 1257292
1.0103304 -0.37467483 1.351429 1322828
0.79408383 -0.32527184 1.3856629 1125706
0.82497329 -0.32485455 1.3768929 1125706
0.87519753 -0.32506955 1.3700161 1125706
0.92506391 -0.32496813 1.363188 1257548
0.97492987 -0.32499748 1.3563612 1323085
1.0106717 -0.32508931 1.3514677 1323341
0.79400897 -0.2749306 1.3858308 1059913
0.82493174 -0.27500188 1.3769842 1059657
0.87525833 -0.27505535 1.3700929 1059657
0.92511177 -0.27499056 1.3632687 1323341
0.97496188 -0.2749806 1.3564426 1389390
1.0110954 -0.27474642 1.3514966 1454927
0.79406112 -0.22499309 1.385915 1059913
0.82488966 -0.22500369 1.3770761 1059913
0.87533385 -0.22500056 1.370169 1059400
0.92527789 -0.22498584 1.3633319 1191755
0.97515637 -0.22502492 1.3565021 1257548
1.0112144 -0.22489156 1.3515668 1388877
0.79409951 -0.17501038 1.3859186 1059912
0.82494122 -0.17496365 1.377156 1059912
0.87540215 -0.17491645 1.3702469 1059400
0.92516267 -0.1750565 1.3634337 1059400
0.97496194 -0.17500585 1.3566152 1454925
1.0118568 -0.17511609 1.3515649 1520718
0.79412961 -0.12487001 1.3859875 861250
0.82506657 -0.12507313 1.3772238 860994
0.87539119 -0.12489657 1.3703349 861251
0.92516303 -0.12508504 1.3635204 927301
0.97527909 -0.12500641 1.3566582 1323596
1.0120163 -0.12464975 1.3516293 1389132
0.79414886 -0.074955612 1.3861183 1191496
0.82516503 -0.075201742 1.3772966 1191753
0.87544125 -0.074942321 1.3704144 1191497
0.92545116 -0.074864887 1.3635674 1191754
0.97506517 -0.07497301 1.3567742 1257803
1.0124304 -0.075036466 1.3516592 1323596
0.79419833 -0.02507681 1.3860902 1191496
0.82511717 -0.025107747 1.3773899 1191753
0.87530559 -0.025103562 1.3705177 1191753
0.92517585 -0.02473882 1.3636916 1191753
0.97539037 -0.024953367 1.3568163 1257546
1.0127435 -0.024942668 1.3517015 1323339
0.79423344 0.025078271 1.3861502 1059911
0.82516545 0.025109706 1.37747 1125960
0.87502211 0.024985271 1.370645 1059141
0.92490035 0.024860803 1.3638147 1125703
0.97544378 0.024943745 1.3568954 1191240
1.0130552 0.025200808 1.3517456 1059399
0.7942515 0.074965648 1.3862958 928069
0.82532197 0.075191662 1.3775353 928326
0.87507212 0.074959725 1.370723 861250
0.92509717 0.07485307 1.3638741 927043
0.97523832 0.074975133 1.3570094 860737
1.0134882 0.075233117 1.3517742 927043
-1.102042 0.11446051 1.3883541 10197915
-1.0715859 0.11446363 1.3764055 10197915
-1.0250424 0.11444192 1.374301 10197915
-0.97509259 0.11441529 1.3740859 10197915
-0.92516792 0.114389 1.3736649 10197915
-0.87507254 0.11436261 1.3732456 10197915
-0.82481194 0.11433564 1.3731285 10197915
-0.7731635 0.11430381 1.3755059 10197915
-0.72520047 0.11427186 1.3791857 10197915
-0.67519051 0.11424553 1.3787519 10197915
-0.62506455 0.11421887 1.3785061 10197915
-0.57510173 0.11419232 1.3782254 10197915
-0.52502072 0.11416603 1.3777523 10197915
-0.47496325 0.11413923 1.3775851 10197915
-0.42492884 0.11411258 1.3773439 10197915
-0.3747752 0.11408634 1.37683 10197915
-0.32478529 0.11405972 1.3765854 10197915
-0.27482137 0.11403333 1.3761913 10197915
-0.22487879 0.11400676 1.3759465 10197915
-0.17510331 0.11398031 1.3756664 10197915
-0.12492351 0.11395375 1.3753487 10197915
-0.074907385 0.11392727 1.3749874 10197915
-0.025060279 0.11390101 1.3745934 10197915
0.025052486 0.11387444 1.3742732 10197915
0.07499662 0.11384766 1.3741455 10197915
0.1249176 0.11382151 1.3736343 10197915
0.17495866 0.11379487 1.3733891 10197915
0.22511744 0.11376821 1.3731099 10197915
0.27511284 0.11374198 1.3726346 10197915
0.32479763 0.11371537 1.3724694 10197915
0.3748889 0.11368888 1.3721136 10197915
0.42509577 0.11366243 1.3717142 10197915
0.47513935 0.11363572 1.3715104 10197915
0.52515793 0.11360926 1.3711492 10197915
0.57515347 0.11358268 1.3708706 10197915
0.62512672 0.11355641 1.370435 10197915
0.67521667 0.11352974 1.3701928 10197915
0.72343802 0.11349966 1.3726341 10197915
0.78591704 0.10944194 1.3817935 7239551
0.82488656 0.10753918 1.3764665 6056309
0.87503737 0.10725699 1.370162 5858417
0.92450172 0.10701085 1.3638496 5792881
0.97540462 0.10681924 1.3570418 5594734
1.0136588 0.10640692 1.3518035 5397612
0.79703695 -0.61925298 1.4247694 1586767
0.80022615 -0.62231886 1.4480748 1455439
0.79673296 -0.57530063 1.422454 1191756
0.80022377 -0.57527304 1.4479501 1125706
0.79674798 -0.52504146 1.4224467 1059144
0.80024493 -0.52489799 1.4479884 1059400
0.79677278 -0.47496206 1.4225127 1125449
0.80026335 -0.47481832 1.4480088 1125449
0.7967943 -0.42495355 1.4225553 1125706
0.80028892 -0.42504114 1.448081 1125962
0.79681271 -0.37497973 1.4225708 1125962
0.80030739 -0.37495631 1.4481015 1191754
0.79683435 -0.32500347 1.4226208 1059913
0.80032617 -0.3248705 1.4481218 1059913
0.79685676 -0.27498692 1.4226677 1059913
0.8003515 -0.27508205 1.4481941 1059913
0.79687303 -0.22493154 1.4226716 1059656
0.80036771 -0.22529221 1.4481971 1059656
0.79689997 -0.1749475 1.4227563 1059655
0.8003909 -0.17519805 1.4482524 993862
0.79691541 -0.12503412 1.4227526 927043
0.80041206 -0.12480186 1.4482903 927043
0.79694182 -0.07504455 1.4228312 1125960
0.80043292 -0.07500302 1.4483281 1126216
0.79695708 -0.02501631 1.4228303 1125960
0.80045366 -0.025201598 1.4483658 1125703
0.79697812 0.025017181 1.4228678 927556
0.80047452 0.02520247 1.4484037 861507
0.79700416 0.075050637 1.4229429 862020
0.80049545 0.075009115 1.4484414 861507
-1.1187971 0.11440153 1.4298487 10197915
-1.0750496 0.11438859 1.4232976 10197915
-1.0249851 0.11436208 1.4229683 10197915
-0.97494894 0.11433586 1.4224668 10197915
-0.92493236 0.11430909 1.4223086 10197915
-0.87494075 0.1142829 1.4218067 10197915
-0.82512146 0.11425604 1.4217774 10197915
-0.77671987 0.11422732 1.4233431 10197915
-0.72518706 0.11419157 1.4281327 10197915
-0.67513162 0.11416509 1.4278044 10197915
-0.62470686 0.11413836 1.427471 10197915
-0.57469839 0.11411171 1.427253 10197915
-0.52491224 0.11408572 1.4266932 10197915
-0.47514945 0.11405896 1.4265941 10197915
-0.4252103 0.11403274 1.4261497 10197915
-0.37490261 0.11400608 1.4258165 10197915
-0.32481149 0.11397937 1.4255979 10197915
-0.2751433 0.11395345 1.4250394 10197915
-0.22509868 0.11392675 1.4248239 10197915
-0.17488427 0.11390013 1.424491 10197915
-0.12508571 0.11387359 1.4242754 10197915
-0.075112 0.11384732 1.4238307 10197915
-0.024967643 0.11382075 1.423498 10197915
0.024959905 0.11379431 1.4231676 10197915
0.075057596 0.11376777 1.4228356 10197915
0.12513502 0.11374126 1.4225037 10197915
0.17499036 0.11371467 1.4222858 10197915
0.22482231 0.11368846 1.4218441 10197915
0.27482998 0.11366198 1.4215122 10197915
0.32481119 0.1136355 1.4211814 10197915
0.37477225 0.11360905 1.4208504 10197915
0.42651656 0.11357393 1.4251903 10197915
0.47487313 0.11354426 1.4273767 10197915
0.5250178 0.11351752 1.4271314 10197915
0.57499075 0.113491 1.4268409 10197915
0.62494195 0.11346462 1.4264662 10197915
0.67486829 0.11343855 1.4259183 10197915
0.72491741 0.11341163 1.4258431 10197915
0.78605729 0.10985668 1.4244666 6516345
0.80050004 0.10652267 1.4484025 1979983
0.80502659 -0.65677249 1.4832153 1586767
0.80382115 -0.62520128 1.474339 1389646
0.80384362 -0.57516575 1.4743873 1059913
0.80386358 -0.52497828 1.4744189 1059657
0.8038891 -0.47497892 1.4744878 1125706
0.80390859 -0.42489955 1.4745185 1191498
0.80392736 -0.37493235 1.4745409 1191754
0.80394876 -0.32496306 1.4745802 1059657
0.8039729 -0.27495158 1.4746432 1059913
0.80398941 -0.22505336 1.4746499 1059656
0.80401331 -0.17507561 1.4747099 927813
0.80403149 -0.12501913 1.4747238 927299
0.80405521 -0.074997701 1.4747846 1125960
0.80407578 -0.024975995 1.4748225 1060167
0.80409706 0.024976874 1.4748623 861506
0.8041181 0.075003773 1.4749 861506
-1.1641439 0.11434195 1.4811097 10197915
-1.124956 0.11432938 1.4758648 10197915
-1.0749807 0.11430313 1.4753956 10197915
-1.025027 0.11427671 1.4750539 10197915
-0.97509819 0.11425006 1.4748409 10197915
-0.92519492 0.11422387 1.4743723 10197915
-0.87510651 0.11419755 1.473906 10197915
-0.82483894 0.11417056 1.4738135 10197915
-0.7747975 0.11414427 1.4733446 10197915
-0.72518986 0.11411801 1.4730054 10197915
-0.6751942 0.11409155 1.472667 10197915
-0.62502062 0.114065 1.4723212 10197915
-0.57507181 0.11403836 1.4721069 10197915
-0.52494389 0.11401221 1.4715137 10197915
-0.47483954 0.1139853 1.4714224 10197915
-0.42495987 0.1139591 1.4709545 10197915
-0.37490296 0.11393261 1.4706151 10197915
-0.32486597 0.11390613 1.4702708 10197915
-0.27485552 0.11387967 1.4699322 10197915
-0.2248649 0.1138532 1.4695877 10197915
-0.17510363 0.11382665 1.4693743 10197915
-0.12495921 0.11380032 1.4689081 10197915
-0.073221624 0.11376569 1.4729795 10197915
-0.025072819 0.11373486 1.4758914 10197915
0.025065018 0.11370837 1.4755472 10197915
0.075023249 0.11368156 1.4754415 10197915
0.12495827 0.11365551 1.4748611 10197915
0.17502412 0.11362884 1.47461 10197915
0.22506653 0.1136025 1.4741737 10197915
0.27508464 0.11357589 1.4739269 10197915
0.3249265 0.11354947 1.473628 10197915
0.37490138 0.11352301 1.4732885 10197915
0.42328978 0.11349133 1.4766424 10197915
0.47508973 0.11345734 1.4803108 10197915
0.52505141 0.11343068 1.4800951 10197915
0.57499057 0.11340466 1.4794941 10197915
0.62490517 0.11337785 1.4794053 10197915
0.67479765 0.11335164 1.4789321 10197915
0.72487223 0.11332516 1.4785895 9671830
0.77492028 0.11329866 1.4782411 4543846
0.80401069 0.10709415 1.4753375 1124933
0.81100219 -0.66661853 1.5268861 1586767
0.81059676 -0.62523103 1.5238255 1192012
0.81061959 -0.57521266 1.5238814 1059657
0.81063622 -0.52503759 1.523891 1191242
0.81065702 -0.47501653 1.5239199 993350
0.81068993 -0.42495328 1.5240484 927045
0.81070286 -0.37496573 1.5240349 993094
0.81072277 -0.3249768 1.5240576 994120
0.81074536 -0.27498406 1.5241086 1059656
0.81076908 -0.2251078 1.5241748 1059655
0.8107872 -0.17507052 1.5241891 927556
0.81080729 -0.12495236 1.5242145 993092
0.81083441 -0.074949764 1.5243019 1125704
0.81084859 -0.024984824 1.5242944 1125703
0.81087065 0.024985692 1.5243353 993604
0.81089813 0.074955851 1.5244212 861506
-1.2106452 0.11427817 1.5353419 10197915
-1.1749763 0.11427734 1.5241009 10197915
-1.1250478 0.11425116 1.5236099 10197915
-1.0749334 0.11422465 1.5232559 10197915
-1.02505 0.11419827 1.5229045 10197915
-0.97498238 0.11417178 1.5225512 10197915
-0.92493391 0.11414533 1.5221982 10197915
-0.87491256 0.11411884 1.5218455 10197915
-0.82512343 0.1140923 1.521633 10197915
-0.77535576 0.11406617 1.5211431 10197915
-0.72540373 0.11403977 1.5207906 10197915
-0.67525971 0.11401303 1.520576 10197915
-0.62493265 0.11398666 1.5200825 10197915
-0.57505023 0.11396027 1.51973 10197915
-0.52518737 0.1139339 1.519379 10197915
-0.47513849 0.11390764 1.5188891 10197915
-0.42490584 0.11388061 1.51881 10197915
-0.37469357 0.11385428 1.5183172 10197915
-0.32492328 0.11382796 1.5179663 10197915
-0.27517948 0.11380165 1.5176154 10197915
-0.2250362 0.11377491 1.5174001 10197915
-0.17491774 0.11374863 1.5169082 10197915
-0.12369008 0.11371787 1.5187787 10197915
-0.076851018 0.11367731 1.5280755 10197915
-0.024973555 0.11364215 1.5324219 10197915
0.024965813 0.11361571 1.5320659 10197915
0.075089835 0.11358923 1.5317085 10197915
0.12519406 0.11356273 1.5313512 10197915
0.17506072 0.11353613 1.531136 10197915
0.22490405 0.11351001 1.5306401 10197915
0.2749384 0.11348354 1.5302835 10197915
0.32494587 0.11345711 1.529927 10197915
0.37493357 0.11343069 1.5295709 10197915
0.4248946 0.11340427 1.5292144 10197915
0.47483566 0.11337785 1.5288583 10197915
0.52496147 0.1133511 1.5286428 10197915
0.57506311 0.11332487 1.5281438 10197915
0.62514484 0.11329836 1.5277863 10197915
0.67498928 0.11327203 1.5274309 10197915
0.72481394 0.11324567 1.5270758 9934744
0.77482486 0.11321899 1.5268613 1124676
0.81016338 0.10749172 1.524838 862018
0.81947374 -0.70541221 1.5888507 1586766
0.81763184 -0.67459178 1.5753287 1389646
0.81761688 -0.62520343 1.5751017 1125706
0.8176257 -0.57518864 1.5750539 1059913
0.81765437 -0.52500147 1.5751491 1257034
0.81767124 -0.47502837 1.5751539 927045
0.81769377 -0.42496571 1.5752065 926788
0.81771386 -0.37490007 1.5752429 927558
0.81773889 -0.32491937 1.575302 1059656
0.81775582 -0.27493486 1.5753117 993607
0.81778193 -0.22507966 1.5753952 1059655
0.81780082 -0.17504689 1.5754136 861507
0.81782132 -0.12496823 1.5754464 993348
0.81784296 -0.075018115 1.5754946 1125960
0.81786263 -0.025022268 1.5755248 1125703
0.81788516 0.025023134 1.575565 993348
0.8179068 0.075024113 1.5756174 862019
-1.2575163 0.11421362 1.5901482 10197915
-1.2233881 0.11421692 1.576885 10197915
-1.1747824 0.11419367 1.5750544 10197915
-1.1249281 0.1141673 1.5746871 10197915
-1.075101 0.11414097 1.5743279 10197915
-1.0248557 0.11411443 1.5739614 10197915
-0.97507471 0.11408812 1.5735948 10197915
-0.92509413 0.11406169 1.5732344 10197915
-0.87492216 0.11403493 1.5730209 10197915
-0.82499117 0.11400876 1.5725044 10197915
-0.77486235 0.1139823 1.5721387 10197915
-0.72519642 0.11395606 1.5717729 10197915
-0.67533153 0.11392968 1.5714136 10197915
-0.62505847 0.11390312 1.5710472 10197915
-0.5750227 0.11387669 1.5706822 10197915
-0.52501321 0.11385 1.5704685 10197915
-0.47502673 0.11382382 1.5699533 10197915
-0.42506048 0.11379743 1.5695888 10197915
-0.3749041 0.11377092 1.5692239 10197915
-0.32476723 0.11374442 1.568858 10197915
-0.27487224 0.11371779 1.568645 10197915
-0.22500364 0.11369171 1.5681309 10197915
-0.17493664 0.11366523 1.5677661 10197915
-0.12650512 0.11363722 1.5688815 10197915
-0.075078778 0.11359791 1.5759146 10197915
-0.025131691 0.11357169 1.5754334 10197915
0.025123857 0.11354513 1.5750651 10197915
0.075024463 0.11351859 1.5748142 10197915
0.12490787 0.11349242 1.5743338 10197915
0.17508855 0.11346552 1.5741957 10197915
0.22524561 0.1134394 1.5735983 10197915
0.27505943 0.11341287 1.573348 10197915
0.32645628 0.11337375 1.5802526 10197915
0.37497959 0.11334559 1.5814317 10197915
0.42511079 0.11331887 1.581216 10197915
0.4749977 0.11329299 1.5805358 10197915
0.52486473 0.1132664 1.5803269 10197915
0.57492757 0.11323995 1.579958 10197915
0.62496281 0.11321327 1.5797426 10197915
0.67497677 0.1131871 1.5792203 10197915
0.72496921 0.11316066 1.5788516 10197915
0.77515227 0.11313415 1.5784819 1913675
0.81608862 0.10797135 1.5765252 993348
0.82474834 -0.71402735 1.6273948 1388874
0.82432419 -0.67494637 1.6242094 1257290
0.82436734 -0.62511653 1.62441 1125448
0.82437515 -0.57512319 1.6243503 1125704
0.82440954 -0.5249247 1.6244878 1190984
0.824417 -0.47498152 1.6244307 927043
0.82443994 -0.42503455 1.624475 926787
0.82447237 -0.37503481 1.6245986 1059142
0.82448691 -0.32498032 1.624597 1059655
0.8245095 -0.27492216 1.6246413 993349
0.82452959 -0.22506946 1.6246744 994118
0.82455415 -0.17505872 1.6247395 927043
0.82457268 -0.12494143 1.6247612 1058884
0.82459027 -0.074977063 1.6247709 1125446
0.82462054 -0.025011793 1.6248822 1125446
0.82464182 0.025012655 1.6249248 927811
0.82465452 0.074983127 1.624898 861505
-1.3061407 0.11414206 1.649783 10197915
-1.2721758 0.11415127 1.6329693 10197915
-1.2250466 0.11413027 1.630241 10197915
-1.1752536 0.11410429 1.6296921 10197915
-1.1250269 0.11407775 1.6293174 10197915
-1.0748278 0.11405125 1.6289343 10197915
-1.0250998 0.11402499 1.6285601 10197915
-0.97494715 0.1139985 1.6281855 10197915
-0.92481345 0.11397202 1.6278028 10197915
-0.87493265 0.11394539 1.627599 10197915
-0.82484692 0.1139195 1.6268824 10197915
-0.77501339 0.11389267 1.6268463 10197915
-0.72542489 0.11386676 1.6262989 10197915
-0.67540723 0.11384032 1.6259263 10197915
-0.62518954 0.1138135 1.6257153 10197915
-0.5749976 0.11378757 1.624999 10197915
-0.52482641 0.11376052 1.6249577 10197915
-0.47490257 0.11373468 1.624243 10197915
-0.42500606 0.11370782 1.6242054 10197915
-0.37490457 0.1136816 1.62366 10197915
-0.3248238 0.1136549 1.6234487 10197915
-0.27499798 0.11362914 1.6227349 10197915
-0.22518878 0.11360224 1.6226975 10197915
-0.17518087 0.11357616 1.6221534 10197915
-0.12497173 0.1135499 1.6216053 10197915
-0.075012878 0.11352298 1.6215646 10197915
-0.025074299 0.11349686 1.6210214 10197915
0.025066506 0.11347037 1.6206428 10197915
0.074958645 0.11344376 1.6204331 10197915
0.12482452 0.11341798 1.6197213 10197915
0.17489374 0.11339122 1.6195127 10197915
0.22494134 0.11336482 1.6191351 10197915
0.27496067 0.11333813 1.6189233 10197915
0.3229408 0.11330249 1.6248524 10197915
0.37487033 0.1132701 1.6274911 10197915
0.42499918 0.11324386 1.6269848 10197915
0.47510761 0.11321716 1.6267307 10197915
0.52519071 0.11319093 1.6262248 10197915
0.57525122 0.11316431 1.625971 10197915
0.62495416 0.11313804 1.6255939 10197915
0.67496461 0.11311186 1.6250886 10197915
0.72495794 0.11308526 1.624835 10197915
0.77492297 0.1130591 1.6243303 2834261
0.8219099 0.10796013 1.6248815 927811
0.83343071 -0.7533524 1.6909031 1454154
0.83113956 -0.72341877 1.6740978 1388104
0.83098441 -0.67499894 1.6728507 1322568
0.83102578 -0.62511587 1.6730421 1322568
0.83103365 -0.5750652 1.6729901 1322312
0.8310613 -0.52501678 1.6730703 1256519
0.83108002 -0.47507074 1.6730915 1058628
0.83110422 -0.42512193 1.6731602 1058884
0.83111995 -0.37511736 1.6731541 1125446
0.83114898 -0.32489714 1.673256 1191239
0.83116704 -0.27488682 1.6732738 1257030
0.83118784 -0.22503483 1.6733102 1191238
0.83120996 -0.17501958 1.6733524 1125189
0.83123696 -0.12494882 1.6734384 1059140
0.83124065 -0.074981503 1.6733505 993090
0.83128631 -0.025014035 1.6735669 1125187
0.83130747 0.025014903 1.6736108 926527
0.83130515 0.074987605 1.6734804 728121
-1.3189617 0.11409687 1.6815671 10197915
-1.2750237 0.11407726 1.679069 10197915
-1.2250054 0.11405108 1.6785396 10197915
-1.1750106 0.11402447 1.6782923 10197915
-1.1250372 0.11399832 1.6777632 10197915
-1.0750898 0.11397173 1.6775161 10197915
-1.0248131 0.11394522 1.6771255 10197915
-0.97491211 0.11391911 1.6765972 10197915
-0.92503095 0.11389254 1.6763504 10197915
-0.8751747 0.11386647 1.6758227 10197915
-0.82534158 0.11383995 1.6755761 10197915
-0.77518106 0.11381345 1.6751864 10197915
-0.72539645 0.11378741 1.6746591 10197915
-0.67528093 0.113761 1.674274 10197915
-0.62484717 0.11373413 1.6740187 10197915
-0.57477975 0.11370771 1.6736298 10197915
-0.52508503 0.11368171 1.6731036 10197915
-0.47541326 0.11365526 1.6728581 10197915
-0.4250688 0.11362892 1.6723307 10197915
-0.3747507 0.11360215 1.6720763 10197915
-0.32479942 0.11357579 1.6716883 10197915
-0.27487132 0.11354944 1.6713003 10197915
-0.2249717 0.11352357 1.6706361 10197915
-0.17509273 0.1134968 1.6705254 10197915
-0.12523405 0.11347046 1.670138 10197915
-0.072543912 0.11343532 1.6741939 10197915
-0.024815867 0.11340123 1.6792694 10197915
0.025041267 0.11337461 1.6790686 10197915
0.075098924 0.11334882 1.6783048 10197915
0.12514083 0.11332181 1.6782862 10197915
0.17515542 0.113296 1.6775231 10197915
0.22514708 0.11326902 1.6775047 10197915
0.27511859 0.11324326 1.6767423 10197915
0.3250604 0.1132163 1.676724 10197915
0.37498766 0.11318995 1.6763335 10197915
0.42488199 0.11316423 1.6755717 10197915
0.47499263 0.1131375 1.675369 10197915
0.52507496 0.11311075 1.675161 10197915
0.57490474 0.11308508 1.6743999 10197915
0.6249398 0.11305806 1.674379 10197915
0.67518383 0.11303187 1.6738045 10197915
0.7249459 0.11300562 1.6734109 10197915
0.77468026 0.11297938 1.6730273 3885918
0.82566923 0.10878369 1.6737459 992832
0.83868557 -0.76183665 1.7293044 1651532
0.83804512 -0.72499305 1.7245406 1322569
0.83805406 -0.67499948 1.7244883 1388362
-1.3525213 -0.61753446 1.7209998 2960685
-1.3492905 -0.61749977 1.744436 2960685
0.83808917 -0.62506098 1.7246308 1322569
-1.3525611 -0.57501727 1.7209966 2960685
-1.3493198 -0.57497615 1.7445105 2960685
0.83811057 -0.5750587 1.7246791 1190727
-1.3524954 -0.52487898 1.7218057 2960685
-1.3492658 -0.52550149 1.7452304 2960685
0.83811891 -0.52500486 1.7246208 1124165
-1.3525302 -0.47500849 1.721893 2960685
-1.349291 -0.47507158 1.7453907 2960685
0.83815461 -0.47500038 1.7247666 1058629
-1.3525704 -0.42493689 1.72193 2960685
-1.3493326 -0.42495063 1.7454267 2960685
0.83816755 -0.42504975 1.724748 1059142
-1.3526082 -0.37495172 1.7220013 2960685
-1.3493688 -0.37494439 1.7454971 2960685
0.83819324 -0.37503999 1.7248217 1257032
-1.3526498 -0.32499313 1.7220311 2960685
-1.3494095 -0.32505926 1.74554 2960685
0.83821648 -0.32486418 1.7248749 1323081
-1.3526453 -0.27472964 1.7224052 2960685
-1.3494129 -0.27611566 1.7458408 2960685
0.83823735 -0.27490395 1.7249106 1323081
-1.3526257 -0.22498477 1.7228836 2960685
-1.3493809 -0.22487329 1.7464206 2960685
0.83826017 -0.2250533 1.7249644 1323081
-1.3526573 -0.17499651 1.7229923 2960685
-1.3494151 -0.17495246 1.746508 2960685
0.8382774 -0.17497817 1.7249755 1191495
-1.3526967 -0.1250045 1.7230318 2960685
-1.3494595 -0.12503465 1.7465222 2960685
0.83830786 -0.12490163 1.7250806 1059653
-1.3527511 -0.074983299 1.7229768 2960685
-1.3494935 -0.075105853 1.7466099 2960685
0.83807629 -0.075244978 1.72328 927555
-1.3527683 -0.02498626 1.7231907 2960685
-1.3495377 -0.025184412 1.7466234 2960685
0.83808166 -0.024986515 1.723206 1059653
-1.3527179 0.025135705 1.7238909 2960685
-1.3494898 0.024299428 1.7473052 2960685
0.83810401 0.024987388 1.7232513 927041
-1.352764 0.074995093 1.7238911 3421236
-1.3495021 0.075110003 1.7475556 3487029
0.83808988 0.074958824 1.7230316 662843
-1.3527616 0.10713384 1.7239029 10197915
-1.3342055 0.11151021 1.7302974 10197915
-1.2754921 0.11401032 1.7200391 10197915
-1.2249706 0.11398391 1.7194891 10197915
-1.174472 0.11395704 1.7192351 10197915
-1.1247118 0.11393104 1.7186873 10197915
-1.0749769 0.11390456 1.7184435 10197915
-1.0225344 0.11386665 1.7242706 10197915
-0.97511154 0.11383442 1.7283002 10197915
-0.92502272 0.11380868 1.7274935 10197915
-0.87495357 0.11378197 1.7272924 10197915
-0.82490814 0.11375526 1.7270966 10197915
-0.77488422 0.11372919 1.7264906 10197915
-0.72464788 0.11370268 1.7260945 10197915
-0.67466968 0.11367636 1.7256889 10197915
-0.62519705 0.11365023 1.7252929 10197915
-0.57526571 0.11362359 1.7250974 10197915
-0.52512085 0.1135978 1.7242929 10197915
-0.47500002 0.1135707 1.7242948 10197915
-0.42513803 0.11354474 1.7236912 10197915
-0.37506479 0.11351831 1.7232956 10197915
-0.32501 0.11349194 1.7228894 10197915
-0.27498329 0.11346554 1.7224947 10197915
-0.22473793 0.11343873 1.7222911 10197915
-0.17475629 0.11341304 1.721488 10197915
-0.1247981 0.11338602 1.7214911 10197915
-0.077177279 0.1133568 1.7236232 10197915
-0.025103647 0.11331622 1.7312088 10197915
0.025095832 0.11328974 1.7308042 10197915
0.074909866 0.11326373 1.7302485 10197915
0.12470375 0.11323722 1.7300024 10197915
0.1748333 0.11321078 1.7295984 10197915
0.22493626 0.11318488 1.7288898 10197915
0.27501336 0.11315797 1.7287916 10197915
0.32507268 0.11313158 1.7283885 10197915
0.37510887 0.11310519 1.7279851 10197915
0.42476043 0.11307926 1.7274307 10197915
0.47475132 0.1130529 1.7270322 10197915
0.52506828 0.11302612 1.7267772 10197915
0.57501107 0.1129998 1.7263751 10197915
0.6249305 0.11297347 1.7259729 10197915
0.67517751 0.11294723 1.7254181 10197915
0.72540772 0.11292049 1.7251635 10197915
0.77489722 0.11289464 1.7246107 4872040
0.83169359 0.10856415 1.7237519 795456
0.84778273 -0.80165499 1.7958424 1651533
0.84516883 -0.77214009 1.776682 1651533
0.84496933 -0.72495985 1.7751168 1388106
0.84496588 -0.6750387 1.7749766 1454412
-1.3451763 -0.61755532 1.7742801 2960685
0.84502113 -0.62511504 1.7752672 1520204
-1.3452084 -0.57500923 1.774341 2960685
0.84503555 -0.57505089 1.775257 1454411
-1.3452491 -0.52498907 1.7743814 2960685
0.84504014 -0.52498925 1.7751744 1322313
-1.3452871 -0.47499144 1.7744349 2960685
0.84507936 -0.47499028 1.7753483 1190471
-1.3453242 -0.42496619 1.7745025 2960685
0.84509051 -0.42505494 1.7753133 1124935
-1.3453673 -0.37496215 1.7745376 2960685
0.84511894 -0.37511754 1.7754055 1323082
-1.3454007 -0.32497981 1.7746168 2960685
0.84513962 -0.32490963 1.7754425 1454667
-1.3454461 -0.27499509 1.7746277 2960685
0.84516102 -0.27489951 1.7754868 1323338
-1.3454816 -0.22500643 1.7747145 2960685
0.84518516 -0.22508755 1.7755454 1323338
-1.345526 -0.17499147 1.7747196 2960685
0.84520131 -0.17500623 1.7755446 1323081
-1.3455536 -0.12499716 1.7748531 2960685
0.8452341 -0.12492123 1.7756736 1125703
-1.3456206 -0.075000867 1.7747083 2960685
0.84497899 -0.07463371 1.7736923 927813
-1.3456233 -0.025002448 1.7750196 2960685
0.8449921 -0.024983536 1.7736764 1059654
-1.3456621 0.025003394 1.7750713 2960685
0.84501415 0.024984414 1.7737226 927555
-1.3457385 0.075007722 1.7748647 3487029
0.84499717 0.074949563 1.7734836 729151
-1.3400282 0.10870797 1.7747624 10197915
-1.2746928 0.11392135 1.7740355 10197915
-1.2249238 0.11389475 1.7738512 10197915
-1.1751781 0.1138689 1.7732189 10197915
-1.1252035 0.1138429 1.7725935 10197915
-1.0750146 0.11381578 1.7726188 10197915
-1.0275779 0.11378382 1.7764562 10197915
-0.97495908 0.11374479 1.782897 10197915
-0.92488444 0.1137187 1.7823154 10197915
-0.87484241 0.11369207 1.7820709 10197915
-0.82481253 0.11366597 1.781489 10197915
-0.77481842 0.11363935 1.7812444 10197915
-0.72446889 0.11361283 1.7808286 10197915
-0.67451179 0.11358678 1.7802476 10197915
-0.62458444 0.11356018 1.7800034 10197915
-0.57467192 0.11353417 1.7794229 10197915
-0.52479231 0.11350761 1.7791795 10197915
-0.4745594 0.11348113 1.7787644 10197915
-0.42471948 0.11345515 1.7781848 10197915
-0.37490609 0.11342862 1.7779415 10197915
-0.32474297 0.1134022 1.7775269 10197915
-0.27497563 0.11337625 1.7769482 10197915
-0.22522837 0.11334976 1.7767051 10197915
-0.17513499 0.11332337 1.7762914 10197915
-0.12506789 0.11329752 1.775547 10197915
-0.075027436 0.11327063 1.7754647 10197915
-0.025003973 0.11324425 1.7750515 10197915
0.024996225 0.1132179 1.7746384 10197915
0.074973166 0.11319157 1.7742255 10197915
0.12492056 0.11316581 1.7734829 10197915
0.17484803 0.11313896 1.7734009 10197915
0.22475536 0.11311266 1.7729887 10197915
0.27500504 0.11308645 1.772411 10197915
0.32522878 0.11305972 1.7721589 10197915
0.37506604 0.11303346 1.7717471 10197915
0.42524242 0.11300729 1.7711701 10197915
0.47539878 0.1129806 1.7709186 10197915
0.52516645 0.11295437 1.7705071 10197915
0.57526952 0.11292823 1.7699312 10197915
0.625359 0.11290157 1.7696797 10197915
0.67541647 0.11287546 1.7691041 10197915
0.72545773 0.11284882 1.7688532 10197915
0.77547002 0.11282274 1.7682779 5727088
0.83687633 0.10870319 1.7718321 795200
0.84927285 -0.80417591 1.8067321 1783118
0.85293669 -0.81020981 1.8335072 1848654
0.84916455 -0.77485251 1.8058733 1651533
0.85259938 -0.77494121 1.830961 1848655
0.84919268 -0.72499317 1.8059651 1651276
0.85261571 -0.72480214 1.8309666 1980496
0.84921503 -0.67488217 1.8060126 1651533
0.8526352 -0.67494535 1.8309944 1980496
-1.3383127 -0.61752349 1.8240626 2960685
0.8492372 -0.6247685 1.8060598 1651533
0.8526721 -0.625085 1.8311484 1717582
-1.338349 -0.57498527 1.8241063 2960685
0.84925306 -0.57514727 1.8060614 1651790
0.85269403 -0.57503116 1.8311967 1651790
-1.3383855 -0.52499413 1.824145 2960685
0.84928745 -0.52503562 1.8061975 1454155
0.85270011 -0.52497542 1.8311214 1519691
-1.3384297 -0.47499925 1.8242002 2960685
0.84929746 -0.47490934 1.8061556 1190728
0.85272682 -0.47492003 1.8312054 1256264
-1.3384684 -0.42500246 1.824258 2960685
0.84932578 -0.42503685 1.8062477 1190471
0.85275799 -0.42495409 1.8313138 1256263
-1.3385023 -0.375002 1.8243184 2960685
0.84934807 -0.37491018 1.8062948 1454155
0.85277444 -0.37508044 1.8313258 1454411
-1.3385462 -0.32502586 1.8243607 2960685
0.84937042 -0.32478085 1.8063425 1520460
0.85279435 -0.32492059 1.8313485 1454668
-1.3385845 -0.27499315 1.8244253 2960685
0.84914398 -0.27618593 1.8045777 1323338
0.85254931 -0.27453607 1.8294472 1323083
-1.3386238 -0.22501068 1.8244462 2960685
0.84910679 -0.22498359 1.8041897 1389131
0.85251987 -0.22506709 1.8291183 1389132
-1.3386563 -0.17502469 1.8245428 2960685
0.84912908 -0.17490871 1.8042365 1257546
0.85255486 -0.17497239 1.829259 1323339
-1.3386999 -0.12501 1.8245941 2960685
0.84915125 -0.12483121 1.8042836 1191497
0.85257089 -0.12487458 1.8292608 1257289
-1.3387522 -0.074992977 1.8245211 2960685
0.84917355 -0.074751139 1.8043307 993606
0.85258043 -0.074945107 1.8292146 1059398
-1.338765 -0.024973754 1.8247719 2960685
0.84919572 -0.024668455 1.8043779 1125447
0.85262585 -0.025011003 1.8294326 1059654
-1.3388067 0.024974734 1.8248284 2960685
0.84921741 0.024669303 1.8044242 993349
0.85264814 0.025011873 1.8294803 993349
-1.3388697 0.074999779 1.8246772 3618615
0.84923983 0.074757189 1.8044714 794943
0.85264677 0.074951187 1.8293568 794687
-1.335736 0.1080362 1.8259425 10197915
-1.2748619 0.11382678 1.8317642 10197915
-1.2248746 0.11380075 1.8311577 10197915
-1.1749102 0.11377415 1.8309169 10197915
-1.1249672 0.11374816 1.8303112 10197915
-1.075051 0.11372153 1.830071 10197915
-1.0247724 0.11369506 1.8296448 10197915
-0.97490269 0.11366912 1.8290399 10197915
-0.92505217 0.11364257 1.8288001 10197915
-0.8752262 0.11361664 1.828195 10197915
-0.82542384 0.11359011 1.8279556 10197915
-0.77526158 0.11356369 1.8275304 10197915
-0.72474879 0.11353738 1.8269254 10197915
-0.67463171 0.113511 1.8264954 10197915
-0.62492484 0.11348452 1.8262569 10197915
-0.57485586 0.11345816 1.8258322 10197915
-0.52481031 0.11343183 1.8254086 10197915
-0.4751741 0.11340597 1.8248051 10197915
-0.42517307 0.11337964 1.8243872 10197915
-0.37482247 0.11335284 1.8241372 10197915
-0.32486969 0.11332654 1.8237141 10197915
-0.27494004 0.11330022 1.8232908 10197915
-0.22503997 0.11327455 1.8225093 10197915
-0.17516008 0.11324771 1.8224455 10197915
-0.1252999 0.11322144 1.8220232 10197915
-0.075086154 0.11319529 1.8214209 10197915
-0.024899121 0.11316857 1.8211721 10197915
0.024891436 0.11314236 1.8207501 10197915
0.07503175 0.11311626 1.8201487 10197915
0.12515199 0.11308956 1.8199004 10197915
0.1752471 0.11306346 1.8192995 10197915
0.22531907 0.1130368 1.8190517 10197915
0.27499378 0.11301067 1.8186309 10197915
0.32501569 0.11298462 1.8180306 10197915
0.37502116 0.11295798 1.8177835 10197915
0.42499799 0.11293197 1.8171835 10197915
0.47495535 0.11290537 1.8169365 10197915
0.52488708 0.11287936 1.8163373 10197915
0.5747965 0.1128528 1.8160903 10197915
0.62468314 0.11282682 1.8154914 10197915
0.67492443 0.11280037 1.8150661 10197915
0.7251305 0.11277334 1.8149927 10197915
0.77532345 0.11274749 1.8142152 6779002
0.83079648 0.11168826 1.8198155 861249
0.85267723 0.10667112 1.8303125 794430
0.85870236 -0.81954575 1.8756407 2111311
0.85841435 -0.77505744 1.8734376 2111568
0.85843623 -0.72517049 1.8734802 2111569
0.85845816 -0.67496979 1.8735212 2045776
-1.331309 -0.61766583 1.8748779 2960685
0.85848725 -0.62492383 1.8736227 1782862
-1.3313417 -0.57501543 1.8749379 2960685
0.85850239 -0.57502502 1.8736184 1783119
-1.3314915 -0.52512997 1.8741765 2960685
0.85853183 -0.52497524 1.8737198 1585483
-1.3315524 -0.47499296 1.8740697 2960685
0.85854912 -0.47484124 1.8737251 1321800
-1.3315873 -0.42502737 1.8741652 2960685
0.85857123 -0.42493853 1.8737789 1256264
-1.3316293 -0.37502974 1.8741848 2960685
0.85858947 -0.3750332 1.8737923 1454411
-1.3316652 -0.32497194 1.8742653 2960685
0.85861886 -0.32481524 1.8738936 1454412
-1.331704 -0.2749975 1.8743261 2960685
0.85863954 -0.27482611 1.8739265 1322826
-1.3317466 -0.22502007 1.8743435 2960685
0.85866332 -0.2249912 1.8739922 1323596
-1.3317791 -0.17501108 1.8744471 2960685
0.85868686 -0.17491962 1.8740486 1323339
-1.3318288 -0.1250574 1.8744322 2960685
0.85870123 -0.1249244 1.8740356 1323082
-1.3318585 -0.07501293 1.8745425 2960685
0.85872751 -0.074925072 1.8741152 1257032
-1.3318965 -0.024968596 1.8745978 2960685
0.85875636 -0.02492561 1.8742105 1190983
-1.3319362 0.024969544 1.8746481 2960685
0.8587786 0.024926476 1.874259 1059398
-1.3319752 0.075019747 1.8747087 3684408
0.85879529 0.074931182 1.8742621 860737
-1.3297369 0.10791257 1.8753605 10197915
-1.2753698 0.11374692 1.8806336 10197915
-1.225221 0.11372054 1.8801974 10197915
-1.1751001 0.1136948 1.8793699 10197915
-1.1250055 0.11366779 1.8793255 10197915
-1.0749265 0.11364141 1.8788894 10197915
-1.0248713 0.11361508 1.878454 10197915
-0.97523457 0.11358932 1.8778237 10197915
-0.92522365 0.11356297 1.8773948 10197915
-0.87485516 0.11353616 1.8771493 10197915
-0.82489264 0.11350987 1.8767147 10197915
-0.77495301 0.1134836 1.8762801 10197915
-0.72465295 0.11345745 1.8756499 10197915
-0.67475808 0.11343119 1.87521 10197915
-0.6252836 0.11340483 1.8749778 10197915
-0.57543665 0.11337861 1.8745443 10197915
-0.52522588 0.1133525 1.8739153 10197915
-0.47503871 0.11332577 1.8736711 10197915
-0.42487314 0.11329968 1.8730423 10197915
-0.37473443 0.11327298 1.8727978 10197915
-0.32500318 0.11324682 1.8723654 10197915
-0.27491084 0.11322077 1.8717378 10197915
-0.22483851 0.11319412 1.8714939 10197915
-0.17479113 0.11316809 1.8708669 10197915
-0.12476707 0.11314145 1.8706236 10197915
-0.074764565 0.11311547 1.8699965 10197915
-0.024788687 0.11308886 1.8697536 10197915
0.025168998 0.11306289 1.8691272 10197915
0.075096764 0.1130363 1.8688849 10197915
0.12500969 0.11301036 1.868259 10197915
0.1748894 0.11298379 1.8680165 10197915
0.22513996 0.11295735 1.8675793 10197915
0.27536708 0.11293091 1.8671423 10197915
0.32517835 0.11290501 1.8665175 10197915
0.3749738 0.11287849 1.8662757 10197915
0.42474055 0.11285261 1.8656512 10197915
0.47487584 0.11282625 1.8652153 10197915
0.5249818 0.11279925 1.865162 10197915
0.57506269 0.11277352 1.8643438 10197915
0.62512779 0.11274718 1.8639084 10197915
0.67477918 0.11272074 1.8636675 10197915
0.72479612 0.11269443 1.8632321 10197915
0.77516937 0.11266824 1.8626031 7765123
0.82063538 0.11263475 1.8680434 1256262
0.85856622 0.10693198 1.8752376 794687
0.86642158 -0.85726625 1.9321079 2702674
0.86518776 -0.82495129 1.923022 2571090
0.86520094 -0.77494013 1.9230064 2571603
0.86523187 -0.72500592 1.9231139 2374226
0.86525846 -0.67499053 1.9231954 2177361
-1.3244418 -0.61764812 1.9247013 2960685
0.86526161 -0.62497491 1.9231009 1980239
-1.324473 -0.57498682 1.9247602 2960685
0.86528701 -0.57502896 1.9231755 1848655
-1.3246291 -0.52489495 1.9239669 2960685
0.86532003 -0.525087 1.923297 1783118
-1.324684 -0.4750376 1.9239014 2960685
0.86534196 -0.47506106 1.9233482 1717326
-1.3247267 -0.425082 1.9239309 2960685
0.86536527 -0.42503217 1.923399 1585741
-1.3247633 -0.37506118 1.924 2960685
0.86538297 -0.37500006 1.9234172 1388363
-1.324802 -0.32500729 1.9240546 2960685
0.86541015 -0.32480755 1.9235005 1190472
-1.3248389 -0.27501184 1.9241291 2960685
0.86543489 -0.27476987 1.9235647 1190728
-1.3248787 -0.22504434 1.9241668 2960685
0.86545473 -0.22497019 1.9235914 1323340
-1.3249174 -0.17504294 1.9242234 2960685
0.86547494 -0.1749281 1.9236258 1257290
-1.3249578 -0.12494634 1.9242665 2960685
0.86549425 -0.12480375 1.9236509 1257034
-1.3249866 -0.074908346 1.9243981 2960685
0.86553311 -0.0748358 1.9238226 1257033
-1.3250412 -0.024962418 1.9243284 2960685
0.86553603 -0.024948394 1.9237279 1059398
-1.3250802 0.024963388 1.9243873 2960685
0.86555839 0.024949249 1.9237787 993606
-1.3250986 0.074884273 1.9245931 3684408
0.86560047 0.074841872 1.9239738 794945
-1.3236343 0.10758867 1.9252859 10197915
-1.2751029 0.11366295 1.9317482 10197915
-1.2251936 0.11363601 1.9317291 10197915
-1.1753041 0.11360977 1.9312832 10197915
-1.1250361 0.11358366 1.9306234 10197915
-1.0747956 0.11355691 1.9303843 10197915
-1.0249758 0.11353073 1.9299392 10197915
-0.97478163 0.11350468 1.929281 10197915
-0.92460746 0.11347796 1.929042 10197915
-0.87485665 0.11345179 1.9285975 10197915
-0.82473588 0.11342578 1.9279399 10197915
-0.7746278 0.1133991 1.9277018 10197915
-0.72455192 0.1133731 1.9270444 10197915
-0.67449188 0.11334644 1.9268062 10197915
-0.62485647 0.11332034 1.9263629 10197915
-0.57485336 0.1132944 1.9257061 10197915
-0.52485949 0.11326776 1.9254689 10197915
-0.4749012 0.11324183 1.924813 10197915
-0.42495534 0.11321523 1.9245763 10197915
-0.3750416 0.11318932 1.9239208 10197915
-0.3251439 0.11316273 1.923684 10197915
-0.2752746 0.11313685 1.9230292 10197915
-0.22502351 0.11311047 1.9225798 10197915
-0.17520438 0.1130839 1.922344 10197915
-0.12500176 0.11305752 1.9218949 10197915
-0.07482253 0.11303112 1.9214464 10197915
-0.025071053 0.1130053 1.9207928 10197915
0.025063254 0.11297894 1.9203449 10197915
0.074768573 0.11295248 1.9201095 10197915
0.12485453 0.11292614 1.9196619 10197915
0.17531161 0.11289994 1.9190018 10197915
0.22495119 0.11287352 1.9187669 10197915
0.27456915 0.11284777 1.9181148 10197915
0.32495439 0.11282092 1.9178731 10197915
0.37532091 0.11279479 1.9172142 10197915
0.42486468 0.1127684 1.9169803 10197915
0.47478753 0.11274214 1.9165336 10197915
0.52508003 0.11271604 1.915876 10197915
0.57495803 0.11268982 1.9154301 10197915
0.62480295 0.11266291 1.9154016 10197915
0.67463011 0.1126374 1.9145392 10197915
0.72483355 0.11261067 1.9142988 10197915
0.77500659 0.11258462 1.913642 8619916
0.82516134 0.11255793 1.9134021 1322054
0.8642596 0.10711692 1.922959 794687
0.8706283 -0.86403024 1.9628475 3030868
0.87051469 -0.824835 1.9619293 2965332
0.87053734 -0.77495009 1.9619807 2899796
0.87056464 -0.72505999 1.9620655 2702419
0.87057316 -0.67517173 1.9620126 2439762
-1.3176163 -0.61766922 1.9742144 2960685
0.87061012 -0.62511331 1.9621687 2111312
-1.3176479 -0.5749895 1.9742711 2960685
0.87063295 -0.57472861 1.9622198 1914190
-1.3176907 -0.52494895 1.9742997 2960685
0.87064129 -0.52482754 1.9621667 1782862
-1.317734 -0.47497082 1.9743197 2960685
0.87068325 -0.47509071 1.9623556 1651534
-1.3177538 -0.42502221 1.974516 2960685
0.87069166 -0.4250237 1.9623036 1519948
-1.3178123 -0.37500602 1.9744208 2960685
0.87071931 -0.37495458 1.9623895 1388363
-1.3178411 -0.32495332 1.9745555 2960685
0.87074643 -0.32471982 1.962476 1124679
-1.3178799 -0.27496338 1.9746027 2960685
0.8707695 -0.27480692 1.962527 1124936
-1.3179226 -0.22497071 1.9746341 2960685
0.87078708 -0.22505473 1.9625435 1389132
-1.3179591 -0.1750076 1.9747078 2960685
0.87080532 -0.17497526 1.9625601 1191241
-1.3179926 -0.12504151 1.9748015 2960685
0.87084228 -0.12489226 1.9627159 1125448
-1.3180248 -0.075007446 1.9749013 2960685
0.87084579 -0.075134784 1.9626271 1125704
-1.3180863 -0.025005979 1.974788 2960685
0.87088299 -0.025207769 1.9627827 927557
