# .PCD v0.7 - Point Cloud Data file format
VERSION 0.7
FIELDS x y z rgb
SIZE 4 4 4 4
TYPE F F F U
COUNT 1 1 1 1
WIDTH 1159
HEIGHT 1
VIEWPOINT 0 0 0 1 0 0 0
POINTS 1159
DATA ascii
-0.13315055 0.025222419 1.5144292 795456
-0.0013940112 0.026537022 1.5016907 1060167
0.020837685 0.024986235 1.5260754 993605
-1.2118043 0.096819386 1.5388808 10197915
-1.1750287 0.097003832 1.530352 10197915
-1.1270722 0.097135924 1.5299927 10197915
-1.0728178 0.097387068 1.5194896 10197915
-1.0249326 0.097521871 1.5188321 10197915
-0.97491354 0.097639076 1.5204951 10197915
-0.92498392 0.097754553 1.5222938 10197915
-0.87493312 0.097870357 1.5240965 10197915
-0.82476634 0.097986422 1.5259043 10197915
-0.77489191 0.098101929 1.5276982 10197915
-0.72511071 0.098216951 1.5294944 10197915
-0.67500138 0.098331533 1.5314406 10197915
-0.62488866 0.098536544 1.5244204 10197915
-0.57500637 0.098734997 1.5179743 10197915
-0.52489114 0.098851182 1.5197599 10197915
-0.47507736 0.098966695 1.5215316 10197915
-0.42514312 0.099082388 1.523314 10197915
-0.37509578 0.099198408 1.5250938 10197915
-0.3251361 0.09931273 1.5270159 10197915
-0.27485517 0.099432096 1.5285264 10197915
-0.22487164 0.099546559 1.5304465 10197915
-0.16311572 0.078164794 1.538487 3688284
-0.13311504 0.075301103 1.5147001 2767955
-0.0018657797 0.074663132 1.5018002 3295067
0.020895021 0.074984327 1.5267893 3425627
-0.15100911 0.1000513 1.5000111 10197915
-0.13365935 0.1000906 1.5006002 10197915
-0.0018661929 0.10019284 1.502133 10197915
0.029973742 0.10034834 1.5178914 10197915
0.074943751 0.10041101 1.5243174 10197915
0.12497977 0.10052717 1.5260813 10197915
0.17512797 0.10064358 1.5278491 10197915
0.22496948 0.10075789 1.5297458 10197915
0.27492717 0.10087528 1.5313643 10197915
0.32442182 0.10109412 1.5228069 10197915
0.37469772 0.10127399 1.5183188 10197915
0.42487827 0.10139065 1.5200682 10197915
0.47496593 0.10150715 1.5218141 10197915
0.52495235 0.10162199 1.5236955 10197915
0.57484281 0.10174082 1.5251536 10197915
0.62484312 0.10185426 1.5271784 10197915
0.67474675 0.10197176 1.5287755 10197915
0.72476631 0.10208661 1.5306618 10197915
0.77685177 0.10225391 1.5279 10197915
0.824736 0.10248145 1.5180497 10197915
0.87495726 0.10260128 1.519501 10197915
0.92467797 0.10271848 1.5210747 10197915
0.97494364 0.10283555 1.5228119 10197915
1.0253199 0.10295293 1.5245464 9540501
1.0751678 0.10306909 1.5262651 1979983
1.1249071 0.10318351 1.5281218 993348
1.1747593 0.10330104 1.5297019 4345954
1.2121134 0.1033081 1.5389158 10197915
-0.22069362 -0.70537055 1.588601 2439504
-0.19850834 -0.70078677 1.568424 1782347
0.086018518 -0.705199 1.5881011 1783119
-0.21672231 -0.67497414 1.5852146 2308176
-0.18962729 -0.67384219 1.560539 1848141
0.073972717 -0.67446131 1.575279 1717840
-0.21619001 -0.62516159 1.5851109 2374482
-0.18872699 -0.62503809 1.5600922 1914447
0.072500154 -0.6250937 1.5743077 1915218
-0.21609442 -0.57499343 1.5854075 2242898
-0.18878593 -0.5750255 1.5605277 1980496
0.072399981 -0.57500607 1.574851 1652048
-0.21612774 -0.52496934 1.5858202 2045776
-0.18884036 -0.52498472 1.5609601 1914704
0.049455721 -0.52410048 1.5503274 1455183
0.072028026 -0.52517378 1.5750923 1520719
-0.21573834 -0.47526914 1.5858455 1914448
-0.18816437 -0.47493759 1.5607275 1717583
0.049476959 -0.47484839 1.550993 1256265
0.071774878 -0.47496599 1.5754676 1322571
-0.21554038 -0.42502692 1.5860506 1717069
-0.18820977 -0.42496237 1.5611509 1585740
0.04889949 -0.42271549 1.551039 1257035
0.071600445 -0.42515057 1.5759267 1388621
-0.21555275 -0.37499547 1.5864431 1519691
-0.18825479 -0.37495965 1.5615743 1256264
0.048854291 -0.37475973 1.5516154 1125707
0.071188211 -0.37498927 1.5761293 1191499
-0.21459293 -0.32519644 1.5859491 1453899
-0.18699077 -0.32500196 1.5608044 1322313
0.048391931 -0.32278544 1.5517853 1191499
0.071098261 -0.32508722 1.5766827 1257036
-0.21419188 -0.27497429 1.5859668 1388619
-0.18691184 -0.27502009 1.5611137 1585996
0.048231158 -0.27501789 1.5522323 1323084
0.070541032 -0.27500418 1.5767236 1389390
-0.21425094 -0.22496912 1.5864044 1257034
-0.1869365 -0.22501574 1.5615191 1323083
0.047898166 -0.22321948 1.5525423 1257291
0.070589855 -0.22502166 1.5774274 1257548
-0.21409135 -0.17528988 1.586639 1323596
-0.1864254 -0.17481661 1.5614367 1323596
0.047603458 -0.17514414 1.5528458 1059656
0.069963954 -0.17507954 1.5773926 1191242
-0.2136018 -0.12506036 1.5865761 1323339
-0.18632483 -0.12497988 1.5617265 1323082
0.047378037 -0.12408799 1.5532647 927301
0.069913208 -0.12500152 1.5779901 1059399
-0.21365453 -0.075023025 1.5870088 1322826
-0.18642333 -0.075072013 1.5621974 1191240
0.046984002 -0.075297438 1.5534679 1125961
0.069554023 -0.075187996 1.578246 1192010
-0.21364842 -0.025190124 1.5873833 1190983
-0.18582514 -0.024848398 1.562037 1125447
0.04688571 -0.02447436 1.5540237 1191753
0.069317438 -0.025015695 1.5786414 1191753
-0.21308658 0.024989206 1.5872548 927557
-0.18572593 0.025042152 1.5623288 927299
0.04636018 0.025111668 1.554093 993349
0.069035299 0.024776798 1.5789803 1059398
-1.2590315 0.096131109 1.5945821 10197915
-1.2248235 0.096420355 1.5749834 10197915
-1.1752944 0.096555926 1.5746884 10197915
-1.1226677 0.096715271 1.5728576 10197915
-1.0749704 0.096877918 1.5693933 10197915
-1.025035 0.09699285 1.5712546 10197915
-0.97498524 0.097106464 1.5732723 10197915
-0.92481363 0.097223446 1.5749905 10197915
-0.87494791 0.097338192 1.5768454 10197915
-0.82496727 0.097453199 1.5787123 10197915
-0.77486569 0.097568519 1.5805761 10197915
-0.72546965 0.097770676 1.5736473 10197915
-0.67542773 0.097888298 1.5752656 10197915
-0.62334418 0.098079473 1.5701337 10197915
-0.57516611 0.098212279 1.5697552 10197915
-0.52505285 0.098324746 1.571908 10197915
-0.47503561 0.098441571 1.5735961 10197915
-0.4251143 0.09855669 1.5754355 10197915
-0.37529573 0.098671541 1.5772716 10197915
-0.32535693 0.098786667 1.5791118 10197915
-0.27591476 0.098905571 1.5804441 10197915
-0.21439679 0.07689397 1.5862116 3425370
-0.18594413 0.07493107 1.5628535 2767442
0.04635733 0.075151399 1.5547434 3491419
0.069337346 0.075861558 1.5793695 3754077
0.1207912 0.099872112 1.5899086 10197915
0.1747333 0.099939369 1.5975603 10197915
0.20066053 0.099999137 1.5985157 10197915
0.04903489 0.10000531 1.5573599 10197915
0.074894063 0.10006776 1.5583322 10197915
0.12891366 0.10013059 1.5664381 10197915
0.17505066 0.10021062 1.5707481 10197915
0.22402446 0.10024874 1.5799686 10197915
0.27524522 0.10044223 1.5743783 10197915
0.32732588 0.10061905 1.5706705 10197915
0.37466449 0.10076153 1.5691116 10197915
0.42499438 0.10087645 1.5710753 10197915
0.47499868 0.10099526 1.572569 10197915
0.52490127 0.10110759 1.5746764 10197915
0.57491565 0.10122488 1.5763223 10197915
0.62482709 0.10134034 1.5781202 10197915
0.67462677 0.10145558 1.5799148 10197915
0.7227999 0.10158452 1.5799154 10197915
0.77473754 0.10177619 1.5746989 10197915
0.82535487 0.10197603 1.5683213 10197915
0.87507975 0.1020959 1.5696319 10197915
0.92489445 0.1022114 1.5714062 10197915
0.97482616 0.10232711 1.5731863 10197915
1.0248668 0.10244308 1.5749689 10197915
1.0748023 0.10255885 1.5767487 7896965
1.1248469 0.10267329 1.5786865 1059654
1.1750052 0.10279109 1.5803195 993348
1.2219502 0.10291905 1.5800933 5726575
1.254728 0.10297558 1.5831869 10197915
-0.27084109 -0.71555603 1.6342096 3820122
-0.24227574 -0.70978355 1.6082299 2965588
0.098219499 -0.70823395 1.6014553 1783376
0.12331958 -0.71436667 1.6289289 1980240
-0.2689431 -0.67525411 1.6327889 3491415
-0.24183819 -0.67499512 1.6080972 2833746
0.098219611 -0.67492372 1.60189 1783376
0.12059231 -0.67501259 1.6264485 1914448
-0.26858762 -0.62498665 1.6328504 3359831
-0.24126153 -0.62465864 1.6079565 2834260
0.097605057 -0.62390673 1.6018809 2046547
0.12023395 -0.62520921 1.626704 2177875
-0.26862058 -0.57496905 1.6332603 3097175
-0.24121302 -0.57500708 1.6082922 2571347
0.097606532 -0.57515645 1.6025184 1717841
0.11999949 -0.57496685 1.6271027 1783377
-0.26859519 -0.52513796 1.6336204 2702932
-0.24126591 -0.52506888 1.6087215 2308689
0.097143508 -0.52351856 1.6026834 1652304
0.11982957 -0.52514917 1.6275657 1651792
-0.26796687 -0.47502226 1.6334314 2440019
-0.24079946 -0.47457609 1.6086826 1980240
0.096963532 -0.475034 1.6031183 1388364
0.11937112 -0.47505659 1.6277157 1783633
-0.26804757 -0.42503196 1.6338872 2177361
-0.24064642 -0.42494941 1.6089237 1848398
0.09671215 -0.42362612 1.6035132 1322571
0.11939115 -0.42506531 1.6283909 1652048
-0.26770961 -0.37473243 1.6339623 1782862
-0.24028176 -0.3755109 1.608969 1717326
0.096334606 -0.37499177 1.6037333 1191500
0.11876875 -0.37501863 1.6283596 1323085
-0.26671231 -0.32518002 1.6334342 1651533
-0.23958564 -0.32446438 1.6087246 1520204
0.096253559 -0.32437614 1.6043042 1257292
0.11877094 -0.32500756 1.6290135 1323085
-0.26667923 -0.27505007 1.6337874 1454156
-0.23925093 -0.27496216 1.608799 1190472
0.095690548 -0.27494732 1.6043308 1455183
0.11831078 -0.27520812 1.6291586 1520975
-0.26677081 -0.22499347 1.6342553 1388619
-0.23937994 -0.22498435 1.6092981 1124935
0.095782556 -0.22497445 1.6050838 1257805
0.1181724 -0.22500813 1.6296608 1323341
-0.26634663 -0.17526777 1.6342474 1389133
-0.2391354 -0.17454903 1.6094612 1323083
0.095121928 -0.17479496 1.6050142 1454925
0.11792249 -0.17524011 1.630035 1520718
-0.26607975 -0.1249431 1.6343881 1191241
-0.23865552 -0.12501906 1.6094025 1190985
0.095114194 -0.12496326 1.6056545 1389132
0.1175406 -0.12497351 1.6302732 1389132
-0.26614931 -0.075019225 1.6348336 1125961
-0.23886335 -0.074982598 1.6099743 1191497
0.094682641 -0.074337736 1.6058418 1258060
0.11744305 -0.075051852 1.6308169 1323596
-0.2660324 -0.025341975 1.6351061 993606
-0.23863736 -0.02470367 1.6101531 993093
0.094474562 -0.025121819 1.6062551 1257546
0.11695041 -0.024998143 1.6309295 1323339
-0.26557833 0.025064703 1.6350785 1257802
-0.23807916 0.024995266 1.6100249 1059655
0.094150841 0.025809692 1.6065642 1058885
0.11700126 0.025012627 1.6316383 993349
-1.3010508 0.09559571 1.6365033 10197915
-1.2724226 0.095744848 1.6293185 10197915
-1.2243879 0.095961578 1.6205812 10197915
-1.1749228 0.096081682 1.6218024 10197915
-1.1247519 0.096194759 1.6239077 10197915
-1.0748987 0.09631224 1.6254922 10197915
-1.0249294 0.096423097 1.6277622 10197915
-0.97586876 0.096544385 1.6287601 10197915
-0.92484564 0.09675207 1.6217133 10197915
-0.87481445 0.096866675 1.6236305 10197915
-0.82499981 0.096979454 1.625671 10197915
-0.77506274 0.097095095 1.6274588 10197915
-0.72476512 0.097305082 1.6199893 10197915
-0.6747756 0.097421385 1.6217271 10197915
-0.62489468 0.097533971 1.6238018 10197915
-0.57489723 0.09765029 1.6255383 10197915
-0.52500081 0.097764693 1.6274416 10197915
-0.47499108 0.097879328 1.6293499 10197915
-0.42581651 0.098077841 1.6227192 10197915
-0.37498742 0.09820319 1.6237811 10197915
-0.32492551 0.098320626 1.6254262 10197915
-0.26649573 0.076258168 1.634464 3557981
-0.23831196 0.075148694 1.6102802 3030870
0.093913332 0.075003617 1.6069448 3490649
0.11722357 0.076284766 1.6308993 4017248
0.17508452 0.09965907 1.6254358 10197915
0.2248309 0.099774726 1.6271714 10197915
0.27129796 0.099859923 1.6310582 10197915
0.32487538 0.09990795 1.640515 10197915
0.35707867 0.099981911 1.6417297 10197915
0.24594991 0.10010353 1.6001846 10197915
0.27930167 0.10013196 1.6062187 10197915
0.32462648 0.10019162 1.6123317 10197915
0.37679133 0.1002394 1.6214359 10197915
0.42511377 0.10032982 1.6252985 10197915
0.47503856 0.10044469 1.6271585 10197915
0.52507401 0.10055809 1.6291969 10197915
0.57275659 0.10070473 1.6273162 10197915
0.62515217 0.10088508 1.6233428 10197915
0.67501909 0.10099736 1.6254462 10197915
0.72737294 0.10115679 1.6235349 10197915
0.77525365 0.10132401 1.6196617 10197915
0.82517618 0.1014391 1.621501 10197915
0.87497896 0.10155224 1.6235044 10197915
0.92489696 0.101669 1.625176 10197915
0.97493088 0.10178436 1.6270196 10197915
1.0250767 0.10189826 1.6290361 10197915
1.0734576 0.10203069 1.6287464 10197915
1.1251404 0.10222323 1.6233791 4478310
1.1752214 0.10234009 1.6250877 1059141
1.2274587 0.10250302 1.6227971 2111054
1.2699151 0.10260864 1.6235951 8882830
1.3017513 0.10253754 1.6390926 10197915
-0.33469149 -0.75365698 1.6920899 3885915
0.18140106 -0.7535435 1.6921756 2505555
-0.32200626 -0.72452772 1.680757 4083291
-0.29434383 -0.72035366 1.6555854 4411996
0.14598055 -0.71991068 1.6537319 2045776
0.16939043 -0.72432584 1.6793717 2176848
-0.32087213 -0.6750263 1.6801015 3885914
-0.29394704 -0.67418939 1.6555775 4148827
0.14598575 -0.67508215 1.6543225 2045777
0.16827434 -0.67503107 1.6787897 2308947
-0.32098719 -0.62499928 1.6805891 3622488
-0.29356599 -0.62502289 1.6556062 3820122
0.14557044 -0.62397939 1.6545336 2243411
0.1684054 -0.62502319 1.6795869 2308947
-0.32103252 -0.57497311 1.6810122 3360088
-0.29362985 -0.57511014 1.6560467 3425881
0.1453625 -0.57500368 1.6549435 1914705
0.16776541 -0.57514632 1.6795335 2046290
-0.32045442 -0.52514011 1.6808673 3031382
-0.2936112 -0.52464455 1.6564143 2965846
0.14518292 -0.52418309 1.6554092 1651534
0.16776089 -0.52505171 1.6801834 1783120
-0.3204146 -0.47498113 1.6812143 2702932
-0.29297316 -0.47497067 1.6562135 2702932
0.14471301 -0.47501364 1.6555356 1849426
0.16743173 -0.47527644 1.6804713 1914962
-0.32047737 -0.42500791 1.681654 2374226
-0.29306883 -0.42499813 1.6566839 2440018
0.1447642 -0.42503107 1.6562434 1783633
0.16711122 -0.42497987 1.6807758 1849170
-0.32019073 -0.3752791 1.6817731 1979983
-0.29316938 -0.37499839 1.6571565 1980240
0.14411484 -0.37496552 1.6561837 1520206
0.16708839 -0.37517112 1.681401 1520206
-0.31982723 -0.3249591 1.6818252 1717070
-0.29248777 -0.3247157 1.6569209 1717326
0.14413589 -0.32501933 1.6568573 1323085
0.1664605 -0.32503533 1.6813648 1454670
-0.31987134 -0.27495891 1.6822475 1783632
-0.29251999 -0.27498218 1.6573291 1783632
0.14367826 -0.27442086 1.6570157 1586512
0.16655304 -0.2750344 1.6821181 1586768
-0.31984794 -0.22499791 1.6826085 1717840
-0.29248399 -0.2252389 1.6576766 1652303
0.14352055 -0.22499917 1.6574876 1389133
0.16606283 -0.22527835 1.682228 1454670
-0.31837612 -0.1750503 1.6816504 1586510
-0.29132354 -0.17442064 1.6570089 1454925
0.14327325 -0.17435004 1.6578761 1586511
0.16587915 -0.17504813 1.6826831 1652303
-0.31847286 -0.12498372 1.6821203 1322826
-0.29106182 -0.12515771 1.6571468 1257290
0.1428787 -0.12508781 1.6580861 1388876
0.16572176 -0.12527873 1.6831588 1388876
-0.3185305 -0.075010516 1.6825554 1125705
-0.29122472 -0.074989177 1.6576784 1125705
0.14291058 -0.074781708 1.6587775 1389132
0.16523038 -0.07505925 1.6832744 1389389
-0.31808898 -0.02529061 1.6825333 993606
-0.2909247 -0.024313832 1.6577938 993606
0.14222713 -0.024863552 1.6586779 1323339
0.16537848 -0.025151372 1.6840874 1388875
-0.31795794 0.025099074 1.6827989 1257546
-0.29049695 0.024853051 1.6577792 1257546
0.14228848 0.024877872 1.6593937 1256776
0.16468461 0.025117358 1.683983 1191240
-1.3192109 0.095077395 1.6830652 10197915
-1.2758746 0.09524978 1.6774788 10197915
-1.2247761 0.095464975 1.6697062 10197915
-1.174976 0.095578328 1.6716843 10197915
-1.1253971 0.095689751 1.6737984 10197915
-1.0750241 0.095805749 1.6756663 10197915
-1.0248671 0.095919944 1.6776586 10197915
-0.97381181 0.096050479 1.6782655 10197915
-0.9248746 0.096252553 1.6712192 10197915
-0.87490296 0.096362643 1.6735667 10197915
-0.82503301 0.096478164 1.6753508 10197915
-0.77504516 0.096592046 1.6773285 10197915
-0.72759408 0.096747391 1.6745218 10197915
-0.67499375 0.096922323 1.6711379 10197915
-0.6248461 0.09703809 1.6729701 10197915
-0.57491875 0.097151957 1.6749331 10197915
-0.5248816 0.097263217 1.6771796 10197915
-0.47472265 0.097380444 1.6788718 10197915
-0.42410684 0.097592175 1.6713167 10197915
-0.37466839 0.097710729 1.6726848 10197915
-0.31893921 0.076259069 1.6817374 3623261
-0.29067495 0.074434191 1.6581843 3097433
0.14147779 0.074995555 1.6589376 3688285
0.16591941 0.077861637 1.6824881 4477283
0.22495498 0.09928225 1.6760293 10197915
0.27503106 0.099398695 1.6777748 10197915
0.3222971 0.099548817 1.6754369 10197915
0.37467504 0.09972652 1.671721 10197915
0.42467749 0.099842444 1.6735001 10197915
0.47484222 0.09985549 1.6855187 10197915
0.5193615 0.099957332 1.6872375 10197915
0.4747538 0.1000561 1.6656095 10197915
0.52851206 0.10014276 1.671286 10197915
0.57767856 0.10024995 1.6737068 10197915
0.62525916 0.10039948 1.6715088 10197915
0.67542529 0.10051636 1.6732364 10197915
0.72523803 0.10062867 1.6753227 10197915
0.77492422 0.10074442 1.6770325 10197915
0.82495987 0.10086104 1.6787525 10197915
0.87505054 0.10107258 1.6710737 10197915
0.92489851 0.10118834 1.6728261 10197915
0.97486585 0.10130159 1.6748604 10197915
1.0249414 0.10141788 1.6766211 10197915
1.0771908 0.10156982 1.6754243 10197915
1.1249741 0.10174583 1.6706572 9474708
1.1749812 0.10186265 1.6723555 2177361
1.2248583 0.10197342 1.6746089 1059397
1.2746145 0.10208965 1.6762967 1584713
1.3192958 0.10213422 1.68373 3294040
1.3507652 0.10206407 1.6990356 10197915
-0.37789783 -0.76232243 1.7313874 2570833
-0.34732509 -0.75621462 1.7035804 3491673
0.19480287 -0.75682288 1.7068443 2571347
0.21904974 -0.76295686 1.7333813 2768468
-0.3740519 -0.725254 1.7281673 2768212
-0.34710416 -0.72425044 1.7036239 3425624
0.19423594 -0.72428042 1.7066466 2505297
0.21657325 -0.72506082 1.7311569 2702418
-0.3734884 -0.67478424 1.7280407 2702932
-0.34629434 -0.67598492 1.7032553 3294039
0.19373873 -0.67491084 1.7067448 2571604
0.2166968 -0.67507797 1.7319442 2768469
-0.37297982 -0.62497735 1.7279578 2571348
-0.34573501 -0.62497455 1.7031357 3096661
0.19384602 -0.62497926 1.7075144 2440276
0.21615101 -0.62521946 1.7319971 2703190
-0.37300208 -0.57507175 1.728359 2374483
-0.34584242 -0.57503712 1.7036151 2834261
0.19317517 -0.57470119 1.7074336 2243412
0.2160515 -0.57497013 1.7325423 2440276
-0.37228405 -0.52501988 1.7280881 2177362
-0.3452118 -0.52420074 1.7034296 2702933
0.19318254 -0.52499086 1.7080901 1980242
0.21584322 -0.52528763 1.7329606 2177362
-0.37238327 -0.47500792 1.7285607 2112083
-0.34516183 -0.47503337 1.7037598 2440019
0.19282235 -0.47427234 1.7083558 1980754
0.21542631 -0.47492746 1.7331617 2112083
-0.37246868 -0.42499644 1.7290207 1848912
-0.34524736 -0.42489371 1.7042204 2242897
0.19255163 -0.42487538 1.7087033 1914962
0.21550412 -0.42493075 1.7338974 1980498
-0.37203753 -0.37522143 1.7290083 1585742
-0.34492424 -0.37381652 1.7043171 1913934
0.1924796 -0.37456441 1.7092811 1585999
0.21480624 -0.37517467 1.733781 1651791
-0.37182322 -0.32503331 1.7291961 1585999
-0.34459871 -0.32504189 1.7043936 1782862
0.19127886 -0.32533127 1.708604 1388877
0.21419436 -0.324797 1.7337668 1520206
-0.37187669 -0.27501974 1.7296282 1652048
-0.34464046 -0.27510098 1.7048134 1849425
0.19116871 -0.27501756 1.7091392 1652305
0.21370263 -0.27531609 1.7338725 1652305
-0.37187561 -0.2251208 1.7300096 1454670
-0.34472454 -0.22469772 1.7052758 1783376
0.19066186 -0.22462809 1.7092409 1388877
0.21340138 -0.22495711 1.7341983 1454926
-0.37117431 -0.175006 1.729754 1586511
-0.34396118 -0.1748739 1.7049608 1652047
0.19051668 -0.17502038 1.7097279 1586511
0.21342283 -0.17507699 1.7348728 1652303
-0.37131503 -0.12496614 1.7302634 1322827
-0.34409699 -0.1250589 1.7054651 1322827
0.19032963 -0.12445038 1.7101834 1388619
0.21277079 -0.12505081 1.7348098 1388619
-0.37138635 -0.075017929 1.7307112 1191241
-0.34419179 -0.07491415 1.7059357 1191497
0.18985352 -0.074814089 1.7103076 1454925
0.2127908 -0.075134642 1.7354825 1059400
-0.370967 -0.025298869 1.7307072 1125448
-0.3436248 -0.024125081 1.7058072 1059143
0.18997745 -0.024752373 1.711096 1323339
0.21244204 -0.025517037 1.7357471 1059399
-0.37078062 0.025069036 1.7309253 1125191
-0.34351599 0.024739442 1.7060816 1257290
0.18928014 0.024811098 1.7109785 1124935
0.21219021 0.025128851 1.7361317 1059399
-1.363607 0.094461955 1.7322966 10197915
-1.3249929 0.094593726 1.7294806 10197915
-1.2737299 0.09472385 1.7301859 10197915
-1.2247916 0.094927117 1.723025 10197915
-1.1748018 0.095044315 1.7246721 10197915
-1.125559 0.095160201 1.7262515 10197915
-1.0747809 0.095377848 1.7181489 10197915
-1.0251013 0.095491938 1.7200234 10197915
-0.97529578 0.095603228 1.7222092 10197915
-0.92538023 0.095717855 1.7240927 10197915
-0.87533981 0.095829681 1.7262883 10197915
-0.82518601 0.095944829 1.728181 10197915
-0.77525997 0.096057951 1.7302183 10197915
-0.72259092 0.096246511 1.7255025 10197915
-0.67499292 0.096394271 1.7234886 10197915
-0.62502837 0.096507564 1.725515 10197915
-0.57683241 0.096640021 1.7251787 10197915
-0.5251525 0.096843548 1.7187167 10197915
-0.47479996 0.096956342 1.720897 10197915
-0.42467886 0.097070143 1.7229168 10197915
-0.37134591 0.075099349 1.7306257 3294298
-0.34360808 0.073528893 1.7065383 2965847
0.1893802 0.074513055 1.7116877 3753821
0.2138245 0.076908313 1.7355573 4411748
0.27513921 0.098876715 1.7295456 10197915
0.32742158 0.099062197 1.7250359 10197915
0.37472528 0.099209324 1.7230043 10197915
0.42517501 0.099328294 1.7245977 10197915
0.47526789 0.099440411 1.7267772 10197915
0.52251607 0.099597678 1.7237254 10197915
0.57476586 0.099773839 1.7201258 10197915
0.62062317 0.099849492 1.7247983 10197915
0.674833 0.099894658 1.7347029 10197915
0.71062309 0.099976219 1.7361189 10197915
0.63916725 0.10002495 1.7123272 10197915
0.67519593 0.10010719 1.7137355 10197915
0.72889113 0.10015125 1.7236159 10197915
0.77499354 0.10023052 1.7279979 10197915
0.82497209 0.10034291 1.7301158 10197915
0.87487984 0.10056336 1.7215062 10197915
0.92514396 0.10067812 1.7234701 10197915
0.97528404 0.10079259 1.7254295 10197915
1.0250447 0.10090624 1.7273684 10197915
1.0729625 0.1010878 1.7220849 10197915
1.1250401 0.10123849 1.7209702 10197915
1.1748415 0.10135227 1.7229041 8028551
1.2247559 0.10146636 1.7248443 1059398
1.275146 0.10158308 1.7266515 1059654
1.3252875 0.10169772 1.7285947 1058627
1.3646941 0.10175122 1.7337489 3885661
-0.45141998 -0.80227548 1.7980651 1322826
-0.44628653 -0.80118257 1.7933964 1519948
0.27676061 -0.8018598 1.7962253 2039583
-0.45150185 -0.77520055 1.7983465 1256777
-0.42651713 -0.77186471 1.775609 1782862
-0.39976907 -0.76688874 1.7512786 2045262
0.24269147 -0.76814878 1.7592653 3031124
0.26581022 -0.77380884 1.7845708 3096145
-0.45161209 -0.72511083 1.7988298 1388876
-0.42490396 -0.72486711 1.7744993 1783119
-0.39924827 -0.7210623 1.7511542 2242897
0.24191816 -0.72487098 1.7589818 2833747
0.26454586 -0.72502965 1.7838187 3228246
-0.45087427 -0.67631119 1.7985308 1652047
-0.42481202 -0.67483842 1.7747993 1914961
-0.39891517 -0.67759997 1.751184 2243155
0.24205099 -0.67480999 1.7597808 2834004
0.26472792 -0.67502391 1.7846711 3162710
-0.45089546 -0.62454498 1.7989454 1586511
-0.42422456 -0.62503707 1.7746429 1849169
-0.39824942 -0.62530118 1.7509769 2112083
0.2414685 -0.62456441 1.7597971 2636626
0.26425976 -0.62542003 1.784804 2899540
-0.45101905 -0.57476866 1.7994391 1652304
-0.42431495 -0.57500976 1.7751093 1652048
-0.39821854 -0.57353723 1.7513442 1848912
0.24076618 -0.57545936 1.7596655 2571604
0.2633788 -0.57476264 1.7844979 2834261
-0.45112059 -0.53388762 1.7998439 1323084
-0.42442128 -0.52498329 1.7755886 1520462
-0.39756826 -0.52487081 1.7511241 1783120
0.24032342 -0.52443111 1.7598453 2374227
0.26319122 -0.52518171 1.7849389 2571605
-0.42462629 -0.47498336 1.7761555 1454413
-0.39765111 -0.47494778 1.7515812 1849426
0.23986906 -0.47500873 1.7599914 2177875
0.26251072 -0.47510991 1.7848456 2374740
-0.42466462 -0.42500958 1.7765756 1388877
-0.39778692 -0.42498943 1.7520865 1652048
0.24000528 -0.42508087 1.7607919 2046290
0.26259089 -0.42506242 1.785585 2177619
-0.42479393 -0.37503627 1.7770746 1257292
-0.39721492 -0.37269685 1.7519654 1586255
0.23932531 -0.37486288 1.7607017 1651021
0.2622444 -0.37537143 1.7858539 1651021
-0.42418939 -0.3251327 1.776904 1323084
-0.39709577 -0.3249661 1.7522222 1454926
0.23934574 -0.32502607 1.761373 1520206
0.26197281 -0.32496399 1.7862126 1651534
-0.42405847 -0.27496833 1.7771684 1389133
-0.39716959 -0.27495721 1.752672 1586511
0.23900539 -0.27451351 1.7616583 1718097
0.26200548 -0.27512568 1.7868983 1783633
-0.42421103 -0.22499192 1.7776904 1257548
-0.39709532 -0.22400694 1.7529932 1454926
0.2387192 -0.22499479 1.7619911 1454926
0.26133269 -0.22503188 1.7868125 1520462
-0.42411619 -0.17518517 1.7779827 1388876
-0.39649132 -0.17500618 1.7528177 1586510
0.23873587 -0.17487691 1.7626628 1586511
0.26138583 -0.17505658 1.7875234 1586511
-0.42352313 -0.12500143 1.7778271 1191498
-0.39660046 -0.12493472 1.7532996 1323084
0.23808247 -0.12491554 1.7625971 1388619
0.2610915 -0.12553012 1.7878472 1388620
-0.42349845 -0.075027905 1.7781881 1257547
-0.39670959 -0.074835628 1.7537825 1389132
0.23809549 -0.074826024 1.7632648 1125448
0.26070756 -0.075191811 1.7880825 1125705
-0.42382833 -0.025055636 1.7788697 1257546
-0.39613572 -0.02361293 1.7536516 1388875
0.23774432 -0.02444078 1.7635365 1059400
0.26087597 -0.02525696 1.7889179 1125192
-0.42328292 0.024839655 1.7787551 1059398
-0.39601257 0.024706308 1.7539088 1191240
0.23753345 0.024848392 1.7639482 1125192
0.26012811 0.02519788 1.7887552 1191240
-1.4088738 0.093826458 1.7832788 10197915
-1.374692 0.094022311 1.772936 10197915
-1.324849 0.094134472 1.7750455 10197915
-1.2752508 0.094244339 1.7773182 10197915
-1.2251707 0.094356976 1.7794423 10197915
-1.1753329 0.094470777 1.7813866 10197915
-1.1244471 0.094597846 1.7822953 10197915
-1.0752697 0.094814807 1.7738391 10197915
-1.0271889 0.094948925 1.7733028 10197915
-0.97496098 0.095153771 1.7668588 10197915
-0.92518359 0.095267661 1.7687763 10197915
-0.87528181 0.095378518 1.7710327 10197915
-0.82526797 0.095492959 1.7729599 10197915
-0.77513051 0.09560433 1.775225 10197915
-0.72487849 0.095719315 1.7771622 10197915
-0.67486495 0.09583208 1.7792559 10197915
-0.62510526 0.095942587 1.7815063 10197915
-0.57289821 0.0961053 1.7792296 10197915
-0.52503043 0.096285172 1.7741017 10197915
-0.47680968 0.096408881 1.7746354 10197915
-0.42336449 0.074884474 1.7777793 3227992
-0.39611673 0.073409222 1.75437 2767443
0.23752734 0.074774429 1.7644107 4017505
0.26261461 0.078023925 1.786875 4872297
0.32469958 0.09854991 1.7750937 10197915
0.37477574 0.098661706 1.7773045 10197915
0.42496222 0.098777056 1.7791853 10197915
0.47489724 0.098890223 1.7812223 10197915
0.52730846 0.099083021 1.776018 10197915
0.57504213 0.099229492 1.7741665 10197915
0.62500453 0.099342793 1.7761923 10197915
0.67406225 0.099550582 1.7686166 10197915
0.72526544 0.099682815 1.7690958 10197915
0.77487749 0.099793814 1.7712598 10197915
0.82080156 0.099841036 1.7787637 10197915
0.87551773 0.099910617 1.7863865 10197915
0.90800601 0.099984296 1.7877041 10197915
0.83316314 0.10003773 1.7625474 10197915
0.87488544 0.10013257 1.7642184 10197915
0.92816198 0.1001634 1.775299 10197915
0.97522599 0.10024869 1.7793335 10197915
1.0250335 0.10036179 1.7813408 10197915
1.0765806 0.10057483 1.7738996 10197915
1.1251149 0.1007017 1.7742027 10197915
1.175199 0.10081334 1.7764275 10197915
1.2230717 0.1010017 1.7704598 5004395
1.2750415 0.10115375 1.7691839 1059397
1.3252836 0.10126644 1.7713456 1059398
1.3748784 0.101381 1.7731524 1518663
1.4089124 0.10137403 1.7828736 5266538
-0.47943187 -0.80790824 1.8235422 1387844
0.29191041 -0.80547476 1.8128088 2039583
0.31477052 -0.81109327 1.8378291 2039583
-0.47496429 -0.77509332 1.8197224 1651018
0.29037213 -0.7747696 1.81152 3359057
0.31258023 -0.7749936 1.8358964 3556177
-0.47505486 -0.7251243 1.8201891 1848654
0.28968954 -0.72504801 1.8114197 3557466
0.3127389 -0.72493571 1.8367229 3820379
-0.47428921 -0.67493129 1.819874 1980496
0.28975272 -0.67506409 1.8121409 3425624
0.31252846 -0.67536914 1.8371387 3688537
-0.47436073 -0.62501103 1.8203204 2046288
0.28891098 -0.62502337 1.8118705 3228246
0.31151432 -0.62449169 1.8366898 3425366
-0.47443438 -0.57503587 1.8207695 2112081
0.2882528 -0.57495469 1.8118001 2965589
0.31129777 -0.57502365 1.8370962 3162711
-0.47428679 -0.52481127 1.8210198 1717069
0.28825071 -0.52484679 1.8124523 2834261
0.31062207 -0.52522057 1.8370048 2900054
-0.47375804 -0.4750393 1.8209192 1650507
0.28757325 -0.47510454 1.8123573 2505812
0.31061688 -0.47499815 1.8376534 2702676
-0.47385126 -0.42499062 1.8213848 1651020
0.28770304 -0.42504108 1.813153 2374483
0.31051916 -0.42548347 1.8381923 2506068
-0.47403383 -0.37497619 1.8219332 1191241
0.2872735 -0.37455979 1.8133394 1914191
0.30997461 -0.37502983 1.8382528 1979727
-0.47416246 -0.32502851 1.8224318 1125449
-0.44971886 -0.31994855 1.8002027 1125450
0.28704962 -0.32503456 1.8137398 1782862
0.31006303 -0.32497865 1.8390034 1651020
-0.47423688 -0.27505386 1.8228828 1059657
-0.4498294 -0.27526763 1.8006451 1059401
0.28708822 -0.27487329 1.8144357 1849169
0.30961004 -0.27553108 1.8391509 1914961
-0.47430217 -0.22490953 1.8233252 1059656
-0.44994542 -0.2283296 1.8011094 1059401
0.28638154 -0.22499102 1.8143117 1652047
0.30939442 -0.22513033 1.8395711 1783632
-0.47351986 -0.17497605 1.8229947 993862
-0.44819185 -0.15660608 1.8000604 993606
0.28647745 -0.17490706 1.8150697 1717839
0.30947864 -0.1754034 1.8403125 1652303
-0.47371337 -0.12501259 1.8235526 927300
-0.44826895 -0.12530529 1.8003701 927300
0.28613481 -0.1245314 1.8153516 1388619
0.30877122 -0.12502496 1.8401935 1388619
-0.47368991 -0.074992247 1.8239154 1125960
-0.44839191 -0.075352609 1.8008641 1191497
0.28580007 -0.074890755 1.8156314 1191498
0.3088412 -0.075168535 1.8409201 1191498
-0.47403643 -0.024944082 1.8246136 1125703
-0.448515 -0.02537238 1.8013582 1191496
0.28595296 -0.024834707 1.8164511 1059399
0.30858165 -0.025915751 1.8412776 1059399
-0.47416648 0.024953173 1.8251117 1124934
-0.44783425 0.028079469 1.8011466 993348
0.2852011 0.024878129 1.8162749 1257290
0.30823603 0.025178794 1.841565 1257546
-1.4524342 0.09324082 1.8297787 10197915
-1.4219707 0.093413748 1.8207237 10197915
-1.3747933 0.093539961 1.8207319 10197915
-1.3247037 0.093650252 1.8230915 10197915
-1.2748609 0.093761764 1.8252628 10197915
-1.224906 0.093877211 1.8270766 10197915
-1.1748279 0.093985617 1.8296202 10197915
-1.1246271 0.09409795 1.831807 10197915
-1.0746788 0.094211601 1.8337983 10197915
-1.0224648 0.09438403 1.8305573 10197915
-0.97672439 0.094646692 1.8166559 10197915
-0.92534304 0.094790854 1.8160026 10197915
-0.87522024 0.094903283 1.8181566 10197915
-0.82535362 0.095017008 1.8201196 10197915
-0.77536428 0.095127337 1.8224487 10197915
-0.72526008 0.095241576 1.8244213 10197915
-0.67503494 0.095352411 1.8267612 10197915
-0.62469268 0.095467202 1.8287435 10197915
-0.57497883 0.09557689 1.8310616 10197915
-0.52514738 0.095690511 1.8330214 10197915
-0.47423568 0.073726259 1.8251456 3754846
-0.44783071 0.073861174 1.8014185 2899541
0.28507805 0.074355155 1.8164365 4017761
0.31138331 0.079365984 1.8377777 5398638
0.37466741 0.098196819 1.8233637 10197915
0.42462835 0.098311305 1.8252738 10197915
0.47470763 0.098422393 1.8275527 10197915
0.52490026 0.098537385 1.8294715 10197915
0.57520843 0.098648988 1.83176 10197915
0.62524951 0.098761819 1.8338553 10197915
0.67579168 0.098988794 1.8247671 10197915
0.722601 0.099145867 1.8216177 10197915
0.77514029 0.099337235 1.8165895 10197915
0.82499301 0.09944991 1.8186499 10197915
0.87457329 0.09956377 1.82052 10197915
0.92503452 0.099675998 1.8227849 10197915
0.97522831 0.099789463 1.8248593 10197915
1.0208765 0.099835075 1.8324542 10197915
1.0752375 0.099897519 1.8406916 10197915
1.110432 0.099976979 1.8421556 10197915
1.0334879 0.10003901 1.8155799 10197915
1.0751188 0.1001332 1.8172894 10197915
1.1286335 0.10016628 1.8282155 10197915
1.1751894 0.10024323 1.8329434 10197915
1.2266072 0.1004582 1.8252785 9671830
1.2745858 0.10058749 1.8251948 3097690
1.3248938 0.10081419 1.8160796 1059654
1.3749651 0.10092942 1.8179469 993605
1.4227662 0.10102167 1.8214861 1847370
1.4541171 0.10099091 1.8328555 10197915
0.33877337 -0.81697512 1.8641018 2039583
0.361 -0.82236636 1.8884312 2039583
0.33729136 -0.7750302 1.863023 3819346
0.36062872 -0.77520001 1.8886384 4082259
0.33741587 -0.7250604 1.8638107 4149084
0.35992137 -0.72502589 1.8885162 4411740
0.33715805 -0.67464322 1.8641852 3951707
0.36002365 -0.67493826 1.8892819 4149084
0.33678281 -0.62503517 1.8644208 3688280
0.35978505 -0.62553006 1.8896652 3885401
0.33689588 -0.57496953 1.8651978 3425624
0.35934198 -0.57503295 1.8898367 3622745
0.33624506 -0.52475631 1.8651375 3228503
0.35953972 -0.52506536 1.8907052 3359832
0.3362284 -0.47496396 1.8657684 2768468
0.3588869 -0.4753812 1.8906366 2834260
0.33570448 -0.42506126 1.8658452 2571604
0.35840929 -0.42417884 1.8907807 2637396
0.33459064 -0.37499768 1.8652761 1979727
0.35781756 -0.37543595 1.8907664 2045519
0.33477986 -0.32501152 1.8661355 1716813
0.35720041 -0.32507142 1.8907461 1782863
0.33421412 -0.27464655 1.8661706 1783632
0.35735592 -0.27505907 1.891569 1849169
0.3340781 -0.22494395 1.8666691 1783632
0.35704622 -0.22583318 1.8918719 1783632
0.3341226 -0.17482759 1.8673728 1586767
0.35666642 -0.17502736 1.8921173 1652303
0.33340433 -0.12499937 1.8672342 1322827
0.35678488 -0.12525128 1.8928967 1322827
0.3335593 -0.074885227 1.868058 1191498
0.35616767 -0.075819954 1.892864 1191498
0.33316442 -0.024554728 1.8682821 1059399
0.35614836 -0.025100783 1.8935045 1059143
0.33286673 0.024905479 1.8686005 1257546
0.35611382 0.024367908 1.8941121 1257803
-1.468421 0.09278468 1.8707577 10197915
-1.4247491 0.092917979 1.8691361 10197915
-1.3748988 0.09303084 1.8711743 10197915
-1.3249249 0.093140125 1.8736056 10197915
-1.2748349 0.093253598 1.875654 10197915
-1.224622 0.093363315 1.8780965 10197915
-1.1750484 0.093475677 1.8801144 10197915
-1.1253561 0.093584254 1.8825396 10197915
-1.0751636 0.093695931 1.8847866 10197915
-1.0294837 0.093850903 1.8815457 10197915
-0.97331423 0.094172537 1.8645664 10197915
-0.92513412 0.094290592 1.865651 10197915
-0.87515581 0.094402112 1.8678579 10197915
-0.82505888 0.094513915 1.8700699 10197915
-0.77485228 0.094629876 1.8718992 10197915
-0.72489667 0.094735444 1.8746896 10197915
-0.6752162 0.094850294 1.8764892 10197915
-0.62541014 0.09496145 1.8786896 10197915
-0.57510638 0.095071711 1.8811069 10197915
-0.52916485 0.095186502 1.8819213 10197915
0.33315778 0.074581698 1.8690954 4215139
0.3611722 0.080922745 1.8874121 5858931
0.42506105 0.097822428 1.8738523 10197915
0.47529876 0.0979352 1.8760051 10197915
0.52524912 0.098045275 1.8783504 10197915
0.57492685 0.098156728 1.8804854 10197915
0.62471825 0.09826842 1.8826258 10197915
0.67501348 0.098383278 1.8845887 10197915
0.72579867 0.098591469 1.8774253 10197915
0.77502429 0.09885776 1.8640897 10197915
0.8250044 0.098968208 1.8664041 10197915
0.87509769 0.099082842 1.8683339 10197915
0.92530388 0.099193804 1.8706583 10197915
0.97523069 0.099306092 1.8727762 10197915
1.0248693 0.09941972 1.8746865 10197915
1.0750245 0.099532552 1.8768134 10197915
1.1248835 0.099642694 1.8791242 10197915
1.1744635 0.099754244 1.8812264 10197915
1.2204115 0.099824481 1.886457 10197915
1.2745245 0.099854402 1.8978469 10197915
1.3125983 0.09993995 1.8994726 4675688
1.2390612 0.10002428 1.8716011 10197915
1.2757411 0.10011446 1.8723927 8488587
1.3248825 0.10034127 1.8629547 1059399
1.3750558 0.10045056 1.8654399 1125446
1.4253402 0.10056781 1.8671616 993092
1.4702842 0.10063533 1.8723959 3096662
0.39033347 -0.8545264 1.9202114 2039583
0.40894204 -0.85918117 1.9405774 2039583
0.38568559 -0.82496041 1.9154943 2039583
0.40840307 -0.82498419 1.940432 2039583
0.38569388 -0.7748192 1.9161584 4213587
0.40854394 -0.77498013 1.9412394 4148050
0.38498119 -0.72494054 1.9160264 4609117
0.40800583 -0.72576278 1.9412905 4674909
0.38520023 -0.67501378 1.9169188 4346205
0.40787265 -0.67494297 1.9418073 4411997
0.38482496 -0.62468606 1.9171621 4016986
0.40805107 -0.62487936 1.9426568 4083291
0.38447118 -0.57501978 1.9174223 3754330
0.4071686 -0.57508183 1.9423372 3688794
0.38379431 -0.52521479 1.9173291 3360088
0.40644407 -0.52454507 1.9422016 3294296
0.38293022 -0.47468895 1.9170393 2834260
0.40622199 -0.4756853 1.942595 2834261
0.38295707 -0.42494521 1.9177177 2637396
0.40562245 -0.42492861 1.9425989 2637396
0.38291699 -0.37476242 1.9183284 2045520
0.40579298 -0.37505984 1.9434364 2111568
0.38222432 -0.32494077 1.9182186 1848655
0.40547836 -0.32624584 1.9437267 1914191
0.38242453 -0.27494639 1.9190899 1849425
0.40509117 -0.27511141 1.94397 1849169
0.38205296 -0.22468589 1.9193373 1783632
0.40525466 -0.22495572 1.9448029 1718096
0.38175669 -0.17504843 1.919659 1586511
0.40464976 -0.17576717 1.9447813 1586511
0.38187081 -0.12495586 1.9204377 1322827
0.40458709 -0.12491979 1.9453752 1322827
0.38128471 -0.074758969 1.9204482 1125961
0.40468299 -0.075540796 1.9461247 1191497
0.3811433 -0.024965791 1.9209441 993606
0.40389234 -0.02498945 1.9459162 1059142
0.38107678 0.025211111 1.9215256 1257546
0.40406767 0.025003921 1.9467608 1257546
-1.5149075 0.092126712 1.9236438 10197915
-1.4747387 0.09226989 1.9201111 10197915
-1.4247396 0.092380546 1.922413 10197915
-1.3750104 0.092492692 1.9244921 10197915
-1.3251584 0.092600875 1.9269985 10197915
-1.2751909 0.092713572 1.9290874 10197915
-1.2251012 0.092822254 1.9316052 10197915
-1.1748934 0.09293548 1.933705 10197915
-1.1287636 0.093081824 1.9314413 10197915
-1.0748694 0.093294002 1.9247105 10197915
-1.0211288 0.09351074 1.9174865 10197915
-0.97500676 0.093653165 1.9156107 10197915
-0.92491418 0.093762226 1.9180915 10197915
-0.87508786 0.093872793 1.9203538 10197915
-0.82475841 0.093986571 1.9224308 10197915
-0.77469432 0.094097726 1.9246961 10197915
-0.72491223 0.094206072 1.9271713 10197915
-0.67500341 0.094318971 1.9292214 10197915
-0.62498814 0.094427809 1.9317076 10197915
-0.57484287 0.094541267 1.933768 10197915
-0.53623849 0.094640888 1.9341357 10197915
0.37993306 0.074432053 1.9203533 4214883
0.41129544 0.081815526 1.9383266 5923954
0.47510934 0.097415425 1.92748 10197915
0.52481329 0.097528547 1.9294581 10197915
0.57463044 0.097637542 1.9318742 10197915
0.62497061 0.097749881 1.9340975 10197915
0.67199546 0.097880483 1.9336288 10197915
0.72875828 0.098168515 1.9201423 10197915
0.77490544 0.098348454 1.9145516 10197915
0.82501644 0.098464794 1.9163177 10197915
0.87524211 0.098572977 1.9189222 10197915
0.92518741 0.098686874 1.9208857 10197915
0.97482026 0.098793663 1.9234725 10197915
1.0245787 0.098909274 1.9252149 10197915
1.0748571 0.099019654 1.9276178 10197915
1.1252476 0.099134564 1.9295994 10197915
1.1749303 0.099243559 1.9319768 10197915
1.2247277 0.099357165 1.9339324 10197915
1.2724403 0.099476427 1.9347739 10197915
1.3264226 0.099767044 1.9202881 5135981
1.3751748 0.099823631 1.9276179 1059399
1.4246714 0.099934541 1.9297596 1059910
1.4519366 0.099995635 1.9309393 1257546
1.3442432 0.10001104 1.9008236 993606
1.3751256 0.10008044 1.9021425 1059398
1.4247829 0.10019205 1.9042642 1125447
1.475992 0.10018488 1.9185669 927299
1.5162967 0.10022322 1.9254581 3885405
0.43524 -0.86550891 1.9693638 2039583
0.45732 -0.87170655 1.9935205 2039583
0.43273184 -0.82496506 1.9671395 2039583
0.4555656 -0.82494861 1.992205 2039583
0.43293959 -0.77504635 1.9680192 4016465
0.455789 -0.77493906 1.9931021 3819088
0.43241924 -0.72468823 1.9681048 4477533
0.45545587 -0.72605467 1.9933742 4214364
0.43221685 -0.67507017 1.9685296 4280412
0.45510077 -0.67479461 1.9936533 4083036
0.43239754 -0.62508273 1.9693804 3951450
0.45528454 -0.6248489 1.9945068 3688281
0.43154415 -0.57497454 1.9690971 3623002
0.45468822 -0.57604152 1.9944893 3491417
0.43174475 -0.52496105 1.9699686 3228504
0.45459986 -0.5250476 1.9950571 3162968
0.43157956 -0.47473234 1.9704429 2768724
0.45477903 -0.47524762 1.9959033 2702932
0.43107739 -0.4250001 1.9705399 2506068
0.45390534 -0.4254874 1.9955933 2506068
0.43120131 -0.37495774 1.971328 1979983
0.45410433 -0.37522516 1.996467 1979727
0.43083641 -0.32468283 1.9715841 1782862
0.45409381 -0.3263115 1.9970933 1651020
0.42957133 -0.27520734 1.9708408 1783632
0.45235306 -0.27374843 1.9958682 1783632
0.42968616 -0.22502531 1.9716206 1718096
0.45246908 -0.2249914 1.9966321 1652303
0.42892477 -0.17476593 1.9714404 1454926
0.45231614 -0.17769445 1.9970813 1455182
0.42889595 -0.1250447 1.9720575 1322827
0.45176035 -0.12493533 1.9971588 1257290
0.42911488 -0.074993789 1.9729521 1125961
0.45195836 -0.074496776 1.998034 1125962
0.42815888 -0.025049392 1.9725538 993606
0.45162618 -0.02905768 1.9982624 993863
0.4283362 0.025023127 1.9734014 1257546
0.45124614 0.02484102 1.9985483 1323339
-1.5623139 0.091423966 1.980733 10197915
-1.5247673 0.091593973 1.9738461 10197915
-1.4746131 0.091701925 1.9764532 10197915
-1.4247299 0.091811627 1.9788175 10197915
-1.3751293 0.091923036 1.9809376 10197915
-1.3250068 0.092033252 1.9833128 10197915
-1.2791394 0.092207052 1.978256 10197915
-1.2248842 0.092398196 1.973707 10197915
-1.1747719 0.092508562 1.9760648 10197915
-1.120786 0.092724986 1.9689345 10197915
-1.0749576 0.092869498 1.9667712 10197915
-1.0248536 0.092984565 1.9686602 10197915
-0.97502208 0.093092218 1.9712135 10197915
-0.92508203 0.093204662 1.9733198 10197915
-0.87501532 0.093312807 1.9758846 10197915
-0.82483715 0.093425803 1.9780023 10197915
-0.77453369 0.093534455 1.9805788 10197915
-0.72492313 0.09364628 1.9826604 10197915
-0.6784963 0.093774162 1.9823036 10197915
-0.62535542 0.094008423 1.9731791 10197915
-0.57534796 0.094118893 1.9754983 10197915
-0.54221833 0.094192095 1.9770343 10197915
0.4285219 0.074487157 1.973778 4412517
0.46715918 0.089239612 1.9872714 8225673
0.52476674 0.09698157 1.9836742 10197915
0.57086545 0.097137243 1.9804782 10197915
0.62496006 0.097342521 1.9744824 10197915
0.67887861 0.097525708 1.9706333 10197915
0.72504663 0.097704522 1.9651545 10197915
0.77518457 0.097813845 1.9676224 10197915
0.82502902 0.097924776 1.9698538 10197915
0.87498665 0.098035969 1.9720908 10197915
0.92463219 0.098148771 1.9740812 10197915
0.97481871 0.098260395 1.9763352 10197915
1.0255305 0.098370999 1.9788297 10197915
1.0751028 0.09848132 1.9810488 10197915
1.1247876 0.098591894 1.9832734 10197915
1.1730746 0.098714769 1.983906 10197915
1.225071 0.098953947 1.9739916 10197915
1.2781066 0.099118546 1.9717492 10197915
1.3244334 0.099310838 1.9649826 9869208
1.3748327 0.099423312 1.9672084 2506325
1.4249163 0.099537373 1.969192 1059398
1.4747027 0.099648573 1.9713914 1059655
1.5250152 0.09975858 1.9738415 927299
1.5639416 0.099774607 1.9825809 3162455
0.4892424 -0.90173411 2.0281718 2039583
0.5049535 -0.90190536 2.0454159 2039583
0.4820064 -0.87433672 2.0205863 2039583
0.50484979 -0.87664044 2.0456316 2039583
0.48127925 -0.82498658 2.0204308 2039583
0.50425899 -0.82488936 2.0456586 2039583
0.481529 -0.77500409 2.021358 3490126
0.50447911 -0.77494311 2.0465515 3226956
0.48021767 -0.72494018 2.0205712 3885658
0.50326836 -0.72582936 2.0458629 3491416
0.4797048 -0.67506015 2.0206585 3754330
0.50259495 -0.6752075 2.0457847 3294295
0.47987425 -0.62500733 2.0214984 3359831
0.50281572 -0.62491173 2.0466824 3162710
0.47920424 -0.57476383 2.0214176 3294296
0.50238377 -0.57749766 2.0468266 3096918
0.47914934 -0.52500296 2.0220058 2965846
0.50207013 -0.5254122 2.0471618 2834260
0.47937819 -0.47504163 2.0229099 2571604
0.5023098 -0.47515556 2.0480807 2440019
0.47848126 -0.42504174 2.0225766 2374739
0.5018031 -0.42873788 2.0481305 2308947
0.47868147 -0.37497392 2.0234499 1848655
0.5015856 -0.37512642 2.0485907 1848399
0.47860506 -0.32478526 2.0240211 1651277
0.50180376 -0.32519415 2.0494812 1585741
0.47797793 -0.27502385 2.0239809 1520205
0.50192189 -0.2980957 2.0499642 1914703
0.47796398 -0.22516598 2.024616 1388876
0.5000121 -0.20374003 2.0490985 1454411
0.47673163 -0.17472777 2.0239205 1389133
0.50013012 -0.17661473 2.0495815 1389133
0.4763149 -0.12502807 2.0241125 1257034
0.47648656 -0.075081736 2.0249522 1191498
0.47579572 -0.025000433 2.0248475 1059399
0.47468504 0.025078636 2.0242805 1323339
-1.6115884 0.090679795 2.0414324 10197915
-1.5744483 0.090881199 2.0313199 10197915
-1.526006 0.091000602 2.0323365 10197915
-1.4743093 0.091255121 2.0208235 10197915
-1.4249256 0.091363192 2.0232165 10197915
-1.3754241 0.091471501 2.0256152 10197915
-1.3249911 0.091581881 2.028059 10197915
-1.2720289 0.091822416 2.0182691 10197915
-1.2254674 0.091951177 2.0178626 10197915
-1.1754587 0.092063285 2.0200217 10197915
-1.1253285 0.092170671 2.0226796 10197915
-1.0750791 0.092283301 2.0248489 10197915
-1.0251158 0.092392832 2.027252 10197915
-0.97504425 0.092497565 2.0301557 10197915
-0.92484677 0.092612609 2.0320749 10197915
-0.87905943 0.092756987 2.0299144 10197915
-0.82510263 0.092981689 2.0219576 10197915
-0.77492195 0.09309186 2.0243537 10197915
-0.72544754 0.093200475 2.0267153 10197915
-0.67087907 0.09339302 2.0221112 10197915
-0.62491596 0.093570404 2.0167246 10197915
-0.57505012 0.093682513 2.0188453 10197915
-0.54591238 0.093893617 2.0056503 10197915
0.4751538 0.073940016 2.0250533 4412517
0.52472913 0.096549317 2.0265107 10197915
0.5789265 0.096773811 2.0186384 10197915
0.62537545 0.096919097 2.0165648 10197915
0.67501324 0.097026452 2.0190935 10197915
0.72477114 0.097139031 2.0211408 10197915
0.77463198 0.097246885 2.0236804 10197915
0.8246187 0.097359955 2.0257375 10197915
0.87470448 0.097468309 2.0282881 10197915
0.92448503 0.097578451 2.0305803 10197915
0.97480983 0.097692266 2.0326519 10197915
1.0216469 0.097827695 2.0316591 10197915
1.0752966 0.098058604 2.0230072 10197915
1.1251737 0.098169111 2.0252872 10197915
1.1781926 0.09832859 2.0235493 10197915
1.2250035 0.098533176 2.015691 10197915
1.2752924 0.098647222 2.0177338 10197915
1.3252723 0.098758206 2.0199938 10197915
1.3749214 0.098865874 2.0224967 8817294
1.4251238 0.098977253 2.0247757 1585741
1.475004 0.099090464 2.0267904 1059654
1.5249922 0.099198923 2.0293105 1059398
1.5750995 0.099312693 2.0313349 993092
1.612668 0.099292673 2.0432909 1123907
0.5297116 -0.90193444 2.0725937 2039583
0.55301797 -0.90176058 2.0981801 2039583
0.52948034 -0.87461418 2.0726955 2039583
0.55272418 -0.87720948 2.0981777 2039583
0.52902263 -0.82500255 2.0728407 2039583
0.55192173 -0.82483858 2.09798 2039583
0.52919328 -0.77501005 2.0736792 3030091
0.55216336 -0.77476609 2.0988986 2898763
0.5284583 -0.72486269 2.073529 3294295
0.55164564 -0.72490686 2.0989807 3162710
0.52726692 -0.6749475 2.0728719 3162710
0.55019879 -0.67536074 2.0980392 2965332
0.52753717 -0.62502956 2.0738192 3031124
0.55043966 -0.62522113 2.0989573 2899539
0.52695447 -0.57463449 2.0738361 2900053
0.55063498 -0.58455962 2.0997021 2834004
0.52675605 -0.52493048 2.0742657 2636883
0.5270412 -0.47502258 2.0752313 2308433
0.52583987 -0.42507631 2.0745633 2045776
0.52507818 -0.3750121 2.0743823 1783118
0.52532059 -0.3250367 2.0752993 1585741
0.52388829 -0.27520975 2.0743771 1388363
0.52342659 -0.22498956 2.0745263 1190728
0.52352303 -0.17490683 2.0752847 1389133
0.52196306 -0.12536602 2.0742166 1191241
0.52164316 -0.075000197 2.0745242 1125705
0.49855557 -0.0050958954 2.050091 1125447
0.52201903 -0.024935067 2.0755889 993606
0.49868435 0.024638627 2.0506201 1257802
0.52147406 0.024628511 2.0756364 1257546
-1.6253334 0.090296574 2.0757718 10197915
-1.5756181 0.090404622 2.0782557 10197915
-1.5231465 0.090556271 2.0771472 10197915
-1.4752297 0.090785414 2.0671504 10197915
-1.4251347 0.090891838 2.0698934 10197915
-1.3753213 0.091000274 2.0723631 10197915
-1.3253896 0.091108993 2.0748386 10197915
-1.2749256 0.091221482 2.0770788 10197915
-1.2247522 0.091330804 2.0795577 10197915
-1.1748879 0.091436617 2.0822999 10197915
-1.1278721 0.09164656 2.0739675 10197915
-1.0743402 0.091817059 2.0712724 10197915
-1.0249143 0.091924831 2.0737038 10197915
-0.97537154 0.092032894 2.0761411 10197915
-0.92486972 0.092143029 2.0786257 10197915
-0.87063414 0.092363827 2.0711279 10197915
-0.82496381 0.092518464 2.067915 10197915
-0.77490306 0.092630535 2.0700946 10197915
-0.72473258 0.092737436 2.0728085 10197915
-0.67485917 0.092846379 2.0752439 10197915
-0.6252954 0.092957333 2.0773981 10197915
-0.5809145 0.093069226 2.0780845 10197915
0.49889398 0.073093429 2.051482 4281188
0.52175975 0.074657194 2.0749948 4675432
0.5751248 0.09621197 2.0733333 10197915
0.6247884 0.096315779 2.0762208 10197915
0.67457575 0.096430682 2.0780463 10197915
0.72491634 0.096538678 2.0806994 10197915
0.77536714 0.096652307 2.0828223 10197915
0.82196379 0.096859626 2.0746381 10197915
0.87492907 0.09702301 2.0724971 10197915
0.92491806 0.097133115 2.0748491 10197915
