# .PCD v0.7 - Point Cloud Data file format
VERSION 0.7
FIELDS x y z rgb
SIZE 4 4 4 4
TYPE F F F U
COUNT 1 1 1 1
WIDTH 771
HEIGHT 1
VIEWPOINT 0 0 0 1 0 0 0
POINTS 771
DATA ascii
0.2929503 -0.20044856 0.44903275 2894892
0.29570204 -0.17505394 0.44745576 2894892
0.31821486 -0.17214882 0.43427202 2894892
0.29584828 -0.12500744 0.44743976 2894892
0.31891319 -0.12500221 0.43392882 2894892
0.295809 -0.075184062 0.44753197 2894892
0.31888413 -0.074960381 0.43401518 2894892
0.29579461 -0.025061823 0.44761011 2894892
0.31885916 -0.025000121 0.4341009 2894892
0.29594707 0.024984354 0.44758993 2894892
0.31888986 0.024998924 0.43414941 2894892
0.29598203 0.074984834 0.44763955 2894892
0.31893128 0.074999191 0.43419436 3158064
-0.35270724 0.11526794 0.44674256 10197915
-0.3196519 0.11531032 0.42779234 10197915
-0.27499276 0.11533042 0.42372078 10197915
-0.22499771 0.1153446 0.42377713 10197915
-0.17500271 0.11536094 0.42382878 10197915
-0.1249989 0.11537783 0.4238869 10197915
-0.0749956 0.11539222 0.42394763 10197915
-0.024997044 0.11540635 0.42400756 10197915
0.02499694 0.11542318 0.42405954 10197915
0.074949421 0.11543928 0.42405596 10197915
0.12499908 0.1154554 0.42352805 10197915
0.17505063 0.11547045 0.42299241 10197915
0.2249999 0.11548518 0.42299828 10197915
0.27877989 0.1140703 0.42748469 10132122
0.31745869 0.10990757 0.42998061 10197915
0.22611494 -0.20920986 0.48817474 2894892
0.26550058 -0.20404933 0.46510783 2894892
0.22850835 -0.17499942 0.4868215 2894892
0.27116537 -0.17496523 0.46182668 2894892
0.22863615 -0.12503855 0.486812 2894892
0.27129918 -0.12499871 0.46182159 2894892
0.22871538 -0.075000465 0.48683694 2894892
0.27132934 -0.074999996 0.46187341 2894892
0.22874373 -0.025001746 0.48689002 2894892
0.27137917 -0.024984373 0.46190828 2894892
0.22879055 0.024977164 0.48693231 2894892
0.27153599 0.024999211 0.46189255 2894892
0.22895142 0.0749989 0.48690757 2894892
0.27156305 0.0749982 0.46194631 2894892
-0.36585665 0.11520711 0.47993708 10197915
-0.32500809 0.11523003 0.4738088 10197915
-0.27499336 0.11524516 0.47388995 10197915
-0.22499092 0.11526024 0.47395673 10197915
-0.17500064 0.11527628 0.47401488 10197915
-0.12500337 0.11529164 0.47408926 10197915
-0.075005166 0.11530684 0.47413924 10197915
-0.025006928 0.11532129 0.47421044 10197915
0.025004966 0.11533719 0.47426739 10197915
0.075068057 0.11535223 0.47427306 10197915
0.12499536 0.11536934 0.47359377 10197915
0.17499554 0.11538403 0.47365159 10197915
0.22643884 0.11064505 0.48010275 8618883
0.27060881 0.10878422 0.46137103 9474192
0.13509537 -0.22121191 0.54147422 2894892
0.1739568 -0.21604112 0.51871914 2894892
0.20285712 -0.2122599 0.50179285 2894892
0.13565345 -0.17499742 0.54121214 2894892
0.17568122 -0.17500113 0.51776564 2894892
0.20290613 -0.17502527 0.50181568 2894892
0.1356685 -0.12499844 0.54127479 2894892
0.17569895 -0.12500151 0.51782465 2894892
0.2030407 -0.12471479 0.50180733 2894892
0.13567978 -0.075003982 0.54133862 2894892
0.17571323 -0.075000308 0.51788467 2894892
0.20311972 -0.074997418 0.50183082 2894892
0.13582429 -0.025079548 0.5413208 2894892
0.17573987 -0.025000155 0.51793742 2894892
0.20314391 -0.024994485 0.50188559 2894892
0.1359089 0.024997758 0.54134005 2894892
0.17576014 0.024999265 0.51799583 2894892
0.20319085 0.025154779 0.50192714 2894892
0.13592139 0.075000383 0.54140502 2894892
0.17577362 0.074997045 0.51805842 2894892
0.20335516 0.074990787 0.50190061 2894892
-0.41243103 0.11510137 0.53333187 10197915
-0.37494686 0.11513097 0.52336466 10197915
-0.32499 0.11514556 0.52343595 10197915
-0.27500519 0.11516072 0.52348816 10197915
-0.22499754 0.11517552 0.52356285 10197915
-0.17499399 0.11519036 0.52362138 10197915
-0.1249947 0.11520675 0.52368486 10197915
-0.074990936 0.11522105 0.52376944 10197915
-0.024991384 0.11523698 0.52383 10197915
0.024987094 0.1152522 0.52390385 10197915
0.074986935 0.11526662 0.5239743 10197915
0.12959991 0.11154553 0.53158522 7171437
0.17443974 0.10907359 0.51682675 6447714
0.20334779 0.10778728 0.50193501 6776679
0.042400643 -0.25826275 0.59572595 2894892
0.068667725 -0.25483099 0.58034283 2894892
0.10193375 -0.25045884 0.56086177 2894892
0.042686433 -0.22499707 0.59560412 2894892
0.075682022 -0.22499992 0.57627428 2894892
0.1102872 -0.22417845 0.55599618 2894892
0.042693336 -0.17499752 0.59567016 2894892
0.075690441 -0.17499742 0.57633889 2894892
0.11054702 -0.1750081 0.5559265 2894892
0.042695917 -0.1249951 0.5957377 2894892
0.075698003 -0.12500083 0.57640517 2894892
0.11056504 -0.12500307 0.55598891 2894892
0.042807508 -0.075218573 0.59574181 2894892
0.075707264 -0.07499864 0.57647109 2894892
0.1105735 -0.075000867 0.55603504 2894892
0.042943798 -0.025017502 0.59573233 2894892
0.0757173 -0.024998792 0.57653302 2894892
0.11071952 -0.024887476 0.5560196 2894892
0.042947739 0.025012955 0.59579879 2894892
0.075724341 0.024996176 0.57659727 2894892
0.11080588 0.025001902 0.55605972 2894892
0.042956889 0.075013019 0.59586287 2894892
0.075730704 0.074995235 0.57666332 2894892
0.11081439 0.075003713 0.55612099 2894892
-0.459122 0.11499236 0.58866036 10197915
-0.42388412 0.11502647 0.57490879 10197915
-0.37508017 0.11504377 0.57372558 10197915
-0.32506657 0.11505834 0.57382649 10197915
-0.27498674 0.11507426 0.5738973 10197915
-0.22499028 0.11508936 0.57397586 10197915
-0.17500201 0.11510465 0.5740301 10197915
-0.12500067 0.11511939 0.57411945 9934743
-0.07526017 0.1151362 0.57350636 9013641
-0.024997309 0.11515214 0.57309157 7895160
0.030101378 0.1129121 0.57966977 5526612
0.074454948 0.10960358 0.57338363 3947580
0.11056684 0.10819396 0.55597651 3618615
-0.026066659 -0.26723832 0.63582206 2894892
0.016758593 -0.26162931 0.61074227 2894892
-0.024463579 -0.22499938 0.63493901 2894892
0.017946312 -0.22500262 0.61009645 2894892
-0.024460569 -0.1750001 0.63500988 2894892
0.017947514 -0.17500819 0.61016643 2894892
-0.024473261 -0.12500124 0.63508445 2894892
0.017948236 -0.12501004 0.61023587 2894892
-0.02433354 -0.075064324 0.63507396 2894892
0.01806562 -0.074910998 0.61023635 2894892
-0.024201248 -0.025000028 0.63506609 2894892
0.018200923 -0.024996318 0.61022609 2894892
-0.024206325 0.024998032 0.6351372 2894892
0.0182028 0.024992971 0.61029345 2894892
-0.024212779 0.0749982 0.63521421 2894892
0.018209241 0.074996151 0.6103608 2894892
-0.50584733 0.11488447 0.64325404 10197915
-0.4723233 0.11492252 0.62709117 10197915
-0.42500135 0.11494055 0.62486786 10066329
-0.37491554 0.11495604 0.62495893 9145227
-0.32491672 0.11497092 0.62503546 7960953
-0.27499118 0.11498624 0.62511945 6710886
-0.22499509 0.11500177 0.62520349 5395026
-0.17499986 0.11501667 0.62525803 4013373
-0.12524919 0.11503363 0.62431806 2960685
-0.074658267 0.11505122 0.62320799 2894892
-0.025484787 0.11005393 0.62930638 2894892
0.017495666 0.10852978 0.60985798 2894892
-0.12094212 -0.30466169 0.69134754 2894892
-0.095141478 -0.30127367 0.67623889 2894892
-0.1176827 -0.2750034 0.68947828 2894892
-0.075504743 -0.27341923 0.66477555 2829099
-0.11769938 -0.2250001 0.68955815 2894892
-0.074583091 -0.22500291 0.66430157 2894892
-0.1174797 -0.17508547 0.68949872 2894892
-0.074585631 -0.17499904 0.6643731 2894892
-0.11740382 -0.12500039 0.68952543 2894892
-0.07460089 -0.12499662 0.66445059 2894892
-0.11742667 -0.075002223 0.68960768 2894892
-0.074615598 -0.075002134 0.6645304 2894892
-0.049819618 -0.063553549 0.65001941 2894892
-0.1174311 -0.025003513 0.68967795 2894892
-0.074611761 -0.025003441 0.66459554 2894892
-0.04982391 -0.025046146 0.65007544 2894892
-0.117442 0.02499686 0.68975598 2894892
-0.07462322 0.025000721 0.66467178 2894892
-0.049829487 0.025049878 0.65014827 2894892
-0.11720368 0.074932784 0.68968624 2894892
-0.074636675 0.075002261 0.6647501 2894892
-0.04983506 0.075157158 0.65022105 2894892
-0.5520891 0.11477865 0.6967833 2894892
-0.51947987 0.11482005 0.67842287 4802889
-0.4750092 0.11484088 0.67445058 4539717
-0.42499375 0.11485578 0.6745621 3158064
-0.37496522 0.11487092 0.67460775 2894892
-0.3249785 0.11488597 0.67474753 2894892
-0.27499837 0.11490119 0.67480099 2894892
-0.22500454 0.11491597 0.67489386 2894892
-0.17499761 0.1149318 0.6749841 2894892
-0.12156632 0.11094397 0.68092513 2894892
-0.075937353 0.10879346 0.66373432 2894892
-0.04983836 0.1077586 0.65026385 2894892
-0.21075825 -0.31641966 0.74394715 2894892
-0.176856 -0.31198665 0.72409219 2894892
-0.14327683 -0.30759382 0.70442784 2894892
-0.21047725 -0.27498746 0.74384046 2894892
-0.17457846 -0.27500218 0.72281021 2894892
-0.14297029 -0.27500281 0.70429385 2894892
-0.21018022 -0.2251019 0.74373549 2894892
-0.17460196 -0.22499777 0.7228936 2894892
-0.1429881 -0.22500105 0.70437336 2894892
-0.21015181 -0.17500277 0.74378788 2894892
-0.17441685 -0.17491369 0.72285426 2894892
-0.1425719 -0.17505367 0.70419955 2894892
-0.2101776 -0.12498748 0.7438724 2894892
-0.17429221 -0.12500688 0.7228508 2894892
-0.14235966 -0.12498746 0.70414442 2894892
-0.2101977 -0.075016081 0.7439543 2894892
-0.17431307 -0.075003818 0.72293186 2894892
-0.14237945 -0.074992828 0.7042253 2894892
-0.21022631 -0.025022864 0.74403924 2894892
-0.17432764 -0.025002684 0.72300929 2894892
-0.14238659 -0.025000386 0.70429885 2894892
-0.21002185 0.024812305 0.74398983 2894892
-0.17434584 0.025002228 0.72309035 2894892
-0.1424025 0.025004074 0.70437789 2894892
-0.20989613 0.07500197 0.74398524 2894892
-0.17437643 0.075005054 0.72317833 2894892
-0.14214911 0.075148389 0.70429915 2894892
-0.56502181 0.11471913 0.72920448 2894892
-0.52499127 0.11474187 0.72314602 2894892
-0.47497687 0.11475699 0.72324502 2894892
-0.42499548 0.11477219 0.72332287 2894892
-0.375047 0.11478742 0.72341549 2894892
-0.32503867 0.11480248 0.72353548 2894892
-0.27499464 0.11481769 0.72362614 2894892
-0.21965437 0.1119775 0.73099816 2894892
-0.17568019 0.10916383 0.72086555 2894892
-0.14224508 0.10781569 0.7042591 2894892
-0.30327871 -0.35353425 0.79809427 2894892
-0.2922309 -0.35211721 0.79162449 2894892
-0.30319118 -0.3249681 0.79808301 2894892
-0.27510932 -0.32412237 0.78164124 2894892
-0.23576178 -0.31969935 0.75858897 2894892
-0.3032299 -0.27497822 0.79817492 2894892
-0.27449581 -0.27499929 0.78133774 2894892
-0.23532696 -0.27500588 0.75839663 2894892
-0.30326384 -0.22502473 0.79826421 2894892
-0.27453041 -0.22499213 0.78142589 2894892
-0.23502493 -0.22493279 0.7582894 2894892
-0.30329627 -0.17501222 0.7983523 2894892
-0.27456662 -0.17499936 0.78152913 2894892
-0.23499899 -0.17499417 0.75834298 2894892
-0.30332372 -0.12494187 0.79843813 2894892
-0.27457803 -0.12501116 0.781591 2894892
-0.23503251 -0.12499662 0.75843275 2894892
-0.30302742 -0.075598948 0.79833305 2894892
-0.27462327 -0.075001292 0.78169739 2894892
-0.23504479 -0.074996337 0.75850928 2894892
-0.30272421 -0.024127504 0.79822701 2894892
-0.27443591 -0.025095347 0.78165746 2894892
-0.23508963 -0.024993256 0.75860524 2894892
-0.30257809 0.025086025 0.79820967 2894892
-0.27427465 0.024993341 0.78162163 2894892
-0.23486996 0.025144219 0.75854486 2894892
-0.30262163 0.075027876 0.79830444 2894892
-0.27430803 0.07499703 0.7817238 2894892
-0.23473351 0.074994892 0.75853527 2894892
-0.61174566 0.1146112 0.78389442 2894892
-0.57486862 0.11464101 0.77308899 2894892
-0.52500039 0.11465636 0.7730605 2894892
-0.47499478 0.11467151 0.77315813 2894892
-0.4250021 0.11468673 0.77325809 2894892
-0.37510341 0.11470176 0.77335984 2894892
-0.32194993 0.11365444 0.77698135 2894892
-0.275594 0.1096659 0.77686322 2894892
-0.23530166 0.10822347 0.75820267 2894892
-0.32830518 -0.35679951 0.81275064 2894892
-0.32567403 -0.3249855 0.81125188 2894892
-0.32570353 -0.27500549 0.81134069 2894892
-0.32574809 -0.22500019 0.8114354 2894892
-0.32577711 -0.17499016 0.8115204 2894892
-0.32582042 -0.12499966 0.81161731 2894892
-0.32548699 -0.074916348 0.81149077 2894892
-0.32545796 -0.024989193 0.81154293 2894892
-0.32549462 0.024992954 0.81163454 2894892
-0.32552099 0.074999675 0.8117187 2894892
-0.65793622 0.11450572 0.83720982 2894892
-0.62379265 0.11453908 0.82385635 2894892
-0.57499337 0.11455555 0.82296675 2894892
-0.52501303 0.11457057 0.82306796 2894892
-0.47501889 0.11458591 0.82315862 2894892
-0.42501244 0.11460103 0.82327807 2894892
-0.37547332 0.11461659 0.82305807 2894892
-0.32711643 0.10850719 0.81131542 2894892
-0.70554596 0.11439329 0.89434797 2894892
-0.67177314 0.11443307 0.87714809 2894892
-0.62499636 0.11445241 0.87425578 2894892
-0.57498133 0.1144677 0.87431836 2894892
-0.52498972 0.11448263 0.87447417 2894892
-0.47498447 0.11449771 0.87467682 2894892
-0.42558572 0.11451566 0.87301517 2894892
-0.38265756 0.1145346 0.86966562 2894892
-0.75209588 0.11428715 0.94798625 2894892
-0.71950603 0.11432779 0.93010652 2894892
-0.67496008 0.11434805 0.92624789 2894892
-0.62506312 0.11436328 0.92629999 2894892
-0.57505769 0.11437839 0.92645895 2894892
-0.52499074 0.11439346 0.92659932 2894892
-0.47495845 0.11440852 0.92675608 2894892
-0.42429072 0.11442749 0.92475712 2894892
-0.39221653 0.1144537 0.91522795 2894892
-0.76478904 0.11422826 0.98012894 2894892
-0.72500694 0.11425012 0.97448564 2894892
-0.67503452 0.1142652 0.9746148 2894892
-0.62499368 0.1142804 0.97469807 2894892
-0.57499647 0.11429542 0.97487223 2894892
-0.52504349 0.11431055 0.97501647 2894892
-0.47507727 0.11432563 0.97514623 2894892
-0.42948112 0.11434291 0.9732455 2894892
-0.81185102 0.11411912 1.0354216 2894892
-0.77486873 0.11414918 1.0244994 2894892
-0.72518432 0.11416462 1.0243804 2894892
-0.67513245 0.11417972 1.0245559 2894892
-0.62494785 0.11419481 1.0247265 2894892
-0.57493114 0.11420996 1.0248258 2894892
-0.52496129 0.11422508 1.0249418 2894892
-0.47503918 0.11424015 1.0250973 2894892
-0.43935522 0.1142593 1.020294 2894892
-0.85829449 0.11401242 1.0894258 2894892
-0.82382298 0.11404547 1.0762937 2894892
-0.77489281 0.11406182 1.0755206 2894892
-0.72479016 0.11407711 1.0755661 2894892
-0.6748215 0.11409207 1.0757798 2894892
-0.62498897 0.1141071 1.0759225 2894892
-0.57499433 0.11412227 1.0760155 2894892
-0.52498645 0.11413742 1.0761341 2894892
-0.47662553 0.11415405 1.07512 2894892
-0.44720873 0.11419147 1.0585116 2894892
-0.90372038 0.11391036 1.14089 2894892
-0.87150246 0.11394731 1.1251017 2894892
-0.82501686 0.11396539 1.1228498 2894892
-0.77506649 0.11398063 1.1228991 2894892
-0.7249195 0.11399564 1.1231154 2894892
-0.67494267 0.11401065 1.1232957 2894892
-0.62504685 0.11402579 1.1234118 2894892
-0.57504487 0.1140409 1.1235269 2894892
-0.52502924 0.11405596 1.1237081 2894892
-0.48555589 0.11407213 1.121313 2894892
-0.95210314 0.11379521 1.199461 2894892
-0.91902357 0.1138375 1.1806939 2894892
-0.87496603 0.11386167 1.1744852 2894892
-0.82495636 0.11387687 1.1745775 2894892
-0.77608109 0.11389638 1.1719283 2894892
-0.72508252 0.11391526 1.1700442 2894892
-0.67504805 0.11393021 1.1702737 2894892
-0.62509847 0.11394539 1.1703533 2894892
-0.57513577 0.11396039 1.1705444 2894892
-0.52506298 0.11397555 1.1706636 2894892
-0.4938336 0.11400182 1.1609235 2894892
-0.96421766 0.11373868 1.2303323 2894892
-0.92492139 0.11375835 1.2258744 2894892
-0.87501365 0.11377356 1.2259264 2894892
-0.82509363 0.11378841 1.2261986 2894892
-0.77376032 0.11381035 1.222579 2894892
-0.72505766 0.11382781 1.2211032 2894892
-0.67516255 0.11384272 1.221352 2894892
-0.62505406 0.11385796 1.2214293 2894892
-0.57503277 0.11387301 1.2215881 2894892
-0.53112715 0.11389059 1.2191929 2894892
-1.0126607 0.11362354 1.288874 2894892
-0.97472191 0.11365662 1.2763741 2894892
-0.92502671 0.11367227 1.2761495 2894892
-0.87509757 0.113697 1.2706292 2894892
-0.82480913 0.11371221 1.2707641 2894892
-0.77476633 0.11372733 1.2709017 2894892
-0.72510731 0.11374238 1.2710061 2894892
-0.67516917 0.11375742 1.2711781 2894892
-0.62495846 0.11377239 1.2714058 2894892
-0.5749945 0.11378745 1.2715739 2894892
-0.54119027 0.11380503 1.2673794 2894892
-1.0592278 0.11351623 1.343205 2894892
-1.0242292 0.11354763 1.3311436 2894892
-0.9757902 0.11356448 1.3299774 2894892
-0.92499465 0.11358941 1.3245271 2894892
-0.87491804 0.11361507 1.3185145 2894892
-0.82518411 0.11363007 1.3186543 2894892
-0.77529883 0.11364521 1.3187619 2894892
-0.72499156 0.11366004 1.3191061 2894892
-0.67481101 0.1136755 1.3190784 2894892
-0.62488592 0.11369026 1.3193877 2894892
-0.57728231 0.11370729 1.3179853 2894892
-0.54823953 0.11374489 1.301209 2894892
-1.1025664 0.11342327 1.3897399 2894892
-1.0719742 0.11345305 1.3778284 2894892
-1.0250299 0.11347003 1.3763274 2894892
-0.97389841 0.11348772 1.3751631 2894892
-0.92497694 0.11351153 1.3700117 2894892
-0.8750059 0.11352663 1.3701518 2894892
-0.82502228 0.11354161 1.3703742 2894892
-0.77502328 0.11355679 1.3704395 2894892
-0.72487193 0.11357173 1.3706996 2894892
-0.67484587 0.11358675 1.3709161 2894892
-0.62509304 0.11360173 1.3710614 2894892
-0.58726764 0.11362003 1.367159 2894892
-1.1504892 0.1133103 1.4471221 2894892
-1.1189533 0.11334713 1.4312716 2894892
-1.0751024 0.11337078 1.4253294 2894892
-1.0251974 0.11338598 1.4253877 2894892
-0.9749822 0.11340111 1.4255388 2894892
-0.92490011 0.11341587 1.4258962 2894892
-0.8749541 0.11343095 1.4260421 2894892
-0.82484591 0.11344613 1.426144 2894892
-0.77487427 0.11346093 1.4264631 2894892
-0.72488755 0.11347602 1.4266087 2894892
-0.67488605 0.11349095 1.4268405 2894892
-0.6262114 0.1135077 1.4257824 2894892
-0.59597129 0.11354492 1.409471 2894892
-1.1645366 0.113245 1.4827441 2894892
-1.1248993 0.11326563 1.4778095 2894892
-1.0748394 0.11328063 1.4780085 2894892
-1.0247625 0.11329567 1.4782017 2894892
-0.97487831 0.11331043 1.4785254 2894892
-0.92498153 0.11332584 1.4784656 2894892
-0.87507081 0.11334038 1.4789164 2894892
-0.82514703 0.11335557 1.4789833 2894892
-0.77500403 0.11337062 1.4791827 2894892
-0.72485119 0.11338567 1.479376 2894892
-0.67508942 0.11340061 1.4795706 2894892
-0.63542515 0.11341649 1.4773961 2894892
-1.2042805 -0.56837881 1.5267048 2894892
-1.1953069 -0.56839544 1.5420567 2894892
-1.2043034 -0.52498764 1.5267674 2894892
-1.1953362 -0.52496797 1.5420985 2894892
-1.204354 -0.4749943 1.5267882 2894892
-1.1953727 -0.47499955 1.5421567 2894892
-1.2043852 -0.42499775 1.5268465 2894892
-1.195406 -0.42499128 1.542205 2894892
-1.2044177 -0.37503746 1.5269029 2894892
-1.195454 -0.37501749 1.5422354 2894892
-1.2044584 -0.3249954 1.5269446 2894892
-1.1954851 -0.32504004 1.5423005 2894892
-1.2045077 -0.27494961 1.5269729 2894892
-1.195522 -0.27502236 1.5423398 2894892
-1.2045259 -0.22497991 1.5270536 2894892
-1.1955574 -0.22500157 1.5423963 2894892
-1.2045674 -0.17500813 1.5270946 2894892
-1.1957058 -0.17537816 1.5422541 2894892
-1.2044342 -0.12470853 1.5274358 2894892
-1.1957194 -0.12528494 1.5423394 2894892
-1.2043409 -0.075013533 1.5277048 2894892
-1.1956789 -0.074855559 1.5425279 2894892
-1.2044368 -0.025020747 1.5276541 2894892
-1.1957005 -0.024923949 1.5425955 2894892
-1.2044749 0.024984598 1.5277003 2894892
-1.1957387 0.024924979 1.5426434 2894892
-1.2044535 0.074983537 1.5278475 2894892
-1.1957911 0.074862778 1.542671 2894892
-1.2045389 0.10677969 1.5275086 2894892
-1.186479 0.10935707 1.5353647 2894892
-1.1246603 0.11318281 1.5262277 2894892
-1.0748514 0.11319774 1.5264295 2894892
-1.0248158 0.11321273 1.5266318 2894892
-0.97498065 0.11322767 1.5268332 2894892
-0.92491984 0.11324245 1.5271764 2894892
-0.8748458 0.11325771 1.5272381 2894892
-0.82497126 0.11327265 1.52744 2894892
-0.77486926 0.11328769 1.5276421 2894892
-0.72496825 0.11330265 1.5278437 2894892
-0.67505038 0.11331763 1.5280459 2894892
-0.6439473 0.11334322 1.5186517 2894892
-1.1762252 -0.56846118 1.5747005 2894892
-1.1762679 -0.52498382 1.5747172 2894892
-1.1763057 -0.47500724 1.5747646 2894892
-1.1763331 -0.42501527 1.5748402 2894892
-1.1763735 -0.37500671 1.5748804 2894892
-1.1764115 -0.32498261 1.5749257 2894892
-1.1764483 -0.27496868 1.5749663 2894892
-1.1764768 -0.22498937 1.5750324 2894892
-1.1766412 -0.17488745 1.5748644 2894892
-1.1770836 -0.12511806 1.5742276 2894892
-1.1771537 -0.075038008 1.5742154 2894892
-1.1772118 -0.025014512 1.5742195 2894892
-1.1772492 0.025015574 1.5742711 2894892
-1.1772624 0.07504525 1.5743679 2894892
-1.1760385 0.10723829 1.5741422 2894892
-1.1252735 0.1130941 1.5779229 2894892
-1.0750816 0.11310913 1.5781324 2894892
-1.0250899 0.11312413 1.5783414 2894892
-0.9748717 0.11313917 1.5785515 2894892
-0.92485434 0.1131539 1.578915 2894892
-0.87504214 0.11316906 1.5789689 2894892
-0.82478344 0.11318413 1.579179 2894892
-0.77494282 0.11319906 1.5793835 2894892
-0.72531104 0.11321393 1.5795946 2894892
-0.68146914 0.11323116 1.5773839 2894892
-1.1557366 -0.56851399 1.6097475 2894892
-1.1411455 -0.56848353 1.6347085 2894892
-1.1557602 -0.52503973 1.609805 2894892
-1.1411835 -0.5249908 1.6347426 2894892
-1.1558071 -0.47499993 1.6098374 2894892
-1.1412066 -0.47498217 1.6348106 2894892
-1.1558399 -0.42495799 1.6098903 2894892
-1.1412548 -0.42499343 1.634841 2894892
-1.1558729 -0.37501824 1.6099467 2894892
-1.1412785 -0.37504834 1.6349149 2894892
-1.1559188 -0.32503986 1.6099797 2894892
-1.1413326 -0.32500684 1.6349372 2894892
-1.1559492 -0.27498794 1.610041 2894892
-1.1413481 -0.27496248 1.6350147 2894892
-1.1559757 -0.2249686 1.6101081 2894892
-1.1414115 -0.22504993 1.6350222 2894892
-1.1559203 -0.17474148 1.6103132 2894892
-1.1416385 -0.17522354 1.6347458 2894892
-1.1560236 -0.12484965 1.6102501 2894892
-1.1414685 -0.12497254 1.6351442 2894892
-1.1560448 -0.074968643 1.6103251 2894892
-1.141518 -0.075021788 1.6351745 2894892
-1.1561553 -0.024971956 1.610247 2894892
-1.1415089 -0.025066821 1.6353012 2894892
-1.1561915 0.024972998 1.6102983 2894892
-1.141546 0.025067875 1.6353521 2894892
-1.1561528 0.074975908 1.6104752 2894892
-1.1416246 0.07502903 1.6353277 2894892
-1.1562655 0.10658888 1.6103116 2894892
-1.13782 0.10785507 1.6327549 2894892
-1.0751369 0.1130305 1.6240487 2894892
-1.0251458 0.11304568 1.6241374 2894892
-0.97514784 0.11306042 1.6244786 2894892
-0.92512941 0.11307565 1.6245681 2894892
-0.87510663 0.11309037 1.6249093 2894892
-0.82539994 0.11310526 1.6251228 2894892
-0.77534419 0.11312047 1.6252122 2894892
-0.72527891 0.11313523 1.6255535 2894892
-0.69122005 0.11314918 1.6235205 2894892
-1.1177536 -0.56853288 1.6747199 2894892
-1.1177722 -0.52499056 1.6747907 2894892
-1.1178185 -0.47498733 1.6748224 2894892
-1.117849 -0.42499641 1.6748813 2894892
-1.1178815 -0.37504873 1.6749387 2894892
-1.1179144 -0.32503581 1.6749933 2894892
-1.1179563 -0.27500403 1.6750356 2894892
-1.1180046 -0.22497326 1.6750634 2894892
-1.1183558 -0.17497854 1.6745757 2894892
-1.1183637 -0.12498684 1.6746718 2894892
-1.1186409 -0.075148933 1.6743124 2894892
-1.1187272 -0.025017384 1.6742738 2894892
-1.1187615 0.025018439 1.6743265 2894892
-1.1189038 0.075021058 1.6741979 2894892
-1.1182146 0.10707281 1.6734482 2894892
-1.075195 0.11294743 1.6725491 2894892
-1.0252066 0.11296237 1.672776 2894892
-0.97474831 0.11297748 1.672999 2894892
-0.92473459 0.11299212 1.6734039 2894892
-0.87493891 0.11300767 1.6732532 2894892
-0.82513225 0.11302191 1.6738449 2894892
-0.7750777 0.11303721 1.6738836 2894892
-0.72729439 0.11305439 1.6724154 2894892
-0.69775712 0.11309423 1.6544516 2894892
-1.1016214 -0.56861353 1.7023208 2894892
-1.0873163 -0.56861353 1.7267902 2894892
-1.101632 -0.52507848 1.7023995 2894892
-1.0873724 -0.52497846 1.7267928 2894892
-1.1014967 -0.47355956 1.702747 2894892
-1.087253 -0.47516918 1.7271087 2894892
-1.1013718 -0.4248867 1.7030691 2894892
-1.0870894 -0.42501205 1.7274984 2894892
-1.1014212 -0.37494561 1.7030967 2894892
-1.0871551 -0.37506226 1.7275004 2894892
-1.1014323 -0.32499903 1.7031884 2894892
-1.0871626 -0.32505137 1.7275965 2894892
-1.1014897 -0.27491254 1.7032028 2894892
-1.0872072 -0.27499798 1.7276324 2894892
-1.1015121 -0.22510117 1.7032748 2894892
-1.0872465 -0.22498105 1.727679 2894892
-1.1015469 -0.17500566 1.703329 2894892
-1.0872735 -0.17497976 1.7277474 2894892
-1.1015811 -0.12490712 1.7033815 2894892
-1.0872959 -0.12499493 1.7278181 2894892
-1.1018078 -0.073647924 1.7031088 2894892
-1.0873988 -0.075026818 1.7277548 2894892
-1.1019846 -0.02469229 1.7029152 2894892
-1.0873328 -0.025036678 1.7279805 2894892
-1.1020187 0.024693293 1.7029682 2894892
-1.0873671 0.025037725 1.7280345 2894892
-1.1020525 0.07478752 1.7030214 2894892
-1.0875 0.075034134 1.727916 2894892
-1.1020749 0.10653887 1.7030553 2894892
-1.084927 0.10736273 1.7272429 2894892
-1.0247945 0.11287427 1.724299 2894892
-0.97527605 0.1128888 1.7246795 2894892
-0.92538226 0.11290372 1.724907 2894892
-0.87512046 0.11291902 1.724987 2894892
-0.82484609 0.11293379 1.7253664 2894892
-0.77491283 0.11294871 1.7255944 2894892
-0.73706138 0.11296366 1.7236383 2894892
-1.0622463 -0.56853282 1.7696751 2894892
-1.0472465 -0.56862366 1.7953382 2894892
-1.0623237 -0.52499688 1.7696431 2894892
-1.047279 -0.52503306 1.7953794 2894892
-1.0623646 -0.47500148 1.7696866 2894892
-1.0473115 -0.47502765 1.7954352 2894892
-1.0623831 -0.42498246 1.7697586 2894892
-1.0473362 -0.42501718 1.7955055 2894892
-1.0624269 -0.37502626 1.7698073 2894892
-1.0476832 -0.37553418 1.7950224 2894892
-1.0621804 -0.32489923 1.7703351 2894892
-1.0475171 -0.32587156 1.7954174 2894892
-1.0621393 -0.27500257 1.7705171 2894892
-1.047454 -0.27500388 1.7956386 2894892
-1.0621471 -0.22502297 1.7706149 2894892
-1.0474572 -0.22491735 1.7957455 2894892
-1.0622007 -0.17497525 1.7706398 2894892
-1.0475193 -0.17508262 1.7957507 2894892
-1.0622199 -0.12498886 1.7707199 2894892
-1.0475372 -0.1249905 1.7958323 2894892
-1.0623112 -0.074979357 1.7706636 2894892
-1.0475699 -0.075145371 1.7958881 2894892
-1.0622431 -0.024944395 1.7709011 2894892
-1.0476024 -0.025297157 1.7959442 2894892
-1.062279 0.024945414 1.770949 2894892
-1.0476356 0.025298223 1.7960001 2894892
-1.0624129 0.074986711 1.7708372 2894892
-1.0476685 0.075152673 1.7960563 2894892
-1.0621541 0.10683343 1.7703857 2894892
-1.0348842 0.10996959 1.7804772 2894892
-0.97467273 0.11281459 1.7681501 2894892
-0.92461431 0.11282928 1.7685467 2894892
-0.87490666 0.11284413 1.7687796 2894892
-0.82482684 0.11285938 1.768852 2894892
-0.77472526 0.11287405 1.7692487 2894892
-0.74490476 0.11289789 1.7606858 2894892
-1.0298489 -0.56864464 1.8250968 2894892
-1.0298586 -0.52500242 1.8251811 2894892
-1.0299112 -0.47503221 1.8252002 2894892
-1.0299278 -0.42501923 1.8252858 2894892
-1.0306176 -0.37493202 1.8242148 2894892
-1.0307617 -0.32494801 1.824084 2894892
-1.0308027 -0.2750006 1.8241227 2894892
-1.0308322 -0.22503166 1.8241873 2894892
-1.0308594 -0.17499883 1.8242499 2894892
-1.0308782 -0.12498309 1.8243307 2894892
-1.0309926 -0.074984647 1.8242439 2894892
-1.0309018 -0.024963919 1.8245134 2894892
-1.0309345 0.024964934 1.8245683 2894892
-1.0310906 0.074991919 1.8244148 2894892
-1.0289593 0.10735942 1.8236231 2894892
-0.97516394 0.11273589 1.8140285 2894892
-0.92530602 0.11275048 1.8144435 2894892
-0.87543523 0.11276566 1.8145078 2894892
-0.8251729 0.11278067 1.8147489 2894892
-0.78096449 0.11279598 1.8137236 2894892
-1.0074486 -0.56867301 1.8634181 2894892
-0.99281621 -0.56868452 1.8884485 2894892
-1.0074859 -0.52500904 1.8634526 2894892
-0.99286509 -0.52497864 1.888463 2894892
-1.0075133 -0.47504604 1.8635161 2894892
-0.99286014 -0.47496751 1.8885837 2894892
-1.0075276 -0.42503947 1.8636031 2894892
-0.99289858 -0.42495227 1.88863 2894892
-1.0079132 -0.37477592 1.8630577 2894892
-0.99328434 -0.37515262 1.88808 2894892
-1.0079994 -0.32493797 1.8630196 2894892
-0.99338084 -0.32499933 1.8880284 2894892
-1.0080392 -0.2750099 1.8630644 2894892
-0.99340975 -0.27504522 1.8880919 2894892
-1.0080829 -0.22500074 1.8631014 2894892
-0.9934442 -0.22499068 1.8881426 2894892
-1.0080814 -0.17502716 1.8632171 2894892
-0.99347913 -0.17493337 1.8881956 2894892
-1.0081277 -0.12505125 1.8632504 2894892
-0.99352211 -0.12501991 1.8882333 2894892
-1.0081354 -0.074916378 1.8633496 2894892
-0.99352115 -0.075102538 1.8883475 2894892
-1.0082194 -0.024898671 1.8633182 2894892
-0.99355167 -0.02503488 1.8884076 2894892
-1.0082517 0.024899703 1.8633755 2894892
-0.99358255 0.025035907 1.8884652 2894892
-1.0082276 0.074923582 1.8635248 2894892
-0.99361461 0.075109832 1.8885263 2894892
-1.008026 0.10646234 1.8634881 2894892
-0.98732769 0.10851079 1.879864 2894892
-0.92488337 0.11266811 1.862601 2894892
-0.8748349 0.11268307 1.8628485 2894892
-0.82516348 0.11269757 1.8632834 2894892
-0.79089183 0.11271425 1.859676 2894892
-0.9713949 -0.568762 1.9250933 2894892
-0.97144425 -0.52500564 1.9251113 2894892
-0.97145236 -0.4749853 1.9252015 2894892
-0.97148544 -0.42503214 1.9252654 2894892
-0.97188538 -0.37490079 1.9246808 2894892
-0.97197402 -0.32497957 1.9246517 2894892
-0.97200042 -0.27502796 1.9247113 2894892
-0.97204888 -0.22504964 1.9247501 2894892
-0.97249991 -0.17499298 1.9240803 2894892
-0.97253728 -0.12494158 1.9241375 2894892
-0.97251022 -0.074934192 1.9242839 2894892
-0.97262734 -0.024973512 1.9242082 2894892
-0.97265416 0.024974538 1.9242616 2894892
-0.97260743 0.074917957 1.9244624 2894892
-0.97172207 0.10697123 1.9227902 2894892
-0.92482233 0.11258081 1.9135782 2894892
-0.87499434 0.11259504 1.9142466 2894892
-0.82727933 0.11261233 1.9126718 2894892
-0.79950982 0.11264031 1.9013207 2894892
-0.95313084 -0.56865782 1.9563383 2894892
-0.93879992 -0.56876963 1.9808527 2894892
-0.95316499 -0.52500677 1.956376 2894892
-0.93885195 -0.52498281 1.9808638 2894892
-0.95318431 -0.47497281 1.9564561 2894892
-0.93885833 -0.4750053 1.9809613 2894892
-0.95321578 -0.4248338 1.9565144 2894892
-0.93888515 -0.42499122 1.9810306 2894892
-0.95324892 -0.37479347 1.956569 2894892
-0.93892121 -0.37493962 1.9810778 2894892
-0.95328212 -0.32495269 1.9566233 2894892
-0.93896157 -0.3249532 1.9811226 2894892
-0.9533025 -0.27500817 1.9567002 2894892
-0.93897301 -0.27499801 1.9812125 2894892
-0.95333964 -0.22476089 1.9567492 2894892
-0.93900698 -0.22500546 1.9812679 2894892
-0.95380014 -0.17494938 1.9560736 2894892
-0.93906134 -0.17504379 1.9812856 2894892
-0.95386475 -0.12525414 1.9560733 2894892
-0.93908089 -0.12501009 1.9813635 2894892
-0.95386267 -0.075369447 1.9561886 2894892
-0.93901694 -0.074939243 1.9815865 2894892
-0.95389265 -0.02512385 1.9562498 2894892
-0.93917966 -0.024972942 1.9814184 2894892
-0.95392239 0.025124913 1.9563113 2894892
-0.93920958 0.024973949 1.981481 2894892
-0.95396465 0.075288199 1.9563513 2894892
-0.93911415 0.074912213 1.9817545 2894892
-0.95397675 0.1066274 1.9561857 2894892
-0.93549484 0.10763104 1.9778795 2894892
-0.87516022 0.11250354 1.9676826 2894892
-0.83784413 0.11251993 1.9647615 2894892
-0.91424692 -0.5688135 2.0228543 2894892
-0.89944613 -0.56851786 2.0481746 2894892
-0.91430873 -0.52501965 2.0228508 2894892
-0.8994624 -0.52482891 2.0482445 2894892
-0.91434681 -0.47498307 2.0228932 2894892
-0.89950699 -0.47478631 2.0482802 2894892
-0.91393483 -0.42489856 2.0237112 2894892
-0.8991313 -0.42736039 2.0490284 2894892
-0.91391152 -0.37495789 2.0238614 2894892
-0.89906961 -0.37524897 2.0492504 2894892
-0.91394615 -0.32499602 2.0239162 2894892
-0.8990978 -0.32516932 2.0493143 2894892
-0.9139753 -0.27503052 2.0239766 2894892
-0.89912587 -0.27508655 2.0493786 2894892
-0.91400647 -0.22497924 2.0240359 2894892
-0.89915401 -0.22500065 2.0494425 2894892
-0.91405648 -0.17495151 2.024061 2894892
-0.89918208 -0.17491156 2.0495064 2894892
-0.91403747 -0.12494999 2.0242059 2894892
-0.89921033 -0.12481943 2.0495703 2894892
-0.91411787 -0.075083904 2.0241797 2894892
-0.89923841 -0.074724101 2.0496345 2894892
-0.91409039 -0.025104871 2.024339 2894892
-0.89926654 -0.024625674 2.0496986 2894892
-0.91411954 0.025105912 2.0244012 2894892
-0.89929402 0.024626683 2.0497618 2894892
-0.91420555 0.075063184 2.0243649 2894892
-0.89932209 0.07473132 2.0498254 2894892
-0.91394866 0.1065997 2.0236688 2894892
-0.87899768 0.11171221 2.0267382 2894892
-0.84704018 0.11243895 2.0103915 2894892
-0.88769001 -0.56883502 2.068285 2894892
-0.88772231 -0.52495587 2.0683253 2894892
-0.88776714 -0.47499862 2.0683646 2894892
-0.88779658 -0.42499989 2.0684221 2894892
-0.88779485 -0.37495869 2.0685387 2894892
-0.8878538 -0.32503113 2.0685487 2894892
-0.88785577 -0.27510139 2.0686574 2894892
-0.88789976 -0.22505052 2.0686934 2894892
-0.88791567 -0.17499784 2.0687778 2894892
-0.88792419 -0.12501812 2.0688777 2894892
-0.8880294 -0.074882694 2.0688078 2894892
-0.88797265 -0.024857799 2.0690217 2894892
-0.88799888 0.024858817 2.0690827 2894892
-0.88810819 0.074850976 2.0690131 2894892
-0.88749647 0.10654077 2.0691421 2894892
