# .PCD v0.7 - Point Cloud Data file format
VERSION 0.7
FIELDS x y z rgb
SIZE 4 4 4 4
TYPE F F F U
COUNT 1 1 1 1
WIDTH 1158
HEIGHT 1
VIEWPOINT 0 0 0 1 0 0 0
POINTS 1158
DATA ascii
-0.71700895 -0.52501088 1.3649188 6447714
-0.68864775 -0.52500224 1.3898453 6447714
-0.71704 -0.47502044 1.3649538 6447714
-0.68867034 -0.47496346 1.3898879 6447714
-0.71706176 -0.42501411 1.3649964 6447714
-0.6886903 -0.42496312 1.3899345 6447714
-0.71707439 -0.37500396 1.3650488 6447714
-0.68871546 -0.37502196 1.3899714 6447714
-0.71710765 -0.3250173 1.3650806 6447714
-0.68874431 -0.32501498 1.3900102 6447714
-0.7172696 -0.2748915 1.3649983 6447714
-0.68876481 -0.27500531 1.3900541 6447714
-0.71751744 -0.22501679 1.3648431 6447714
-0.68877238 -0.22503351 1.3901067 6447714
-0.71755779 -0.17501324 1.3648717 6447714
-0.6887942 -0.17503853 1.3901521 6447714
-0.7175976 -0.12500599 1.364898 6447714
-0.68883193 -0.12497855 1.3901807 6447714
-0.71758789 -0.074995816 1.3649669 6447714
-0.68880439 -0.074935436 1.3902633 6447714
-0.71762049 -0.024996178 1.3650001 6447714
-0.68889916 -0.024974037 1.3902466 6447714
-0.7176435 0.024997195 1.3650429 6447714
-0.68891954 0.024975086 1.3902886 6447714
-0.71765316 0.074990481 1.3650953 7039851
-0.68886954 0.074942693 1.390395 7039851
-0.71738672 0.10688539 1.3647447 10197915
-0.68364644 0.10852259 1.3846338 10197915
-0.62500322 0.11270489 1.3738899 10197915
-0.57518077 0.11259028 1.3725753 10197915
-0.52503043 0.11247506 1.3712106 10197915
-0.47679463 0.11235674 1.3721486 10197915
-0.42516264 0.11222383 1.3750274 10197915
-0.37521976 0.11210924 1.3736233 10197915
-0.32422525 0.11197288 1.3779953 10197915
-0.27493861 0.11185704 1.3774335 10197915
-0.22491275 0.11174188 1.3761346 10197915
-0.17499155 0.11162727 1.3747629 10197915
-0.12488647 0.11151268 1.3732339 10197915
-0.074885465 0.11139733 1.372013 10197915
-0.025261723 0.11128339 1.3706466 10197915
0.024885699 0.11114641 1.3757944 10197915
0.074964993 0.11103153 1.374375 10197915
0.12592112 0.11091097 1.3740325 10197915
0.17501567 0.11077929 1.3783504 10197915
0.2248904 0.11066484 1.3769628 10197915
0.27480561 0.11055087 1.3753862 10132122
0.32489738 0.11043552 1.3741121 10000536
0.37503001 0.11032071 1.3726447 10000536
0.42491481 0.11020666 1.3711429 10000536
0.47323522 0.11008141 1.3740894 10000536
0.52507782 0.10995407 1.3751427 9408399
0.57499433 0.10983964 1.3737116 2960685
0.62438321 0.10970989 1.3772459 2894892
0.65334392 0.109567 1.3993152 2894892
-0.66376829 -0.56864864 1.4116545 9671571
-0.63515145 -0.56872672 1.4368111 9671571
-0.66379011 -0.52499551 1.4116969 6447714
-0.63515109 -0.52499712 1.4368652 6447714
-0.66384006 -0.4750151 1.4117155 6447714
-0.63518435 -0.47502598 1.4368986 6447714
-0.66381842 -0.42501342 1.4117869 6447714
-0.63518488 -0.42501813 1.4369595 6447714
-0.66386116 -0.37500897 1.4118209 6447714
-0.63522035 -0.37497196 1.43699 6447714
-0.66389054 -0.32500136 1.4118544 6447714
-0.63523746 -0.32497472 1.4370379 6447714
-0.66390306 -0.27495551 1.4118991 6447714
-0.63558382 -0.27513897 1.4367964 6447714
-0.6639356 -0.22497679 1.4119439 6447714
-0.6357249 -0.22501408 1.4367309 6447714
-0.66392148 -0.17499503 1.4120104 6447714
-0.63569939 -0.17500277 1.4368187 6447714
-0.66396689 -0.1249931 1.4120301 6447714
-0.63573486 -0.12500525 1.4368486 6447714
-0.66397834 -0.075057864 1.4120942 6447714
-0.63581926 -0.075006478 1.4368341 6447714
-0.6640138 -0.025050793 1.4121127 6447714
-0.63574153 -0.025003284 1.436968 6447714
-0.66403449 0.02505183 1.4121619 6447714
-0.63576025 0.025004299 1.4370121 6447714
-0.66403955 0.075065188 1.4122247 7039851
-0.63587117 0.074996218 1.4369732 7105644
-0.66379839 0.10664688 1.4121637 10197915
-0.63269955 0.10777051 1.4331717 10197915
-0.57318127 0.11241051 1.4249945 10197915
-0.52496052 0.11229002 1.4265972 10197915
-0.47497913 0.11217592 1.4250158 10197915
-0.42495173 0.11206101 1.4236474 10197915
-0.37517539 0.11194685 1.4222374 10197915
-0.32639176 0.11181684 1.426277 10197915
-0.27500144 0.11169314 1.4265707 10197915
-0.22493361 0.11157921 1.4248776 10197915
-0.17496592 0.11146399 1.4236441 10197915
-0.12510228 0.11135015 1.4220722 10197915
-0.073254004 0.11121868 1.424361 10197915
-0.024972813 0.11109635 1.4264542 10197915
0.025085382 0.11098185 1.4249392 10197915
0.075038493 0.11086731 1.4235131 10197915
0.12422526 0.11075295 1.4225837 10197915
0.17488836 0.11061455 1.4277873 10197915
0.22493604 0.11049997 1.4263086 10197915
0.27507222 0.1103848 1.4249424 10066329
0.32510617 0.11027063 1.4233479 10000536
0.37503827 0.11015632 1.4218727 10000536
0.4268271 0.11002589 1.4239072 10000536
0.47520491 0.10990296 1.4261292 10000536
0.52517909 0.10978798 1.4248149 10000536
0.57504719 0.10967443 1.4231635 5197647
0.6233514 0.10955486 1.424422 2894892
0.66068602 0.10944226 1.4314446 2894892
-0.60988408 -0.56881529 1.4590204 9671571
-0.58155978 -0.56888855 1.4839153 9737364
-0.60990274 -0.52496713 1.459056 6447714
-0.58157837 -0.5250234 1.4839506 6447714
-0.60993338 -0.47496876 1.4590921 6447714
-0.58158922 -0.47496447 1.4840051 6447714
-0.60993963 -0.42496717 1.4591479 6447714
-0.58163148 -0.42496341 1.4840294 6447714
-0.60996997 -0.37498879 1.4591835 6447714
-0.58164626 -0.37500528 1.4840788 6447714
-0.60998738 -0.32500744 1.4592313 6447714
-0.58165163 -0.32499856 1.4841344 6447714
-0.6103462 -0.27485624 1.4589781 6447714
-0.58211136 -0.27499551 1.483794 6447714
-0.61047512 -0.22502002 1.458925 6447714
-0.58214951 -0.22495964 1.4838232 6447714
-0.61045802 -0.17500982 1.4590027 6447714
-0.58216655 -0.17498289 1.4838672 6447714
-0.61050212 -0.12502192 1.4590267 6447714
-0.58219117 -0.12503415 1.4839071 6447714
-0.61050326 -0.07492926 1.4590861 6447714
-0.58216518 -0.075050943 1.4839948 6447714
-0.61056525 -0.024936918 1.4590944 6447714
-0.58225232 -0.025019137 1.4839793 6447714
-0.61057836 0.024912596 1.4591448 6447714
-0.5822686 0.025020175 1.4840254 6447714
-0.6105659 0.074911483 1.4592168 7105644
-0.5822162 0.075042404 1.484135 7105644
-0.6104129 0.10662247 1.4588209 10197915
-0.58043039 0.10743374 1.481261 10197915
-0.52504933 0.11211558 1.4789211 10197915
-0.47514546 0.11200181 1.4772887 10197915
-0.42513466 0.11188738 1.4757804 10197915
-0.375229 0.11177322 1.4742744 10197915
-0.32521632 0.1116584 1.4728924 10197915
-0.27490312 0.11154414 1.4711237 10197915
-0.22489128 0.11142929 1.4697385 10197915
-0.17371953 0.11129189 1.4742899 10197915
-0.1249228 0.11117508 1.4743789 10197915
-0.076631092 0.11105371 1.4761915 10197915
-0.024926437 0.11092018 1.4791898 10197915
0.024892306 0.11080626 1.4776704 10197915
0.075012408 0.11069162 1.4761453 10197915
0.12523527 0.11057638 1.474739 10197915
0.17514895 0.11046311 1.4729636 10197915
0.22496039 0.11034835 1.471698 10132122
0.27487224 0.11023466 1.4700511 10000536
0.32670799 0.11010613 1.4714612 10000536
0.37514839 0.10997957 1.4747314 10000536
0.42338696 0.10986025 1.4759928 10000536
0.47506204 0.10972435 1.4797292 10000536
0.52498412 0.10961068 1.4780633 10000536
0.57500398 0.10949681 1.4763931 8158332
0.62491977 0.10938229 1.4749837 2894892
0.67075074 0.10927095 1.4755508 2894892
-0.55650079 -0.56898683 1.505939 9737364
-0.5282163 -0.56902319 1.5307966 9737364
-0.55652195 -0.52492774 1.5059747 6447714
-0.52827549 -0.52502489 1.5307983 6447714
-0.55654246 -0.47502998 1.5060182 6447714
-0.5282979 -0.47503757 1.5308452 6447714
-0.5565573 -0.42508435 1.5060676 6447714
-0.52832019 -0.42503211 1.5308855 6447714
-0.55658823 -0.37500259 1.506103 6447714
-0.52850044 -0.3751432 1.5307901 6447714
-0.55659652 -0.32500663 1.5061562 6447714
-0.52884161 -0.32500085 1.5305492 6447714
-0.55706316 -0.2749868 1.5058093 6447714
-0.52885455 -0.27498814 1.5306011 6447714
-0.55709189 -0.22504377 1.5058441 6447714
-0.52885824 -0.22498702 1.5306628 6447714
-0.55711818 -0.17501605 1.5058848 6447714
-0.52887267 -0.17498244 1.5307082 6447714
-0.55715185 -0.1249033 1.5059171 6447714
-0.52888077 -0.12498923 1.5307646 6447714
-0.55714124 -0.074869424 1.5059874 6447714
-0.52888787 -0.074992955 1.5308223 6447714
-0.55715859 -0.024957161 1.5060345 6447714
-0.52897495 -0.024994891 1.5308065 6447714
-0.55717564 0.024958184 1.5060817 6447714
-0.52898979 0.024995932 1.5308552 6447714
-0.55719328 0.074876606 1.5061283 7105644
-0.52893639 0.075000122 1.5309639 7105644
-0.55720228 0.10607673 1.5061519 10197915
-0.52745098 0.10690736 1.5293841 10197915
-0.47475013 0.11184096 1.5251734 10197915
-0.42481682 0.11172744 1.5234758 10197915
-0.37520415 0.11161312 1.5222111 10197915
-0.32526261 0.11149945 1.5205169 10197915
-0.2752164 0.11138519 1.518958 10197915
-0.22505946 0.11127015 1.5175341 10197915
-0.17569436 0.111114 1.5289948 10197915
-0.12494416 0.11098624 1.5309632 10197915
-0.074974552 0.11087255 1.5292484 10197915
-0.024899432 0.11075827 1.5276717 10197915
0.025075935 0.11064412 1.5260974 10197915
0.074945025 0.1105303 1.5245268 10197915
0.12492431 0.1104157 1.5230933 10197915
0.17500836 0.11030186 1.5213759 10197915
0.22498895 0.11018814 1.5196652 10066329
0.27507296 0.11007297 1.5183644 10000536
0.32459918 0.1099472 1.5205812 10000536
0.37526655 0.10978865 1.5318059 10000536
0.42496043 0.10967544 1.5302254 10000536
0.47497347 0.10956081 1.5287758 10000536
0.52508646 0.10944744 1.5268986 10000536
0.57509869 0.1093323 1.5255877 10000536
0.62500566 0.10921939 1.5237179 3815994
0.67480749 0.10910478 1.5224129 2894892
0.70797801 0.10900872 1.5274669 2894892
-0.50308728 -0.56924868 1.5528847 9737364
-0.4755649 -0.56915343 1.5770735 9737364
-0.44996336 -0.56924665 1.5995761 9737364
-0.50310403 -0.52497953 1.5529248 6447714
-0.47564578 -0.52499944 1.5770575 6447714
-0.44997588 -0.52486116 1.5996203 6447714
-0.50312167 -0.47491959 1.5529716 6447714
-0.47565559 -0.47497815 1.577112 6447714
-0.44998962 -0.47517309 1.5996701 6447714
-0.50314164 -0.42496371 1.5530158 6447714
-0.47528845 -0.42487499 1.5774978 6447714
-0.44999832 -0.44403371 1.5997007 6447714
-0.50334626 -0.37415752 1.5528995 6447714
-0.47518054 -0.37500945 1.5776521 6447714
-0.50366658 -0.32502759 1.5526781 6447714
-0.47517675 -0.32501218 1.5777174 6447714
-0.50367481 -0.27495375 1.5527329 6447714
-0.47520339 -0.27501175 1.5777562 6447714
-0.50369412 -0.22496888 1.5527784 6447714
-0.47520691 -0.22500803 1.5778158 6447714
-0.50371706 -0.17507347 1.5528194 6447714
-0.47523406 -0.17498781 1.577855 6447714
-0.50374728 -0.1252684 1.5528542 6447714
-0.47573465 -0.12504381 1.577475 6447714
-0.50374466 -0.075272471 1.5529188 6447714
-0.47572488 -0.075007267 1.5775472 6447714
-0.5037604 -0.025091529 1.5529673 6447714
-0.4758054 -0.025013518 1.5775369 6447714
-0.50377584 0.025092566 1.5530152 6447714
-0.47581905 0.025014564 1.5775863 6447714
-0.50379163 0.075279772 1.5530639 7171437
-0.4757674 0.075014576 1.5776963 7171437
-0.50380147 0.10616565 1.553094 10197915
-0.47517684 0.10656159 1.5761988 10197915
-0.42513826 0.11155719 1.5746822 10197915
-0.3751753 0.11144324 1.5730699 10197915
-0.32531092 0.11132952 1.5714684 10197915
-0.27489778 0.1112145 1.5698456 10197915
-0.22480281 0.11109978 1.5683842 10197915
-0.17606637 0.11096388 1.5742249 10197915
-0.12455001 0.11084126 1.574097 10197915
-0.074894659 0.11069941 1.5810633 10197915
-0.025088882 0.11058586 1.5794458 10197915
0.025054321 0.11047155 1.5778129 10197915
0.075092435 0.11035695 1.5763365 10197915
0.12502395 0.11024366 1.5745578 10197915
0.17507382 0.11012957 1.5729287 10197915
0.22501665 0.11001569 1.5713022 10132122
0.27485985 0.10990207 1.5696795 10066329
0.32368985 0.10978756 1.5690441 10000536
0.3749367 0.1096436 1.5755055 10000536
0.42475224 0.10953094 1.573643 10000536
0.47568494 0.10938637 1.5805163 10000536
0.52498329 0.10927245 1.5793786 10000536
0.57476753 0.10915904 1.5777394 10000536
0.62488127 0.10904535 1.5759373 6710886
0.67510206 0.10892989 1.5745913 2894892
0.71941853 0.10882065 1.5756099 2894892
-0.4251374 -0.56930804 1.6213923 9737364
-0.39634633 -0.56944472 1.6467009 9737364
-0.42521191 -0.52500516 1.6213897 6447714
-0.39637724 -0.52501923 1.6467289 6447714
-0.42521328 -0.47504324 1.6214472 6447714
-0.39638513 -0.47493881 1.6467844 6447714
-0.42522457 -0.42503363 1.6214912 6447714
-0.39640188 -0.42495307 1.6468318 6447714
-0.4252339 -0.37497631 1.6215472 6447714
-0.39639241 -0.37496519 1.6469018 6447714
-0.42525023 -0.32497564 1.6216041 6447714
-0.39643097 -0.3249729 1.6469302 6447714
-0.42530853 -0.27498707 1.6216153 6447714
-0.39643025 -0.27497819 1.6469929 6447714
-0.42524013 -0.22499494 1.6217304 6447714
-0.39689314 -0.22555542 1.6466465 6447714
-0.42529687 -0.17499967 1.621739 6447714
-0.39703879 -0.17509122 1.6465818 6447714
-0.45008853 -0.12130508 1.6000212 6447714
-0.42534047 -0.12500149 1.6217667 6447714
-0.39703074 -0.12484016 1.6466508 6447714
-0.45010149 -0.074906297 1.6000676 6447714
-0.42529905 -0.075000204 1.6218716 6447714
-0.39704317 -0.075042821 1.6467016 6447714
-0.45011535 -0.025190419 1.6001168 6447714
-0.42533073 -0.024997275 1.6219072 6447714
-0.39705542 -0.025242375 1.6467522 6447714
-0.45012951 0.025191473 1.600167 6447714
-0.42534271 0.024998296 1.6219475 6447714
-0.39706784 0.025243415 1.6468039 6447714
-0.4501434 0.074913524 1.6002162 7105644
-0.42533666 0.074992508 1.622014 7171437
-0.39708006 0.075050063 1.6468549 7171437
-0.45015186 0.10541113 1.6002467 10197915
-0.42463025 0.10626042 1.6212908 10197915
-0.38196358 0.10937813 1.6335502 10197915
-0.32513669 0.11114719 1.6259451 10197915
-0.2750079 0.11103305 1.624271 10197915
-0.22520395 0.11091907 1.6227831 10197915
-0.17505381 0.11080544 1.6209457 10197915
-0.1252328 0.110692 1.6192822 10197915
-0.075161822 0.1105468 1.6269718 10197915
-0.024919683 0.11043199 1.6254138 10197915
0.024885576 0.11031859 1.6237457 10197915
0.075239122 0.11020312 1.6223119 10197915
0.12491065 0.11005893 1.6299597 10197915
0.17491998 0.1099457 1.6281049 10197915
0.22504985 0.10983218 1.6262437 10197915
0.27507475 0.10971776 1.6247295 10132122
0.32477322 0.1096041 1.6232235 10066329
0.37459534 0.10949126 1.6213759 10000536
0.42475671 0.10937662 1.6198559 10000536
0.4738521 0.10923868 1.6260709 10000536
0.52503759 0.10911747 1.6257609 10000536
0.57495862 0.10900391 1.6240695 10000536
0.62510031 0.1088894 1.6224972 9276813
0.67739278 0.10874954 1.6269778 2894892
0.72487408 0.10863069 1.628617 2894892
0.75851411 0.10852357 1.6366258 2894892
-0.37121242 -0.56940782 1.6687912 9737364
-0.34249884 -0.56958503 1.6940287 9737364
-0.37126583 -0.52498847 1.6687992 6447714
-0.34248874 -0.52497566 1.6940932 6447714
-0.37125579 -0.4749828 1.6688709 6447714
-0.34250495 -0.47492558 1.6941406 6447714
-0.37129399 -0.42495424 1.6688986 6447714
-0.34251562 -0.4249903 1.6941941 6447714
-0.37128958 -0.3749598 1.6689669 6447714
-0.34311786 -0.37514582 1.6937255 6447714
-0.37132722 -0.32500046 1.6689926 6447714
-0.34313154 -0.32495502 1.6937758 6447714
-0.37130302 -0.27501893 1.669077 6447714
-0.34315464 -0.27495053 1.6938184 6447714
-0.37182599 -0.22490214 1.6686805 6447714
-0.34313169 -0.22500752 1.6938989 6447714
-0.37191147 -0.17499045 1.6686665 6447714
-0.34320635 -0.17506157 1.6938953 6447714
-0.37197053 -0.12505758 1.6686759 6447714
-0.34317112 -0.12492021 1.693989 6447714
-0.37194878 -0.07501106 1.6687573 6447714
-0.34318179 -0.07509473 1.6940422 6447714
-0.37192807 -0.024963334 1.6688378 6447714
-0.34319243 -0.025266206 1.6940941 6447714
-0.37192816 0.024946101 1.6689005 6447714
-0.34320328 0.025267269 1.6941466 6447714
-0.37201136 0.074982002 1.6688884 7171437
-0.3432138 0.075101994 1.6941988 7171437
-0.37141666 0.10592949 1.6688217 10197915
-0.33517012 0.10785036 1.6853107 10197915
-0.27510244 0.11087165 1.6726855 10197915
-0.22498229 0.11075862 1.6706902 10197915
-0.17351928 0.11061314 1.6774585 10197915
-0.12509662 0.11049693 1.6776229 10197915
-0.074979633 0.11038426 1.6755217 10197915
-0.024973435 0.11026935 1.6741676 10197915
0.025168642 0.11015595 1.6722537 10197915
0.074743822 0.11004265 1.6707239 10197915
0.12484771 0.109896 1.6788089 10197915
0.17508835 0.10978136 1.6772033 10197915
0.22488512 0.10966821 1.6754744 10197915
0.274923 0.10955498 1.6735994 10197915
0.32485533 0.10944103 1.6720039 10197915
0.37468752 0.10932828 1.670136 10132122
0.42534673 0.10917991 1.678353 10000536
0.47516418 0.10906553 1.6769887 10000536
0.52486825 0.10895324 1.6750672 10132122
0.57492518 0.10883953 1.6733189 10066329
0.62511009 0.10872553 1.6715666 10000536
0.67246288 0.10860207 1.6746768 5395026
0.72483438 0.10846524 1.6781951 2894892
0.768251 0.10836168 1.678159 2894892
-0.31769824 -0.56954694 1.7158266 9737364
-0.28918999 -0.5697636 1.7408825 9737364
-0.31776133 -0.52499956 1.7158276 6447714
-0.28922546 -0.52506298 1.7409077 6447714
-0.31778365 -0.47500986 1.7158674 6447714
-0.28921801 -0.47505698 1.7409759 6447714
-0.31774515 -0.42501688 1.7159647 6447714
-0.28922871 -0.42504889 1.7410259 6447714
-0.31838217 -0.37496248 1.7154675 6447714
-0.28926578 -0.37507921 1.7410597 6447714
-0.31838748 -0.32498673 1.7155222 6447714
-0.28987205 -0.32503608 1.7405862 6447714
-0.31842521 -0.27496055 1.7155546 6447714
-0.28991199 -0.27506328 1.7406125 6447714
-0.31841731 -0.22497919 1.7156205 6447714
-0.28988695 -0.22504227 1.7406967 6447714
-0.31847024 -0.17501828 1.7156366 6447714
-0.28996041 -0.1749727 1.7406937 6447714
-0.31839293 -0.12500693 1.7157655 6447714
-0.28984734 -0.12494592 1.7408578 6447714
-0.31851345 -0.074898005 1.7157248 6447714
-0.28994811 -0.075142235 1.7408293 6447714
-0.31840253 -0.024880307 1.7158817 6447714
-0.28993633 -0.025199017 1.7409022 6447714
-0.31841236 0.024881328 1.7159344 6447714
-0.28994527 0.025200043 1.7409549 6447714
-0.31854308 0.074905202 1.7158833 7237230
-0.28997514 0.075149395 1.7409931 7237230
-0.31798303 0.10602497 1.7150673 10197915
-0.28244415 0.10767809 1.7324775 10197915
-0.22498141 0.11058695 1.7221121 10197915
-0.17697813 0.11045298 1.7278934 10197915
-0.12465604 0.11032345 1.7292671 10197915
-0.074789032 0.11021079 1.7273388 10197915
-0.025027428 0.11009734 1.725723 10197915
0.02499303 0.10998381 1.7239436 10197915
0.075262778 0.1098702 1.7220052 10197915
0.12543158 0.10975584 1.7203707 10197915
0.17514241 0.10964304 1.7186018 10197915
0.22541653 0.10949433 1.727176 10197915
0.27523601 0.10938131 1.7253929 10197915
0.32494026 0.10926718 1.7240224 10197915
0.37478489 0.10915475 1.7220371 10197915
0.42456374 0.10900763 1.7305008 10132122
0.47496435 0.10889139 1.7292802 10132122
0.52492195 0.1087786 1.7273291 10197915
0.57477784 0.10866503 1.7256856 10197915
0.62452912 0.10855269 1.7237418 10132122
0.67488021 0.10843799 1.7220803 7829367
0.72512746 0.10832455 1.7201188 2894892
0.77526623 0.10821033 1.7184643 2894892
0.81042403 0.10805561 1.7396611 2894892
-0.26435849 -0.56967622 1.7627081 9737364
-0.23618016 -0.56984317 1.787473 9737364
-0.2643564 -0.52497852 1.7627653 6447714
-0.2362377 -0.52500272 1.7874786 6447714
-0.26437455 -0.4750016 1.7628101 6447714
-0.23623973 -0.47497955 1.78754 6447714
-0.26438135 -0.42502147 1.7628678 6447714
-0.23624492 -0.42498666 1.7875968 6447714
-0.26441136 -0.37497273 1.7629024 6447714
-0.23625442 -0.3750273 1.7876505 6447714
-0.26503909 -0.3249779 1.7624122 6447714
-0.23625027 -0.32502869 1.7877158 6447714
-0.26505694 -0.27498773 1.7624594 6447714
-0.23627858 -0.27502781 1.787753 6447714
-0.26504239 -0.22499372 1.7625339 6447714
-0.23625349 -0.22502258 1.7878392 6447714
-0.26508975 -0.17496553 1.7625551 6447714
-0.2363082 -0.17505112 1.7878513 6447714
-0.26502955 -0.12496531 1.7626698 6447714
-0.23624595 -0.12507509 1.7879683 6447714
-0.26515484 -0.074836835 1.7626224 6447714
-0.23636831 -0.075204253 1.7879212 6447714
-0.2650556 -0.024829887 1.7627695 6447714
-0.23627198 -0.025186229 1.7880687 6447714
-0.26506397 0.024830906 1.7628249 6447714
-0.23627923 0.025187287 1.7881244 6447714
-0.26517931 0.074844018 1.7627853 7237230
-0.23639064 0.075176269 1.7880894 7237230
-0.26463979 0.10547736 1.7631004 10197915
-0.23231246 0.10666259 1.7843953 10197915
-0.17499813 0.11029141 1.7748692 10197915
-0.12524353 0.11017921 1.7728875 10197915
-0.075214945 0.11006583 1.7710675 10197915
-0.024927614 0.10995132 1.7693962 10197915
0.024893498 0.10983834 1.7675788 10197915
0.077223368 0.1096946 1.7732033 10197915
0.12501422 0.10957351 1.7752781 10197915
0.17483962 0.1094621 1.7730066 10197915
0.22418222 0.10931291 1.7823821 10197915
0.27483287 0.10919715 1.780834 10197915
0.32503316 0.10908294 1.7791455 10197915
0.37513244 0.10896997 1.7771294 10197915
0.42512295 0.10885623 1.7754476 10197915
0.47501618 0.1087439 1.7734421 10197915
0.5247981 0.10863059 1.7717679 10197915
0.57484502 0.10851725 1.7699192 10197915
0.62514734 0.10840384 1.7678968 10197915
0.67624235 0.10828284 1.7675923 9934743
0.72509193 0.10813929 1.7756499 3947580
0.77527839 0.10802489 1.7740055 2894892
0.81727999 0.10789931 1.7815727 2894892
-0.21138424 -0.56990039 1.8092686 9737364
-0.18307488 -0.56988621 1.8341489 9737364
-0.21137196 -0.5250355 1.809334 6447714
-0.18314794 -0.5249784 1.834138 6447714
-0.21139637 -0.47501493 1.8093747 6447714
-0.18316367 -0.47496355 1.8341906 6447714
-0.21138494 -0.4249922 1.8094468 6447714
-0.18310824 -0.42494559 1.8342967 6447714
-0.21140313 -0.37501279 1.8094931 6447714
-0.18314822 -0.3750149 1.8343303 6447714
-0.21139437 -0.32498437 1.8095627 6447714
-0.18314512 -0.32505184 1.8343883 6447714
-0.21143152 -0.27495188 1.8095919 6447714
-0.18314905 -0.27499342 1.8344524 6447714
-0.21141762 -0.22501045 1.8096658 6447714
-0.18320274 -0.22499339 1.8344617 6447714
-0.21147016 -0.17506479 1.8096818 6447714
-0.18316357 -0.17496032 1.8345642 6447714
-0.21137328 -0.12507041 1.8098291 6447714
-0.183156 -0.12492274 1.8346258 6447714
-0.21146396 -0.074839517 1.809811 6447714
-0.18322872 -0.075066879 1.8346291 6447714
-0.21144792 -0.024791712 1.8098874 6447714
-0.18313688 -0.025083967 1.8347694 6447714
-0.21145433 0.024792729 1.8099431 6447714
-0.18314248 0.025084982 1.8348271 6447714
-0.21148354 0.074846782 1.8099797 7303023
-0.18324578 0.075074106 1.8347995 7303023
-0.21112853 0.10552101 1.8099834 10197915
-0.18043044 0.10633031 1.8307433 10197915
-0.1251014 0.11002462 1.8190892 10197915
-0.074908741 0.10991163 1.8170346 10197915
-0.024822615 0.10979765 1.8153367 10197915
0.026517866 0.10964742 1.8236116 10197915
0.072478242 0.10951815 1.8294376 10197915
0.12456809 0.10938002 1.833551 10197915
0.17489767 0.1092668 1.831463 10197915
0.22512323 0.1091526 1.8297383 10197915
0.27487025 0.10904009 1.8278524 10197915
0.32488412 0.10892757 1.8257767 10197915
0.37517682 0.10881382 1.8238708 10197915
0.42498437 0.10870059 1.8221611 10197915
0.4750672 0.1085874 1.8202639 10197915
0.52541506 0.10847413 1.818177 10197915
0.57491571 0.10836152 1.8164785 10197915
0.6246863 0.10824898 1.8145912 10197915
0.67432427 0.10809543 1.8250918 10197915
0.72480613 0.10794264 1.8347503 7303023
0.77529424 0.1078279 1.8329933 2894892
0.82530749 0.10771491 1.831072 2894892
0.85591912 0.10761981 1.8376557 2894892
-0.15765923 -0.57012534 1.856488 9737364
-0.1294101 -0.57005966 1.8813157 9737364
-0.15768357 -0.52504241 1.8565222 6447714
-0.12938127 -0.52500719 1.8813978 6447714
-0.15768474 -0.47506222 1.8565828 6447714
-0.12938385 -0.47502711 1.881457 6447714
-0.15765756 -0.42508006 1.8566699 6447714
-0.12938717 -0.42501494 1.8815168 6447714
-0.15771452 -0.3750253 1.8566812 6447714
-0.12941226 -0.37497234 1.8815557 6447714
-0.15767133 -0.32503536 1.8567809 6447714
-0.1294051 -0.32498282 1.8816255 6447714
-0.1577002 -0.27497551 1.8568174 6447714
-0.12938274 -0.27504513 1.8817054 6447714
-0.15775317 -0.22497964 1.8568332 6447714
-0.12944339 -0.22499318 1.8817145 6447714
-0.15763801 -0.17498116 1.8569957 6447714
-0.12939532 -0.1749659 1.8818195 6447714
-0.15776302 -0.12498311 1.8569483 6447714
-0.12944679 -0.12507519 1.8818357 6447714
-0.15764783 -0.074972771 1.8571109 6447714
-0.12946449 -0.075015306 1.8818812 6447714
-0.15777288 -0.024974238 1.8570632 6447714
-0.12936087 -0.02495042 1.8820359 6447714
-0.15777771 0.024975277 1.8571208 6447714
-0.12936522 0.024951445 1.8820931 6447714
-0.1576625 0.074979983 1.8572843 7303023
-0.12946254 0.074994847 1.8820692 7303023
-0.15780066 0.10533434 1.8569518 10197915
-0.1278069 0.10611323 1.8778416 10197915
-0.074972272 0.10974944 1.8656574 10197915
-0.025099216 0.10963736 1.8635507 10197915
0.025984446 0.10945799 1.8807318 10197915
0.07496617 0.10932665 1.8850225 10197915
0.12519711 0.10921387 1.8828709 10197915
0.17533815 0.10909998 1.8811141 10197915
0.2253627 0.10898766 1.8789712 10197915
0.27529481 0.10887425 1.8772218 10197915
0.32511422 0.10876239 1.8750877 10197915
0.37522385 0.10864924 1.8731363 10197915
0.4248383 0.10853654 1.8713994 10197915
0.47473952 0.10842393 1.8694577 10197915
0.52491623 0.10831129 1.8673102 10197915
0.57499003 0.10819756 1.8655546 10197915
0.62495893 0.10808536 1.8634151 10197915
0.6784969 0.10789713 1.8814915 10197915
0.72512639 0.10777415 1.8849776 9737364
0.77508152 0.1076614 1.8830063 3223857
0.82492 0.10754763 1.8814356 2894892
0.86605221 0.10744815 1.8818101 2894892
-0.10409524 -0.57017481 1.9035662 9737364
-0.075880907 -0.57025546 1.9283676 9737364
-0.10409029 -0.52497405 1.903626 6447714
-0.075881384 -0.52499026 1.9284167 6447714
-0.10410936 -0.47504285 1.9036719 6447714
-0.075901553 -0.47498277 1.9284664 6447714
-0.10410067 -0.42497477 1.9037409 6447714
-0.075902298 -0.42499804 1.9285227 6447714
0.91023129 -0.42162082 1.9477179 2894892
-0.10412372 -0.37490442 1.9037839 6447714
-0.075907625 -0.374984 1.9285839 6447714
0.9102965 -0.37525535 1.9479243 2894892
-0.10411116 -0.32496235 1.9038558 6447714
-0.075899206 -0.32499245 1.9286505 6447714
0.91042727 -0.32580724 1.9480748 2894892
-0.10409846 -0.27501601 1.9039294 6447714
-0.075899787 -0.27502462 1.9287156 6447714
0.91100883 -0.27515829 1.9477201 2894892
-0.10415342 -0.22520261 1.9039428 6447714
-0.075946353 -0.22497532 1.9287323 6447714
0.91110146 -0.22515236 1.9479183 2894892
-0.10412079 -0.17511754 1.9040332 6447714
-0.075861812 -0.17497464 1.9288734 6447714
0.91119409 -0.17513624 1.9481167 2894892
-0.10412407 -0.12463704 1.9040929 6447714
-0.0759257 -0.12499712 1.9288757 6447714
0.91128671 -0.1251099 1.9483141 2894892
-0.10412729 -0.074942283 1.9041517 6447714
-0.075901754 -0.074912079 1.9289614 6447714
0.9113791 -0.075073384 1.9485117 2894892
-0.1041305 -0.0252444 1.9042106 6447714
-0.075952843 -0.024930868 1.9289751 6447714
0.91148275 -0.025289955 1.9486954 2894892
-0.10413375 0.02524545 1.904271 6447714
-0.07595519 0.024931911 1.9290371 6447714
0.91209096 0.025022395 1.9483075 2894892
-0.10413699 0.074949488 1.9043287 7303023
-0.07590884 0.07491935 1.9291388 7303023
0.91218364 0.075073965 1.9485055 2894892
-0.10413259 0.10492419 1.9042444 10197915
-0.074793391 0.1057292 1.9258196 10197915
-0.024993205 0.10946672 1.9145741 10197915
0.020521266 0.10934252 1.9192209 10197915
0.076875567 0.10918479 1.9261481 10197915
0.12507065 0.10903893 1.9353629 10197915
0.174999 0.10892706 1.9331518 10197915
0.22482502 0.10881399 1.9313711 10197915
0.27454942 0.10870264 1.9291682 10197915
0.32496172 0.10858824 1.9273633 10197915
0.37527329 0.10847551 1.925138 10197915
0.42508432 0.10836177 1.9235686 10197915
0.47478235 0.10825121 1.9211572 10197915
0.52478659 0.10813779 1.9193684 10197915
0.57506806 0.1080258 1.9169403 10197915
0.62524533 0.1079113 1.9153488 10197915
0.67126244 0.10779399 1.9175715 10197915
0.72557437 0.10764082 1.9246013 10197915
0.77883393 0.10748855 1.9321078 4605510
0.82452297 0.10737237 1.9342303 2894892
0.8748827 0.10725893 1.9321864 2894892
0.90945798 0.10511089 1.9466978 2894892
-0.050903589 -0.56963533 1.9503183 9671571
-0.025285156 -0.57034534 1.9728342 9737364
0.0025054847 -0.57037473 1.9972596 9737364
-0.050905023 -0.52440238 1.9503728 6447714
-0.025329309 -0.52501285 1.9728497 6447714
0.0024649713 -0.52488464 1.9972804 6447714
-0.050906606 -0.47432008 1.9504336 6447714
-0.025324434 -0.47496024 1.9729184 6447714
0.0024832492 -0.47497436 1.9973582 6447714
-0.050908163 -0.42504263 1.9504933 6447714
-0.025354821 -0.42493007 1.9729519 6447714
0.0024833255 -0.42533863 1.9974197 6447714
0.88231355 -0.42151207 1.9794806 2894892
0.90388596 -0.42145869 1.954939 2894892
-0.050909724 -0.37576208 1.9505529 6447714
-0.025355443 -0.37497658 1.9730148 6447714
0.0025014083 -0.37514499 1.9974983 6447714
0.88244551 -0.37500194 1.9796133 2894892
0.90394866 -0.37502658 1.9551479 2894892
-0.050911304 -0.3256706 1.9506136 6447714
-0.025361473 -0.32496655 1.9730697 6447714
0.002465277 -0.32468206 1.9975286 6447714
0.88252228 -0.32500747 1.9798272 2894892
0.90409774 -0.32477835 1.9552828 2894892
-0.050912887 -0.27557597 1.9506744 6447714
-0.025295466 -0.27495396 1.9731919 6447714
0.0024835577 -0.27475801 1.9976068 6447714
0.88263589 -0.27500287 1.9800022 2894892
0.90465415 -0.27500772 1.954951 2894892
-0.050914474 -0.2254782 1.950735 6447714
-0.025339121 -0.22496463 1.9732143 6447714
0.002483635 -0.22510979 1.9976685 6447714
0.88273269 -0.22501357 1.9801977 2894892
0.90475017 -0.22499597 1.9551454 2894892
-0.050916057 -0.1753774 1.9507958 6447714
-0.025343554 -0.17499857 1.9732732 6447714
0.0024837109 -0.17545864 1.9977298 6447714
0.88285112 -0.17503916 1.9803638 2894892
0.90484959 -0.1750647 1.9553357 2894892
-0.050917644 -0.12527344 1.9508564 6447714
-0.025354682 -0.12505528 1.9733229 6447714
0.0024837893 -0.12497678 1.9977931 6447714
0.88315767 -0.12518217 1.9803175 2894892
0.90497172 -0.12530649 1.9554979 2894892
-0.050919224 -0.075166337 1.9509175 6447714
-0.025238413 -0.075082295 1.9734881 6447714
0.0024838671 -0.074491754 1.9978548 6447714
0.88342565 -0.074943379 1.9803172 2894892
0.90502894 -0.075351708 1.9557356 2894892
-0.050920807 -0.025056142 1.950978 6447714
-0.025446365 -0.025031412 1.9733673 6447714
0.0024839435 -0.024831261 1.9979163 6447714
0.88370889 -0.02498715 1.9802943 2894892
0.90514004 -0.025032669 1.9559129 2894892
-0.050922398 0.025057178 1.9510385 6447714
-0.025447186 0.025032442 1.973429 6447714
0.0024840198 0.024832286 1.9979783 6447714
0.8837989 0.024990564 1.9804974 2894892
0.905743 0.02511517 1.955531 2894892
-0.050923977 0.075173624 1.9510992 7368816
-0.025240757 0.075089633 1.9736716 7368816
0.0024840967 0.074498877 1.99804 7303023
0.88351893 0.07477732 1.9811156 2894892
0.90567082 0.075818367 1.95592 2894892
-0.050924923 0.10508317 1.9511355 10197915
-0.024408922 0.10549825 1.9712887 10197915
0.019751865 0.10806394 1.9736595 10197915
0.07370843 0.10906133 1.9654008 10197915
0.12527303 0.10890131 1.976419 10197915
0.1750402 0.10878923 1.974385 10197915
0.22767149 0.10865756 1.9761728 10197915
0.27498904 0.10851766 1.984237 10197915
0.32520708 0.10840383 1.9824028 10197915
0.37532556 0.10829181 1.9801075 10197915
0.42533326 0.10817846 1.9782814 10197915
0.47524568 0.10806698 1.9759967 10197915
0.5250448 0.10795417 1.9741795 10197915
0.5751518 0.1078414 1.9721173 10197915
0.62515402 0.10772886 1.9700589 10197915
0.67504889 0.10761806 1.9675519 10197915
0.7248351 0.10750449 1.9659562 10197915
0.77025992 0.10738456 1.9693819 8882055
0.8243044 0.10723382 1.9758687 2894892
0.88134503 0.10413384 1.9800527 2894892
0.90523696 0.103665 1.956582 2894892
0.027562391 -0.570517 2.0192819 9737364
0.056746967 -0.57052732 2.0449338 9737364
0.027623069 -0.52501541 2.0193946 6447714
0.056785833 -0.52503371 2.0450239 6447714
0.027623493 -0.47505084 2.019453 6447714
0.056753989 -0.4750644 2.045058 6447714
0.027591258 -0.42505264 2.01949 6447714
0.056747191 -0.42508805 2.0451143 6447714
0.83545738 -0.42147419 2.0327921 2894892
0.8574816 -0.421229 2.007736 2894892
0.027637977 -0.37498859 2.0195892 6447714
0.05679952 -0.37511227 2.0452213 6447714
0.83549905 -0.37493107 2.0330272 2894892
0.8576088 -0.37509221 2.0078712 2894892
0.027586045 -0.32501474 2.0196085 6447714
0.056725677 -0.32501021 2.0452182 6447714
0.83562315 -0.32491502 2.0331891 2894892
0.8576991 -0.32515082 2.0080707 2894892
0.027623095 -0.27500644 2.0197001 6447714
0.056828424 -0.27502528 2.0453715 6447714
0.83565384 -0.27495313 2.0334563 2894892
0.8577888 -0.27513549 2.0082719 2894892
0.02760485 -0.22499499 2.0197508 6447714
0.05662537 -0.22545953 2.045254 6447714
0.83598208 -0.22524503 2.0333853 2894892
0.85756332 -0.22462095 2.0088348 2894892
0.027583009 -0.174951 2.0197875 6447714
0.05595113 -0.17506133 2.0447235 6447714
0.83584833 -0.1749423 2.0338426 2894892
0.85742754 -0.17493069 2.0092912 2894892
0.027661439 -0.12490173 2.0199234 6447714
0.055874348 -0.12509459 2.0447183 6447714
0.83590204 -0.12499758 2.0340848 2894892
0.85777259 -0.12442934 2.0092044 2894892
0.027530452 -0.075068735 2.0198665 6447714
0.055959232 -0.074965797 2.0448554 6447714
0.83603883 -0.075181551 2.0342283 2894892
0.85812861 -0.074910678 2.0090983 2894892
0.027692245 -0.025106642 2.0200741 6447714
0.055872712 -0.024997586 2.0448403 6447714
0.83612281 -0.025181884 2.034436 2894892
0.85821527 -0.02497248 2.0093014 2894892
0.027693152 0.02510768 2.0201342 6447714
0.055874459 0.024998628 2.0449038 6447714
0.83622193 0.025150657 2.0346293 2894892
0.858302 0.024975851 2.0095065 2894892
0.027533013 0.075075962 2.0200582 7368816
0.055964455 0.074973017 2.0450456 7368816
0.83658051 0.074868351 2.0345221 2894892
0.85838872 0.074934319 2.0097077 2894892
0.028415751 0.10510577 2.0189085 10197915
0.068534657 0.10730036 2.0293217 10197915
0.12465111 0.10875901 2.0194991 10197915
0.17508253 0.10864639 2.0171525 10197915
0.22353165 0.10853221 2.0166967 10197915
0.2755436 0.10837099 2.0277805 10197915
0.32561019 0.10825846 2.0256748 10197915
0.37557289 0.10814614 2.0235729 10197915
0.42543218 0.10803405 2.021476 10197915
0.47720948 0.10787236 2.0328908 10197915
0.52490938 0.10776155 2.0319777 10197915
0.57482761 0.10764936 2.029871 10197915
0.62504601 0.10753571 2.027988 10197915
0.67475456 0.10742404 2.0258815 10197915
0.72477186 0.10731249 2.0235186 10197915
0.77468121 0.10719953 2.0216477 10066329
0.8316099 0.10478393 2.0281868 3158064
0.85850346 0.10383657 2.0087662 2894892
0.78797007 -0.62149751 2.0856104 10066329
0.82028228 -0.62157005 2.0645747 8487297
0.8605234 -0.62239128 2.090909 2894892
0.08134079 -0.57068086 2.0665495 9737364
0.11005179 -0.57077658 2.0917845 9803157
0.78805989 -0.57493687 2.0857909 6447714
0.82029223 -0.57504278 2.064723 5526612
0.86002827 -0.57507533 2.090533 2894892
0.081353284 -0.52499443 2.0666163 6447714
0.11005276 -0.52501869 2.0918422 6447714
0.78814977 -0.52500099 2.0859914 6447714
0.82036388 -0.52502578 2.0648789 5066061
0.86002737 -0.52511585 2.0905945 2894892
0.081341252 -0.47502488 2.0666676 6447714
0.1100504 -0.47500604 2.0919003 6447714
0.78824705 -0.47505575 2.0861821 6447714
0.82036442 -0.47506335 2.0649817 5066061
0.85992396 -0.47797203 2.0905612 2894892
0.081312187 -0.42501196 2.0667038 6447714
0.10968834 -0.42556351 2.0916433 6447714
0.78829563 -0.42505613 2.0864298 3881787
0.81075531 -0.42525214 2.0613871 3815994
0.081372321 -0.37499553 2.0668187 6447714
0.10918137 -0.37496793 2.0912621 6447714
0.78839368 -0.37500358 2.0866206 2894892
0.81047201 -0.37492588 2.061502 2894892
0.081308648 -0.32497647 2.0668242 6447714
0.10912795 -0.32507527 2.0912757 6447714
0.78876078 -0.32531521 2.0865047 2894892
0.81058973 -0.32497206 2.0616703 2894892
0.081391737 -0.27499524 2.0669594 6447714
0.10919756 -0.27509242 2.0913985 6447714
0.78907382 -0.27516484 2.0864511 2894892
0.81057286 -0.27487937 2.0619931 2894892
0.081211515 -0.22487272 2.0668645 6447714
0.10919467 -0.2250188 2.091459 6447714
0.78861344 -0.22497262 2.0872803 2894892
0.81068915 -0.22500373 2.0621638 2894892
0.080458961 -0.17498098 2.0662632 6447714
0.10918872 -0.1750292 2.0915163 6447714
0.78870392 -0.17497987 2.0874815 2894892
0.81082159 -0.17501602 2.062315 2894892
0.080522902 -0.12498377 2.0663829 6447714
0.10911579 -0.12530062 2.0915132 6447714
0.78882509 -0.12512279 2.0876434 2894892
0.81085783 -0.12497769 2.0625768 2894892
0.080365695 -0.074831419 2.0663061 6447714
0.10919539 -0.075389117 2.091645 6447714
0.78886902 -0.075207002 2.0878963 2894892
0.81105602 -0.074799627 2.0626564 2894892
0.080528274 -0.024827661 2.0665114 6447714
0.10919882 -0.025130412 2.0917099 6447714
0.78892905 -0.025087122 2.0881317 2894892
0.81104416 -0.024784859 2.0629714 2894892
0.080530763 0.024828689 2.0665746 6447714
0.1092022 0.025131458 2.0917752 6447714
0.78955072 0.024946293 2.0877273 2894892
0.81112498 0.024788184 2.0631795 2894892
0.080373101 0.074838609 2.0664992 7368816
0.10917727 0.075311303 2.0918159 7434609
0.78971678 0.07520318 2.0878425 3881787
0.8116262 0.075107388 2.0629129 3618615
0.081338957 0.10476072 2.0665667 10197915
0.11847302 0.10660528 2.0840688 10197915
0.17471088 0.10844541 2.0776105 10197915
0.22483467 0.10833383 2.075192 10197915
0.27483895 0.10822067 2.0733042 10197915
0.32517666 0.10810772 2.0711396 10197915
0.37540972 0.10799495 2.0689793 10197915
0.42510727 0.10788424 2.0665805 10197915
0.47182438 0.10774221 2.0757039 10197915
0.52512091 0.10760769 2.0779297 10197915
0.5753094 0.10749507 2.0757554 10197915
0.62539232 0.10738273 2.0735857 10197915
0.67537141 0.10727058 2.0714204 10197915
0.72724915 0.1071446 2.0720422 10197915
0.78219789 0.10505543 2.0844555 10197915
0.81131536 0.10372815 2.0630739 8684676
0.74079543 -0.62161952 2.1392827 5789784
0.76286805 -0.62157422 2.1141686 6381921
0.88514203 -0.62117779 2.1125495 2894892
0.9140687 -0.6216144 2.1379735 2894892
0.13488719 -0.57069147 2.1136127 9737364
0.16302346 -0.57095087 2.1383421 9803157
0.74098146 -0.57502991 2.139353 2894892
0.76296067 -0.57504141 2.114347 3552822
0.88470274 -0.57499498 2.11222 2894892
0.9141292 -0.57496107 2.1380847 2894892
0.13481201 -0.52495503 2.1136029 6447714
0.16299742 -0.5250892 2.1383765 6447714
0.74104524 -0.52500695 2.1395829 2894892
0.76303184 -0.52503949 2.1145678 3618615
0.88471687 -0.52498251 2.1122949 2894892
0.91418165 -0.52502662 2.1381927 2894892
0.13486122 -0.47494766 2.1137092 6447714
0.1629976 -0.47498783 2.138438 6447714
0.7411015 -0.47503561 2.139823 2894892
0.7631073 -0.47498685 2.1147861 3618615
0.88418794 -0.48140442 2.1118841 2894892
0.91352934 -0.48588446 2.1376686 2894892
0.1344543 -0.42456549 2.1134133 6447714
0.16303144 -0.42500839 2.1385295 6447714
0.7411992 -0.42505452 2.1400142 2894892
0.76319325 -0.42496595 2.1149907 3092271
0.13391289 -0.37503156 2.112998 6447714
0.16300052 -0.37508932 2.1385646 6447714
0.74124986 -0.37500113 2.1402581 2894892
0.76325601 -0.37497577 2.1152225 2894892
0.1339251 -0.32498839 2.1130717 6447714
0.1630417 -0.3250418 2.1386621 6447714
0.74140036 -0.32524011 2.1403902 2894892
0.76363623 -0.32463044 2.1150944 2894892
0.13397081 -0.2749435 2.1131723 6447714
0.16305391 -0.27498949 2.1387348 6447714
0.74205732 -0.27510461 2.1399446 2894892
0.76404631 -0.2749643 2.1149297 2894892
0.13391362 -0.22504969 2.1131847 6447714
0.163004 -0.22493595 2.1387532 6447714
0.74210167 -0.22500426 2.1401985 2894892
0.76408803 -0.2250443 2.1151841 2894892
0.13399872 -0.17504992 2.1133215 6447714
0.16309531 -0.17494129 2.138895 6447714
0.74217057 -0.1750273 2.1404233 2894892
0.76419389 -0.17499559 2.1153653 2894892
0.13386528 -0.12489324 2.1132672 6447714
0.16307116 -0.12494284 2.1389363 6447714
0.74228078 -0.12490582 2.1406009 2894892
0.76435781 -0.1249352 2.1154823 2894892
0.13412233 -0.07498578 2.1135547 6447714
0.16296902 -0.074756809 2.1389086 6447714
0.74239081 -0.0747087 2.1407804 2894892
0.76419723 -0.07498119 2.1159678 2894892
0.13387352 -0.025087638 2.1133974 6447714
0.16308162 -0.024813225 2.1390693 6447714
0.74187589 -0.025092479 2.1416659 2894892
0.76397943 -0.024887593 2.1165183 2894892
0.13387772 0.025088677 2.1134634 6447714
0.1623145 0.024528759 2.1384563 6447714
0.74209076 0.024332015 2.1417205 2894892
0.7645331 0.025126943 2.1161928 2894892
0.13413484 0.074993007 2.1137507 7434609
0.16203605 0.074759498 2.1382737 7434609
0.74260384 0.074688531 2.1414413 3881787
0.76441252 0.075002044 2.116631 3881787
0.13400964 0.10420453 2.1136708 10197915
0.16681966 0.10537858 2.1344192 10197915
0.22513852 0.10817401 2.1228309 10197915
0.27498335 0.10806228 2.1206384 10197915
0.32559735 0.10794884 2.1184123 10197915
0.37589988 0.10778236 2.1322985 10197915
0.42494485 0.10767246 2.1301365 10197915
0.47519711 0.10755891 2.1281965 10197915
0.52534086 0.10744765 2.1256876 10197915
0.5753817 0.10733459 2.1237564 10197915
0.62531775 0.10722367 2.1212571 10197915
0.67514861 0.10711107 2.1193345 10197915
0.73200405 0.10529373 2.1283848 10197915
0.76473808 0.10343602 2.1164331 10197915
0.69397539 -0.62149084 2.192553 5592405
0.7163884 -0.62156117 2.1670523 5658198
0.93848211 -0.62201267 2.1594303 2894892
0.96632367 -0.62193567 2.1839027 2894892
0.18796039 -0.57098615 2.1602607 9803157
0.21632773 -0.57098669 2.1851923 9737364
0.69340128 -0.57493454 2.1934888 2894892
0.71584618 -0.57500273 2.1679509 2894892
0.9384616 -0.57500696 2.1594713 2894892
0.96630538 -0.57498956 2.1839437 2894892
0.18794554 -0.5249849 2.1603043 6447714
0.21640161 -0.52499056 2.1853137 6447714
0.69341779 -0.52490473 2.1937721 2894892
0.7159 -0.52497405 2.1681924 2894892
0.93854976 -0.5248031 2.1596103 2894892
0.96635485 -0.52487361 2.1840498 2894892
0.18794014 -0.4748809 2.1603599 6447714
0.21638712 -0.47505227 2.1853633 6447714
0.69405633 -0.47542307 2.1933453 2894892
0.71598029 -0.47497168 2.1684046 2894892
0.93808001 -0.48933929 2.1592419 2894892
0.96382326 -0.49322957 2.1818631 2894892
0.18795434 -0.4248473 2.1604369 6447714
0.21637715 -0.42505652 2.1854169 6447714
0.69427359 -0.42504758 2.1934032 2894892
0.71606421 -0.42499572 2.1686101 2894892
0.18795146 -0.37496111 2.1604941 6447714
0.21640472 -0.37500525 2.1855032 6447714
0.69429278 -0.37499481 2.1936848 2894892
0.71611261 -0.37497276 2.168859 2894892
0.1879863 -0.32499573 2.1605861 6447714
0.21638192 -0.3250573 2.1855445 6447714
0.69443893 -0.32492957 2.1938214 2894892
0.71629572 -0.32487696 2.1689556 2894892
0.187995 -0.27495307 2.1606572 6447714
0.21645631 -0.27499947 2.1856718 6447714
0.69441217 -0.2749669 2.1941547 2894892
0.7168951 -0.27497983 2.1685736 2894892
0.18799219 -0.22490722 2.1607163 6447714
0.21638668 -0.22499304 2.1856723 6447714
0.69458026 -0.22499914 2.1942666 2894892
0.71698624 -0.2249679 2.1687756 2894892
0.18797183 -0.17500809 2.1607599 6447714
0.21641947 -0.17498094 2.1857631 6447714
0.69455308 -0.17501093 2.1945996 2894892
0.71707451 -0.17498207 2.1689765 2894892
0.18795419 -0.12518205 2.1608069 6447714
0.21642114 -0.12486164 2.1858268 6447714
0.69535506 -0.12517118 2.1939886 2894892
0.71710509 -0.1250183 2.1692436 2894892
0.18801829 -0.075200476 2.1609235 6447714
0.21652223 -0.075055845 2.1859767 6447714
0.69537061 -0.075053461 2.1942747 2894892
0.7173034 -0.075186789 2.1693194 2894892
0.18802416 -0.025067519 2.1609917 6447714
0.2157723 -0.025508925 2.1853795 6447714
0.69552422 -0.025072703 2.1944025 2894892
0.71723706 -0.025168208 2.1696994 2894892
0.18722558 0.025345694 2.160352 6447714
0.21540514 0.025182014 2.1851194 6447714
0.69559485 0.02494623 2.1946244 2894892
0.7175715 0.025393605 2.1696241 2894892
0.18706997 0.075178191 2.1602769 7434609
0.21552427 0.075083636 2.1852868 7434609
0.69558203 0.074947275 2.1949422 4013373
0.71818119 0.07516294 2.1692321 4013373
0.18717837 0.10472129 2.1593759 10197915
0.22033508 0.10547771 2.1785541 10197915
0.27513334 0.10789562 2.1704433 10197915
0.32469562 0.10778575 2.1679041 10197915
0.37283194 0.10762802 2.1807024 10197915
0.42459399 0.10750469 2.1806102 10197915
0.47468919 0.10739265 2.1783376 10197915
0.52468097 0.10728102 2.1760736 10197915
0.57456797 0.10716946 2.1738105 10197915
0.62435144 0.10705812 2.1715519 10197915
0.68510872 0.10533543 2.1819143 10197915
0.71738237 0.10375729 2.1692822 10197915
0.64676493 -0.62164026 2.2462659 5460819
0.66892213 -0.62164366 2.2210567 5526612
0.99169922 -0.62188661 2.2062056 2894892
1.0207517 -0.622042 2.2317412 2894892
0.24141863 -0.57106268 2.2072449 9803157
0.27008268 -0.57114959 2.2324398 9803157
0.64682657 -0.57497871 2.2464783 2894892
0.66900891 -0.57504302 2.2212396 2894892
0.99174255 -0.5749315 2.2063019 2894892
1.0207731 -0.57497907 2.2318172 2894892
0.24139313 -0.52501333 2.2072799 6447714
0.27007464 -0.52496791 2.2324889 6447714
0.64693391 -0.5253163 2.2466564 2894892
0.66906905 -0.52502918 2.2214742 2894892
0.99174458 -0.52486801 2.2063653 2894892
1.0199244 -0.52699971 2.2311318 2894892
0.2414515 -0.4750748 2.2073927 6447714
0.27000511 -0.47512761 2.2324884 6447714
0.64767867 -0.47527793 2.2461128 2894892
0.66970021 -0.47486806 2.2210603 2894892
0.99065238 -0.49725655 2.2054396 2894892
1.0019208 -0.49897137 2.2153418 2894892
0.24142215 -0.42502177 2.2074292 6447714
0.26907256 -0.4250595 2.2317312 6447714
0.64772451 -0.42530257 2.2463632 2894892
0.66991949 -0.42496321 2.221112 2894892
0.24144799 -0.37496269 2.2075133 6447714
0.26908132 -0.37499791 2.2318022 6447714
0.64779061 -0.37508625 2.2465916 2894892
0.66994339 -0.37494937 2.2213886 2894892
0.24138625 -0.32501504 2.2075212 6447714
0.26902142 -0.32493466 2.2318096 6447714
0.64785659 -0.32485959 2.2468207 2894892
0.67006266 -0.32499132 2.2215538 2894892
0.24151872 -0.27506611 2.2076998 6447714
0.26910168 -0.27496397 2.2319436 6447714
0.64732111 -0.27550283 2.2477295 2894892
0.66948807 -0.27494848 2.2225113 2894892
0.24147034 -0.22499809 2.2077191 6447714
0.26907772 -0.22503889 2.2319822 6447714
0.64728802 -0.22445513 2.2480762 2894892
0.6695047 -0.22510868 2.2227952 2894892
0.24142231 -0.17493045 2.2077384 6447714
0.26905343 -0.17511193 2.2320247 6447714
0.64737076 -0.17541201 2.2482791 2894892
0.66955286 -0.175082 2.223042 2894892
0.24148539 -0.12531213 2.2078562 6447714
0.26903108 -0.12503597 2.2320664 6447714
0.64811951 -0.12571251 2.2477276 2894892
0.67023033 -0.12500826 2.2225742 2894892
0.241493 -0.075006627 2.2079248 6447714
0.26915932 -0.074907921 2.23224 6447714
0.64818573 -0.07543502 2.247957 2894892
0.67046934 -0.074896596 2.2226071 2894892
0.24083789 -0.024026496 2.2074125 6447714
0.26916763 -0.024969989 2.2323134 6447714
0.64825177 -0.025147282 2.2481861 2894892
0.6703707 -0.024865828 2.2230222 2894892
0.24049854 0.02468908 2.2071738 6447714
0.26917604 0.024971034 2.2323785 6447714
0.64831799 0.025150709 2.2484157 2894892
0.67043817 0.024869144 2.2232459 2894892
0.24050598 0.074983746 2.207243 7500402
0.26918447 0.074915148 2.2324488 7500402
0.64838409 0.075458959 2.2486448 4210752
0.67066389 0.074889541 2.2232921 4079166
0.24051046 0.10424743 2.2072828 10197915
0.27076748 0.10466332 2.2296629 10197915
0.32467002 0.10761156 2.2200909 10197915
0.37486514 0.10749941 2.2177768 10197915
0.42495653 0.10738748 2.2154679 10197915
0.4763101 0.10721859 2.2293208 10197915
0.52490336 0.10710322 2.2291551 10197915
0.57507676 0.10699336 2.226171 10197915
0.62744546 0.10654026 2.2262964 10197915
0.66980702 0.10401336 2.221092 10197915
0.63122547 -0.62156838 2.2639463 5395026
1.0457479 -0.62229067 2.2537103 2894892
1.0568327 -0.62226367 2.2634528 2894892
0.29515702 -0.57137287 2.2544768 9803157
0.32290798 -0.57122219 2.2788675 9803157
0.63128787 -0.57500237 2.2641568 2894892
1.0457598 -0.57516694 2.2537792 2894892
1.056828 -0.57521594 2.2635067 2894892
0.29514405 -0.52515501 2.2545221 6447714
0.3228797 -0.52497602 2.2789006 6447714
0.63141108 -0.52490747 2.2643209 2894892
1.0457646 -0.53084111 2.2538381 2894892
1.0566931 -0.53243524 2.2634413 2894892
0.29503739 -0.47475952 2.2544911 6447714
0.32288983 -0.47495276 2.2789698 6447714
0.63213122 -0.47492635 2.2638032 2894892
0.29414991 -0.42501935 2.2537723 6447714
0.32291842 -0.42492527 2.2790568 6447714
0.63217461 -0.42494982 2.2640572 2894892
0.29414335 -0.37498409 2.253829 6447714
0.3229149 -0.37493864 2.2791171 6447714
0.6322546 -0.37501484 2.2642682 2894892
0.29412085 -0.32513434 2.2538707 6447714
0.3229219 -0.32499087 2.2791853 6447714
0.63229251 -0.3250187 2.2645285 2894892
0.29411417 -0.27528203 2.2539265 6447714
0.32295561 -0.27499735 2.2792747 6447714
0.63241142 -0.27506328 2.2646949 2894892
0.29415482 -0.22504933 2.2540245 6447714
0.32296735 -0.22500126 2.2793484 6447714
0.63243079 -0.22504698 2.2649767 2894892
0.29416409 -0.17462879 2.2540953 6447714
0.3229441 -0.17504522 2.2793901 6447714
0.63260877 -0.17486647 2.2650776 2894892
0.29422128 -0.12475877 2.2542067 6447714
0.32286018 -0.12504099 2.2793775 6447714
0.63321906 -0.12487911 2.2646861 2894892
0.29413465 -0.075278953 2.2541921 6447714
