# .PCD v0.7 - Point Cloud Data file format
VERSION 0.7
FIELDS x y z rgb
SIZE 4 4 4 4
TYPE F F F U
COUNT 1 1 1 1
WIDTH 1153
HEIGHT 1
VIEWPOINT 0 0 0 1 0 0 0
POINTS 1153
DATA ascii
-0.17501891 0.099551484 1.5703616 10197915
-0.12510298 0.099694192 1.5729642 10197915
-0.077744119 0.099791206 1.5793484 10197915
-0.028839033 0.099864289 1.5887024 10197915
0.019859707 0.099941269 1.5975906 10197915
-0.065187283 0.10004319 1.5579494 10197915
-0.020908622 0.10012228 1.5651048 10197915
0.026942875 0.10020196 1.5734185 10197915
0.072520949 0.10031297 1.5777617 10197915
0.12644802 0.1005381 1.5733296 10197915
0.1748471 0.10074357 1.5690061 10197915
0.22500364 0.10089169 1.5711386 10197915
0.27509165 0.10103963 1.5732627 10197915
0.3250986 0.10118286 1.5758483 10197915
0.3750371 0.10133033 1.5779653 10197915
0.42489615 0.10147447 1.5803926 10197915
0.47253016 0.10166784 1.5770395 10197915
0.52743161 0.10191653 1.5705373 9408399
0.57502878 0.1020871 1.5694976 2960685
0.61318755 0.10216743 1.5744232 2894892
-0.60135472 -0.60108966 1.6010796 11711154
-0.57509577 -0.60127002 1.6245323 11711154
-0.54816711 -0.60116744 1.6485866 11711154
-0.60164672 -0.57511234 1.6011519 11579568
-0.57543254 -0.57504457 1.6245668 11579568
-0.54846328 -0.5751 1.648656 11579568
-0.60197049 -0.52396435 1.601517 6447714
-0.57562977 -0.52498519 1.6250323 6447714
-0.54894215 -0.52742136 1.6488388 6447714
-0.60219365 -0.47384414 1.6019591 6447714
-0.57549667 -0.47509819 1.62579 6447714
-0.54931951 -0.47484598 1.6491748 6447714
-0.60237229 -0.42401662 1.6024374 6447714
-0.5751521 -0.42490852 1.62674 6447714
-0.54960793 -0.44050702 1.6493572 6447714
-0.60286123 -0.37501886 1.6026289 6447714
-0.57509577 -0.37504426 1.6274294 6447714
-0.60333633 -0.32409748 1.6028566 6447714
-0.57575518 -0.32509446 1.62748 6447714
-0.60372108 -0.27496207 1.6031421 6447714
-0.57593572 -0.27504089 1.6279614 6447714
-0.60419923 -0.22397745 1.6033686 6447714
-0.5766173 -0.22501801 1.6279914 6447714
-0.60410947 -0.17507453 1.6040753 6447714
-0.57636017 -0.17499956 1.6288617 6447714
-0.60467511 -0.12455937 1.6042168 6447714
-0.57695818 -0.12498055 1.628969 6447714
-0.60493755 -0.07511811 1.6046156 6447714
-0.57736117 -0.07503774 1.6292486 6447714
-0.60559046 -0.025146255 1.6046722 6447714
-0.5777598 -0.024977304 1.6295328 6447714
-0.60586572 0.025425376 1.6050742 6447714
-0.57805592 0.024879139 1.6299088 6447714
-0.60624474 0.07480678 1.6053333 6447714
-0.57821327 0.074760333 1.6294967 6447714
-0.52499753 0.097806171 1.6281334 6513507
-0.4776018 0.097985193 1.6261593 6513507
-0.42503378 0.098189354 1.6234044 7105644
-0.37481487 0.098336242 1.625684 9803157
-0.32247129 0.098538652 1.623023 10197915
-0.27510735 0.098718509 1.6209604 10197915
-0.22506955 0.098863721 1.6233447 10197915
-0.17511117 0.099007078 1.6258936 10197915
-0.1250055 0.099154152 1.6281143 10197915
-0.077235349 0.099326745 1.626925 10197915
-0.024879271 0.099537246 1.6234485 10197915
0.024927486 0.099681877 1.6258076 10197915
0.075214088 0.099829175 1.628064 10197915
0.12438498 0.099882759 1.6395061 10197915
0.15778381 0.099974684 1.6416111 10197915
0.085545629 0.10013262 1.6006494 10197915
0.12552276 0.10016059 1.6115422 10197915
0.17719415 0.10023843 1.6213665 10197915
0.22496676 0.10035829 1.625564 10197915
0.27497938 0.10050038 1.628261 10197915
0.32309115 0.10066496 1.6280111 10197915
0.37496221 0.10088542 1.6233485 10197915
0.42500529 0.10102975 1.6258193 10197915
0.47719917 0.1012539 1.6208918 10197915
0.52497846 0.10141303 1.6210841 10197915
0.57505542 0.10155722 1.6235865 5197647
0.62322092 0.10168467 1.6271452 2894892
0.65255684 0.10159975 1.6459018 2894892
-0.52374202 -0.60134089 1.6704015 11711154
-0.49529457 -0.60154027 1.6958089 11711154
-0.52392429 -0.57507008 1.6705756 11579568
-0.49572167 -0.57581931 1.6957572 11579568
-0.52427649 -0.52476245 1.6709061 6447714
-0.4959096 -0.52573144 1.6962302 6447714
-0.5242306 -0.47500306 1.671584 6447714
-0.49602613 -0.47590899 1.6967647 6447714
-0.52481264 -0.42494884 1.6717076 6447714
-0.49636763 -0.42513254 1.6971101 6447714
-0.52507663 -0.37505156 1.6721052 6447714
-0.49690437 -0.37616491 1.697257 6447714
-0.55035138 -0.3213222 1.6502197 6447714
-0.52525318 -0.32501644 1.6725905 6447714
-0.49723375 -0.32492489 1.6976194 6447714
-0.55050415 -0.27490893 1.6506779 6447714
-0.52539867 -0.27501112 1.6730993 6447714
-0.49776837 -0.27612045 1.6977668 6447714
-0.55118906 -0.22465457 1.6507097 6447714
-0.52556258 -0.22497627 1.673594 6447714
-0.49808878 -0.22512405 1.6981341 6447714
-0.55140436 -0.17448896 1.65116 6447714
-0.52574259 -0.17497158 1.6740756 6447714
-0.49863327 -0.17653473 1.6982704 6447714
-0.55196279 -0.1242472 1.6513046 6447714
-0.52526814 -0.12499664 1.675136 6447714
-0.49847102 -0.12647711 1.6990559 6447714
-0.55176771 -0.074413188 1.6521168 6447714
-0.52508897 -0.074991301 1.67594 6447714
-0.49889755 -0.07861302 1.6992881 6447714
-0.55239099 -0.025190527 1.6521903 6447714
-0.52499276 -0.025005182 1.6766642 6447714
-0.49924219 -0.025348114 1.6996624 6447714
-0.55271268 0.025972947 1.6525582 6447714
-0.52515048 0.025015131 1.6771626 6447714
-0.49933037 0.0042256797 1.6999625 6447714
-0.55321175 0.073716186 1.6527244 6447714
-0.52535534 0.074218653 1.6773142 6447714
-0.47265786 0.097533822 1.67393 6513507
-0.4250066 0.097707175 1.6726249 6513507
-0.37497604 0.097851552 1.675096 6908265
-0.32502258 0.097995706 1.6775639 9013641
-0.27690473 0.098202154 1.6730398 10197915
-0.22482517 0.098384887 1.6722999 10197915
-0.17484529 0.098527879 1.6748922 10197915
-0.12472726 0.098674007 1.6772143 10197915
-0.072363079 0.098879024 1.6742992 10197915
-0.025163976 0.099059954 1.6720635 10197915
0.024983061 0.099203072 1.6746939 10197915
0.075036995 0.099351451 1.6767633 10197915
0.12276674 0.099520281 1.6759449 10197915
0.17489083 0.09973716 1.671736 10197915
0.22120918 0.099848263 1.6763246 10197915
0.27533361 0.099928476 1.6867509 10197915
0.24074888 0.10002429 1.6650798 10197915
0.27482641 0.10012302 1.6667234 10197915
0.32762146 0.10022091 1.6748871 10197915
0.37511528 0.10041385 1.6715307 10197915
0.42489013 0.10055801 1.6739299 10197915
0.47481307 0.1007026 1.6763374 10197915
0.52443117 0.10085016 1.6783415 10197915
0.57504392 0.10109059 1.6712097 7631988
0.62509429 0.101233 1.6738874 2894892
0.65879518 0.10131104 1.6775115 2894892
-0.46985188 -0.60147935 1.718536 11711154
-0.44260567 -0.60146576 1.742873 11711154
-0.47095436 -0.57480359 1.7178919 11579568
-0.44269103 -0.57495087 1.7431355 11579568
-0.47123006 -0.52499396 1.7182837 6447714
-0.44309685 -0.52548552 1.7434072 6447714
-0.47152716 -0.47467545 1.7186618 6447714
-0.44328865 -0.47552612 1.7438756 6447714
-0.4715288 -0.42495069 1.7192981 6447714
-0.44334802 -0.42551789 1.744463 6447714
-0.47206512 -0.37481266 1.7194623 6447714
-0.44379777 -0.37491941 1.74471 6447714
-0.47237766 -0.3249526 1.719822 6447714
-0.44417176 -0.32562959 1.7450057 6447714
-0.47297552 -0.27483138 1.7199295 6447714
-0.44467747 -0.27498868 1.7452037 6447714
-0.4732354 -0.22498421 1.7203352 6447714
-0.4450236 -0.22562818 1.7455264 6447714
-0.47383904 -0.17485298 1.7204368 6447714
-0.44551077 -0.17502217 1.7457397 6447714
-0.47406015 -0.12496908 1.7208794 6447714
-0.44587523 -0.12585221 1.746044 6447714
-0.47482398 -0.074862719 1.7208401 6447714
-0.44635189 -0.075132281 1.7462672 6447714
-0.47443721 -0.024844598 1.7218255 6447714
-0.44630656 -0.02709277 1.7469234 6447714
-0.47488862 0.02505116 1.7220619 6447714
-0.44664893 0.025195448 1.7472869 6447714
-0.47517246 0.074070007 1.7221078 6447714
-0.43985274 0.080491953 1.7404046 6447714
-0.3750295 0.097336486 1.7276444 6513507
-0.32504663 0.097481459 1.7300385 6513507
-0.27328643 0.097718209 1.723676 8684676
-0.22503114 0.097871788 1.724595 10132122
-0.17504078 0.098017387 1.7269245 10197915
-0.12531769 0.09826424 1.7188323 10197915
-0.075225852 0.098409802 1.7212029 10197915
-0.024990333 0.098552823 1.7238802 10197915
0.02503898 0.098696716 1.726397 10197915
0.074851751 0.098841451 1.7287477 10197915
0.12727872 0.099045441 1.7259595 10197915
0.17491284 0.099235125 1.7229811 10197915
0.22521386 0.099376015 1.7258998 10197915
0.27283877 0.099548392 1.7246853 10197915
0.32496575 0.099767961 1.7202028 10197915
0.37055627 0.099856384 1.7268561 10197915
0.42061657 0.099940389 1.7354964 10197915
0.38528189 0.10004501 1.7126707 10197915
0.42852628 0.10013949 1.7178932 10197915
0.47524858 0.1002011 1.7276708 10197915
0.52567261 0.10035654 1.7291485 10197915
0.5747804 0.10059208 1.7219979 9868950
0.62490612 0.10073671 1.724474 3289650
0.66925615 0.10083293 1.7299062 2894892
-0.41765809 -0.60151541 1.7651554 11711154
-0.38939193 -0.60154766 1.7904034 11711154
-0.41764414 -0.57495219 1.7655083 11579568
-0.38947231 -0.57489169 1.7906733 11579568
-0.41806993 -0.5248099 1.7657686 6447714
-0.39003363 -0.5252533 1.7908069 6447714
-0.41850892 -0.47502983 1.7660162 6447714
-0.39033657 -0.47501504 1.7911793 6447714
-0.41890571 -0.42476526 1.7663063 6447714
-0.39083001 -0.42533258 1.7913753 6447714
-0.41934559 -0.374946 1.7665509 6447714
-0.39118797 -0.37495035 1.7917014 6447714
-0.41964093 -0.32464093 1.7669313 6447714
-0.39153808 -0.32564789 1.7920206 6447714
-0.41960973 -0.27496475 1.7675928 6447714
-0.39142877 -0.27497932 1.7927672 6447714
-0.41998357 -0.2247857 1.7679034 6447714
-0.3918142 -0.22549938 1.7930558 6447714
-0.42049357 -0.17496075 1.7680854 6447714
-0.39231709 -0.17502385 1.7932528 6447714
-0.42083752 -0.12485957 1.7684189 6447714
-0.39262295 -0.12536503 1.7936158 6447714
-0.4213731 -0.074967504 1.7685826 6447714
-0.39312059 -0.075057641 1.7938159 6447714
-0.42160043 -0.024752321 1.7690221 6447714
-0.39342496 -0.025790853 1.7941754 6447714
-0.4220919 0.024922065 1.7692207 6447714
-0.39397919 0.025275884 1.7943339 6447714
-0.42241699 0.074067965 1.7692065 6447714
-0.39072087 0.077542245 1.7905729 6447714
-0.32531047 0.097045153 1.774479 6513507
-0.27535892 0.097186245 1.7772547 6513507
-0.22525132 0.097331069 1.7797073 7631988
-0.17500603 0.097473018 1.7824984 10000536
-0.12491117 0.097726651 1.7738395 10197915
-0.076291807 0.097884305 1.7744681 10197915
-0.024892427 0.098124526 1.7676282 10197915
0.024940694 0.098267227 1.7701989 10197915
0.074918933 0.098410301 1.7727766 10197915
0.12503666 0.098557085 1.7750306 10197915
0.17530414 0.098697811 1.7779555 10197915
0.22497889 0.09884008 1.7805184 10197915
0.27740774 0.099046104 1.7775242 10197915
0.32516226 0.099238314 1.7743255 10197915
0.37289712 0.099402726 1.7739633 10197915
0.42491055 0.099632479 1.7683965 10197915
0.47505018 0.099777952 1.7707851 10197915
0.52107042 0.099849097 1.7793555 10197915
0.57078487 0.0999422 1.7869512 10197915
0.53238463 0.10004982 1.7627606 10197915
0.57785076 0.10014774 1.7684017 10197915
0.6252023 0.10020898 1.7784343 5723991
0.67516339 0.10035076 1.7811459 2894892
0.70566314 0.10038362 1.7882833 2894892
-0.3643553 -0.60178298 1.8127636 11711154
-0.33645883 -0.60184497 1.8376805 11711154
-0.36431432 -0.57499754 1.8131436 11579568
-0.33654496 -0.57495904 1.837947 11579568
-0.36488584 -0.52484363 1.8132752 6447714
-0.33664292 -0.5249753 1.8385006 6447714
-0.36517274 -0.47499502 1.8136576 6447714
-0.33736047 -0.4750948 1.8384969 6447714
-0.36569652 -0.42470142 1.8138335 6447714
-0.33749714 -0.42496625 1.8390185 6447714
-0.36602193 -0.37495258 1.8141797 6447714
-0.33810958 -0.3752158 1.8391091 6447714
-0.36651969 -0.32472396 1.8143787 6447714
-0.33836827 -0.32498872 1.8395205 6447714
-0.366887 -0.27495715 1.8146883 6447714
-0.33883891 -0.27532616 1.8397356 6447714
-0.36730894 -0.22473252 1.8149546 6447714
-0.33924791 -0.22501317 1.8400151 6447714
-0.36775702 -0.17494056 1.8151922 6447714
-0.33961886 -0.17539258 1.8403198 6447714
-0.36808339 -0.12473093 1.8155433 6447714
-0.34006163 -0.12500323 1.8405689 6447714
-0.36859712 -0.074774988 1.8157252 6447714
-0.34040284 -0.075664908 1.8408972 6447714
-0.36824581 -0.024675446 1.8166791 6447714
-0.34027246 -0.025177006 1.8416598 6447714
-0.36877263 0.024865804 1.8168442 6447714
-0.34050545 0.024878893 1.8420937 6447714
-0.3690266 0.073806107 1.8169619 6447714
-0.33876657 0.076728739 1.8390836 6447714
-0.27469128 0.09673053 1.8239928 6513507
-0.22476606 0.096870773 1.8268502 6513507
-0.17506947 0.097012132 1.8295155 7171437
-0.12485662 0.097156703 1.8320285 9671571
-0.073204063 0.097333036 1.831792 10197915
-0.027386142 0.097583599 1.8219806 10197915
0.024837291 0.097815372 1.8162814 10197915
0.074981578 0.097959965 1.8187577 10197915
0.12527564 0.098101631 1.8215969 10197915
0.17495579 0.098245047 1.8240442 10197915
0.22478004 0.098385304 1.8268642 10197915
0.27474988 0.098529577 1.829326 10197915
0.32486171 0.098670624 1.8321618 10197915
0.37750888 0.098872237 1.8296926 10197915
0.42298877 0.099091932 1.822908 10197915
0.47483623 0.099329807 1.8164541 10197915
0.52487969 0.099474572 1.8188893 10197915
0.57506704 0.099616222 1.8216918 10197915
0.62501675 0.09975896 1.8243021 8158332
0.67036635 0.099839985 1.831629 2894892
0.71610916 0.099904127 1.840813 2894892
0.68451387 0.10004401 1.8156707 2894892
0.7113865 0.10012091 1.817066 2894892
-0.31185547 -0.6018132 1.8596575 11711154
-0.28330037 -0.60191453 1.8851622 11711154
-0.31204021 -0.57492995 1.8598361 11579568
-0.28410828 -0.57513064 1.8847833 11579568
-0.31170633 -0.52465808 1.8607783 6447714
-0.28386563 -0.52528453 1.8856384 6447714
-0.31219092 -0.47484404 1.8609837 6447714
-0.2841095 -0.47528264 1.886061 6447714
-0.31233221 -0.4249275 1.8614969 6447714
-0.2844741 -0.42496103 1.8863792 6447714
-0.31296355 -0.37478572 1.8615751 6447714
-0.28485829 -0.37520576 1.8866749 6447714
-0.31316912 -0.3249926 1.8620291 6447714
-0.28532559 -0.32497093 1.8869005 6447714
-0.31368724 -0.27464288 1.8622111 6447714
-0.28554386 -0.27522472 1.8873433 6447714
-0.31408706 -0.22494499 1.8624913 6447714
-0.28618729 -0.22496036 1.8874109 6447714
-0.31448025 -0.1747359 1.8627837 6447714
-0.28634402 -0.1749655 1.887912 6447714
-0.31489545 -0.12510589 1.8630462 6447714
-0.28707483 -0.12501933 1.8878989 6447714
-0.31518853 -0.074683115 1.8634306 6447714
-0.2871055 -0.075107872 1.8885102 6447714
-0.31582144 -0.024908524 1.8635041 6447714
-0.28776959 -0.025218645 1.8885567 6447714
-0.31605387 0.025074854 1.8639362 6447714
-0.28796908 0.025044419 1.8890212 6447714
-0.31649581 0.073484056 1.8639641 6447714
-0.28696758 0.07522966 1.8873441 6447714
-0.22502087 0.096387051 1.876135 6513507
-0.17514665 0.096526243 1.8790785 6513507
-0.12550636 0.096666723 1.8818138 6710886
-0.075332411 0.096810631 1.8843813 9013641
-0.025149059 0.097061925 1.8759927 10197915
0.025115898 0.09734235 1.8646564 10197915
0.075050473 0.097482055 1.8675607 10197915
0.12474795 0.09762305 1.8702621 10197915
0.17497689 0.097767435 1.8727993 10197915
0.22535244 0.097908467 1.87573 10197915
0.2750926 0.098051526 1.8782337 10197915
0.32497332 0.09819109 1.8811445 10197915
0.37500322 0.098334976 1.8836635 10197915
0.42542678 0.098538823 1.8801965 10197915
0.47500387 0.098864563 1.8639946 10197915
0.52519029 0.099003546 1.8670701 10197915
0.5751366 0.099147506 1.8695534 10197915
0.62481672 0.099284992 1.8726097 10132122
0.67464828 0.099430539 1.8748907 3421236
0.72322387 0.099556461 1.8787421 2894892
0.75153804 0.099525891 1.8916029 2894892
-0.25823438 -0.60192412 1.9075516 11711154
-0.23014997 -0.6021384 1.9326345 11711154
-0.25905007 -0.57470286 1.9071705 11579568
-0.23118277 -0.57514799 1.9320569 11579568
-0.25866324 -0.52465522 1.9081577 6447714
-0.23079874 -0.52518475 1.9330393 6447714
-0.25904658 -0.47456029 1.9084567 6447714
-0.2311708 -0.47525689 1.933347 6447714
-0.25937694 -0.42499277 1.908798 6447714
-0.23152165 -0.42499891 1.9336779 6447714
-0.25977939 -0.37455872 1.9090834 6447714
-0.23180081 -0.37520558 1.9340672 6447714
-0.26025823 -0.32494316 1.90929 6447714
-0.23240073 -0.32496405 1.9341738 6447714
-0.26045579 -0.27464962 1.9097588 6447714
-0.23248813 -0.27502614 1.9347352 6447714
-0.26110619 -0.22500119 1.9098138 6447714
-0.23324725 -0.22494777 1.9346985 6447714
-0.26122275 -0.17491406 1.9103512 6447714
-0.23330688 -0.17495789 1.9352856 6447714
-0.2619873 -0.12490525 1.9103085 6447714
-0.23395494 -0.12514941 1.9353452 6447714
-0.26195973 -0.075018287 1.9109725 6447714
-0.23425518 -0.074875869 1.9357194 6447714
-0.26277471 -0.024926288 1.9108865 6447714
-0.23462133 -0.025147771 1.9360307 6447714
-0.26296693 0.025081063 1.9113549 6447714
-0.23500465 0.024869347 1.9363281 6447714
-0.26331541 0.073634446 1.9115996 6447714
-0.23426241 0.074400648 1.9357307 6447714
-0.17482166 0.096016549 1.9312125 6513507
-0.1249968 0.096154682 1.9342477 6513507
-0.078850783 0.096358702 1.9292941 6513507
-0.020715246 0.096671738 1.9173379 9605778
0.025011668 0.096840359 1.9158529 10197915
0.074725837 0.09697856 1.9188364 10197915
0.12459365 0.097121328 1.9214116 10197915
0.17459522 0.09726043 1.9244133 10197915
0.22475539 0.097404048 1.9270043 10197915
0.27504691 0.097543955 1.9300232 10197915
0.32509124 0.097685166 1.9328167 10197915
0.37374827 0.097831495 1.9346178 10197915
0.42872649 0.09815485 1.9205214 10197915
0.47518343 0.098366357 1.914901 10197915
0.52512258 0.098507717 1.9176521 10197915
0.57479304 0.098650336 1.9201754 10197915
0.62461615 0.098789252 1.9231331 10197915
0.67457312 0.098932706 1.9256713 6052956
0.72467995 0.099072419 1.9286458 2894892
0.75975722 0.099136733 1.9341449 2894892
-0.20508181 -0.60229814 1.9550238 11711154
-0.1771632 -0.6022675 1.9799615 11711154
-0.20559259 -0.57457858 1.9549223 11579568
-0.17776835 -0.57515162 1.9797693 11579568
-0.20576018 -0.52494395 1.9554087 6447714
-0.17799845 -0.52497733 1.9802048 6447714
-0.20630059 -0.47421774 1.9555749 6447714
-0.17840791 -0.4752214 1.9804771 6447714
-0.20662272 -0.42487237 1.9559193 6447714
-0.17888388 -0.42499894 1.9806956 6447714
-0.20695221 -0.37427464 1.9562736 6447714
-0.17902389 -0.37510118 1.9812095 6447714
-0.20750213 -0.32493713 1.9564136 6447714
-0.1797629 -0.3249698 1.9811901 6447714
-0.20760481 -0.27486238 1.9569637 6447714
-0.17980787 -0.27492318 1.9817926 6447714
-0.20834823 -0.22501357 1.9569378 6447714
-0.18046494 -0.22510473 1.9818425 6447714
-0.20839734 -0.17494731 1.9575351 6447714
-0.18069951 -0.17504996 1.9822742 6447714
-0.20913216 -0.12486457 1.9575202 6447714
-0.18110596 -0.12530801 1.9825481 6447714
-0.20931351 -0.075305842 1.9579937 6447714
-0.18140994 -0.074946821 1.9829227 6447714
-0.20977978 -0.02466337 1.9582255 6447714
-0.18183202 -0.025108276 1.9831839 6447714
-0.21013755 0.025154684 1.9585441 6447714
-0.18249227 0.024928525 1.983235 6447714
-0.21039306 0.073361747 1.9589329 6447714
-0.18197073 0.073626176 1.9835277 6447714
-0.12520637 0.095750824 1.9753962 6513507
-0.071801677 0.096013315 1.9669684 6513507
-0.024853434 0.096170418 1.9670831 6710886
0.024901565 0.096310064 1.9699398 8816262
0.075202465 0.096448958 1.9730546 10197915
0.12524636 0.096589409 1.9759278 10197915
0.17502187 0.096731357 1.978557 10197915
0.22494139 0.096869245 1.9816527 10197915
0.2750079 0.097012021 1.9842978 10197915
0.32539144 0.097288661 1.97339 10197915
0.37763044 0.09746702 1.9731519 10197915
0.4250147 0.097702749 1.9653878 10197915
0.47496149 0.09784548 1.9679903 10197915
0.52503997 0.097984225 1.9710499 10197915
0.57485646 0.098124452 1.973871 10197915
0.6248157 0.098265074 1.9766999 10197915
0.67491841 0.098406106 1.9795372 8750469
0.72473359 0.098548613 1.9821241 2894892
0.76901621 0.098659173 1.9860674 2894892
-0.15182516 -0.60232574 2.0025933 11711154
-0.12515289 -0.60238671 2.0264163 11711154
-0.099341631 -0.60199326 2.0494769 11711154
-0.15245575 -0.57376015 2.0023956 11579568
-0.12508634 -0.57504392 2.0268266 11645361
-0.099355213 -0.57914674 2.049757 11711154
-0.15267844 -0.52502096 2.002821 6447714
-0.12516387 -0.52500987 2.0273976 6447714
-0.15311284 -0.47366264 2.0030904 6447714
-0.12519255 -0.47502777 2.0280128 6447714
-0.15356021 -0.42510268 2.0033128 6447714
-0.1259072 -0.42511341 2.028013 6447714
-0.15368618 -0.3745136 2.0038493 6447714
-0.12604089 -0.37498179 2.0285363 6447714
-0.15439469 -0.32500783 2.0038495 6447714
-0.12644815 -0.32518736 2.0288098 6447714
-0.15444948 -0.27500325 2.0044415 6447714
-0.12690949 -0.27499065 2.0290408 6447714
-0.15514833 -0.22431917 2.0044665 6447714
-0.12703124 -0.22505227 2.0295718 6447714
-0.15535901 -0.1746697 2.0049143 6447714
-0.12779878 -0.17500632 2.0295272 6447714
-0.15578322 -0.12377892 2.0051866 6447714
-0.12781683 -0.12504655 2.0301497 6447714
-0.15619081 -0.074773863 2.0054507 6447714
-0.12846544 -0.075354531 2.0302072 6447714
-0.15640791 -0.02444439 2.0059006 6447714
-0.12871733 -0.025145195 2.0306256 6447714
-0.15705922 0.024932496 2.0059519 6447714
-0.12903857 0.024927909 2.0309811 6447714
-0.15709122 0.073145621 2.0063574 6447714
-0.1290638 0.074162118 2.0300243 6447714
-0.074944593 0.095470645 2.0212765 6513507
-0.025155228 0.095607147 2.024467 6513507
0.025204528 0.095747672 2.0274432 6513507
0.075285569 0.095889822 2.0301511 7566195
0.12509774 0.096028797 2.0330932 9737364
0.17235078 0.096268021 2.0249276 10197915
0.22477578 0.096449651 2.0244188 10197915
0.27465463 0.096589059 2.0273452 10197915
0.32485944 0.096870795 2.0158551 10197915
0.37509507 0.097013779 2.0185359 10197915
0.42504969 0.097148821 2.0219359 10197915
0.47514045 0.097293772 2.0243611 10197915
0.52538842 0.097434387 2.0272868 10197915
0.57534832 0.097571775 2.030443 10197915
0.6250267 0.097710848 2.0333364 9737364
0.67182094 0.097937107 2.02634 7105644
0.72553551 0.098135248 2.0245886 2894892
0.77647936 0.098296016 2.0256996 2894892
0.80364633 0.098354191 2.0291054 2894892
-0.074189842 -0.60261083 2.0719352 11711154
-0.046896201 -0.6027227 2.096313 11711154
-0.074813329 -0.57491028 2.071733 11645361
-0.046903994 -0.57502544 2.0966609 11579568
-0.07554286 -0.52498859 2.0717211 6447714
-0.046925422 -0.52502012 2.0972819 6447714
-0.075536303 -0.47497764 2.0723681 6447714
-0.047598921 -0.47632071 2.0973039 6447714
-0.10107794 -0.42044929 2.0502505 6447714
-0.075600699 -0.42496547 2.0729492 6447714
-0.04779892 -0.42498195 2.0977831 6447714
-0.10110563 -0.37468433 2.0508125 6447714
-0.075594291 -0.37500909 2.0735958 6447714
-0.048059367 -0.37690994 2.0981655 6447714
-0.10163016 -0.32074016 2.0510352 6447714
-0.07563325 -0.3249945 2.0742018 6447714
-0.048665136 -0.32467386 2.0982945 6447714
-0.10199345 -0.27492514 2.0512972 6447714
-0.075625084 -0.27497774 2.0748491 6447714
-0.048709415 -0.275217 2.0988884 6447714
-0.10209174 -0.22450016 2.0518553 6447714
-0.075682312 -0.22493184 2.0754392 6447714
-0.049504142 -0.22601418 2.0988088 6447714
-0.10285395 -0.17510679 2.0518069 6447714
-0.075652562 -0.17494141 2.0761063 6447714
-0.0495761 -0.17481974 2.0993998 6447714
-0.10288473 -0.12499199 2.0524216 6447714
-0.075775102 -0.1250933 2.0766349 6447714
-0.049586918 -0.13832115 2.0998576 6447714
-0.1035318 -0.073381461 2.0525045 6447714
-0.07578028 -0.075045265 2.077271 6447714
-0.10375977 -0.024663353 2.0529249 6447714
-0.075750649 -0.025042105 2.0779393 6447714
-0.10411369 0.025950415 2.0532568 6447714
-0.076528639 0.024965705 2.0778842 6447714
-0.1046329 0.072310016 2.0533869 6447714
-0.076470144 0.07322681 2.0780106 6447714
-0.02888619 0.095089845 2.0759804 6513507
0.024905611 0.095305316 2.0724871 6513507
0.074813433 0.095443919 2.0755007 6513507
0.12486659 0.095582895 2.0785232 6842472
0.1766742 0.095867909 2.0672488 10000536
0.22546445 0.096011803 2.0693443 10197915
0.27515379 0.096152656 2.0720558 10197915
0.32498273 0.096288674 2.0753114 10197915
0.37496147 0.096430346 2.0780394 10197915
0.42507648 0.096567132 2.0813131 10197915
0.47122875 0.096732296 2.0803225 10197915
0.52446193 0.096994303 2.0718837 10197915
0.57508165 0.097135358 2.0748966 10197915
0.62497193 0.097274378 2.0778661 5131854
0.67751133 0.097550854 2.0677152 2960685
0.7250548 0.097700499 2.0687938 2894892
0.77456993 0.097841255 2.0714555 2894892
0.81308228 0.097910494 2.0776336 2894892
-0.021876449 -0.60277689 2.1186604 11711154
0.0062222104 -0.60278744 2.1437588 11711154
-0.021931095 -0.57509953 2.1189666 11645361
0.0062052612 -0.57509649 2.1440976 11645361
-0.021966981 -0.52500904 2.1195755 6447714
0.0062250746 -0.52512872 2.1447544 6447714
-0.02267739 -0.47482601 2.1195824 6447714
0.0055273483 -0.47572759 2.1447656 6447714
0.84341967 -0.45139161 2.1430013 2894892
0.85115957 -0.4511342 2.1343372 2894892
-0.022848114 -0.42500576 2.1200683 6447714
0.0053100088 -0.42496833 2.1452205 6447714
0.84347141 -0.42510757 2.1431015 2894892
0.85086846 -0.4249759 2.1348207 2894892
-0.023142358 -0.37479073 2.1204495 6447714
0.0051149018 -0.37601671 2.1456733 6447714
0.84355605 -0.37515745 2.1433084 2894892
0.85091931 -0.37504101 2.1350646 2894892
-0.02374436 -0.32495674 2.1205506 6447714
0.0044726692 -0.32517469 2.145752 6447714
0.84364253 -0.32510933 2.143512 2894892
0.85100156 -0.32553881 2.1352708 2894892
-0.023729233 -0.27492979 2.1212053 6447714
0.0044613495 -0.27512041 2.1463828 6447714
0.84387672 -0.27563471 2.1435487 2894892
0.85108519 -0.27514261 2.1354811 2894892
-0.024589533 -0.22495437 2.1210756 6447714
0.0037455524 -0.22579366 2.1463757 6447714
0.8443855 -0.22513616 2.1432846 2894892
0.85116899 -0.22473665 2.1356914 2894892
-0.024624676 -0.17504388 2.1216834 6447714
0.0035356963 -0.17455149 2.1468439 6447714
0.84448755 -0.17503519 2.143471 2894892
0.85093015 -0.17932089 2.1362326 2894892
-0.025132995 -0.12477621 2.1218734 6447714
0.0033266572 -0.12602037 2.1472788 6447714
0.84462357 -0.12473214 2.1436229 2894892
0.85072303 -0.1248195 2.1367927 2894892
-0.025326224 -0.07491143 2.1223412 6447714
0.0026697416 -0.074726924 2.1473491 6447714
0.8446576 -0.074607268 2.1438861 2894892
0.85080677 -0.074367717 2.1370029 2894892
-0.051331211 -0.0026100494 2.1000376 6447714
-0.025624093 -0.024961025 2.1227131 6447714
0.0026705358 -0.024915561 2.1479878 6447714
0.8447395 -0.024871236 2.144094 2894892
0.85088891 -0.024791369 2.1372094 2894892
-0.051339742 0.025236055 2.1003866 6447714
-0.025623474 0.02494048 2.1233525 6447714
0.0019582042 0.023492645 2.1479712 6447714
0.84482163 0.024874447 2.1443024 2894892
0.85097128 0.024794569 2.1374161 2894892
-0.05135414 0.072244912 2.100976 6447714
-0.02501756 0.073073894 2.1236224 6447714
0.014169237 0.084214717 2.1330545 6447714
0.0747566 0.094979174 2.1229157 6513507
0.12463228 0.095119737 2.1257124 6513507
0.17463933 0.095255189 2.1290848 6908265
0.22435762 0.095392622 2.1321568 8816262
0.27397189 0.095678106 2.1200838 10197915
0.32530308 0.095830813 2.1221509 10197915
0.37507588 0.095968612 2.1252024 10197915
0.42499211 0.09610682 2.1282628 10197915
0.47925323 0.096344545 2.1226566 10197915
0.52483362 0.096538484 2.1185317 9605778
0.57524532 0.096681021 2.1213212 5460819
0.62536675 0.096820123 2.124361 2894892
0.67517471 0.096955426 2.1276815 2894892
0.72513336 0.097096831 2.1304319 2894892
0.77153575 0.09726093 2.1296415 2894892
0.84309596 0.075481802 2.1417713 2894892
0.85103738 0.064647108 2.1375825 2894892
0.79564822 -0.65181488 2.1952796 2894892
0.8068493 -0.65170234 2.1934037 2894892
0.0314609 -0.60287541 2.1663015 11711154
0.059940126 -0.6029166 2.1917391 11711154
0.79579681 -0.6249404 2.1952755 2894892
0.80701774 -0.62556154 2.1938219 2894892
0.031423051 -0.57506329 2.1666238 11645361
0.059939951 -0.57513553 2.1920948 11645361
0.79586083 -0.57497627 2.1955051 2894892
0.80604851 -0.57507175 2.1935496 2894892
0.031379353 -0.52495492 2.167227 6447714
0.059123855 -0.52524465 2.1920047 6447714
0.79644871 -0.5256989 2.1951423 2894892
0.80640149 -0.52509642 2.1944027 2894892
0.030719738 -0.47481969 2.1672797 6447714
0.059030302 -0.47486919 2.1925657 6447714
0.79665899 -0.47488126 2.195215 2894892
0.80970168 -0.4703525 2.1874166 2894892
0.030537864 -0.42499202 2.1677544 6447714
0.058763087 -0.42563364 2.1929579 6447714
0.79663581 -0.42590895 2.1955352 2894892
0.81900007 -0.4248243 2.1705022 2829099
0.030246349 -0.3747178 2.168139 6447714
0.058167756 -0.37511942 2.193073 6447714
0.796161 -0.37506759 2.1963725 2894892
0.81857729 -0.37495589 2.1712754 2894892
0.029634705 -0.32497916 2.1682296 6447714
0.058109265 -0.32501838 2.1936629 6447714
0.79627615 -0.3250576 2.1965446 2894892
0.81862861 -0.32494277 2.1715193 2894892
0.029697862 -0.27499217 2.1689253 6447714
0.057539564 -0.27557725 2.1937876 6447714
0.79631644 -0.27502903 2.1968014 2894892
0.8189671 -0.27482268 2.171443 2894892
0.028911436 -0.2248036 2.1688666 6447714
0.057216495 -0.22505075 2.1941459 6447714
0.79643214 -0.22500119 2.196974 2894892
0.81941926 -0.22502054 2.1712379 2894892
0.028749861 -0.17499234 2.1693604 6447714
0.057109769 -0.17575674 2.1946821 6447714
0.79713905 -0.17471527 2.1964853 2894892
0.81956267 -0.17504279 2.1713793 2894892
0.028522875 -0.12480625 2.1698008 6447714
0.05632541 -0.12502283 2.1946313 6447714
0.79721683 -0.12467871 2.1966994 2894892
0.81954092 -0.12505494 2.1717019 2894892
0.027748199 -0.07518819 2.1697426 6447714
0.056437895 -0.074874565 2.195374 6447714
0.79729456 -0.074632309 2.1969151 2894892
0.81979567 -0.075204261 2.1717196 2894892
0.027946377 -0.025177389 2.1705616 6447714
0.055710588 -0.025794903 2.1953533 6447714
0.79737204 -0.024576198 2.1971285 2894892
0.81970149 -0.02519637 2.1721246 2894892
0.027175745 0.025297526 2.1705198 6447714
0.05546689 0.024749761 2.1957824 6447714
0.79744881 0.024579342 2.1973395 2894892
0.81978184 0.025199685 2.1723378 2894892
0.027054053 0.072844394 2.1707847 6447714
0.059235889 0.075972967 2.1919067 6447714
0.12528345 0.094634242 2.1754878 6513507
0.17510737 0.094771251 2.1786377 6513507
0.2250749 0.094908677 2.1817966 6513507
0.27530897 0.095207684 2.1685524 9145227
0.32518047 0.095351055 2.1710725 10197915
0.37520105 0.095488861 2.1742101 10197915
0.42489874 0.095622778 2.1776328 10197915
0.47475177 0.095763087 2.1804545 10066329
0.52120626 0.095985107 2.1737623 5000268
0.57450932 0.096200146 2.1701488 2894892
0.62485975 0.096339069 2.1732831 2894892
0.67535484 0.096478418 2.1764264 2894892
0.72507453 0.09661565 2.179522 2894892
0.79267019 0.079262994 2.1910772 2894892
0.82036102 0.074520819 2.171442 2894892
0.74872059 -0.65187144 2.2478199 11711154
0.77050871 -0.65181684 2.2234261 8224125
0.83247358 -0.65169597 2.2160079 2894892
0.86075681 -0.65182596 2.2412698 2894892
0.084691241 -0.60302246 2.2138457 11711154
0.11235968 -0.60299629 2.2385604 11711154
0.74875998 -0.62489784 2.2479382 9342606
0.77087343 -0.62498921 2.2231817 7303023
0.83280975 -0.62476289 2.2166531 2894892
0.86095709 -0.6250422 2.2417917 2894892
0.084389821 -0.57514238 2.2139337 11645361
0.11222741 -0.57491148 2.2388027 11645361
0.74883336 -0.57466435 2.2481585 2894892
0.77098876 -0.57507253 2.2233493 4276545
0.83106077 -0.57548273 2.2157209 2894892
0.85916799 -0.57471132 2.2408378 2894892
0.083530203 -0.52493435 2.2138093 6447714
0.1118774 -0.52546901 2.2391219 6447714
0.74890679 -0.52442086 2.2483795 2894892
0.77157724 -0.52494544 2.2229927 4210752
0.83095759 -0.52512115 2.2162745 2894892
0.85886461 -0.52500111 2.2412038 2894892
0.083506055 -0.47505057 2.2144253 6447714
0.11134256 -0.4749836 2.239291 6447714
0.74896681 -0.47462711 2.2486119 2894892
0.77177966 -0.47502777 2.2230673 4210752
0.82967663 -0.48031574 2.2157032 2894892
0.85897839 -0.48496634 2.2418175 2894892
0.083116621 -0.42469299 2.2147226 6447714
0.1113099 -0.42501497 2.2399018 6447714
0.74906445 -0.42530683 2.2487998 2894892
0.77185631 -0.42499053 2.2232845 3684408
0.082619175 -0.37499085 2.2149165 6447714
0.11066633 -0.3753567 2.2399623 6447714
0.74912441 -0.37549376 2.2490325 2894892
0.77193296 -0.37500077 2.2234993 2894892
0.08259023 -0.32492653 2.2155311 6447714
0.11046831 -0.32494581 2.2404313 6447714
0.74945289 -0.32946858 2.2489421 2894892
0.77203172 -0.32500148 2.2236881 2894892
0.081897318 -0.27471375 2.2155571 6447714
0.11032714 -0.27534243 2.2409418 6447714
0.74995065 -0.27482623 2.2487147 2894892
0.77206314 -0.27499279 2.2239552 2894892
0.081711844 -0.22492616 2.2160256 6447714
0.1095605 -0.2250362 2.2409017 6447714
0.74999422 -0.24502917 2.2488456 2894892
0.77164733 -0.2248762 2.2247257 2894892
0.08145263 -0.17464383 2.21644 6447714
0.10954968 -0.1751433 2.2415311 6447714
0.77226704 -0.17500892 2.2243311 2894892
0.080869667 -0.12497436 2.2165539 6447714
0.10903676 -0.12592733 2.2417028 6447714
0.77228546 -0.12506835 2.2246122 2894892
0.080709077 -0.074817039 2.2170546 6447714
0.10868489 -0.075235568 2.2420375 6447714
0.77247572 -0.074930511 2.2246985 2894892
0.080196127 -0.024572445 2.2172384 6447714
0.1087175 -0.025085192 2.2427089 6447714
0.77237952 -0.024889158 2.2251093 2894892
0.07998357 0.024807731 2.2176824 6447714
0.10777685 0.025085477 2.2425115 6447714
0.7728706 0.024711292 2.2248571 2894892
0.079946011 0.072701335 2.2177467 6447714
0.11181989 0.076674774 2.2395403 6447714
0.17467865 0.094265714 2.2300842 6513507
0.22495584 0.094570771 2.2162426 6513507
0.27493423 0.09470772 2.2194521 6513507
0.3250576 0.094845071 2.2226713 8487297
0.37532648 0.094982833 2.225899 10197915
0.42480633 0.095118418 2.2290766 10197915
0.47442842 0.095254391 2.2322633 10000536
0.52751279 0.095544711 2.2208793 4079166
0.57466692 0.095702723 2.2209687 2894892
0.62480134 0.095837153 2.2244923 2894892
0.67506874 0.095978364 2.227366 2894892
0.72502035 0.096115515 2.2305484 2894892
0.77321643 0.073584177 2.2244406 2894892
0.72413963 -0.65222222 2.2753382 11711154
0.88503134 -0.65175349 2.2629533 2894892
0.90771365 -0.65201861 2.2832108 2894892
0.13759695 -0.60307294 2.2611017 11711154
0.16563171 -0.60309494 2.2861431 11711154
0.72505713 -0.62519211 2.2744741 9342606
0.88519514 -0.62489706 2.2634442 2894892
0.90852803 -0.62489617 2.284286 2894892
0.13774717 -0.57492369 2.2615964 11645361
0.16578119 -0.57489973 2.2866371 11645361
0.7255072 -0.57504052 2.2742715 2894892
0.88436735 -0.57478911 2.2633462 2894892
0.9088487 -0.57498813 2.2852111 2894892
0.13736527 -0.52452779 2.2619009 6447714
0.16523163 -0.52547652 2.2867792 6447714
0.72556752 -0.52503651 2.2745061 2894892
0.88454109 -0.52510959 2.2641366 2894892
0.90931702 -0.52503848 2.2862689 2894892
0.13680531 -0.47499561 2.2620344 6447714
0.1648971 -0.47504333 2.2871263 6447714
0.72566438 -0.47496483 2.2746987 2894892
0.88380235 -0.48862857 2.2639456 2894892
0.90891093 -0.49209806 2.2863286 2894892
0.13685435 -0.42498463 2.2627199 6447714
0.16492721 -0.4250212 2.2877934 6447714
0.72571564 -0.42497134 2.2749426 2894892
0.13611273 -0.37475073 2.2627003 6447714
0.1640234 -0.375135 2.2876256 6447714
0.72578549 -0.37496808 2.2751651 2894892
0.13598315 -0.32503825 2.2632215 6447714
0.16400771 -0.32501465 2.2882538 6447714
0.72624087 -0.32479542 2.2749584 2894892
0.13575484 -0.27479795 2.2636614 6447714
0.16378586 -0.27531213 2.2886922 6447714
0.72687334 -0.27520925 2.2745512 2894892
0.13480099 -0.22534636 2.2634428 6447714
0.1628086 -0.22444956 2.2884715 6447714
0.72739136 -0.22501084 2.2742727 2894892
0.13398914 -0.17497773 2.2633622 6447714
0.16202322 -0.17488672 2.2884047 6447714
0.72750062 -0.17497295 2.2744524 2894892
0.13364482 -0.12458241 2.2637007 6447714
0.16158903 -0.12562925 2.2886472 6447714
0.72753465 -0.12501265 2.2747138 2894892
0.13313963 -0.075209707 2.2638814 6447714
0.16122793 -0.074913949 2.288974 6447714
0.72742474 -0.075043485 2.2751391 2894892
0.13322198 -0.025273057 2.2645941 6447714
0.16127633 -0.024661856 2.2896616 6447714
0.72779578 -0.025011949 2.2750247 2894892
0.13224559 0.025222613 2.264369 6447714
0.16035095 0.024579141 2.2894654 6447714
0.72786629 0.025015257 2.2752461 2894892
0.75040317 0.034490738 2.250072 2894892
0.13242365 0.072143726 2.2651303 6447714
0.1619104 0.073406972 2.2894461 6447714
0.22523864 0.094046623 2.2698345 6513507
0.27501518 0.094178878 2.2734549 6513507
0.32492295 0.094318293 2.2763903 6513507
0.37450883 0.094453558 2.2796376 7631988
0.42505783 0.094768681 2.2648582 10066329
0.47547716 0.094906338 2.2681482 10000536
0.52508771 0.095041707 2.2713833 6118749
0.57484049 0.095177531 2.2746296 2894892
0.62473571 0.095313773 2.2778852 2894892
0.67477405 0.095450394 2.2811501 2894892
0.72762722 0.072959796 2.2756379 2894892
0.75045919 0.072715618 2.2502396 2894892
0.67867625 -0.65250063 2.3262384 11711154
0.70080125 -0.65217423 2.3014691 11711154
0.19017056 -0.60317588 2.3080604 11711154
0.21851546 -0.60320437 2.3333788 11711154
0.67931139 -0.62499225 2.3256934 9276813
0.70131743 -0.62124115 2.3010778 8618883
0.19030149 -0.57490671 2.3085389 11645361
0.21818672 -0.57520515 2.3334446 11645361
0.67934859 -0.57504511 2.3259528 2894892
0.70160365 -0.57530147 2.301034 2894892
0.18976495 -0.52425081 2.3087089 6447714
0.2175324 -0.52504987 2.3335016 6447714
0.67939574 -0.52502108 2.3262022 2894892
0.70169961 -0.52483982 2.3012304 2894892
0.18940835 -0.47495025 2.3090219 6447714
0.2175927 -0.4750351 2.3341951 6447714
0.67946345 -0.47495499 2.3264275 2894892
0.70175469 -0.47482842 2.30147 2894892
0.1894847 -0.42504683 2.3097298 6447714
0.21700653 -0.42543516 2.3343077 6447714
0.67957425 -0.42494476 2.3266034 2894892
0.70182252 -0.42528898 2.3016925 2894892
0.18854721 -0.37481061 2.3095353 6447714
0.21667913 -0.37509611 2.3346603 6447714
0.67962551 -0.37499261 2.3268487 2894892
0.70187753 -0.37525681 2.3019319 2894892
0.18853912 -0.32488352 2.3101687 6447714
0.21673909 -0.32501867 2.3353548 6447714
0.68028688 -0.32508156 2.3264089 2894892
0.70197374 -0.32475838 2.302129 2894892
0.18833035 -0.2744928 2.3106263 6447714
0.2158491 -0.27523157 2.3351965 6447714
0.68049568 -0.27500439 2.3264759 2894892
0.7024045 -0.27216271 2.3019643 2894892
0.18764375 -0.22495601 2.3106484 6447714
0.21578874 -0.22508416 2.3357849 6447714
0.68054402 -0.22500993 2.3267229 2829099
0.70280749 -0.22505085 2.3017974 2894892
0.18767366 -0.17491141 2.3113158 6447714
0.21575336 -0.17522968 2.3363931 6447714
0.67993945 -0.17493932 2.327702 2894892
0.70220619 -0.17508814 2.3027711 2894892
0.18698791 -0.12427602 2.3113515 6447714
0.21484992 -0.12513147 2.3362277 6447714
0.67995596 -0.12491491 2.3279843 2894892
0.7022329 -0.12498967 2.3030431 2894892
0.18678319 -0.074703418 2.3118033 6447714
0.2148639 -0.075311676 2.3368778 6447714
0.68004555 -0.075094305 2.3281853 2894892
0.70230234 -0.074428529 2.3032701 2894892
0.18683866 -0.024907732 2.3124893 6447714
0.21459539 -0.025629738 2.3372748 6447714
0.68001628 -0.025081221 2.3285184 2894892
0.70237023 -0.024811648 2.3034925 2894892
0.18590249 0.024973692 2.3122933 6447714
0.21403068 0.025178757 2.3374207 6447714
0.68055397 0.024861306 2.3282185 2894892
0.70243812 0.024814853 2.3037155 2894892
0.18591753 0.071866632 2.3129056 6447714
0.21504448 0.073497586 2.3371053 6447714
0.27509442 0.0936267 2.3298376 6513507
0.32478762 0.093761325 2.3331873 6513507
0.37557071 0.093913265 2.3351443 6513507
0.42495984 0.094219647 2.3208621 7566195
0.4751679 0.094359592 2.3238447 9276813
0.52501816 0.094487481 2.3279257 7960953
0.57081461 0.094684631 2.3235507 2894892
0.62534297 0.094951473 2.3150694 2894892
0.68069357 0.073319137 2.3276494 2894892
0.70271379 0.073543325 2.3037002 2894892
0.63125825 -0.65280813 2.3793268 11711154
0.654154 -0.65290248 2.3536913 11711154
0.24403803 -0.60325062 2.3561749 11711154
0.27109244 -0.60328853 2.3803403 11711154
0.63174814 -0.62500829 2.3789468 9276813
0.65429604 -0.62504435 2.3536999 9276813
0.24370989 -0.57414347 2.3562539 11645361
0.27125591 -0.57493937 2.3808482 11645361
0.63183576 -0.57503605 2.3791485 2894892
0.65439504 -0.5749799 2.3538914 2894892
0.24309102 -0.52491122 2.3563318 6447714
0.27133295 -0.52505147 2.381557 6447714
0.63222891 -0.52532661 2.3790078 2894892
0.65438867 -0.52510041 2.3541987 2894892
0.24315178 -0.47499055 2.3570259 6447714
0.27078435 -0.47537205 2.3817048 6447714
0.63209122 -0.4752951 2.3794649 2894892
0.65389442 -0.47439808 2.3550584 2894892
0.24251372 -0.42419845 2.3571069 6447714
0.27040485 -0.42505005 2.3820086 6447714
0.63202643 -0.42503098 2.3798385 2894892
0.65384501 -0.42513925 2.3554101 2894892
0.24222353 -0.37504074 2.3574767 6447714
0.27043834 -0.37494335 2.3826811 6447714
0.63202542 -0.37495556 2.3801417 2894892
0.65384638 -0.37491882 2.3557117 2894892
0.24231699 -0.32508314 2.3582001 6447714
0.26972699 -0.32513329 2.3826826 6447714
0.63213181 -0.32495645 2.3803236 2894892
0.65461814 -0.32465476 2.35515 2894892
0.24131463 -0.2747491 2.3579502 6447714
0.2694782 -0.27493665 2.3831041 6447714
0.63218027 -0.27498928 2.3805718 2894892
0.65476596 -0.27503058 2.3552845 2894892
0.24108632 -0.22561058 2.3583758 6447714
0.26918477 -0.22471859 2.3834844 6447714
0.63226783 -0.22505678 2.380774 2894892
0.65475512 -0.22486392 2.3555982 2894892
0.24011244 -0.17472315 2.3581574 6447714
0.26741797 -0.17500331 2.3825445 6447714
0.63240868 -0.17522004 2.3809168 2894892
0.65491873 -0.17512065 2.3557138 2894892
0.23936135 -0.12504731 2.3581219 6447714
0.26773739 -0.12504767 2.3834689 6447714
0.63305724 -0.12506515 2.3804917 2894892
0.65493262 -0.12493566 2.3560009 2894892
0.23947084 -0.075134046 2.3588591 6447714
0.26726392 -0.075070173 2.3836854 6447714
0.63319755 -0.074822314 2.3806376 2894892
0.65499645 -0.075163774 2.3562298 2894892
0.23898639 -0.024650618 2.3590736 6447714
0.26668242 -0.024688395 2.3838127 6447714
0.63328415 -0.024796665 2.3808422 2894892
0.65505987 -0.025382139 2.3564584 2894892
0.23846686 0.025319215 2.3592491 6447714
0.26676095 0.024698114 2.3845146 6447714
0.63332218 0.024754174 2.3811018 2894892
0.65563369 0.026127947 2.3561261 2894892
0.23861414 0.072249249 2.3599756 6447714
0.26699394 0.072378278 2.3836775 6447714
0.32535279 0.093377516 2.372555 6513507
0.37503639 0.093511559 2.3759608 6513507
0.42486289 0.093645982 2.3793762 6447714
0.47483283 0.093780793 2.3828018 6447714
0.52494657 0.093915947 2.3862355 8355711
0.57933885 0.094195478 2.3764064 2894892
0.63253373 0.073442303 2.380245 2894892
0.65594196 0.07308659 2.3559916 2894892
0.60711998 -0.65298289 2.4063506 11711154
0.29578072 -0.60341191 2.4023907 11711154
0.32410771 -0.6036281 2.427691 11711154
0.60713565 -0.62496042 2.4065027 9211020
0.29559889 -0.57466567 2.4025965 11579568
0.3239086 -0.5749675 2.4278808 11645361
0.60723907 -0.57488388 2.4066887 2894892
0.29571679 -0.52471966 2.4033411 6447714
0.32308966 -0.52524143 2.4277847 6447714
0.60770208 -0.52404863 2.406476 2894892
0.29506275 -0.47329351 2.4034157 6447714
0.32295537 -0.47502682 2.4283071 6447714
0.60809559 -0.47490165 2.4063323 2894892
0.29477513 -0.42522889 2.4037743 6447714
0.3229914 -0.42499718 2.4289815 6447714
0.60750031 -0.42460531 2.4073012 2894892
0.29489642 -0.37529612 2.4045227 6447714
0.32204643 -0.37514725 2.4287763 6447714
0.60744649 -0.37504482 2.4076605 2894892
0.2940391 -0.32428125 2.4044101 6447714
0.32212448 -0.32504463 2.429487 6447714
0.60751271 -0.32498166 2.4078872 2894892
0.29392269 -0.27498677 2.4049375 6447714
0.32207432 -0.27513835 2.4300809 6447714
0.60757923 -0.27490926 2.4081144 2894892
0.29390675 -0.22446705 2.405571 6447714
0.32106829 -0.22506912 2.4298246 6447714
0.60764503 -0.22482744 2.4083428 2894892
0.29294524 -0.17455886 2.4053512 6447714
0.3212958 -0.17505269 2.4306679 6447714
0.60784656 -0.17436041 2.4084232 2894892
0.29306972 -0.12460119 2.4061015 6447714
0.32103544 -0.125337 2.4310727 6447714
0.6085192 -0.12469858 2.4079678 2894892
0.29280984 -0.073975198 2.406518 6447714
0.32015735 -0.075258553 2.4309304 6447714
0.59998626 -0.086141504 2.4177539 2894892
0.60818601 -0.074243627 2.4086442 2894892
0.29212752 -0.024923749 2.4065373 6447714
0.32042032 -0.025185438 2.4318056 6447714
0.60785788 -0.024953302 2.4093099 2894892
0.29221439 0.024933634 2.4072535 6447714
0.3200272 0.024834881 2.432096 6447714
0.60791689 0.024956536 2.409544 2894892
0.29180148 0.072526343 2.4074731 6447714
0.31981549 0.072945103 2.4309423 6447714
0.37546402 0.093113564 2.4167264 6513507
0.42513171 0.093246989 2.4201899 6447714
0.47494289 0.093380794 2.4236631 6447714
0.52489603 0.093514949 2.4271448 6447714
0.57499385 0.093649477 2.4306366 3552822
0.60794646 0.071970403 2.4098577 2894892
0.37374252 -0.60371512 2.4720242 11711154
0.40231153 -0.60398269 2.4975393 11711154
0.3738825 -0.57494283 2.472517 11645361
0.40153426 -0.57612604 2.4972014 11711154
0.3481876 -0.51872778 2.4502859 6447714
0.37402683 -0.52500576 2.4732871 6447714
0.40153632 -0.5251652 2.4978559 6447714
0.3482784 -0.47520074 2.4509246 6447714
0.37404189 -0.47498864 2.4739385 6447714
0.40158156 -0.47511622 2.4985373 6447714
0.34838182 -0.42557296 2.4516528 6447714
0.37426865 -0.4250395 2.4747801 6447714
0.40054497 -0.42434874 2.4982615 6447714
0.34737551 -0.37377968 2.4514172 6447714
0.37433961 -0.37501234 2.475486 6447714
0.40066376 -0.37477991 2.4990027 6447714
0.3474282 -0.32507756 2.4520879 6447714
0.37440538 -0.32490599 2.476187 6447714
0.40077275 -0.32931629 2.4996822 6447714
0.3473368 -0.27409998 2.4526594 6447714
0.37459967 -0.27496457 2.4770007 6447714
0.34647471 -0.2245461 2.4525239 6447714
0.37459162 -0.22504275 2.4776325 6447714
0.3465777 -0.17481165 2.4532537 6447714
0.37448329 -0.17529851 2.4781728 6447714
0.34628725 -0.12347092 2.4536517 6447714
0.3737829 -0.12509716 2.4781904 6447714
0.34562171 -0.075221904 2.4536755 6447714
0.37378722 -0.074813947 2.4788387 6447714
0.34572455 -0.025419476 2.4544044 6447714
0.37347186 -0.02505256 2.4791942 6447714
0.34525678 0.026832851 2.4546559 6447714
0.37282291 0.02476353 2.4792516 6447714
0.34476078 0.072206512 2.4547727 6447714
0.37321517 0.072236679 2.4788935 6447714
0.42437756 0.092831314 2.4623551 6447714
0.47505674 0.092966862 2.4659503 6447714
0.5258829 0.093102753 2.4695551 6447714
0.57581651 0.093236238 2.4730957 4144959
0.60709232 0.093319885 2.4753144 2894892
0.42813373 -0.60381395 2.520606 11711154
0.45557913 -0.60389644 2.5451202 11711154
0.42706037 -0.5748564 2.5200188 11645361
0.45556074 -0.57499915 2.5454733 11645361
0.42713436 -0.52500701 2.5207222 6447714
0.45567054 -0.52506572 2.5462112 6447714
0.42717609 -0.47496918 2.5214007 6447714
0.45459107 -0.47462866 2.545893 6447714
0.42618635 -0.42504546 2.5211577 6447714
0.45476243 -0.42482626 2.5466838 6447714
0.42627546 -0.37507483 2.5218771 6447714
0.4547888 -0.37569669 2.5473366 6447714
0.42572939 -0.32515705 2.5220284 6447714
0.45315516 -0.32244557 2.5465596 6447714
0.42404181 -0.27506709 2.5211618 6447714
0.45266014 -0.27466089 2.5467288 6447714
0.42417204 -0.22494671 2.5219214 6447714
0.45264632 -0.22580951 2.5473428 6447714
0.39876944 -0.1564004 2.500108 6447714
0.42436001 -0.17484739 2.5227301 6447714
0.45163885 -0.17516689 2.5470917 6447714
0.39884588 -0.12431437 2.5005875 6447714
0.42439282 -0.1250328 2.523397 6447714
0.45177522 -0.12455346 2.5478623 6447714
0.39896429 -0.074610271 2.5013297 6447714
0.42455032 -0.075190306 2.5241756 6447714
0.45181763 -0.076436073 2.5485156 6447714
0.39843407 -0.020634439 2.5015469 6447714
0.4247703 -0.025104742 2.5250161 6447714
0.45078811 -0.025335761 2.5482509 6447714
0.39799321 0.024875775 2.5017369 6447714
0.4248977 0.02511478 2.5257709 6447714
0.45092452 0.025345981 2.549022 6447714
0.39810398 0.07153517 2.5024333 6447714
0.42505321 0.072377197 2.5253162 6447714
0.46457997 0.082519189 2.5272818 6447714
0.52479059 0.092670262 2.5133214 6447714
0.57454783 0.092802651 2.5169117 5000268
0.61169022 0.092901528 2.5195932 2894892
0.47958094 -0.60394228 2.5665591 11711154
0.50770259 -0.60407841 2.5916758 11711154
0.4796069 -0.57497841 2.5669522 11645361
0.50799119 -0.5750246 2.5923052 11645361
0.47970638 -0.52500957 2.5676813 6447714
0.50741065 -0.52579099 2.5924168 6447714
0.47872102 -0.47504187 2.567441 6447714
0.50700051 -0.47493848 2.5927024 6447714
0.47871491 -0.42504558 2.5680761 6447714
0.50710547 -0.42511839 2.5934334 6447714
0.47889683 -0.37495643 2.5688806 6447714
0.50656629 -0.37631083 2.5935779 6447714
0.47777593 -0.32499152 2.5685194 6447714
0.5062083 -0.32516932 2.5939131 6447714
0.4778544 -0.27505982 2.5692286 6447714
0.50622809 -0.27475402 2.5945761 6447714
0.47800049 -0.22486265 2.5700018 6447714
0.50577712 -0.2260453 2.5947971 6447714
0.47697404 -0.17494796 2.5697238 6447714
0.50529188 -0.17523743 2.5950146 6447714
0.47689888 -0.12506773 2.5702963 6447714
0.50549793 -0.12527381 2.5958395 6447714
0.47734392 -0.074826032 2.571337 6447714
0.50484049 -0.076545484 2.595876 6447714
0.47590432 -0.024951223 2.5706899 6447714
0.50444269 -0.024736853 2.5961838 6447714
0.47604597 0.02496111 2.5714552 6447714
