# .PCD v0.7 - Point Cloud Data file format
VERSION 0.7
FIELDS x y z rgb
SIZE 4 4 4 4
TYPE F F F U
COUNT 1 1 1 1
WIDTH 1194
HEIGHT 1
VIEWPOINT 0 0 0 1 0 0 0
POINTS 1194
DATA ascii
-0.22441219 -0.93265772 3.1165793 2039583
-0.17466255 -0.93274724 3.1258965 2039583
-0.12462315 -0.93273902 3.1352675 2039583
-0.074299939 -0.93267548 3.1446917 2039583
-0.048278604 -0.93295121 3.1495645 2039583
1.4933916 -0.92498618 3.126348 1191755
1.4933674 -0.87506109 3.1263821 1125706
1.4938719 -0.8367781 3.1236131 1125706
-2.4639716 0.10965321 3.1138666 10197915
-2.4257696 0.10967581 3.1145084 10197915
-2.37481 0.10970594 3.1153643 10197915
-2.3250971 0.10973534 3.1161988 10197915
-2.2753584 0.1097648 3.1170356 10197915
-2.2243164 0.10979501 3.117893 10197915
-2.1745229 0.10982446 3.1187298 10197915
-2.1247029 0.10985392 3.1195664 10197915
-2.0748558 0.10988338 3.1204033 10197915
-2.0249817 0.10991286 3.1212401 10197915
-1.9750814 0.10994236 3.1220784 10197915
-1.925154 0.10997192 3.1229167 10197915
-1.8752002 0.11000145 3.1237557 10197915
-1.8252184 0.11003097 3.1245942 10197915
-1.7752107 0.11006055 3.1254342 10197915
-1.7251762 0.11009014 3.1262746 10197915
-1.6751146 0.11011975 3.1271155 10197915
-1.6250254 0.11014934 3.1279554 10197915
-1.5749102 0.11017897 3.1287973 10197915
-1.5247676 0.11020865 3.1296394 10197915
-1.4745984 0.11023831 3.1304822 10197915
-1.4256889 0.1102672 3.1313026 10197915
-1.3754661 0.11029691 3.1321464 10197915
-1.3252165 0.11032664 3.1329899 10197915
-1.2749394 0.11035637 3.1338344 10197915
-1.2246351 0.11038608 3.1346784 10197915
-1.1755949 0.11041508 3.1355021 10197915
-1.125237 0.11044486 3.1363473 10197915
-1.0748523 0.11047466 3.1371939 10197915
-1.0412486 0.11049455 3.1377585 10197915
-0.019856676 -1.405529 3.1540711 2039583
0.025935154 -1.4076319 3.1626446 2039583
0.075704932 -1.4095093 3.1719615 2039583
0.1260391 -1.4117444 3.1813846 2039583
0.17642532 -1.4137937 3.1908174 2039583
0.21352176 -1.415297 3.1977611 2039583
1.4836898 -1.4111744 3.1790597 2440530
-0.020863488 -1.3749069 3.1539357 2039583
0.024949221 -1.3752137 3.1625147 2039583
0.074914232 -1.3748608 3.1718733 2039583
0.12516069 -1.3751303 3.1812825 2039583
0.17581755 -1.3749119 3.1907716 2039583
0.2133124 -1.3750006 3.1977932 2039583
1.484599 -1.374963 3.1741419 2177873
-0.020898178 -1.3249635 3.1540172 2039583
0.024899291 -1.3251181 3.162595 2039583
0.074930847 -1.3248941 3.1719623 2039583
0.12522306 -1.3251524 3.1813805 2039583
0.17581497 -1.3248556 3.1908569 2039583
0.21328656 -1.3251364 3.1978738 2039583
1.4846185 -1.3249816 3.1739349 1981008
-0.020932877 -1.275018 3.1540923 2039583
0.024914427 -1.2750198 3.1626821 2039583
0.074918345 -1.2749237 3.1720448 2039583
0.12516007 -1.2751725 3.1814549 2039583
0.1758123 -1.2747957 3.1909435 2039583
0.21289891 -1.275875 3.197886 2039583
1.4845728 -1.2750016 3.1740839 1783374
-0.022195214 -1.2250162 3.1539464 2039583
0.024843033 -1.22492 3.1627536 2039583
0.074927643 -1.2249502 3.1721354 2039583
0.12523003 -1.2251894 3.1815567 2039583
0.17580973 -1.2247342 3.1910295 2039583
0.21197179 -1.2254494 3.1978002 2039583
1.484574 -1.2250229 3.1739769 1717069
-0.022227746 -1.1750842 3.1540251 2039583
0.024879668 -1.1748164 3.1628485 2039583
0.074922398 -1.1749737 3.17222 2039583
0.12523343 -1.1751344 3.1816423 2039583
0.17582929 -1.174807 3.1911182 2039583
0.21197763 -1.1751388 3.1978877 2039583
1.4845742 -1.1750431 3.1738813 1651020
-0.022268342 -1.1250026 3.1541028 2039583
0.0249382 -1.1248471 3.1629477 2039583
0.074924462 -1.1249958 3.172307 2039583
0.12526639 -1.1251469 3.1817346 2039583
0.17585632 -1.1249493 3.1912105 2039583
0.21198349 -1.1248255 3.1979759 2039583
1.4845512 -1.1249664 3.1739047 1716812
-0.02211665 -1.074993 3.1542168 2039583
0.024931628 -1.0749444 3.1630287 2039583
0.074926533 -1.0750149 3.1723948 2039583
0.12524019 -1.075155 3.1818171 2039583
0.17577906 -1.0750886 3.1912801 2039583
0.21198936 -1.07451 3.1980641 2039583
1.4843299 -1.0754209 3.1749845 1782605
-0.0221336 -1.0249794 3.154299 2039583
0.024932209 -1.0249702 3.1631153 2039583
0.074921235 -1.0250305 3.1724787 2039583
0.12524365 -1.0250924 3.1819036 2039583
0.17590308 -1.025154 3.19139 2039583
0.21210241 -1.0245152 3.1981709 2039583
1.4841322 -1.0249528 3.1759429 1914190
-0.02255396 -0.97468549 3.1543114 2039583
0.024911219 -0.97499305 3.1631992 2039583
0.074930586 -0.97504348 3.1725671 2039583
0.12524709 -0.97502607 3.1819904 2039583
0.17590047 -0.97507817 3.1914763 2039583
0.21143921 -0.97573471 3.1981306 2039583
1.4841365 -0.97505522 3.1758158 1716299
-0.023598447 -0.93272722 3.154182 2039583
0.024807118 -0.93273401 3.1632535 2039583
0.074784972 -0.93272901 3.1726112 2039583
0.125154 -0.9327246 3.1820467 2039583
0.17574936 -0.93271977 3.1915221 2039583
0.21063478 -0.93255526 3.1980555 2039583
1.4841359 -0.92516118 3.1757288 1650506
1.4841039 -0.87504756 3.1757965 1650250
1.4849478 -0.84405851 3.171236 1321800
-2.5160222 0.10950702 3.1846483 10197915
-2.4743583 0.10953164 3.185364 10197915
-2.4248588 0.10956089 3.1862147 10197915
-2.3753321 0.10959014 3.1870658 10197915
-2.3257778 0.10961933 3.1879146 10197915
-2.2748926 0.10964936 3.1887879 10197915
-2.2239809 0.10967945 3.1896629 10197915
-2.1743476 0.10970879 3.1905155 10197915
-2.1246872 0.1097381 3.1913688 10197915
-2.075 0.10976744 3.1922216 10197915
-2.0252869 0.10979681 3.1930759 10197915
-1.9755472 0.1098262 3.1939304 10197915
-1.925781 0.1098556 3.1947856 10197915
-1.8759868 0.10988498 3.1956398 10197915
-1.8261675 0.10991443 3.1964958 10197915
-1.7750086 0.10994464 3.1973748 10197915
-1.7238221 0.10997488 3.1982543 10197915
-1.6739204 0.11000433 3.1991107 10197915
-1.6358204 0.11002684 3.1997654 10197915
0.47618762 -1.4514149 3.2468913 2039583
1.4711652 -1.4509947 3.2459512 6710886
0.23769173 -1.4164162 3.2022872 2039583
0.275709 -1.4179773 3.2094035 2039583
0.32581776 -1.4200048 3.2187846 2039583
0.37481555 -1.422128 3.2279568 2039583
0.42559084 -1.4241611 3.2374628 2039583
0.47214738 -1.4250895 3.2461803 2039583
1.4746958 -1.4217921 3.2270617 6710886
0.23739928 -1.3751817 3.2023022 2039583
0.27521974 -1.374957 3.2093863 2039583
0.32536179 -1.3749888 3.2187772 2039583
0.37442619 -1.3749018 3.2279663 2039583
0.42508638 -1.3749889 3.2374525 2039583
0.47196344 -1.3748271 3.2462308 2039583
1.4750689 -1.3751805 3.2249782 6710886
0.23742197 -1.3252459 3.2023947 2039583
0.27526486 -1.3248876 3.2094808 2039583
0.32538691 -1.3250943 3.2188671 2039583
0.37448886 -1.3249356 3.2280638 2039583
0.42523822 -1.3250451 3.2375681 2039583
0.47200429 -1.3250824 3.2463269 2039583
1.4750385 -1.3250669 3.2250412 6710886
0.23710994 -1.2744559 3.2024229 2039583
0.27523443 -1.2749559 3.2095628 2039583
0.32539195 -1.2749714 3.2189534 2039583
0.37447861 -1.2751223 3.2281468 2039583
0.4251878 -1.2749554 3.2376447 2039583
0.47067785 -1.2750124 3.2461648 2039583
1.4750243 -1.2748399 3.2250226 6710886
0.23621777 -1.2246628 3.2023413 2039583
0.27524945 -1.2251641 3.2096505 2039583
0.32535207 -1.2249198 3.2190337 2039583
0.37448898 -1.2250754 3.2282364 2039583
0.42480201 -1.2253622 3.2376599 2039583
0.47016665 -1.2246361 3.246155 2039583
1.475009 -1.2248375 3.2250016 6710886
0.23624612 -1.1746777 3.2024341 2039583
0.27531007 -1.1751548 3.2097473 2039583
0.32539707 -1.1750933 3.2191288 2039583
0.37436992 -1.1748786 3.2283008 2039583
0.42383748 -1.1750407 3.2375665 2039583
0.46944761 -1.1750101 3.2461066 2039583
1.4750098 -1.1749475 3.2249014 6710886
0.23618823 -1.1249579 3.2025075 2039583
0.27528012 -1.1250041 3.20983 2039583
0.32551479 -1.1251115 3.2192371 2039583
0.37459114 -1.1249802 3.2284284 2039583
0.42377496 -1.1249948 3.2376406 2039583
0.46908289 -1.125013 3.2461255 2039583
1.4749779 -1.1249465 3.2249711 6710886
0.23611586 -1.0752367 3.2025802 2039583
0.2752195 -1.0749209 3.2099054 2039583
0.32543951 -1.0749786 3.2193098 2039583
0.37458447 -1.0750755 3.228513 2039583
0.42399538 -1.0750265 3.2377675 2039583
0.469621 -1.0750132 3.2463129 2039583
1.474986 -1.0750606 3.2248347 6710886
0.23606497 -1.0253795 3.2026572 2039583
0.27522683 -1.0249052 3.2099931 2039583
0.32531968 -1.0249174 3.2193744 2039583
0.37442872 -1.0249459 3.2285714 2039583
0.42384389 -1.0249746 3.2378254 2039583
0.46888876 -1.0254066 3.2462597 2039583
1.4749885 -1.0250567 3.2247212 6710886
0.23551711 -0.97461045 3.2026429 2039583
0.27533287 -0.97502875 3.2100973 2039583
0.32540461 -0.97492933 3.219476 2039583
0.37444243 -0.97496343 3.2286599 2039583
0.42376879 -0.97499663 3.2378972 2039583
0.46801642 -0.97502005 3.2461853 2039583
1.4749129 -0.97495246 3.2250261 6710886
0.2348468 -0.93273669 3.2025878 2039583
0.27516794 -0.93270266 3.2101407 2039583
0.3254649 -0.93263978 3.2195611 2039583
0.37454897 -0.9326275 3.2287533 2039583
0.42391407 -0.93261492 3.237998 2039583
0.46809623 -0.93248498 3.2462714 2039583
1.4749521 -0.9248417 3.2247193 6710886
1.4751631 -0.87712204 3.2234986 6710886
1.4783922 -0.84878176 3.2062161 6710886
-1.6108496 0.11004159 3.2001944 10197915
-1.5740373 0.11006333 3.2008271 10197915
-1.5240557 0.11009288 3.2016857 10197915
-1.4740471 0.11012239 3.2025445 10197915
-1.4240113 0.11015193 3.2034037 10197915
-1.3739492 0.11018151 3.2042639 10197915
-1.3238602 0.11021111 3.2051246 10197915
-1.2750633 0.11023994 3.2059624 10197915
-1.2262406 0.11026876 3.2068007 10197915
-1.1760721 0.1102984 3.2076628 10197915
-1.1258767 0.11032806 3.2085252 10197915
-1.0782986 0.11035617 3.2093427 10197915
0.49695447 -1.4518065 3.2507803 2039583
0.52854925 -1.4535671 3.2566943 2039583
0.57659304 -1.4554877 3.2656887 2039583
0.62518078 -1.4576426 3.2747843 2039583
0.67591184 -1.4596696 3.2842829 2039583
0.72519302 -1.4618603 3.2935076 2039583
0.75458509 -1.4630593 3.2990105 2039583
1.4644408 -1.4591829 3.2818413 6710886
0.49696177 -1.4248924 3.2508283 2039583
0.52617162 -1.4250352 3.2562988 2039583
0.57491881 -1.4250102 3.2654274 2039583
0.62410885 -1.4250716 3.2746394 2039583
0.67479169 -1.4249846 3.284132 2039583
0.72453475 -1.425108 3.2934477 2039583
0.75437337 -1.4248565 3.2990365 2039583
1.4655784 -1.4250016 3.275701 6710886
0.49697542 -1.3750988 3.2509172 2039583
0.52610654 -1.3750883 3.2563715 2039583
0.57491714 -1.3749878 3.2655134 2039583
0.62404543 -1.3749955 3.274714 2039583
0.6749087 -1.3750529 3.2842398 2039583
0.72451842 -1.3749883 3.2935312 2039583
0.754471 -1.3749954 3.29914 2039583
1.4656043 -1.3748943 3.2754717 6710886
0.49679112 -1.3245188 3.2509689 2039583
0.52611774 -1.32498 3.2564614 2039583
0.5750578 -1.3249736 3.2656267 2039583
0.62406653 -1.3250551 3.2748051 2039583
0.67482895 -1.3249782 3.284312 2039583
0.72458369 -1.3250185 3.2936289 2039583
0.75336355 -1.3268199 3.2990179 2039583
1.4655869 -1.3248957 3.2754595 6710886
0.4956162 -1.2754023 3.2508337 2039583
0.52621078 -1.2750248 3.2565649 2039583
0.57489532 -1.2750248 3.2656825 2039583
0.62413514 -1.2750469 3.2749035 2039583
0.67493731 -1.2750446 3.2844176 2039583
0.72447562 -1.2751257 3.2936964 2039583
0.75308406 -1.2751853 3.299053 2039583
1.4655453 -1.2749043 3.2755885 6710886
0.49570486 -1.2249187 3.2509379 2039583
0.52619624 -1.2250637 3.2566481 2039583
0.57514256 -1.2250048 3.2658155 2039583
0.62408376 -1.2250286 3.274981 2039583
0.67487073 -1.2250324 3.2844908 2039583
0.72469598 -1.2249972 3.2938232 2039583
0.75310504 -1.224649 3.299145 2039583
1.4655644 -1.2249087 3.2753842 6710886
0.4955686 -1.1751444 3.2509995 2039583
0.52614319 -1.1750252 3.2567248 2039583
0.57492691 -1.1749721 3.2658613 2039583
0.62415195 -1.175011 3.27508 2039583
0.67502993 -1.1749486 3.2846084 2039583
0.72462445 -1.1749386 3.2938972 2039583
0.75312531 -1.1754762 3.299233 2039583
1.4655206 -1.1750293 3.2755201 6710886
0.49565712 -1.1246556 3.2511024 2039583
0.52631211 -1.1250622 3.2568426 2039583
0.57517385 -1.1249455 3.2659936 2039583
0.62421983 -1.12499 3.2751791 2039583
0.67486793 -1.1250812 3.2846651 2039583
0.72441578 -1.1250385 3.2939441 2039583
0.75314599 -1.1249343 3.299325 2039583
1.4655157 -1.1250361 3.2754517 6710886
0.49567068 -1.0748496 3.2511914 2039583
0.52605093 -1.0750165 3.25688 2039583
0.57482493 -1.0749089 3.2660148 2039583
0.6239962 -1.0750396 3.2752242 2039583
0.67498982 -1.0750643 3.2847736 2039583
0.72486538 -1.07506 3.2941155 2039583
0.75316691 -1.0743899 3.2994165 2039583
1.4655188 -1.0751613 3.2753358 6710886
0.49517742 -1.0237311 3.2511868 2039583
0.52645373 -1.0250472 3.2570422 2039583
0.57533985 -1.0249541 3.2661974 2039583
0.62441152 -1.0250157 3.275387 2039583
0.67509764 -1.0249689 3.2848797 2039583
0.72471142 -1.0249947 3.2941718 2039583
0.75187474 -1.0257607 3.2992582 2039583
1.4654955 -1.0251693 3.2753658 6710886
0.49431157 -0.97515225 3.2511084 2039583
0.52593458 -0.97499722 3.2570312 2039583
0.57478523 -0.97499448 3.26618 2039583
0.62394887 -0.97506064 3.2753878 2039583
0.67476904 -0.97502035 3.2849047 2039583
0.72440326 -0.97492844 3.2942011 2039583
0.75181818 -0.97524661 3.299335 2039583
1.4654802 -0.97506458 3.2753448 6710886
0.49432278 -0.93341982 3.2511826 2039583
0.52647173 -0.93258923 3.2572045 2039583
0.57531005 -0.93250996 3.2663515 2039583
0.62447196 -0.93263924 3.2755582 2039583
0.67528111 -0.93262708 3.2850747 2039583
0.72506189 -0.9324801 3.2943971 2039583
0.75173998 -0.93293595 3.2993929 2039583
1.4654748 -0.92507941 3.275279 6710886
1.4658712 -0.8841421 3.273078 6710886
-2.5704899 0.10935388 3.2587175 10197915
-2.5252054 0.1093806 3.2595141 10197915
-2.4758995 0.1094097 3.2603817 10197915
-2.4252336 0.10943956 3.2612715 10197915
-2.3745391 0.10946941 3.2621608 10197915
-2.3251529 0.10949855 3.2630289 10197915
-2.2757411 0.1095277 3.2638977 10197915
-2.2249663 0.10955767 3.2647908 10197915
-2.1741638 0.10958763 3.2656841 10197915
-2.124671 0.10961682 3.2665536 10197915
-2.0751519 0.10964604 3.2674248 10197915
-2.0242672 0.10967607 3.2683191 10197915
-1.9746947 0.10970533 3.2691913 10197915
-1.9250954 0.10973457 3.2700622 10197915
-1.87547 0.10976385 3.2709351 10197915
-1.8258185 0.10979316 3.2718084 10197915
-1.774797 0.10982326 3.2727058 10197915
-1.7250915 0.10985258 3.2735794 10197915
-1.675359 0.1098819 3.2744534 10197915
-1.6242552 0.10991208 3.2753522 10197915
-1.5744693 0.10994146 3.276228 10197915
-1.5246562 0.10997085 3.2771032 10197915
-1.4748168 0.11000023 3.2779791 10197915
-1.4249507 0.11002966 3.2788563 10197915
-1.3750584 0.1100591 3.2797339 10197915
-1.325139 0.11008856 3.2806115 10197915
-1.2751926 0.110118 3.2814884 10197915
-1.2252198 0.1101475 3.2823679 10197915
-1.1752203 0.11017701 3.2832472 10197915
-1.1251938 0.11020653 3.2841268 10197915
-1.0900253 0.11022729 3.2847455 10197915
0.78062528 -1.4640534 3.3038847 2039583
0.82520074 -1.4660634 3.3122299 2039583
0.87570798 -1.4679995 3.3216851 2039583
0.92642605 -1.4703168 3.3311794 2039583
0.97601241 -1.4722167 3.3404639 2039583
1.0138618 -1.4740582 3.3475492 2039583
1.4558176 -1.4695365 3.3278592 6710886
0.78021419 -1.4249712 3.3038752 2039583
0.82469863 -1.4251561 3.3122056 2039583
0.87520707 -1.4248285 3.3216658 2039583
0.9259907 -1.4252043 3.3311749 2039583
0.97563857 -1.424788 3.3404746 2039583
1.0138667 -1.425249 3.3476341 2039583
1.4562576 -1.4249319 3.3254261 6710886
0.78008425 -1.3750472 3.303937 2039583
0.82473052 -1.374989 3.3122973 2039583
0.87527138 -1.3749418 3.3217638 2039583
0.92605364 -1.3751529 3.331274 2039583
0.97573096 -1.3747604 3.3405809 2039583
1.0138402 -1.3752062 3.3477166 2039583
1.4562205 -1.3749472 3.3255281 6710886
0.77897769 -1.3247712 3.3038166 2039583
0.82474399 -1.3249005 3.3123877 2039583
0.87525958 -1.3251294 3.3218477 2039583
0.92608887 -1.3249396 3.3313682 2039583
0.97574764 -1.3248111 3.3406692 2039583
1.0130548 -1.3259422 3.3476505 2039583
1.4562278 -1.3250873 3.3253882 6710886
0.77897716 -1.2749512 3.3039026 2039583
0.82480335 -1.2750466 3.3124852 2039583
0.8752839 -1.2751602 3.321938 2039583
0.92608565 -1.2748028 3.3314543 2039583
0.97576529 -1.2748584 3.3407574 2039583
1.0124248 -1.2752361 3.3476241 2039583
1.4561993 -1.2749777 3.3254464 6710886
0.77883095 -1.2249777 3.3039615 2039583
0.82470518 -1.2251102 3.3125536 2039583
0.87527734 -1.2249627 3.3220241 2039583
0.92620581 -1.224825 3.331562 2039583
0.97578198 -1.2249038 3.3408465 2039583
1.0124525 -1.2253416 3.3477137 2039583
1.4562016 -1.2249948 3.3253281 6710886
0.77868474 -1.1750029 3.3040211 2039583
0.82479292 -1.1750108 3.3126562 2039583
0.87536258 -1.1748394 3.3221271 2039583
0.92618382 -1.1749246 3.331645 2039583
0.97579926 -1.1749462 3.3409357 2039583
1.0125105 -1.1752696 3.3478124 2039583
1.4561771 -1.1750133 3.3253663 6710886
0.77900958 -1.1250265 3.3041682 2039583
0.82490826 -1.1249123 3.3127642 2039583
0.87432373 -1.1251992 3.3220189 2039583
0.92506057 -1.1247669 3.331521 2039583
0.97581649 -1.1249857 3.3410251 2039583
1.0125079 -1.1251982 3.3478987 2039583
1.4561723 -1.125033 3.3252926 6710886
0.77902007 -1.0750464 3.3042569 2039583
0.82492197 -1.0749671 3.3128533 2039583
0.87397623 -1.0750351 3.3220401 2039583
0.92474234 -1.0750382 3.3315475 2039583
0.97583383 -1.0750233 3.3411121 2039583
1.0125457 -1.0751216 3.3479917 2039583
1.4561433 -1.0753031 3.325351 6710886
0.77750617 -1.0249174 3.3040593 2039583
0.82483238 -1.0250207 3.3129232 2039583
0.87391567 -1.0250311 3.3221147 2039583
0.92473215 -1.0250709 3.3316329 2039583
0.97585076 -1.0250579 3.3412039 2039583
1.0117067 -1.0257194 3.3479192 2039583
1.4561632 -1.025194 3.3251472 6710886
0.77729219 -0.97497791 3.3041058 2039583
0.82470673 -0.97499156 3.3129866 2039583
0.87385565 -0.97502476 3.3221905 2039583
0.92466432 -0.97502536 3.3317051 2039583
0.97581154 -0.97500861 3.3412845 2039583
1.0111203 -0.97485799 3.3478971 2039583
1.4561045 -0.97497028 3.3253591 6710886
0.77788222 -0.93256116 3.3042905 2039583
0.82526326 -0.93254441 3.3131633 2039583
0.87428445 -0.93254113 3.3223429 2039583
0.92514706 -0.93256456 3.3318686 2039583
0.97622621 -0.93252426 3.341433 2039583
1.0109409 -0.93269235 3.3479362 2039583
1.4561005 -0.92499 3.3252845 6710886
1.4567754 -0.89175385 3.3216178 6710886
-2.652086 0.10917915 3.3358786 10197915
-2.6248302 0.10919521 3.336369 10197915
-2.5743892 0.10922495 3.3372774 10197915
-2.5252848 0.1092539 3.3381619 10197915
-2.474788 0.1092836 3.3390701 10197915
-2.424264 0.10931333 3.3399782 10197915
-2.3750794 0.10934228 3.3408632 10197915
-2.32587 0.10937132 3.3417499 10197915
-2.2752657 0.10940114 3.3426614 10197915
-2.2246337 0.10943099 3.3435726 10197915
-2.1753433 0.10946001 3.34446 10197915
-2.1260271 0.10948907 3.3453484 10197915
-2.0753143 0.10951897 3.3462615 10197915
-2.0245733 0.10954889 3.3471754 10197915
-1.9751765 0.10957797 3.3480637 10197915
-1.925754 0.10960709 3.3489542 10197915
-1.8845493 0.10963138 3.3496964 10197915
1.0821311 -1.5015178 3.360286 2039583
1.1271076 -1.5036345 3.3687057 2039583
1.1758307 -1.5056233 3.3778274 2039583
1.2261643 -1.5077381 3.3872504 2039583
1.2723124 -1.5098447 3.3958888 2039583
1.4452209 -1.507223 3.3844635 6710886
1.4504274 -1.5004901 3.3566749 6710886
1.0388132 -1.4748889 3.3522196 2039583
1.0757089 -1.4749033 3.359129 2039583
1.1247439 -1.474991 3.3683126 2039583
1.1739218 -1.4750816 3.3775225 2039583
1.2250239 -1.474879 3.3870938 2039583
1.2718838 -1.475196 3.3958681 2039583
1.4461721 -1.4751186 3.3793259 6710886
1.4508408 -1.4744658 3.354418 6710886
1.0388416 -1.4249316 3.3523114 2039583
1.0757861 -1.4249243 3.359231 2039583
1.1247697 -1.4248816 3.3684034 2039583
1.1739945 -1.4251579 3.3776221 2039583
1.2250175 -1.4247311 3.3871794 2039583
1.2718695 -1.4249889 3.3959527 2039583
1.4461751 -1.4250177 3.3792119 6710886
1.4508282 -1.4244244 3.354389 6710886
1.03887 -1.3749715 3.3524024 2039583
1.0757579 -1.3749433 3.3593109 2039583
1.1247897 -1.3748558 3.3684945 2039583
1.1741148 -1.3751491 3.3777308 2039583
1.2251003 -1.3748276 3.38728 2039583
1.2718256 -1.3748795 3.3960311 2039583
1.4461786 -1.3750709 3.3790946 6710886
1.4508152 -1.3743834 3.3543587 6710886
1.0379574 -1.3242502 3.3523192 2039583
1.075845 -1.3249599 3.3594141 2039583
1.1248101 -1.324827 3.3685846 2039583
1.1741072 -1.3250551 3.377816 2039583
1.225094 -1.3250912 3.3873653 2039583
1.271752 -1.324869 3.3961036 2039583
1.4461284 -1.3251297 3.3792653 6710886
1.4508026 -1.3243437 3.3543293 6710886
1.0374534 -1.2749389 3.3523099 2039583
1.0758067 -1.2749724 3.3594913 2039583
1.1248305 -1.2747964 3.3686745 2039583
1.1741203 -1.2749587 3.3779056 2039583
1.2252369 -1.2751 3.3874781 2039583
1.2720721 -1.2749583 3.3962495 2039583
1.4461422 -1.2750316 3.3790934 6710886
1.4507899 -1.2743049 3.3542998 6710886
1.0374813 -1.2249744 3.3524022 2039583
1.0758843 -1.225148 3.3595948 2039583
1.1247934 -1.2248492 3.3687534 2039583
1.1741133 -1.2249416 3.3779907 2039583
1.2252305 -1.225024 3.3875632 2039583
1.2712562 -1.2254949 3.3961823 2039583
1.4461136 -1.2249328 3.379149 6710886
1.4507769 -1.2242665 3.35427 6710886
1.0375094 -1.1750075 3.3524942 2039583
1.0759332 -1.1752365 3.359688 2039583
1.124861 -1.1749007 3.3688526 2039583
1.1741059 -1.1749223 3.3780763 2039583
1.2252049 -1.174945 3.387645 2039583
1.270466 -1.1750405 3.3961213 2039583
1.4461325 -1.1749916 3.378947 6710886
1.4507765 -1.1749223 3.3541768 6710886
1.0375382 -1.1250383 3.3525863 2039583
1.0759631 -1.1251596 3.3597822 2039583
1.1249589 -1.1249484 3.3689573 2039583
1.1741761 -1.1249824 3.3781745 2039583
1.2251489 -1.124864 3.3877211 2039583
1.2703031 -1.12518 3.3961775 2039583
1.446088 -1.1248975 3.3790882 6710886
1.4507515 -1.1255836 3.3542113 6710886
1.0375664 -1.0750655 3.3526778 2039583
1.0759927 -1.0750802 3.3598733 2039583
1.1250575 -1.0749943 3.3690631 2039583
1.1742481 -1.0750419 3.3782749 2039583
1.2251717 -1.074946 3.3878124 2039583
1.2705748 -1.074988 3.3963151 2039583
1.446075 -1.0751137 3.3790588 6710886
1.4507387 -1.0755484 3.3541818 6710886
1.0366588 -1.0244197 3.3525949 2039583
1.076022 -1.0249978 3.3599653 2039583
1.1250774 -1.0249493 3.3691525 2039583
1.1743988 -1.0250137 3.3783891 2039583
1.2255141 -1.025025 3.3879621 2039583
1.2708464 -1.0247915 3.3964522 2039583
1.4460627 -1.0253297 3.3790288 6710886
1.4507259 -1.0255136 3.3541517 6710886
1.0361499 -0.97503299 3.3525848 2039583
1.0760996 -0.97499442 3.3600657 2039583
1.1250982 -0.97490156 3.3692424 2039583
1.1743921 -0.97498292 3.3784745 2039583
1.2254585 -0.97501761 3.3880382 2039583
1.2706709 -0.9750315 3.3965054 2039583
1.4460497 -0.97492522 3.3789985 6710886
1.4507129 -0.97548008 3.3541219 6710886
1.0364177 -0.93240368 3.3527086 2039583
1.0761735 -0.93251741 3.3601544 2039583
1.1250106 -0.93252558 3.3692999 2039583
1.1740961 -0.93252182 3.3784928 2039583
1.2250136 -0.9325195 3.3880281 2039583
1.2699597 -0.93264902 3.396446 2039583
1.446165 -0.9258669 3.3782842 6710886
1.4507002 -0.92544723 3.3540924 6710886
1.448754 -0.89735299 3.3644192 6710886
1.4506927 -0.89626187 3.3540752 6710886
-1.8584434 0.10964677 3.3501666 10197915
-1.8240809 0.10966703 3.3507855 10197915
-1.7745776 0.10969619 3.3516762 10197915
-1.7250484 0.10972538 3.3525677 10197915
-1.6754928 0.10975459 3.3534603 10197915
-1.6259112 0.10978383 3.3543532 10197915
-1.5749241 0.10981387 3.3552716 10197915
-1.5239093 0.1098439 3.3561893 10197915
-1.4742465 0.10987318 3.357084 10197915
-1.4245576 0.10990246 3.3579788 10197915
-1.3748419 0.10993178 3.3588743 10197915
-1.3250995 0.10996109 3.3597696 10197915
-1.2753305 0.1099904 3.3606656 10197915
-1.2255353 0.11001976 3.3615623 10197915
-1.1757129 0.11004906 3.3624575 10197915
-1.1286333 0.11007665 3.363301 10197915
1.2960181 -1.5101428 3.4003277 2039583
1.3256587 -1.5119008 3.4058764 2039583
1.3757769 -1.5140868 3.4152582 2039583
1.4249179 -1.515216 3.4207685 4210752
1.296043 -1.4749532 3.4003935 2039583
1.3249444 -1.4748893 3.4058065 2039583
1.3753318 -1.475114 3.4152429 2039583
1.425391 -1.4749532 3.4201705 4276545
1.296078 -1.4256854 3.400485 2039583
1.3249196 -1.4250475 3.4058876 2039583
1.3752785 -1.4250081 3.4153197 2039583
1.4255458 -1.4250727 3.4202836 4276545
1.2961138 -1.3750077 3.4005792 2039583
1.3250072 -1.3752047 3.4059896 2039583
1.3752937 -1.3749923 3.4154081 2039583
1.425408 -1.3750288 3.4202774 4276545
1.2961498 -1.3243268 3.4006739 2039583
1.3250331 -1.3250209 3.4060817 2039583
1.3754883 -1.3250668 3.4155307 2039583
1.4255421 -1.3249849 3.4203625 4276545
1.2961849 -1.2750512 3.4007654 2039583
1.3249289 -1.2748355 3.4061489 2039583
1.3754343 -1.2749556 3.415607 2039583
1.4256222 -1.2750179 3.4203968 4276545
1.2952321 -1.223258 3.4006763 2039583
1.3251563 -1.2249837 3.4062777 2039583
1.3753092 -1.2249295 3.4156699 2039583
1.4253501 -1.2250501 3.420481 4210752
1.2947392 -1.1749856 3.4006674 2039583
1.3252428 -1.1751273 3.4063809 2039583
1.3756447 -1.1749945 3.4158194 2039583
1.4257398 -1.1749661 3.4204366 4276545
1.2947748 -1.1242979 3.4007616 2039583
1.3251181 -1.1250163 3.4064441 2039583
1.3755744 -1.1249644 3.4158926 2039583
1.4254891 -1.1250615 3.4204342 4276545
1.2948097 -1.0750159 3.4008539 2039583
1.3249925 -1.0749047 3.4065058 2039583
1.3752592 -1.0750207 3.4159198 2039583
1.4254627 -1.0750091 3.4205368 4276545
1.2948447 -1.0257307 3.4009459 2039583
1.3254739 -1.0249577 3.406682 2039583
1.3759195 -1.0250745 3.4161305 2039583
1.4257812 -1.024794 3.4205761 4276545
1.2948806 -0.97503477 3.4010394 2039583
1.3253479 -0.9750061 3.4067457 2039583
1.3756875 -0.97503662 3.416173 2039583
1.4254632 -0.97513837 3.4205575 4276545
1.2944446 -0.93178761 3.4010332 2039583
1.3250142 -0.93243891 3.4067574 2039583
1.3755296 -0.93242443 3.4162166 2039583
1.4263898 -0.93184972 3.4202893 4408131
-2.7097311 0.10901218 3.41729 10197915
-2.6762364 0.10903189 3.4179091 10197915
-2.6259732 0.1090615 3.4188364 10197915
-2.5756826 0.1090911 3.4197643 10197915
-2.5253625 0.10912064 3.4206905 10197915
-2.4750164 0.10915025 3.4216187 10197915
-2.4246433 0.10917991 3.4225478 10197915
-2.374243 0.10920957 3.4234781 10197915
-2.3252175 0.10923845 3.4243834 10197915
-2.2761645 0.10926732 3.4252882 10197915
-2.2256835 0.10929701 3.426219 10197915
-2.175175 0.10932674 3.4271517 10197915
-2.1246393 0.10935649 3.4280841 10197915
-2.0740759 0.10938626 3.4290171 10197915
-2.0248904 0.10941519 3.429924 10197915
-1.9756792 0.10944416 3.4308319 10197915
-1.9250349 0.10947397 3.4317667 10197915
-1.8743629 0.10950381 3.4327021 10197915
-1.8250718 0.10953283 3.4336116 10197915
-1.7757541 0.10956183 3.4345207 10197915
-1.7250006 0.10959172 3.4354575 10197915
-1.6742197 0.10962161 3.4363952 10197915
-1.6248231 0.10965069 3.4373064 10197915
-1.5753989 0.10967975 3.4382179 10197915
-1.5245363 0.1097097 3.4391561 10197915
-1.47506 0.10973883 3.4400692 10197915
-1.4255569 0.10976799 3.4409833 10197915
-1.3746122 0.10979795 3.4419231 10197915
-1.325056 0.1098271 3.4428365 10197915
-1.2754729 0.10985628 3.4437509 10197915
-1.2244461 0.1098863 3.4446924 10197915
-1.1748102 0.10991551 3.4456081 10197915
-1.142179 0.10993474 3.4462109 10197915
-2.767401 0.10883856 3.50283 10197915
-2.7244964 0.10886377 3.5036421 10197915
-2.6744163 0.10889323 3.50459 10197915
-2.6243112 0.10892273 3.5055397 10197915
-2.5756106 0.10895143 3.5064631 10197915
-2.5254488 0.10898087 3.507411 10197915
-2.4752614 0.10901039 3.5083606 10197915
-2.4250462 0.10903992 3.509311 10197915
-2.3748047 0.10906946 3.5102618 10197915
-2.3245347 0.109099 3.5112123 10197915
-2.2742376 0.10912855 3.5121636 10197915
-2.2253523 0.10915729 3.5130887 10197915
-2.1750021 0.1091869 3.5140414 10197915
-2.1246243 0.10921652 3.5149949 10197915
-2.0756593 0.10924529 3.5159206 10197915
-2.0252275 0.10927493 3.5168748 10197915
-1.9747686 0.10930461 3.5178297 10197915
-1.9257253 0.10933346 3.5187576 10197915
-1.875212 0.10936313 3.5197134 10197915
-1.8246711 0.10939283 3.5206685 10197915
-1.7755482 0.1094217 3.5215983 10197915
-1.7249538 0.10945147 3.5225558 10197915
-1.6743318 0.10948122 3.523514 10197915
-1.6251291 0.10951013 3.5244441 10197915
-1.5759008 0.10953906 3.5253751 10197915
-1.5251974 0.10956887 3.5263348 10197915
-1.4744672 0.1095987 3.5272951 10197915
-1.4251585 0.10962767 3.5282269 10197915
-1.3758223 0.10965648 3.5291541 10197915
-1.3250098 0.10968635 3.5301156 10197915
-1.2741698 0.10971621 3.5310767 10197915
-1.2247562 0.10974528 3.5320117 10197915
-1.1811345 0.10977091 3.5328372 10197915
-2.8529575 0.10864156 3.5922844 10197915
-2.8236382 0.10865878 3.5928538 10197915
-2.7737777 0.10868806 3.593822 10197915
-2.7238896 0.10871734 3.59479 10197915
-2.6739726 0.10874657 3.5957568 10197915
-2.6240306 0.10877587 3.5967262 10197915
-2.5740612 0.1088052 3.5976949 10197915
-2.524066 0.10883456 3.5986662 10197915
-2.4769871 0.10886221 3.59958 10197915
-2.4519672 0.1088769 3.6000662 10197915
-2.4239941 0.10889333 3.6006091 10197915
-2.3739169 0.10892271 3.6015801 10197915
-2.323813 0.10895209 3.6025527 10197915
-2.2736824 0.10898156 3.6035261 10197915
-2.2250004 0.10901013 3.6044717 10197915
-2.1762927 0.10903875 3.6054175 10197915
-2.1260815 0.10906818 3.6063907 10197915
-2.0758438 0.10909767 3.6073663 10197915
-2.025579 0.10912719 3.6083422 10197915
-1.9752871 0.10915674 3.609319 10197915
-1.9249676 0.10918627 3.610296 10197915
-1.8746208 0.1092158 3.6112723 10197915
-1.824247 0.10924537 3.6122501 10197915
-1.7738461 0.10927498 3.613229 10197915
-1.7249016 0.10930371 3.6141789 10197915
-1.6759306 0.10933245 3.6151295 10197915
-1.6254491 0.10936207 3.6161089 10197915
-1.5749403 0.10939174 3.6170897 10197915
-1.5244036 0.10942137 3.6180696 10197915
-1.4738399 0.10945106 3.619051 10197915
-1.4247375 0.10947988 3.6200044 10197915
-1.3756086 0.10950873 3.6209583 10197915
-1.3249638 0.10953844 3.6219401 10197915
-1.274292 0.10956819 3.6229241 10197915
-1.2250843 0.10959709 3.6238797 10197915
-1.1967416 0.10961372 3.6244297 10197915
-2.9159276 0.10844993 3.6869605 10197915
-2.8753166 0.10847373 3.6877701 10197915
-2.8256574 0.10850285 3.6887603 10197915
-2.7744672 0.10853294 3.6897831 10197915
-2.724755 0.10856213 3.6907752 10197915
-2.675014 0.10859125 3.6917653 10197915
-2.6252475 0.10862043 3.6927571 10197915
-2.5754538 0.10864963 3.6937499 10197915
-2.5256338 0.10867884 3.6947432 10197915
-2.4757869 0.10870808 3.6957371 10197915
-2.4244003 0.10873816 3.6967597 10197915
-2.3744988 0.10876741 3.6977544 10197915
-2.3245704 0.10879669 3.6987495 10197915
-2.2806723 0.10882244 3.699625 10197915
-2.2564445 0.10883665 3.7001081 10197915
-2.2246332 0.1088553 3.7007422 10197915
-2.1746235 0.10888458 3.7017376 10197915
-2.1245873 0.10891393 3.7027352 10197915
-2.0745244 0.10894328 3.7037332 10197915
-2.0244343 0.10897264 3.7047317 10197915
-1.9743176 0.10900203 3.7057304 10197915
-1.9256926 0.1090305 3.7066987 10197915
-1.8755224 0.10905993 3.7076988 10197915
-1.8253251 0.10908936 3.7086995 10197915
-1.7751006 0.10911881 3.7097011 10197915
-1.7248489 0.10914828 3.7107022 10197915
-1.6745684 0.10917764 3.7117002 10197915
-1.624261 0.10920702 3.7126992 10197915
-1.5754533 0.10923559 3.7136714 10197915
-1.5250936 0.10926512 3.7146754 10197915
-1.4747074 0.10929469 3.7156799 10197915
-1.4258217 0.10932335 3.7166543 10197915
-1.375381 0.10935289 3.7176588 10197915
-1.3249133 0.10938247 3.7186644 10197915
-1.275949 0.10941119 3.7196403 10197915
-1.2376785 0.10943362 3.720403 10197915
-3.0054691 0.10823454 3.7862947 10197915
-2.9745929 0.10825261 3.7869265 10197915
-2.9251699 0.10828156 3.7879388 10197915
-2.8757203 0.10831048 3.7889507 10197915
-2.8262434 0.10833938 3.7899621 10197915
-2.7751942 0.10836927 3.791007 10197915
-2.7241166 0.10839913 3.7920523 10197915
-2.6745601 0.10842815 3.7930677 10197915
-2.6249771 0.10845719 3.7940831 10197915
-2.5753679 0.10848623 3.795099 10197915
-2.5257311 0.10851528 3.7961154 10197915
-2.476068 0.10854432 3.7971313 10197915
-2.426379 0.10857341 3.7981491 10197915
-2.3751087 0.10860344 3.7991998 10197915
-2.3424687 0.10862255 3.7998679 10197915
-3.0119438 -1.7021401 3.8097949 2039583
-2.9732244 -1.703838 3.8170431 2039583
-2.9244277 -1.7060422 3.8261774 2039583
-2.874723 -1.7079941 3.8354821 2039583
-2.8246818 -1.7100688 3.8448503 2039583
-2.7989926 -1.7112931 3.849659 2039583
-3.0144019 -1.6750894 3.809381 2039583
-2.9758396 -1.6749048 3.8166041 2039583
-2.9259324 -1.6751249 3.8259478 2039583
-2.8759997 -1.675081 3.8353012 2039583
-2.8257327 -1.6748505 3.8447144 2039583
-2.7990334 -1.6746352 3.8497148 2039583
-3.0145319 -1.6252531 3.8094428 2039583
-2.9758401 -1.6248658 3.8166893 2039583
-2.9260769 -1.6249626 3.82601 2039583
-2.8759179 -1.6251477 3.8354015 2039583
-2.8256998 -1.6249803 3.8448064 2039583
-2.7990878 -1.6252252 3.8497899 2039583
-3.014452 -1.575092 3.8095436 2039583
-2.9759679 -1.5750037 3.8167527 2039583
-2.9262223 -1.5747993 3.8260682 2039583
-2.8760982 -1.5749501 3.8354557 2039583
-2.8256969 -1.5750998 3.844893 2039583
-2.7991426 -1.5758135 3.849865 2039583
-3.0145121 -1.5246189 3.8096204 2039583
-2.9758117 -1.5251377 3.8168666 2039583
-2.9261487 -1.5249001 3.8261693 2039583
-2.8762977 -1.524924 3.8355029 2039583
-2.8259449 -1.5249524 3.8449333 2039583
-2.7991986 -1.5248057 3.8499424 2039583
-3.0143874 -1.4746083 3.8097298 2039583
-2.9759583 -1.4750918 3.8169267 2039583
-2.9260497 -1.4750862 3.8262715 2039583
-2.8760157 -1.4750804 3.8356433 2039583
-2.8259373 -1.4749831 3.8450208 2039583
-2.7992339 -1.4929249 3.8499908 2039583
-3.0145962 -1.4249254 3.8097765 2039583
-2.9761043 -1.425045 3.8169861 2039583
-2.9262497 -1.4250041 3.8263214 2039583
-2.8761456 -1.4250516 3.835705 2039583
-2.8257651 -1.4250994 3.845139 2039583
-3.0147681 -1.3752402 3.8098304 2039583
-2.9762499 -1.3749969 3.8170452 2039583
-2.9264398 -1.3749213 3.8263714 2039583
-2.8764036 -1.3750219 3.835742 2039583
-2.8260677 -1.3750348 3.8451695 2039583
-3.0148878 -1.3255506 3.8098943 2039583
-2.976397 -1.3249476 3.8171027 2039583
-2.9256599 -1.3245885 3.8266056 2039583
-2.8756692 -1.3253585 3.8359656 2039583
-2.8263719 -1.3249699 3.8451989 2039583
-3.0148079 -1.275376 3.8099957 2039583
-2.9754272 -1.2746814 3.8173718 2039583
-2.92434 -1.2752079 3.8269372 2039583
-2.874732 -1.2749773 3.8362281 2039583
-2.8257482 -1.2749912 3.8454018 2039583
-3.0148692 -1.2248902 3.8100715 2039583
-2.9748042 -1.2250471 3.8175738 2039583
-2.9235656 -1.2249156 3.8271673 2039583
-2.8749545 -1.2249857 3.8362734 2039583
-2.8261361 -1.2250106 3.8454154 2039583
-3.0149288 -1.174403 3.8101478 2039583
-2.9749546 -1.1750431 3.8176322 2039583
-2.923804 -1.1749946 3.8272114 2039583
-2.8743601 -1.1747175 3.836472 2039583
-2.825736 -1.1754986 3.845576 2039583
-3.0148041 -1.1243757 3.8102558 2039583
-2.9751608 -1.1251209 3.8176804 2039583
-2.9241066 -1.1251619 3.8272421 2039583
-2.874052 -1.1250035 3.8366153 2039583
-2.825844 -1.1252294 3.8456426 2039583
-3.0150471 -1.0749991 3.8102984 2039583
-2.9753671 -1.0751981 3.817729 2039583
-2.9239759 -1.0749714 3.8273518 2039583
-2.8735595 -1.074863 3.8367941 2039583
-2.8261287 -1.0748093 3.8456764 2039583
-3.0150976 -1.0253201 3.8103738 2039583
-2.9749851 -1.0250909 3.8178856 2039583
-2.9236333 -1.0247747 3.8275044 2039583
-2.8737729 -1.0249027 3.8368402 2039583
-2.8267465 -1.0252523 3.8456454 2039583
-3.0138693 -0.97551531 3.8106902 2039583
-2.9735577 -0.97475392 3.8182404 2039583
-2.9239366 -0.97493613 3.8275316 2039583
-2.874259 -0.97521085 3.8368349 2039583
-2.8264425 -0.97507817 3.8457897 2039583
-3.0138502 -0.92515367 3.810781 2039583
-2.9737713 -0.92485839 3.8182859 2039583
-2.9243033 -0.92518646 3.8275485 2039583
-2.8740864 -0.92506671 3.8369536 2039583
-2.8261621 -0.92470032 3.8459296 2039583
-3.0139093 -0.8746509 3.8108566 2039583
-2.9740183 -0.87505054 3.8183253 2039583
-2.9242809 -0.8751654 3.8276417 2039583
-2.8737407 -0.87473744 3.8371065 2039583
-2.826736 -0.87513936 3.8459082 2039583
-3.0138919 -0.82428414 3.8109462 2039583
-2.9743216 -0.82533157 3.8183556 2039583
-2.9241011 -0.82469624 3.8277636 2039583
-2.8741179 -0.82503986 3.8371208 2039583
-2.8267648 -0.82516539 3.8459883 2039583
-3.0138688 -0.77463204 3.8110361 2039583
-2.9740641 -0.77515739 3.8184903 2039583
-2.923928 -0.77466458 3.8278787 2039583
-2.8744938 -0.77534187 3.8371367 2039583
-2.8276684 -0.77483678 3.8459058 2039583
-3.0143282 -0.72558558 3.8110359 2039583
-2.9741235 -0.72454971 3.818568 2039583
-2.9245355 -0.72526854 3.827852 2039583
-2.8742306 -0.72491986 3.8372726 2039583
-2.8281837 -0.72506577 3.8458962 2039583
-3.0141451 -0.67577595 3.8111551 2039583
-2.973803 -0.67454261 3.8187125 2039583
-2.9245124 -0.67541426 3.8279414 2039583
-2.8739066 -0.67466736 3.8374207 2039583
-2.8283315 -0.67537189 3.8459544 2039583
-3.0142057 -0.62526327 3.8112311 2039583
-2.9743426 -0.6251753 3.8186982 2039583
-2.9244144 -0.62485015 3.8280466 2039583
-2.8746455 -0.62533015 3.8373673 2039583
-2.8282354 -0.62460339 3.8460596 2039583
-3.0142663 -0.57474834 3.8113074 2039583
-2.9745703 -0.57553464 3.8187411 2039583
-2.9241545 -0.57454091 3.8281825 2039583
-2.8744836 -0.5754326 3.8374841 2039583
-2.8280218 -0.57478213 3.8461859 2039583
-3.0143278 -0.52423143 3.811384 2039583
-2.9743564 -0.52526081 3.8188672 2039583
-2.9246287 -0.5251376 3.8281777 2039583
-2.8744588 -0.52465409 3.8375762 2039583
-2.8286073 -0.52542263 3.8461614 2039583
-3.0141444 -0.47441009 3.8115034 2039583
-2.9744174 -0.47464269 3.818944 2039583
-2.9248068 -0.47554648 3.8282316 2039583
-2.8741136 -0.47465482 3.8377268 2039583
-2.8284025 -0.47485426 3.8462875 2039583
-3.0146873 -0.42550811 3.8114865 2039583
-2.9742031 -0.42436194 3.8190689 2039583
-2.9246452 -0.42505857 3.8283489 2039583
-2.87497 -0.42540947 3.8376529 2039583
-2.8295488 -0.42473379 3.8461592 2039583
-3.0145035 -0.37582636 3.8116076 2039583
-2.974653 -0.37516317 3.8190706 2039583
-2.9247046 -0.37431267 3.8284247 2039583
-2.8746288 -0.37522969 3.8378012 2039583
-2.8302245 -0.3753843 3.846118 2039583
-3.0145638 -0.32530168 3.8116829 2039583
-2.9747465 -0.32577184 3.8191397 2039583
-2.9244769 -0.32478449 3.8285532 2039583
-2.8746858 -0.32435742 3.8378797 2039583
-2.8299716 -0.32506499 3.8462527 2039583
-3.0146232 -0.27477476 3.8117578 2039583
-2.9746499 -0.27531433 3.8192427 2039583
-2.9250915 -0.27564797 3.8285244 2039583
-2.8747425 -0.2750732 3.8379543 2039583
-2.8298769 -0.27429712 3.8463585 2039583
-3.0146842 -0.22424594 3.8118341 2039583
-2.9747095 -0.22468631 3.819319 2039583
-2.9248753 -0.22523519 3.828651 2039583
-2.8747969 -0.22578695 3.8380291 2039583
-2.8302422 -0.22492477 3.8463748 2039583
-3.0145204 -0.17426758 3.8119516 2039583
-2.9747701 -0.1740562 3.8193958 2039583
-2.9249353 -0.17448154 3.8287294 2039583
-2.8748555 -0.17490886 3.8381064 2039583
-2.8301387 -0.17529048 3.8464797 2039583
-3.0150294 -0.12535775 3.8119409 2039583
-2.9748268 -0.12500639 3.8194706 2039583
-2.9247079 -0.12494282 3.8288589 2039583
-2.8749139 -0.12402876 3.8381832 2039583
-2.8303587 -0.12449955 3.8465259 2039583
-3.0148604 -0.075805835 3.8120577 2039583
-2.974885 -0.07595472 3.8195457 2039583
-2.9253216 -0.075803846 3.8288264 2039583
-2.874969 -0.074736759 3.8382578 2039583
-2.8316524 -0.074894667 3.8463688 2039583
-3.0149195 -0.025269069 3.8121336 2039583
-2.9749439 -0.025318695 3.8196208 2039583
-2.9251056 -0.025380544 3.8289516 2039583
-2.8750248 -0.025442712 3.8383322 2039583
-2.8317082 -0.025496492 3.8464456 2039583
-3.0149803 0.025269739 3.8122108 2039583
-2.9750037 0.02531936 3.8196971 2039583
-2.9251645 0.025381239 3.8290308 2039583
-2.875083 0.025443386 3.8384089 2039583
-2.8317642 0.025497176 3.8465221 2039583
-3.0150411 0.075810537 3.8122864 2039583
-2.9750628 0.075959444 3.8197734 2039583
-2.9255431 0.075723037 3.8290472 2039583
-2.8751395 0.074741267 3.8384848 2039583
-2.8318193 0.074899234 3.8465979 2039583
-3.0150747 0.10424054 3.8123293 7105644
-2.9750965 0.10444527 3.8198161 7105644
-2.9230554 0.10413086 3.8295608 6710886
-2.8751714 0.10336666 3.8385274 6118749
-2.8318517 0.10358511 3.8466406 6118749
-2.3175914 0.1086371 3.8003776 10197915
-2.2740395 0.10866261 3.8012693 10197915
-2.2242413 0.10869172 3.8022878 10197915
-2.1744168 0.1087209 3.8033082 10197915
-2.1245658 0.10875008 3.8043294 10197915
-2.0746882 0.1087793 3.8053515 10197915
-2.0247834 0.10880849 3.8063731 10197915
-1.9748509 0.1088377 3.8073943 10197915
-1.9248928 0.10886695 3.8084176 10197915
-1.8749076 0.10889621 3.8094418 10197915
-1.8248942 0.10892541 3.8104625 10197915
-1.7748528 0.10895456 3.8114824 10197915
-1.7247871 0.10898387 3.8125076 10197915
-1.6746945 0.1090132 3.8135338 10197915
-1.6245743 0.1090425 3.8145587 10197915
-1.5744275 0.10907187 3.8155861 10197915
-1.5242537 0.10910124 3.8166137 10197915
-1.4740531 0.10913063 3.817642 10197915
-1.4238255 0.10916002 3.8186703 10197915
-1.3735701 0.10918941 3.8196981 10197915
-1.3248601 0.10921793 3.8206961 10197915
-1.2792695 0.10924464 3.8216298 10197915
-2.7729692 -1.7123775 3.8545301 2039583
-2.723634 -1.7144017 3.8637664 2039583
-2.6742156 -1.7163584 3.8730173 2039583
-2.6242938 -1.7185575 3.8823626 2039583
-2.57442 -1.7206638 3.8916986 2039583
-2.5401969 -1.7217412 3.8981059 2039583
-2.7737033 -1.6750052 3.8544576 2039583
-2.7243381 -1.6751198 3.8637018 2039583
-2.6747887 -1.675037 3.8729811 2039583
-2.6249945 -1.6749651 3.8823059 2039583
-2.5747356 -1.6749763 3.8917196 2039583
-2.5404146 -1.6749523 3.8981464 2039583
-2.7739055 -1.6248741 3.854506 2039583
-2.7244823 -1.6249915 3.8637609 2039583
-2.6747024 -1.6251413 3.8730836 2039583
-2.6248732 -1.6249655 3.8824153 2039583
-2.5749404 -1.6250254 3.8917658 2039583
-2.5403059 -1.6249074 3.8982532 2039583
-2.7737284 -1.5750315 3.8546257 2039583
-2.7245066 -1.5750453 3.8638434 2039583
-2.6750572 -1.5750501 3.8731041 2039583
-2.6251085 -1.5749525 3.8824568 2039583
-2.574837 -1.5750767 3.8918719 2039583
-2.5405147 -1.5748868 3.8983004 2039583
-2.7738893 -1.5250847 3.8546824 2039583
-2.7243893 -1.5250982 3.8639503 2039583
-2.6747012 -1.525059 3.873256 2039583
-2.6250079 -1.524943 3.8825641 2039583
-2.5750942 -1.5250272 3.8919103 2039583
-2.5412023 -1.5260144 3.8982556 2039583
-2.7751989 -1.4747155 3.8545234 2039583
-2.7247491 -1.4748781 3.8639722 2039583
-2.6750536 -1.4749641 3.8732772 2039583
-2.6251059 -1.4750192 3.8826315 2039583
-2.5748839 -1.4750739 3.8920362 2039583
-2.5420985 -1.4750272 3.8981757 2039583
-2.7752159 -1.4249701 3.8546062 2039583
-2.7245212 -1.4249279 3.8641 2039583
-2.6750104 -1.4249656 3.8733723 2039583
-2.6252601 -1.4250036 3.8826895 2039583
-2.5752618 -1.4250215 3.8920529 2039583
-2.5419009 -1.4249618 3.8982995 2039583
-2.7754598 -1.3749595 3.8546462 2039583
-2.7246153 -1.3749722 3.8641682 2039583
-2.6749885 -1.3750584 3.873462 2039583
-2.6250453 -1.3749881 3.8828151 2039583
-2.5748999 -1.3749686 3.8922064 2039583
-2.5421989 -1.3749533 3.8983297 2039583
-2.7758732 -1.3249487 3.854655 2039583
-2.7251172 -1.3249273 3.8641605 2039583
-2.6754682 -1.3249618 3.8734586 2039583
-2.6255662 -1.3249676 3.8828034 2039583
-2.5754631 -1.3249142 3.8921874 2039583
-2.542001 -1.3248829 3.8984544 2039583
-2.7752097 -1.274935 3.8548663 2039583
-2.7243958 -1.2749677 3.864383 2039583
-2.6747811 -1.2749534 3.8736744 2039583
-2.6249864 -1.2749473 3.8829994 2039583
-2.5749233 -1.2749492 3.8923755 2039583
-2.5422993 -1.2748722 3.8984842 2039583
-2.7756579 -1.2250091 3.8548689 2039583
-2.7249427 -1.2250075 3.8643661 2039583
-2.675523 -1.2251383 3.8736217 2039583
-2.6257789 -1.2250156 3.8829372 2039583
-2.5756464 -1.2248936 3.8923256 2039583
-2.5420849 -1.2250631 3.8986101 2039583
-2.7760019 -1.1749936 3.8548903 2039583
-2.7250116 -1.1749564 3.86444 2039583
-2.6750841 -1.1750309 3.8737898 2039583
-2.6250253 -1.1749871 3.883163 2039583
-2.5749359 -1.1749208 3.8925445 2039583
-2.5432968 -1.1760767 3.8984675 2039583
-2.8024521 -1.1212999 3.8500295 2039583
-2.7753739 -1.1248817 3.855094 2039583
-2.7247021 -1.1249895 3.864583 2039583
-2.6753271 -1.125021 3.8738306 2039583
-2.6257761 -1.1250547 3.8831108 2039583
-2.5757501 -1.1249602 3.8924792 2039583
-2.5436525 -1.125052 3.8984897 2039583
-2.8025036 -1.0750638 3.8501 2039583
-2.7758701 -1.0750412 3.8550878 2039583
-2.7254028 -1.0752068 3.8645394 2039583
-2.6756556 -1.074918 3.8738554 2039583
-2.6252759 -1.0750208 3.8832901 2039583
-2.5750287 -1.0748849 3.8927 2039583
-2.5439253 -1.0750434 3.8985252 2039583
-2.8025599 -1.0240428 3.8501773 2039583
-2.7761214 -1.0250217 3.8551266 2039583
-2.7247739 -1.0250528 3.864743 2039583
-2.6750445 -1.0247977 3.8740568 2039583
-2.6257415 -1.025084 3.8832889 2039583
-2.5758648 -1.0249251 3.8926308 2039583
-2.5437891 -1.0252855 3.8986359 2039583
-2.8026145 -0.97461438 3.8502526 2039583
-2.7755392 -0.97480989 3.8553238 2039583
-2.7250612 -0.97499573 3.8647764 2039583
-2.6758733 -0.97507757 3.8739874 2039583
-2.6255586 -0.97504807 3.8834105 2039583
-2.5751314 -0.97493613 3.8928542 2039583
-2.5439882 -0.97526133 3.8986855 2039583
-2.8026695 -0.92518383 3.8503277 2039583
-2.7760892 -0.92505735 3.8553064 2039583
-2.7254851 -0.92503005 3.8647835 2039583
-2.6752193 -0.92494965 3.8741968 2039583
-2.6256189 -0.92501301 3.8834851 2039583
-2.5759642 -0.92497575 3.8927844 2039583
-2.5439653 -0.92551893 3.8987765 2039583
-2.8027258 -0.87415689 3.8504055 2039583
-2.7762296 -0.87503076 3.855366 2039583
-2.7248271 -0.87486446 3.8649933 2039583
-2.6754408 -0.874825 3.8742414 2039583
-2.6256666 -0.87517959 3.8835618 2039583
-2.5752301 -0.87497956 3.8930085 2039583
-2.5440156 -0.87546432 3.8988533 2039583
-2.8027811 -0.82472259 3.8504808 2039583
-2.7756784 -0.82480901 3.855557 2039583
-2.7256603 -0.82526034 3.8649223 2039583
-2.6743813 -0.82488871 3.8745258 2039583
-2.623991 -0.82486534 3.8839643 2039583
-2.5760674 -0.82501888 3.8929379 2039583
-2.5448494 -0.82669842 3.8987815 2039583
-2.8027146 -0.77432036 3.8505807 2039583
-2.7749777 -0.77522659 3.8557734 2039583
-2.7253213 -0.77500629 3.865073 2039583
-2.6739035 -0.77477354 3.8747025 2039583
-2.6247587 -0.77502048 3.8839052 2039583
-2.5753341 -0.77501476 3.8931611 2039583
-2.5455556 -0.77529633 3.8987389 2039583
-2.802892 -0.72425324 3.8506339 2039583
-2.7748501 -0.72515225 3.8558836 2039583
-2.724982 -0.72474802 3.8652229 2039583
-2.6746907 -0.72504562 3.8746417 2039583
-2.6240649 -0.72494084 3.8841219 2039583
-2.5761695 -0.72505385 3.8930914 2039583
-2.5456057 -0.72523922 3.8988147 2039583
-2.802947 -0.67481297 3.8507094 2039583
-2.7744713 -0.67469007 3.8560419 2039583
-2.7258172 -0.67514426 3.8651524 2039583
-2.6739912 -0.67482853 3.8748584 2039583
-2.6248972 -0.67509699 3.8840525 2039583
-2.5754373 -0.67494732 3.8933151 2039583
-2.545656 -0.67518038 3.8988929 2039583
-2.8030014 -0.6253708 3.8507836 2039583
-2.7752304 -0.62520516 3.8559852 2039583
-2.7252603 -0.6247853 3.8653448 2039583
-2.6748278 -0.62510204 3.874789 2039583
-2.6242058 -0.62491578 3.8842685 2039583
-2.5748551 -0.62498665 3.8935108 2039583
-2.5442672 -0.62516296 3.8992391 2039583
-2.8030589 -0.57433176 3.8508618 2039583
-2.7749295 -0.57511735 3.8561285 2039583
-2.7257695 -0.57517034 3.8653336 2039583
-2.6744027 -0.57479787 3.8749554 2039583
-2.6249731 -0.57506943 3.8842108 2039583
-2.5740824 -0.57496554 3.8937414 2039583
-2.5443175 -0.57509655 3.8993156 2039583
-2.8031125 -0.52488554 3.8509371 2039583
-2.7746019 -0.52474141 3.8562765 2039583
-2.7255905 -0.52526283 3.865454 2039583
-2.6746275 -0.52504903 3.8749986 2039583
-2.624505 -0.52479547 3.8843868 2039583
-2.5749576 -0.5249992 3.8936653 2039583
-2.5443678 -0.52502823 3.8993931 2039583
-2.8031671 -0.47543755 3.8510125 2039583
-2.7754247 -0.4752585 3.8562081 2039583
-2.7252343 -0.47481096 3.865608 2039583
-2.6745915 -0.47519943 3.875092 2039583
-2.624882 -0.47493201 3.8844011 2039583
-2.5741861 -0.47497001 3.8938956 2039583
-2.5451729 -0.47749132 3.8993237 2039583
-2.8046281 -0.42436343 3.8508263 2039583
-2.7750945 -0.42497295 3.8563573 2039583
-2.726109 -0.42520827 3.8655305 2039583
-2.6743083 -0.42497972 3.8752298 2039583
-2.6247661 -0.42485672 3.8845093 2039583
-2.5750589 -0.42500398 3.8938181 2039583
-2.5459082 -0.42485639 3.899277 2039583
-2.804683 -0.37491494 3.8509023 2039583
-2.7747939 -0.37487173 3.8565001 2039583
-2.7257524 -0.37475249 3.865685 2039583
-2.6750233 -0.37524748 3.8751829 2039583
-2.6248186 -0.37497556 3.8845856 2039583
-2.5743029 -0.37487799 3.8940465 2039583
-2.5459583 -0.37478566 3.8993542 2039583
-2.8047373 -0.32546437 3.8509767 2039583
-2.7755518 -0.32538512 3.8564425 2039583
-2.725805 -0.32511219 3.8657596 2039583
-2.6745265 -0.3245675 3.8753636 2039583
-2.6248713 -0.32509238 3.8846624 2039583
-2.5751443 -0.32491031 3.8939743 2039583
-2.5460086 -0.32471302 3.8994315 2039583
