# .PCD v0.7 - Point Cloud Data file format
VERSION 0.7
FIELDS x y z rgb
SIZE 4 4 4 4
TYPE F F F U
COUNT 1 1 1 1
WIDTH 1175
HEIGHT 1
VIEWPOINT 0 0 0 1 0 0 0
POINTS 1175
DATA ascii
1.4650382 -0.074924596 2.3752 6513507
-1.8323587 -0.024950225 2.3727479 2039583
1.4651614 -0.02493171 2.3749061 6513507
-1.832387 0.024950732 2.3727841 2039583
1.4651567 0.024931576 2.3748941 6513507
-1.8325757 0.07495895 2.3731716 2039583
1.4650202 0.074923635 2.3751683 6513507
-1.8280778 0.10700157 2.372443 8487297
-1.7756207 0.11109931 2.3731785 9934743
-1.7251766 0.11114316 2.3741159 10132122
-1.6746922 0.11118707 2.3750539 10197915
-1.62514 0.11123016 2.3759744 10197915
-1.5755495 0.1112733 2.3768957 10197915
-1.5249468 0.11131731 2.3778358 10197915
-1.4752786 0.11136051 2.3787584 10197915
-1.4255716 0.11140373 2.3796816 10197915
-1.3748504 0.11144783 2.3806243 9671830
-1.3250656 0.11149114 2.3815489 7568777
-1.2752419 0.11153447 2.3824744 2242127
-1.2253797 0.11157782 2.3834004 2572895
-1.1754785 0.11162122 2.3843279 5201003
-1.1245589 0.1116655 2.3852737 4677495
-1.0745796 0.11170898 2.3862023 993862
-1.0245609 0.11175247 2.3871317 9080207
-0.97450346 0.11179601 2.3880613 10000536
-0.92538971 0.11183874 2.3889737 10000536
-0.8736552 0.11188805 2.3870561 9869207
-0.82543325 0.1119565 2.3702805 2904185
-0.77515316 0.11199964 2.3716018 1125704
-0.74347681 0.11205745 2.3520176 1191496
-0.68529844 0.11207783 2.3732564 2052231
-0.60968202 0.11213349 2.3813791 10066329
-0.58879805 0.11217003 2.3695273 10132122
-0.50343609 0.11220568 2.3968122 10197915
-0.47417289 0.11226089 2.3775427 3297909
-0.42458683 0.1123046 2.3780596 3228761
-0.37498748 0.11234834 2.3785768 10197915
-0.33878094 0.11238477 2.3759615 10197915
-0.19571143 0.11253408 2.3620214 1059398
-0.11749712 0.11260215 2.3634505 10197915
-0.075417466 0.1126388 2.364219 3823219
-0.025474317 0.11268222 2.3651309 8554122
0.00098004541 0.11270523 2.3656137 10000536
0.088263907 0.11278123 2.3672085 10000536
0.12458614 0.11281282 2.3678722 10000536
0.17468372 0.1128564 2.3687868 2248580
0.21596856 0.11289232 2.3695407 1059401
0.32816336 0.11298995 2.3715899 10000536
0.36757532 0.11302425 2.3723097 10000536
0.44745788 0.11309374 2.3737683 10000536
0.47509634 0.11311782 2.3742733 10000536
0.52447718 0.11316078 2.3751755 10000536
0.5748843 0.11320464 2.3760958 10132122
0.62533051 0.11324853 2.3770175 10197915
0.65106159 0.11327093 2.3774874 10197915
0.7868219 0.11338906 2.3799667 10197915
0.82552177 0.11342274 2.3806734 10197915
0.8751694 0.11346593 2.3815804 10197915
0.92485452 0.11350919 2.382488 10197915
0.97457778 0.11355243 2.3833959 10197915
1.0243386 0.11359573 2.384305 10197915
1.0741379 0.11363907 2.3852146 10197915
1.1249722 0.1136833 2.386143 9868950
1.1758457 0.11372756 2.3870721 7105644
1.2257605 0.113771 2.3879836 6513507
1.2757133 0.11381448 2.388896 6513507
1.3286593 0.11388455 2.3738225 6513507
1.375523 0.11393158 2.3705094 6513507
1.4256713 0.11397465 2.3718059 6513507
1.4647696 0.10750584 2.3739011 6513507
1.4399848 -1.0687023 2.4304299 6513507
1.4520557 -1.0629282 2.4040384 6513507
1.4408096 -1.02499 2.428607 6513507
1.4520633 -1.0250686 2.4040034 6513507
1.4407862 -0.97504443 2.4286296 6513507
1.452083 -0.97477102 2.4039383 6513507
1.4407988 -0.92505354 2.4285798 6513507
1.4520639 -0.9247207 2.403955 6513507
-1.8583516 -0.86958373 2.4299855 11711154
-1.846432 -0.86943567 2.403928 11711154
1.440778 -0.87510949 2.4286056 6513507
1.4520581 -0.87492037 2.4039457 6513507
-1.8582566 -0.82513767 2.4297559 11711154
-1.8464568 -0.8246305 2.4039605 11711154
1.440778 -0.82511842 2.4285822 6513507
1.4520477 -0.82487231 2.4039457 6513507
-1.8583657 -0.77514881 2.4299688 11711154
-1.8464851 -0.77484566 2.4039972 11711154
-0.78565776 -0.75880331 2.4281497 3425880
1.4407805 -0.7750836 2.4285514 6513507
1.4520464 -0.77482325 2.4039254 6513507
-1.8583941 -0.72482431 2.430007 11711154
-1.8465128 -0.72505915 2.4040332 11711154
-0.78554803 -0.72492588 2.4278951 3360088
1.4407723 -0.72504848 2.4285512 6513507
1.4520402 -0.72502434 2.4039159 6513507
-1.8583419 -0.67483199 2.4298666 11711154
-1.8465406 -0.67527121 2.4040694 11711154
-0.78561521 -0.67494172 2.4280181 3162710
1.440761 -0.67496842 2.4285531 6513507
1.4520383 -0.67497677 2.4038973 6513507
-1.8584404 -0.62501383 2.4300585 11711154
-1.8465681 -0.62548167 2.4041057 11711154
-0.78558975 -0.62462652 2.4279392 2768468
1.4407572 -0.62497985 2.4285331 6513507
1.4520279 -0.62493002 2.4038954 6513507
-1.8584886 -0.5750199 2.4301383 8947848
-1.8465677 -0.57518834 2.4040797 9934743
-0.7854718 -0.57464963 2.4276597 2702932
-0.52320433 -0.59762305 2.4276142 4329231
-0.47516215 -0.59755659 2.4280908 4329231
-0.42531568 -0.59748656 2.4280012 6171435
-0.37514377 -0.59741545 2.4274662 6566193
-0.34182572 -0.59736639 2.4261785 6566193
-0.2017487 -0.59717816 2.4308608 2039583
-0.17491898 -0.59713304 2.4265921 2039583
-0.12480632 -0.59706235 2.4262779 2039583
-0.075045675 -0.59699178 2.4257967 4737096
-0.0251243 -0.59692168 2.4257324 6447714
0.025120316 -0.59685081 2.4254448 6447714
0.075185515 -0.5967797 2.425019 6447714
0.12506698 -0.59670937 2.4247882 6513507
0.17494017 -0.59663916 2.4245572 4944537
0.21656968 -0.5965752 2.4213493 2376547
1.4407302 -0.5749917 2.42857 6513507
1.4520345 -0.57488441 2.4038582 6513507
-1.858456 -0.52502632 2.4300432 2039583
-1.8466243 -0.52490377 2.4041789 2039583
-0.78553957 -0.52501619 2.4277842 2440018
1.4407513 -0.52500433 2.4285021 6513507
1.4520164 -0.52483773 2.4038768 6513507
-1.8585049 -0.47503135 2.4301243 2039583
-1.846652 -0.47510996 2.4042149 2039583
-0.78551394 -0.47504607 2.4277055 1979983
1.4407526 -0.47497174 2.4284751 6513507
1.4520097 -0.47504088 2.4038651 6513507
-1.8585626 -0.42486688 2.4302278 2039583
-1.84668 -0.42531437 2.4042513 2039583
-0.78539628 -0.42508221 2.4274251 1848398
1.4407283 -0.42489353 2.4285069 6513507
1.4520038 -0.42524448 2.403857 6513507
-1.8585602 -0.37503588 2.4301965 2039583
-1.8467368 -0.37501889 2.4043505 2039583
-0.78546357 -0.37511972 2.4275486 1717069
1.4407402 -0.37495244 2.4284551 6513507
1.4519981 -0.37544847 2.403847 6513507
-1.858619 -0.32520342 2.4303014 2039583
-1.8467364 -0.3247216 2.4043245 2039583
-0.78543788 -0.32482395 2.4274702 1783376
1.4406991 -0.32501286 2.4285209 6513507
1.4519793 -0.32539999 2.403863 6513507
-1.8586164 -0.27503431 2.4302723 2039583
-1.8467641 -0.27492157 2.404361 2039583
-0.77598298 -0.28993124 2.4250376 1520205
-0.70436293 -0.28802651 2.4309368 4813727
-0.69502968 -0.28799355 2.4145386 5207968
-0.61521047 -0.28793499 2.4232221 1978693
-0.59431344 -0.28790686 2.4169862 1974047
-0.50616217 -0.28783804 2.4238825 2039842
-0.47499767 -0.28780523 2.4206305 3232372
-0.42478842 -0.28775957 2.420248 2174781
-0.37492946 -0.28771418 2.4198668 2039583
-0.34138438 -0.28768075 2.4176373 2039583
1.4407163 -0.2749809 2.4284594 6513507
1.4519818 -0.27510872 2.4038353 6513507
-1.8586249 -0.22503167 2.4302642 2039583
-1.8467917 -0.22512013 2.404397 2039583
1.4407198 -0.22504257 2.4284308 6513507
1.4519839 -0.22481903 2.4038062 6513507
-1.8587134 -0.17502767 2.4304338 2039583
-1.8467911 -0.17482495 2.4043708 2039583
1.4406745 -0.17505743 2.4285061 6513507
1.4519863 -0.17453092 2.4037771 6513507
-1.8587219 -0.12502012 2.4304259 2039583
-1.8468485 -0.12451786 2.4044697 2039583
1.4406877 -0.12502651 2.4284585 6513507
1.4519675 -0.12448298 2.4037962 6513507
-1.8586785 -0.075185135 2.4303074 2039583
-1.8468763 -0.0747118 2.4045064 2039583
1.4407389 -0.075183749 2.428319 6513507
1.4519616 -0.074689493 2.4037855 6513507
-1.8587877 -0.025173334 2.430521 2039583
-1.8469043 -0.024904268 2.4045429 2039583
1.4406562 -0.025152253 2.4284759 6513507
1.4519556 -0.024896407 2.403775 6513507
-1.8588157 0.025173839 2.4305584 2039583
-1.8469321 0.024904769 2.4045787 2039583
1.4406495 0.025152095 2.4284678 6513507
1.4519494 0.024896266 2.4037669 6513507
-1.8587632 0.075188689 2.4304175 2039583
-1.8469596 0.074715316 2.4046152 2039583
1.4407209 0.075182758 2.4282887 6513507
1.4519435 0.074688531 2.4037554 6513507
-1.8589729 0.1055577 2.4308846 6579300
-1.8320651 0.10924444 2.4107335 9079434
-1.7755951 0.11103731 2.4145911 9934743
-1.7252573 0.11108106 2.4155421 9934743
-1.67488 0.11112485 2.4164944 10132122
-1.6254523 0.11116781 2.4174285 10197915
-1.5749959 0.11121166 2.4183829 10197915
-1.5245003 0.11125554 2.4193368 10197915
-1.4749556 0.11129863 2.4202735 10197915
-1.4253732 0.11134174 2.4212108 10197915
-1.375752 0.11138486 2.4221487 3360606
-1.3250985 0.11142887 2.4231062 2440536
-1.2744052 0.11147294 2.4240637 3821160
-1.2246671 0.11151618 2.425004 1059398
-1.1748902 0.11155945 2.4259453 8882831
-1.1250747 0.11160275 2.4268868 1324631
-1.0752205 0.11164606 2.4278288 3360346
-1.0253276 0.11168944 2.428772 10000536
-0.97539592 0.11173283 2.4297156 10000536
-0.92542541 0.11177628 2.4306602 10000536
-0.87541598 0.11181974 2.4316056 7635859
-0.82536775 0.11186326 2.4325516 1324379
-0.78129381 0.11190156 2.4333847 1191753
-0.70509446 0.1119678 2.4348252 2052745
-0.6980716 0.11197391 2.434958 1656193
-0.61674917 0.11204458 2.4364946 5924209
-0.59665459 0.11206204 2.4368742 10000536
-0.50715482 0.11213984 2.4385662 8621206
-0.47494343 0.11216784 2.4391749 1522788
-0.42559037 0.11221074 2.4401081 5003882
-0.37519145 0.11225455 2.4410601 10197915
-0.34144002 0.11229172 2.4364636 10197915
-0.20170599 0.11242624 2.4303648 1125191
-0.19806886 0.11247126 2.4024851 993349
-0.11905548 0.11250777 2.4254658 10197915
-0.074860774 0.11254766 2.4253278 2508652
-0.025132068 0.11259025 2.4266877 8488330
0.0010055504 0.11261293 2.4271767 10132122
0.088563867 0.11269225 2.4267175 10000536
0.12472727 0.11275199 2.4084821 10000536
0.17468481 0.11279545 2.40941 2642822
0.21767834 0.11283284 2.4102087 1125710
0.33079949 0.11293123 2.4123101 10000536
0.37088981 0.11296608 2.4130549 10000536
0.4762446 0.11305771 2.4150124 10000536
0.52546865 0.11310052 2.4159265 10066329
0.57573569 0.11314423 2.4168606 10197915
0.62503475 0.11318711 2.4177766 10197915
0.65624195 0.11321425 2.4183562 10197915
0.79333448 0.11333347 2.4209027 10197915
0.82563502 0.11336156 2.4215026 10197915
0.8751238 0.11340461 2.4224222 10197915
0.92465049 0.11344769 2.4233422 10197915
0.97522652 0.11349166 2.4242823 10197915
1.024829 0.11353481 2.4252036 10197915
1.0744694 0.11357798 2.4261255 10197915
1.1251616 0.11362205 2.4270675 8355711
1.1748782 0.11366531 2.4279912 6513507
1.2246327 0.11370856 2.428915 6513507
1.2754418 0.11375275 2.4298589 6513507
1.3252729 0.11379611 2.4307849 6513507
1.3751421 0.11383948 2.4317114 6513507
1.4383819 0.10773413 2.428791 6513507
1.4519397 0.10655539 2.4037495 6513507
1.4145681 -1.1061187 2.4860077 6513507
1.4197731 -1.0748563 2.4746153 6513507
1.4198371 -1.0249811 2.4744549 6513507
1.4198167 -0.97495025 2.4744704 6513507
1.4198184 -0.92491966 2.4744358 6513507
-1.8781503 -0.869605 2.4732645 11711154
1.4198015 -0.87505406 2.4744575 6513507
-1.8782113 -0.82496953 2.4733763 11711154
1.4197943 -0.82510543 2.4744501 6513507
-1.8781122 -0.77492774 2.4731369 11711154
-0.80990952 -0.75923002 2.4810677 2834261
-0.79948682 -0.75874871 2.4583249 3031638
1.4198072 -0.7749939 2.4744003 6513507
-1.8781413 -0.72515953 2.4731746 11711154
-0.81017512 -0.72527134 2.4816308 2768469
-0.79946947 -0.72512406 2.4582717 2965590
1.4197855 -0.7250064 2.4744294 6513507
-1.8782966 -0.67511553 2.4734886 11711154
-0.8100028 -0.67489022 2.4812326 2637397
-0.79944384 -0.67519915 2.4581923 2834261
1.4197776 -0.67505968 2.4744287 6513507
-1.8782532 -0.62491387 2.4733698 11711154
-0.81004971 -0.62500429 2.481312 2440275
-0.79941791 -0.62527734 2.458113 2702676
1.4197979 -0.62503105 2.4743567 6513507
-1.878298 -0.57500607 2.4734449 7237230
-0.80995101 -0.57512504 2.4810734 2374483
-0.79939246 -0.57535911 2.4580345 2505812
-0.55322951 -0.59775692 2.4805956 4329231
-0.52491462 -0.59770703 2.4747293 4329231
-0.47523883 -0.59763658 2.4742289 4329231
-0.42382437 -0.59756821 2.476373 6500400
-0.37489447 -0.59750271 2.4780729 6566193
-0.34523392 -0.59745568 2.4749696 6566193
-0.20378725 -0.59726435 2.4789968 2039583
-0.17495839 -0.59722036 2.4770188 2039583
-0.12483488 -0.59714955 2.4766386 2039583
-0.074720457 -0.5970788 2.4763145 4934475
-0.024794115 -0.59700805 2.4759641 6447714
0.024962882 -0.5969376 2.475585 6447714
0.07503321 -0.5968675 2.4756124 6447714
0.12527165 -0.59679621 2.4751463 6513507
0.17498575 -0.59672588 2.474761 5141142
0.206892 -0.59666228 2.4638128 2709381
1.4197735 -0.5750035 2.4743893 6513507
-1.8782732 -0.52509606 2.4733639 2039583
-0.81007051 -0.52474636 2.4813113 2111312
-0.79936689 -0.52544385 2.4579561 2308690
1.4197847 -0.52501708 2.4743397 6513507
-1.8783376 -0.47503716 2.4734807 2039583
-0.80997157 -0.47487363 2.4810722 1848398
-0.79934114 -0.47553173 2.4578767 1979727
1.4197443 -0.47498944 2.4744012 6513507
-1.8783666 -0.42512602 2.4735169 2039583
-0.80987275 -0.42501363 2.4808338 1717070
-0.79931486 -0.42460439 2.4577966 1716556
1.4197395 -0.42500418 2.4743834 6513507
-1.8784318 -0.37506449 2.4736354 2039583
-0.80991954 -0.3751485 2.4809129 1717326
-0.79928917 -0.37469876 2.4577169 1651276
1.4197552 -0.37497842 2.4743254 6513507
-1.878423 -0.32500145 2.473592 2039583
-0.80989295 -0.32477501 2.4808319 1783632
-0.79926318 -0.32479629 2.4576373 1849168
-0.11965945 -0.30881047 2.4748073 2039583
-0.082431786 -0.30877 2.4917946 2373451
1.4197388 -0.32499316 2.474339 6513507
-1.8784517 -0.27508575 2.4736316 2039583
-0.80806863 -0.29080868 2.484437 1717839
-0.7886411 -0.28890482 2.4706442 1454156
-0.7146396 -0.28810161 2.4748671 5010847
-0.62361223 -0.28801918 2.4744573 2174782
-0.59934413 -0.2879701 2.4561708 2039583
-0.51148921 -0.28792012 2.4754415 2834258
-0.47502476 -0.28788325 2.4727511 3099755
-0.42509979 -0.28783837 2.472604 1910835
-0.37519062 -0.28779253 2.4719722 2039583
-0.34492534 -0.28776181 2.4696019 2039583
-0.12206573 -0.27595893 2.4738374 2039583
-0.083002985 -0.29353032 2.4916556 3430782
1.4197414 -0.27505052 2.474309 6513507
-1.8784442 -0.22501916 2.4735889 2039583
-0.12279692 -0.22505139 2.4735336 2039583
1.4197732 -0.22498371 2.4742219 6513507
-1.8785268 -0.17509903 2.4737442 2039583
-0.12310839 -0.17485467 2.4734926 2039583
1.4196949 -0.17504118 2.4743736 6513507
-1.8785374 -0.12517729 2.4737434 2039583
-0.12296057 -0.12502606 2.4736493 2039583
1.4197206 -0.12509964 2.4742944 6513507
-1.8786371 -0.074959137 2.473938 2039583
-0.12296513 -0.07481344 2.4737465 2039583
1.4196593 -0.074910097 2.4744065 6513507
-1.8785391 -0.024895081 2.4736986 2039583
-0.12340128 -0.024232047 2.4736404 2039583
1.4197655 -0.024893658 2.4741492 6513507
-1.8785681 0.024895579 2.4737358 2039583
-0.12397429 0.024593692 2.4734757 2039583
1.419759 0.024893515 2.4741385 6513507
-1.8787227 0.074962698 2.4740489 2039583
-0.12397892 0.074808381 2.473567 6645093
1.4196374 0.074909106 2.4743729 6513507
-1.8758336 0.10736258 2.4749091 6908265
-1.8247504 0.11093027 2.4565251 9934743
-1.7745621 0.11097386 2.4574904 9934743
-1.7243346 0.1110175 2.4584565 9934743
-1.6750731 0.1110603 2.4594042 9934743
-1.6257732 0.11110312 2.4603527 10132122
-1.5754287 0.11114686 2.4613216 10197915
-1.5250441 0.11119062 2.4622903 10197915
-1.4746197 0.11123443 2.4632604 10197915
-1.4251658 0.11127739 2.4642117 6976898
-1.3756732 0.11132037 2.4651639 2506072
-1.3251312 0.11136431 2.4661362 1190470
-1.2745492 0.11140823 2.467109 3624808
-1.2249405 0.11145132 2.4680634 3688797
-1.175293 0.11149444 2.4690189 6584201
-1.1245928 0.1115385 2.4699938 1059655
-1.0748681 0.11158168 2.4709504 6779258
-1.025104 0.11162492 2.4719079 10000536
-0.97530222 0.11166818 2.4728658 10000536
-0.92546135 0.11171149 2.4738245 10000536
-0.87456346 0.11175568 2.4748037 5073804
-0.82464474 0.11179905 2.475764 1059656
-0.78794605 0.11183093 2.47647 1191753
-0.71550477 0.11189388 2.4778636 1920902
-0.62458134 0.11197283 2.4796128 4477795
-0.51202875 0.11207063 2.4817781 6387857
-0.47514915 0.11210267 2.4824872 1324377
-0.42491955 0.11214631 2.4834538 6450295
-0.37465119 0.11218995 2.4844205 10197915
-0.34591025 0.11221495 2.4849739 10197915
-0.20612171 0.11233634 2.4876621 1059398
-0.1231956 0.1067993 2.4742343 10066586
-0.074277915 0.1124509 2.4901989 2114151
-0.024767725 0.1124939 2.4911511 8817038
0.0010322595 0.11251629 2.491647 10197915
0.090727195 0.11260077 2.4890227 10132122
0.12494908 0.1126566 2.4722729 10066329
0.17520428 0.11270028 2.4732306 3234441
0.2209172 0.11273923 2.4746339 1191764
0.3347947 0.11284235 2.47402 10000536
0.37453926 0.11287349 2.4770322 10000536
0.40279469 0.11286534 2.4993768 10000536
0.48049837 0.11299831 2.4572344 10000536
0.5254727 0.11303739 2.4580846 10197915
0.57457054 0.11308008 2.4590127 10197915
0.62472975 0.11312368 2.4599605 10197915
0.66262919 0.11315661 2.4606769 10197915
0.82472581 0.1132975 2.4637406 10197915
0.87507814 0.11334129 2.4646921 10197915
0.92546892 0.11338508 2.4656448 10197915
0.97486943 0.11342803 2.4665787 10197915
1.0243073 0.11347098 2.4675131 10197915
1.0748138 0.11351488 2.4684675 9539985
1.1253593 0.11355882 2.4694231 6776679
1.1749114 0.11360189 2.4703598 6513507
1.2245008 0.11364499 2.471297 6513507
1.2751623 0.11368904 2.4722545 6513507
1.325863 0.11373311 2.473213 6513507
1.3755673 0.1137763 2.4741523 6513507
1.4192955 0.10728133 2.4740379 6513507
1.3923266 -1.117022 2.5346367 6513507
1.4038991 -1.1112953 2.509335 6513507
1.3928382 -1.0750072 2.5334985 6513507
1.4041514 -1.0749148 2.5087647 6513507
1.3928236 -1.0250412 2.5335045 6513507
1.4041674 -1.0250219 2.5087078 6513507
1.3928134 -0.97500706 2.5335028 6513507
1.4041404 -0.97512966 2.508743 6513507
1.3928062 -0.9249714 2.533499 6513507
1.4041513 -0.92512244 2.5086961 6513507
-1.9051474 -0.86968923 2.5322824 11711154
-1.8938613 -0.86953259 2.5076101 11711154
1.3928176 -0.87507844 2.5334489 6513507
1.4041289 -0.87511557 2.5087233 6513507
-1.9051218 -0.82538211 2.5322034 11711154
-1.8938866 -0.82487231 2.5076439 11711154
1.3927984 -0.82504374 2.5334671 6513507
1.4041311 -0.82510805 2.5086925 6513507
-1.9052018 -0.77529532 2.5323541 11711154
-1.8939158 -0.7750172 2.5076816 11711154
-0.82801044 -0.758982 2.5205641 2374484
1.3927983 -0.77493989 2.533447 6513507
1.404117 -0.77510238 2.5087025 6513507
-1.9052311 -0.72494823 2.5323932 11711154
-1.893944 -0.72516096 2.5077193 11711154
-0.82827657 -0.72484708 2.5211291 2308691
1.3927876 -0.72497737 2.5334432 6513507
1.4041065 -0.72509599 2.5087013 6513507
-1.90526 -0.67459989 2.5324311 11711154
-1.8939726 -0.67530316 2.5077574 11711154
-0.82824969 -0.67469049 2.5210478 2242898
1.3927774 -0.67494494 2.5334461 6513507
1.4041184 -0.67497516 2.508652 6513507
-1.9052191 -0.62477189 2.5323179 11711154
-1.8940012 -0.6254437 2.5077949 11711154
-0.82822287 -0.62453723 2.5209665 2112083
1.3927701 -0.62491196 2.5334401 6513507
1.4040999 -0.62497091 2.5086713 6513507
-1.9053169 -0.57495028 2.5325072 5000268
-1.8939861 -0.57523453 2.5077381 5987163
-0.82809216 -0.57473511 2.5206587 2046290
-0.55881941 -0.59784293 2.5258036 4329231
-0.52515763 -0.59779024 2.5226109 4329231
-0.47476271 -0.59771937 2.522403 4723989
-0.42587486 -0.59765345 2.5239661 6566193
-0.37487897 -0.59758586 2.5261536 6566193
-0.34815976 -0.59753531 2.5186357 6566193
-0.20570853 -0.59734869 2.5262096 2039583
-0.17490254 -0.59730345 2.5250344 2039583
-0.12488515 -0.5972327 2.5246615 2039583
-0.075093262 -0.59716231 2.5242882 5000268
-0.025097791 -0.59709197 2.5241396 6447714
0.025093829 -0.5970211 2.5238395 6447714
0.075065598 -0.59695023 2.5233922 6447714
0.12481041 -0.59688002 2.5231698 6513507
0.16834329 -0.59682035 2.5239077 5074058
1.3927782 -0.57502055 2.5333974 6513507
1.4041106 -0.57496583 2.5086222 6513507
-1.9053634 -0.52485853 2.532584 2039583
-1.8940585 -0.52502978 2.5078712 2039583
-0.82816994 -0.52494121 2.5208042 1782863
1.3927536 -0.52505982 2.5334275 6513507
1.4040878 -0.52496213 2.5086489 6513507
-1.9053233 -0.47502798 2.5324712 2039583
-1.8940874 -0.47516578 2.5079088 2039583
-0.82814324 -0.47479773 2.5207224 1585485
1.3927507 -0.47495794 2.5334063 6513507
1.4040812 -0.47495797 2.5086408 6513507
-1.905404 -0.42493734 2.5326223 2039583
-1.8941163 -0.42495415 2.5079472 2039583
-0.82811689 -0.4250055 2.520643 1520205
1.3927654 -0.42492726 2.53335 6513507
1.4040763 -0.42495421 2.5086288 6513507
-1.9054154 -0.37483963 2.5326231 2039583
-1.8941449 -0.37474096 2.5079856 2039583
-0.82798588 -0.37557229 2.5203347 1586255
1.3927382 -0.37496832 2.5333941 6513507
1.4040711 -0.37506655 2.5086184 6513507
-1.9055129 -0.32500768 2.5328112 2039583
-1.8941737 -0.32487237 2.5080233 2039583
-0.82806337 -0.32578313 2.5204799 1652304
-0.056930427 -0.30890414 2.5034301 2240059
-0.025042396 -0.30882129 2.5179803 1908770
0.0010481009 -0.3091898 2.5298848 6447714
1.3927275 -0.32500756 2.5333939 6513507
1.4040685 -0.32506397 2.5085995 6513507
-1.9054389 -0.27517262 2.5326245 2039583
-1.8942019 -0.27500248 2.5080612 2039583
-0.82007349 -0.29001632 2.5296388 1585998
-0.79484177 -0.2882438 2.5217476 1190472
-0.73047721 -0.28819805 2.5297143 4945311
-0.65471172 -0.28813836 2.5353217 3622743
-0.63259071 -0.28810662 2.5273793 1977145
-0.51715565 -0.28800562 2.5291531 3559788
-0.47470877 -0.28796551 2.5276721 2441049
-0.42472383 -0.2879197 2.5270104 1843753
-0.3747642 -0.28787458 2.5268745 2039583
-0.34755242 -0.28783116 2.5142429 2039583
-0.10428501 -0.28772691 2.5269949 2175554
-0.068465605 -0.29015109 2.5170748 3362151
-0.025719151 -0.2922591 2.5219491 1909029
0.0010488966 -0.29263741 2.5318048 6447714
1.3927619 -0.27504826 2.533294 6513507
1.4040667 -0.27494642 2.5085778 6513507
-1.9055191 -0.22507232 2.5327766 2039583
-1.8942305 -0.22513101 2.5080993 2039583
1.3927139 -0.22509091 2.5333712 6513507
1.4040657 -0.22482997 2.5085578 6513507
-1.9055653 -0.1749704 2.5328515 2039583
-1.8942156 -0.17491554 2.5080423 2039583
1.3926998 -0.17506047 2.5333781 6513507
1.4040639 -0.17471464 2.5085406 6513507
-1.9055598 -0.12513092 2.532815 2039583
-1.8942884 -0.12469276 2.5081749 2039583
1.3927193 -0.12510253 2.5333173 6513507
1.4040408 -0.12471231 2.5085649 6513507
-1.9055537 -0.075294398 2.5327778 2039583
-1.8943166 -0.074816756 2.508213 2039583
1.3927573 -0.075290099 2.5332143 6513507
1.4040351 -0.07482706 2.5085561 6513507
-1.9056343 -0.025184633 2.5329292 2039583
-1.8943452 -0.024939261 2.508251 2039583
1.3926929 -0.025188709 2.5333295 6513507
1.4040294 -0.024942271 2.5085468 6513507
-1.9056641 0.025185145 2.532968 2039583
-1.894374 0.024939766 2.5082881 2039583
1.3926859 0.025188554 2.5333185 6513507
1.4040239 0.024942124 2.5085332 6513507
-1.9056407 0.075297944 2.5328934 2039583
-1.8944029 0.074820288 2.5083272 2039583
1.3927379 0.075289093 2.5331802 6513507
1.404017 0.074826099 2.5085242 6513507
-1.905861 0.10667433 2.5358152 5066061
-1.8780044 0.10903048 2.5246236 8158332
-1.8250163 0.11082964 2.5234888 9934743
-1.7750125 0.11087237 2.5249481 9934743
-1.7254705 0.11091537 2.5259271 9934743
-1.6792693 0.11096641 2.5195606 9934743
-1.6250833 0.11103713 2.5048513 9934743
-1.5748531 0.11108072 2.5058355 10066329
-1.5245832 0.11112434 2.5068195 10197915
-1.4753007 0.11116717 2.5077851 10197915
-1.4249523 0.11121085 2.5087709 2571864
-1.3745646 0.11125463 2.5097578 2177623
-1.3251666 0.11129748 2.5107253 3952745
-1.2757307 0.1113404 2.5116932 1059655
-1.2252251 0.11138426 2.5126827 7501952
-1.1746801 0.11142816 2.5136726 2705254
-1.1251279 0.11147115 2.5146427 1190983
-1.0755373 0.11151422 2.515614 10000536
-1.0248741 0.1115582 2.5166063 10000536
-0.97417098 0.11160222 2.5175996 10000536
-0.92446369 0.11164537 2.518573 10000536
-0.87471801 0.11168856 2.5195472 2247029
-0.82493395 0.11173178 2.5205224 1191240
-0.79483891 0.11175791 2.5211117 1191240
-0.72836894 0.11181562 2.5224135 1920902
-0.65350819 0.1118806 2.5238795 2177102
-0.63269722 0.11189866 2.5242867 4806503
-0.51707906 0.11199906 2.5265515 5337232
-0.47536302 0.11203527 2.5273685 1126222
-0.42526916 0.11207876 2.5283496 7765123
-0.37513649 0.1121223 2.5293314 10132122
-0.34901199 0.11214499 2.5298438 10197915
-0.20984253 0.11226577 2.5325682 1059398
-0.10500632 0.11235681 2.5346222 8095894
-0.07562013 0.11238233 2.535198 2048102
-0.025215425 0.11242607 2.5361843 8817038
0.0010509238 0.11244885 2.5366983 10197915
0.091494471 0.1125274 2.5384705 10197915
0.12518133 0.11255664 2.5391304 10197915
0.17468892 0.11259962 2.5400999 4154508
0.22423406 0.11264264 2.5410702 1258073
0.33928153 0.11274252 2.5433235 10000536
0.37521145 0.11277372 2.5440271 10000536
0.40692797 0.11280125 2.5446482 10000536
0.48578632 0.11290879 2.5201046 10197915
0.52495831 0.1129376 2.5243433 10197915
0.57484049 0.11298165 2.5248303 10197915
0.6247797 0.11302429 2.5262806 10197915
0.66700989 0.11306519 2.5242698 10197915
0.83214647 0.1132383 2.5076356 10197915
0.87502927 0.11327557 2.5084608 10197915
0.92526847 0.11331922 2.5094273 10197915
0.97554636 0.11336288 2.5103948 10197915
1.0258631 0.11340658 2.5113623 10066329
1.0751688 0.11344942 2.512311 7631988
1.1245123 0.11349228 2.5132601 6513507
1.1749439 0.11353609 2.5142305 6513507
1.2254146 0.11357995 2.5152011 6513507
1.2748712 0.1136229 2.5161524 6513507
1.3243657 0.1136659 2.5171049 6513507
1.3888935 0.1081714 2.5305955 6513507
1.4040139 0.10704264 2.5085177 6513507
-2.0172839 -1.1537319 2.586973 11711154
-1.9938943 -1.1560887 2.597667 11711154
1.366745 -1.1545446 2.5905759 6513507
-2.0234442 -1.1251005 2.584209 11711154
-1.9941766 -1.1248976 2.5975983 11711154
1.3735981 -1.1241895 2.5755823 6513507
-2.0235121 -1.0750958 2.5842712 11711154
-1.9941521 -1.0749623 2.5977046 11711154
1.3739254 -1.0750302 2.5748436 6513507
-2.0200543 -1.0279714 2.5859454 11711154
-1.9942065 -1.0250231 2.5977747 11711154
1.373946 -1.0249346 2.5747781 6513507
-2.0074575 -0.98905283 2.5917819 11711154
-1.994617 -0.98075885 2.5976717 11711154
1.3739113 -0.97497267 2.5748281 6513507
1.3739182 -0.92505568 2.5747886 6513507
-1.9233047 -0.86964113 2.5719743 11711154
1.3739156 -0.87513995 2.5747681 6513507
-1.9234223 -0.82489747 2.5722094 11711154
1.3738924 -0.8250894 2.5747948 6513507
-1.9233084 -0.7749871 2.5719359 11711154
-0.85446149 -0.75906968 2.5782809 1848912
-0.84320951 -0.75857127 2.5537288 2177363
1.3738933 -0.7749964 2.5747716 6513507
-1.9233174 -0.72505552 2.5719326 11711154
-0.85467005 -0.72539133 2.5787206 1717327
-0.84319115 -0.72470015 2.5536728 1980241
1.3739129 -0.72499257 2.5747058 6513507
-1.9235923 -0.67499357 2.5725076 11711154
-0.85464221 -0.67515779 2.5786369 1849169
-0.84316415 -0.67495459 2.5535913 1980497
1.3738832 -0.67507768 2.5747468 6513507
-1.9233757 -0.62506771 2.5720084 11711154
-0.85461468 -0.62492758 2.5785537 1849426
-0.84313709 -0.62521219 2.5535095 1980755
1.3738809 -0.62507343 2.5747325 6513507
-1.9234861 -0.5751431 2.5722256 3487029
-0.85450512 -0.57523072 2.5782917 1783633
-0.84311002 -0.57547301 2.5534277 1980498
-0.56397927 -0.59793395 2.5741696 4329231
-0.52497649 -0.59787595 2.5722747 4329231
-0.4750492 -0.59780598 2.5722857 5118747
-0.42483008 -0.59774256 2.5762293 6566193
-0.37705711 -0.59767425 2.5754738 6505283
-0.20790464 -0.59743905 2.5766404 2039583
-0.17512831 -0.59739 2.5748756 2039583
-0.12497489 -0.5973193 2.5746379 2039583
-0.074832097 -0.59724879 2.5745268 5197647
-0.02488886 -0.59717774 2.5738614 6447714
0.024884954 -0.59710741 2.5735586 6447714
0.074804612 -0.59703755 2.5736163 6447714
0.12490002 -0.59696639 2.5731165 6513507
0.15697581 -0.59691525 2.5695837 6185831
1.3738793 -0.57498211 2.5747149 6513507
-1.9235352 -0.52521884 2.5723095 2039583
-0.85464185 -0.52501518 2.5785668 1454414
-0.84308249 -0.52467877 2.553344 1520206
1.3738706 -0.52493477 2.5747106 6513507
-1.9235467 -0.47513974 2.5723054 2039583
-0.85444975 -0.4747934 2.578125 1520462
-0.84305555 -0.47494602 2.553262 1520463
1.3738507 -0.47493333 2.5747283 6513507
-1.9235537 -0.42505985 2.5722992 2039583
-0.8545047 -0.42511085 2.5782216 1454414
-0.84302849 -0.42521647 2.5531805 1454157
1.3738722 -0.42497572 2.5746613 6513507
-1.9236434 -0.37512976 2.5724709 2039583
-0.85447687 -0.37489685 2.5781381 1454927
-0.84300083 -0.37443218 2.5530968 1520463
1.3738402 -0.37501788 2.5747049 6513507
-1.9236115 -0.32519796 2.5723763 2039583
-0.85444915 -0.32468596 2.578054 1520719
-0.84297353 -0.32470885 2.5530143 1586511
0.091613315 -0.30891407 2.5712085 6447714
0.12541589 -0.30885208 2.586633 6513507
0.15290701 -0.30796719 2.5991781 6513507
1.373849 -0.32506254 2.5746577 6513507
-1.9236624 -0.27511367 2.5724618 2039583
-0.8545599 -0.27261797 2.587219 1388877
-0.83794451 -0.27256274 2.5913544 1652047
-0.75237584 -0.28830355 2.5869932 3631515
-0.74284214 -0.28827798 2.5756285 5142432
-0.66034544 -0.28820756 2.5780964 3162709
-0.63870072 -0.28818363 2.575012 1778734
-0.52178985 -0.28808007 2.5759029 3231597
-0.47472593 -0.28803638 2.5750594 2308433
-0.42505446 -0.28799099 2.5744505 1974306
-0.37836033 -0.28794739 2.5733104 2039583
-0.10552537 -0.28779235 2.5728776 2308173
-0.075131319 -0.28775826 2.5727751 3560305
-0.025049172 -0.28770086 2.571857 1909028
0.0010654649 -0.28767154 2.5717974 6447714
0.091660954 -0.29308683 2.5725634 6447714
0.12480674 -0.29272008 2.5883079 6513507
0.15291248 -0.29290226 2.5992718 6513507
1.373848 -0.27501798 2.5746379 6513507
-1.9237118 -0.22502683 2.5725434 2039583
-0.85473067 -0.22499463 2.5885167 1520718
-0.83975184 -0.22472413 2.5953817 1586510
1.3738412 -0.22492807 2.5746295 6513507
-1.9237193 -0.1750924 2.5725379 2039583
-0.85472697 -0.1748063 2.5886142 1586510
-0.83977854 -0.17526877 2.595464 1520718
1.3738297 -0.17501839 2.5746331 6513507
-1.9236672 -0.12515372 2.5723982 2039583
-0.85475391 -0.12547834 2.5886965 1454668
-0.83969694 -0.1252145 2.595598 1388876
1.3738657 -0.12510699 2.574532 6513507
-1.9239411 -0.075059734 2.5729728 2039583
-0.85478145 -0.075074889 2.5887794 1191242
-0.83994156 -0.074696459 2.5955811 1191241
1.3737028 -0.074972369 2.574867 6513507
-1.923725 -0.024977362 2.5724757 2039583
-0.85480875 -0.024668176 2.5888631 1191498
-0.8404085 -0.025298923 2.5954628 1125705
1.3738934 -0.024938876 2.5744276 6513507
-1.9237541 0.024977872 2.572515 2039583
-0.85483599 0.024669208 2.5889449 1191241
-0.84082335 0.024730409 2.595366 1059655
1.3738886 0.024938745 2.5744152 6513507
-1.924028 0.075063273 2.5730891 2039583
-0.85486352 0.075082392 2.5890284 1125448
-0.84094989 0.074740663 2.5954044 1059398
1.3736849 0.074971326 2.574837 6513507
-1.9213105 0.10705814 2.5788221 3947580
-1.8751007 0.1106794 2.5937443 9539985
-1.8253075 0.11072252 2.5947552 10000536
-1.7744154 0.11076663 2.5957887 10000536
-1.724545 0.11080993 2.5968034 10000536
-1.6706413 0.11087926 2.5828645 9934743
-1.6250561 0.11093286 2.5743904 9934743
-1.5787512 0.11098053 2.5703073 9934743
-1.5251484 0.1110546 2.5529649 10000536
-1.4749588 0.11109816 2.5539663 6516862
-1.4247295 0.11114173 2.5549681 2308951
-1.3744611 0.11118535 2.5559709 993092
-1.3241531 0.111229 2.5569742 4084844
-1.274855 0.11127178 2.5579574 2571603
-1.2255187 0.11131457 2.5589421 7964566
-1.1750939 0.11135834 2.559947 1059912
-1.1246291 0.11140212 2.5609534 5004138
-1.0751778 0.11144503 2.5619397 10000536
-1.0256877 0.11148796 2.562927 10000536
-0.97510546 0.11153186 2.5639365 10000536
-0.9244833 0.11157575 2.5649455 7898515
-0.86446232 0.10879126 2.5779898 1257811
-0.83670026 0.10752734 2.5874639 1191753
-0.74170321 0.11173435 2.5685918 1986439
-0.65912282 0.11180601 2.5702386 1782346
-0.63793111 0.1118244 2.5706613 6581624
-0.52125239 0.11192564 2.5729885 4416390
-0.47452185 0.11196616 2.5739205 1059654
-0.42456779 0.1120095 2.5749171 9211536
-0.37670365 0.11205105 2.5758715 10000536
-0.21369991 0.11219245 2.5791223 1059398
-0.10586963 0.11228605 2.5812738 6913427
-0.074873589 0.11231292 2.5818923 1850722
-0.024609875 0.11235653 2.5828943 9146001
0.0010702742 0.11237878 2.5834057 10197915
0.092108496 0.11245781 2.5852225 10197915
0.12534381 0.11248663 2.5858853 10197915
0.17469014 0.11252944 2.586869 4614542
0.22514816 0.11257323 2.5878756 1258590
0.25200179 0.11259655 2.5884118 1125704
0.34231719 0.11267489 2.5902126 10197915
0.37460461 0.11270291 2.590857 10132122
0.41013637 0.11273374 2.5915656 10132122
0.49312237 0.11280572 2.5932205 10197915
0.5254848 0.11283382 2.5938661 10197915
0.57513624 0.11287689 2.5948565 10197915
0.62482566 0.11292 2.5958478 10197915
0.67887026 0.11298672 2.583719 10197915
0.70592088 0.11299037 2.5974653 10197915
0.83983773 0.11317708 2.5531266 10197915
0.87497985 0.11320761 2.5538154 10197915
0.9250617 0.11325109 2.554796 10197915
0.97518218 0.1132946 2.5557771 10197915
1.0253413 0.11333815 2.5567601 8882055
1.0755385 0.11338173 2.5577428 6513507
1.1247053 0.1134244 2.5587056 6513507
1.1749793 0.11346807 2.5596905 6513507
1.2252918 0.11351174 2.5606763 6513507
1.2745713 0.11355453 2.5616412 6513507
1.3249609 0.11359826 2.5626278 6513507
1.3732673 0.10741246 2.5732932 6513507
-1.967775 -1.1588007 2.6096098 11711154
-1.9231219 -1.1634067 2.6300285 11711154
-1.8892872 -1.166764 2.6454995 11711154
1.3443743 -1.1655188 2.6394861 6513507
1.3553463 -1.1600249 2.6154974 6513507
-1.9693608 -1.1249077 2.6089461 11711154
-1.9247845 -1.1250029 2.6293392 11711154
-1.8894628 -1.1248535 2.6454992 11711154
1.3446798 -1.1250418 2.638797 6513507
1.3559388 -1.1248081 2.6141868 6513507
-1.9693754 -1.0748566 2.6090345 11711154
-1.9248428 -1.0749593 2.6294107 11711154
-1.8895471 -1.0749242 2.645556 11711154
1.3446656 -1.074968 2.6388049 6513507
1.355927 -1.0748942 2.6141872 6513507
-1.9694098 -1.0249383 2.6091211 11711154
-1.9248893 -1.0249834 2.6294839 11711154
-1.8895807 -1.0250832 2.6456354 11711154
1.3446724 -1.0250031 2.6387708 6513507
1.3559558 -1.0249811 2.6140993 6513507
-1.9700904 -0.97479707 2.6088998 11711154
-1.924945 -0.9750393 2.6295538 11711154
-1.8896645 -0.9751491 2.6456923 11711154
1.3446598 -0.97503936 2.6387734 6513507
1.355916 -0.97506893 2.6141641 6513507
-1.962772 -0.93212825 2.6123292 11711154
-1.9250264 -0.9250589 2.6296124 11711154
-1.8896891 -0.92502719 2.645777 11711154
1.3446312 -0.92496568 2.6388097 6513507
1.3559402 -0.92506516 2.6140902 6513507
-1.9510316 -0.89905787 2.6177654 11711154
-1.9243767 -0.87487113 2.628947 11711154
-1.8902454 -0.87542945 2.6456172 11711154
1.3446546 -0.8750025 2.6387365 6513507
1.3559053 -0.8750639 2.6141448 6513507
-1.9243952 -0.82498914 2.6287808 11711154
-1.8906683 -0.82489979 2.6455195 11711154
1.3446304 -0.82493049 2.6387665 6513507
1.3559111 -0.82515162 2.6141055 6513507
-1.9244142 -0.7750172 2.6288691 11711154
-1.8906463 -0.77500403 2.6456254 11711154
-0.87056458 -0.75935161 2.6134188 1651791
1.3446535 -0.77485853 2.6386962 6513507
1.3558944 -0.7751503 2.6141186 6513507
-1.9244586 -0.72504246 2.6289349 11711154
-1.890704 -0.7250036 2.645694 11711154
-0.87022799 -0.72471368 2.6126685 1651535
1.344614 -0.72489631 2.6387582 6513507
1.3558946 -0.72505867 2.614094 6513507
-1.9245186 -0.67506534 2.6290019 11711154
-1.8907564 -0.67500085 2.645766 11711154
-0.87028402 -0.67435205 2.6127677 1783633
0.26154318 -0.65231955 2.6480916 3622744
1.3446262 -0.67482525 2.6387064 6513507
1.3559079 -0.67487812 2.614044 6513507
-1.9245889 -0.62501574 2.629029 11447982
-1.8908464 -0.62509537 2.6458199 11645361
-0.87025595 -0.62453991 2.6126831 1718097
0.24768819 -0.62470251 2.6454277 2374483
0.25763324 -0.62508035 2.6463592 3294295
1.344622 -0.62486285 2.63869 6513507
1.3558772 -0.62487823 2.6140888 6513507
-1.9246668 -0.57499892 2.6290956 2039583
-1.8909574 -0.57518899 2.6458645 2039583
-0.87022805 -0.57473081 2.6125994 1652304
-0.56974167 -0.59803158 2.6258581 4329231
-0.52494466 -0.59796607 2.6243558 4329231
-0.47505698 -0.59789568 2.6240807 5513505
-0.42511779 -0.59783316 2.6283078 6502970
-0.38061497 -0.5977692 2.6275108 6447200
-0.21008316 -0.59753114 2.6280768 2039583
-0.17500018 -0.59747964 2.6268356 2039583
-0.12492458 -0.59740907 2.6265211 2039583
-0.075077876 -0.59733891 2.6263807 5329233
-0.025023324 -0.59726828 2.62607 6447714
0.025019377 -0.59719765 2.6257596 6447714
0.075050227 -0.59712684 2.6254485 6447714
0.1207801 -0.59705806 2.6227798 6513507
0.24768412 -0.57537454 2.6453846 2242898
0.25758508 -0.57529831 2.6464322 3097174
1.3446025 -0.57501262 2.6387112 6513507
1.3558805 -0.57496816 2.6140609 6513507
-1.92471 -0.52504963 2.6291854 2039583
-1.8909297 -0.52507722 2.6459725 2039583
-0.87020022 -0.52492487 2.6125159 1388621
0.24768004 -0.52495199 2.6453407 2111826
0.25766701 -0.52519464 2.6465652 2768468
1.3445998 -0.52505249 2.6386948 6513507
1.3558645 -0.52505893 2.6140685 6513507
-1.9247293 -0.47509745 2.6292675 2039583
-1.8909483 -0.47476348 2.64606 2039583
-0.87017226 -0.47512233 2.612432 1388621
0.24764527 -0.48384112 2.6453731 2112082
0.25742242 -0.48566872 2.6465297 2571347
1.3446001 -0.4749822 2.638674 6513507
1.3558662 -0.4750593 2.6140416 6513507
-1.9247754 -0.42507216 2.6293378 2039583
-1.890973 -0.42474547 2.6461444 2039583
-0.87005973 -0.42478809 2.6121635 1257292
1.3445824 -0.42502221 2.6386871 6513507
1.3558706 -0.4249711 2.6140087 6513507
-1.9248185 -0.3749741 2.6293802 2039583
-1.8911985 -0.37530446 2.646136 2039583
-0.87011576 -0.37444782 2.6122625 1454927
1.3445967 -0.37506366 2.6386297 6513507
1.3558693 -0.37497357 2.6139915 6513507
-1.9248593 -0.32494354 2.6294849 2039583
-1.8920205 -0.32534349 2.6458557 2039583
-0.87008744 -0.32465479 2.6121774 1454926
-0.21788201 -0.30939075 2.629581 2768211
0.17744569 -0.30869418 2.610373 3891592
0.22700422 -0.31075549 2.633266 1917803
0.25512391 -0.31979424 2.6457968 1782862
1.3445839 -0.32510605 2.6386344 6513507
1.3558414 -0.32497546 2.6140289 6513507
-1.9249303 -0.27501583 2.6295409 2039583
-1.8920139 -0.27514288 2.6459539 2039583
-0.87005866 -0.27486464 2.6120908 1388877
-0.82544589 -0.2709263 2.6029453 1256778
-0.75967371 -0.28837287 2.6288564 5011104
-0.74727809 -0.28832841 2.6065962 3762071
-0.6667676 -0.28828841 2.6281607 2570570
-0.64393038 -0.28825364 2.6186078 1974047
-0.5538184 -0.28820238 2.6384296 2039583
-0.52520436 -0.28815627 2.6248019 3034991
-0.47510767 -0.28811067 2.624387 2242124
-0.42503268 -0.28806433 2.6233902 2039583
-0.3886995 -0.2880232 2.6177227 2039583
-0.21804389 -0.29326272 2.6315367 2768467
-0.10645887 -0.28786221 2.6221232 2638171
-0.074947238 -0.28782657 2.6217983 3494510
-0.02497804 -0.28776991 2.6212823 1908772
0.0010858544 -0.28774035 2.6210129 6447714
0.092264377 -0.28763697 2.6200709 6447714
0.12475288 -0.28761315 2.6290855 6513507
0.17606936 -0.29205266 2.6153793 4022918
0.23099457 -0.27838778 2.6368234 1719905
0.25427216 -0.27509487 2.6454928 1783375
1.3445691 -0.27503681 2.6386452 6513507
1.3558382 -0.27497742 2.6140103 6513507
-1.9250236 -0.22508582 2.6295698 2039583
-1.892065 -0.22472443 2.6460266 2039583
-0.87003034 -0.22507811 2.6120062 1454925
-0.82567638 -0.22528256 2.6018312 1323083
0.23624618 -0.2246518 2.6398966 1389908
0.25428191 -0.22468758 2.6455932 1652047
1.3445559 -0.22496875 2.6386542 6513507
1.3558359 -0.22498022 2.6139903 6513507
-1.9251674 -0.17526166 2.6296084 2039583
-1.8920852 -0.17440942 2.6461141 2039583
-0.87000257 -0.17529483 2.6119218 1586510
-0.82570249 -0.17570439 2.6019137 1323340
0.23616673 -0.17508084 2.6399069 1389651
0.25429147 -0.17427647 2.645694 1586510
1.3445686 -0.17512108 2.6386034 6513507
1.355847 -0.17489444 2.6139438 6513507
-1.9250671 -0.12532449 2.6297255 2039583
-1.8922015 -0.12508865 2.6461546 2039583
-0.86989009 -0.1249782 2.6116536 1389132
-0.82572937 -0.12504517 2.6019983 1191498
0.23627281 -0.12550916 2.6399205 1389393
0.25430098 -0.12495758 2.6457927 1520461
1.3446013 -0.12538795 2.6385074 6513507
1.3558574 -0.12472065 2.6138999 6513507
-1.9251002 -0.075175956 2.6298332 2039583
-1.8922189 -0.075645037 2.6462409 2039583
-0.86994612 -0.074659392 2.611753 1257548
-0.82575631 -0.0743827 2.6020825 1125705
0.23624688 -0.075467542 2.6400347 1257551
0.25431043 -0.075634941 2.645891 1257290
1.3445468 -0.075426705 2.6385994 6513507
1.3558159 -0.07472264 2.6139693 6513507
-1.9251493 -0.025059232 2.6298995 2039583
-1.8922708 -0.02521562 2.6463144 2039583
-0.86991817 -0.024885749 2.6116691 1323340
-0.82640415 -0.023511851 2.6018825 1125705
0.23625267 -0.02515639 2.6400981 1257807
0.25432009 -0.0252125 2.645992 1125705
1.3445411 -0.025142141 2.6385891 6513507
1.3558086 -0.024907449 2.6139605 6513507
-1.9251999 0.025060115 2.6299713 2039583
-1.8923223 0.025216538 2.6463861 2039583
-0.86989027 0.02488468 2.6115854 1323339
-0.82674927 0.024791867 2.6018167 993863
0.23625855 0.025157202 2.6401618 1258063
0.25432977 0.025213785 2.6460922 993862
1.3445363 0.02514202 2.6385796 6513507
1.3558027 0.024907297 2.6139491 6513507
-1.9252502 0.075182036 2.6300404 2039583
-1.8923746 0.075651474 2.6464584 2039583
-0.86986238 0.074651927 2.6115012 1257290
-0.82677567 0.074377708 2.6018996 1059398
0.23626447 0.075473242 2.6402249 1125965
0.25433943 0.075643905 2.646193 1125704
1.3445319 0.075425737 2.6385682 6513507
1.3557969 0.074721694 2.6139369 6513507
-1.9252808 0.10569228 2.6300812 2039583
-1.8863763 0.10720836 2.6453369 2960685
-1.825147 0.11064828 2.6443617 8553090
-1.7743616 0.1106922 2.6454117 10000536
-1.724619 0.11073532 2.6464422 10000536
-1.6748382 0.11077853 2.6474748 10000536
-1.6250182 0.11082175 2.6485081 10000536
-1.5711616 0.11089009 2.6351926 9934743
-1.5246722 0.11098331 2.6008666 9934743
-1.4746057 0.11102673 2.6018841 1651279
-1.4245002 0.11107018 2.6029019 2177879
-1.375423 0.11111272 2.6038992 2572382
-1.3252395 0.11115623 2.604919 1125706
-1.2750173 0.11119977 2.6059394 6976124
-1.2247555 0.11124336 2.6069608 3823217
-1.1744542 0.11128698 2.6079831 1059398
-1.1251849 0.1113297 2.6089838 8751501
-1.0748054 0.11137339 2.6100073 10132122
-1.0243866 0.1114171 2.611032 10000536
-0.97500205 0.11145992 2.6120358 10000536
-0.92557973 0.11150276 2.6130397 5402254
-0.87862152 0.10888094 2.6124468 1125708
-0.82638514 0.10618098 2.6031508 1257546
-0.75661355 0.11164927 2.6164734 2052488
-0.74906975 0.11165584 2.616627 1656192
-0.66602737 0.11172782 2.6183136 1848139
-0.64444113 0.11174654 2.6187525 10197915
-0.55153549 0.11182708 2.6206398 10197915
-0.52450138 0.11185053 2.6211896 3364218
-0.47473174 0.1118937 2.6222007 1782604
-0.42492387 0.11193686 2.6232128 10000536
-0.38049799 0.11197539 2.6241159 10000536
-0.217702 0.11211653 2.6274233 993862
-0.10676542 0.11221275 2.629678 6124945
-0.075188383 0.11224012 2.6303196 1719135
-0.025071418 0.11228358 2.6313381 9145745
0.0010903518 0.11230624 2.6318688 10197915
0.092745662 0.11238573 2.6337321 10197915
0.12551256 0.11241413 2.6343977 10197915
0.17578508 0.11245772 2.6354191 4942991
0.23324403 0.10781751 2.6392148 1125969
0.25419688 0.1073727 2.6447113 1125960
0.34546739 0.11260486 2.6388671 10197915
0.37507224 0.11263055 2.6394689 10197915
0.41456315 0.11266477 2.6402714 10197915
0.49691471 0.11273615 2.6419439 10197915
0.5243904 0.11276004 2.6425028 10197915
0.57497281 0.11280388 2.6435311 10197915
0.6255945 0.11284778 2.6445596 10197915
0.67515385 0.11289072 2.6455665 10197915
0.7126227 0.11292323 2.6463277 10197915
0.84781235 0.11311346 2.6002948 10197915
0.87643546 0.11310946 2.6201255 10197915
0.92593199 0.11318126 2.6018531 10197915
0.97588986 0.11322462 2.60285 9671571
1.0258859 0.11326797 2.603847 6974058
1.0759202 0.11331137 2.604845 6513507
1.125993 0.11335484 2.6058433 6513507
1.1750141 0.11339736 2.6068213 6513507
1.2240726 0.11343993 2.6078002 6513507
1.2742589 0.11348347 2.6088011 6513507
1.338973 0.10889988 2.6305921 6513507
1.3559059 0.10685723 2.6133099 6513507
-1.8022089 -1.2003602 2.6852686 11711154
-1.7819099 -1.2027773 2.6945496 11711154
1.3196932 -1.202531 2.6934557 6513507
-1.8641317 -1.1693884 2.657001 11711154
-1.8243192 -1.1734155 2.6752062 11711154
-1.7851638 -1.174983 2.6931133 11711154
1.3277739 -1.1728792 2.6757758 6513507
-1.8646203 -1.1249868 2.6568635 11711154
-1.8251837 -1.1249955 2.6749022 11711154
-1.7852085 -1.1249926 2.6931901 11711154
1.3284363 -1.124985 2.6743057 6513507
-1.8646507 -1.0749952 2.6569433 11711154
-1.8251916 -1.0749646 2.6749942 11711154
-1.785228 -1.0749968 2.6932755 11711154
1.3284184 -1.0750176 2.6743186 6513507
-1.8647218 -1.0249995 2.657006 11711154
-1.825295 -1.0250089 2.6750429 11711154
-1.7858536 -1.0253383 2.6930842 11711154
1.3284203 -1.0249981 2.6742959 6513507
-1.864756 -0.97500205 2.6570871 11711154
-1.8253349 -0.97497398 2.6751196 11711154
-1.7862172 -0.97497648 2.6930149 11711154
1.3283966 -0.97492588 2.6743243 6513507
-1.864778 -0.92500311 2.6571724 11711154
-1.825359 -0.92493433 2.6752048 11711154
-1.7862804 -0.92499381 2.6930809 11711154
1.3283981 -0.92495936 2.6743007 6513507
-1.8653688 -0.87467349 2.6569998 11711154
-1.8254151 -0.87497199 2.6752744 11711154
-1.7862616 -0.87500662 2.6931856 11711154
1.3283975 -0.8750999 2.6742787 6513507
-1.8657873 -0.82496947 2.6569021 11711154
-1.8246899 -0.82496291 2.6757023 11711154
-1.7855799 -0.82502639 2.693593 11711154
1.3283918 -0.82508111 2.6742673 6513507
-1.8657769 -0.7749359 2.6570022 11711154
-1.8246704 -0.77498925 2.6758063 11711154
-1.7855037 -0.77496833 2.6937232 11711154
1.3284044 -0.77500999 2.6742165 6513507
-1.8658041 -0.72489935 2.6570837 11711154
-1.8247119 -0.72497606 2.6758821 11711154
-1.7856221 -0.72491294 2.6937635 11711154
1.3283608 -0.72499335 2.6742892 6513507
-1.8659207 -0.67497736 2.6571267 11711154
-1.8248051 -0.67496097 2.6759355 11711154
-1.7856548 -0.67505753 2.6938436 11711154
0.26683113 -0.65445006 2.6505003 3097174
1.3283851 -0.67502987 2.6742079 6513507
-1.8659395 -0.62505263 2.6572142 11711154
-1.8248354 -0.62497818 2.6760168 11711154
-1.7857007 -0.62506241 2.6939189 11711154
0.23482738 -0.62425357 2.6736133 1982820
0.26683709 -0.62481594 2.6505594 2965588
1.3283688 -0.62501222 2.6742213 6513507
-1.8660177 -0.57494867 2.6572747 2171169
-1.8248206 -0.57503259 2.6761196 2500134
-1.7856981 -0.5749957 2.6940157 2763306
-0.6019116 -0.59819144 2.692194 4329231
-0.57461226 -0.59813005 2.6788352 4329231
-0.52504659 -0.59805936 2.6781623 4329231
-0.47484118 -0.59798872 2.6780221 5974570
-0.42508951 -0.59791839 2.6776147 6445658
-0.38417351 -0.59785891 2.6764739 6447714
-0.21223862 -0.59761858 2.6769245 2039583
-0.17516795 -0.59756529 2.6761253 2039583
-0.12482058 -0.59749371 2.6755395 2039583
-0.074923038 -0.59742415 2.6757586 5526612
-0.025054725 -0.59735268 2.6749089 6447714
0.025050761 -0.59728187 2.6745915 6447714
0.074895538 -0.59721237 2.6748104 6513507
0.11018167 -0.59715271 2.6688428 6513507
0.23481521 -0.57495368 2.6735888 1851491
0.26684722 -0.57432544 2.6506605 2702675
1.3281331 -0.57467276 2.6747129 6513507
-1.8660377 -0.5249598 2.6573603 2039583
-1.8250451 -0.52504522 2.6761105 2039583
-1.7858956 -0.52499425 2.6940203 2039583
0.23480472 -0.52510184 2.6735578 1719649
0.26685718 -0.52492887 2.650759 2439762
1.3278232 -0.52491349 2.6753666 6513507
-1.8660462 -0.47502825 2.6574521 2039583
-1.8248433 -0.47498104 2.6762996 2039583
-1.7865098 -0.47503141 2.6938355 2039583
0.23483606 -0.4841122 2.6734459 1653599
0.26686469 -0.48760462 2.6508338 2242897
1.327821 -0.47498497 2.67535 6513507
-1.8661319 -0.42497405 2.6575079 2039583
-1.8250903 -0.42502731 2.6762824 2039583
-1.7868071 -0.42490637 2.693794 2039583
1.327825 -0.42505717 2.6753197 6513507
-1.8664589 -0.37487969 2.657455 2039583
-1.8250936 -0.37495613 2.6763759 2039583
-1.7868154 -0.37506744 2.6938848 2039583
1.3278161 -0.37502691 2.6753163 6513507
-1.8669478 -0.32497668 2.657326 2039583
-1.8250722 -0.32492259 2.6764815 2039583
-1.7867435 -0.32507336 2.694015 2039583
0.23504865 -0.33263099 2.6728203 1456220
1.3277947 -0.3249985 2.6753414 6513507
-1.8670509 -0.27494854 2.6573734 2039583
-1.825153 -0.27503261 2.6765397 2039583
-1.787011 -0.27493995 2.6939883 2039583
-0.77027953 -0.28844038 2.6675534 4879519
-0.67434973 -0.28836867 2.6771884 2437952
-0.55783367 -0.28826481 2.6776941 2106923
-0.5249095 -0.28823233 2.6756935 3101559
-0.47496024 -0.28818762 2.6757352 2175298
-0.42696655 -0.28814167 2.673826 2039583
-0.22159113 -0.28806412 2.6743608 2702675
-0.10742343 -0.2879346 2.6731579 3033445
-0.074736565 -0.28789788 2.6730454 3362667
-0.024918498 -0.28784075 2.6720579 1908771
0.0011069841 -0.28781158 2.6720157 6447714
0.092952944 -0.28770739 2.6710484 6447714
0.12502727 -0.287671 2.6707108 6513507
0.17533059 -0.2876136 2.6699493 4481921
0.21764311 -0.2715975 2.6607108 2711441
1.3277944 -0.27502164 2.6753194 6513507
