# .PCD v0.7 - Point Cloud Data file format
VERSION 0.7
FIELDS x y z rgb
SIZE 4 4 4 4
TYPE F F F U
COUNT 1 1 1 1
WIDTH 1169
HEIGHT 1
VIEWPOINT 0 0 0 1 0 0 0
POINTS 1169
DATA ascii
0.47492099 0.096857473 1.8855265 10197915
0.52479994 0.096910983 1.8863271 10197915
0.57556093 0.097128175 1.8710057 10197915
0.62490177 0.097267561 1.863224 10197915
0.67505103 0.097317547 1.8644094 10197915
0.72486871 0.097369112 1.8653973 10197915
0.77512413 0.097423039 1.8662009 10197915
0.82543749 0.097473189 1.8673892 10197915
0.8750208 0.097526483 1.8681765 10197915
0.92465717 0.097575851 1.8693577 10197915
0.97473967 0.09762767 1.8703498 10197915
1.0252612 0.097681887 1.8711607 10197915
1.0754522 0.097733907 1.8721489 10197915
1.1252962 0.097783484 1.8733352 10197915
1.1752015 0.09783712 1.8741269 10197915
1.2251493 0.097886816 1.8753145 10197915
1.2718264 0.09791375 1.8783596 9935001
1.3008709 0.097839266 1.8892993 4478566
1.4847492 0.098239623 1.872125 861506
1.5028813 0.098048106 1.8933319 795201
-0.47084424 -0.85821402 1.9364512 1717326
-0.44315201 -0.8528567 1.9121426 1980239
0.19458371 -0.85294062 1.9129374 2440019
0.21607146 -0.85837549 1.9373074 2636883
-0.46796232 -0.82505292 1.9342149 1717326
-0.43945998 -0.82451475 1.9091502 2045519
0.19145079 -0.82503104 1.9096969 2242640
0.21340311 -0.82536304 1.9346539 2439762
-0.46731082 -0.77528143 1.9340897 1717327
-0.43894219 -0.77491045 1.9091412 2111569
0.19156371 -0.7748962 1.9104013 2242641
0.21326391 -0.77487022 1.9350754 2505298
1.5281789 -0.76601905 1.9241848 11711154
-0.46725199 -0.72496289 1.9344908 1849169
-0.43911156 -0.72500634 1.9097394 2111569
0.19124788 -0.72436213 1.9106231 2308947
0.21330267 -0.72483897 1.9356954 2506068
1.5302457 -0.72675848 1.9269888 11711154
1.5502086 -0.71088248 1.9499019 11711154
-0.46737459 -0.67490721 1.935048 1915218
-0.43892857 -0.67455822 1.910031 2177619
0.1907534 -0.67505223 1.9106295 2308948
0.21290603 -0.67547631 1.9358133 2440533
1.527319 -0.67424339 1.9242599 11711154
-0.46688363 -0.62529075 1.9350632 1651791
-0.43837476 -0.62504816 1.9099904 1848913
0.19081813 -0.62503672 1.9112792 2046034
0.21254499 -0.62504512 1.9359828 2177619
1.5192775 -0.64056998 1.9154905 11711154
-0.46662027 -0.57496691 1.9352835 1520719
-0.4384838 -0.57510245 1.9105347 1717071
0.19067013 -0.57455558 1.9116908 1782863
0.21264876 -0.57502007 1.9366757 1980241
-0.46679232 -0.52506095 1.9358844 1454413
-0.43845132 -0.52469236 1.9109608 1849426
0.19005373 -0.52485931 1.9115628 1914962
0.21235895 -0.52536219 1.9369192 1980754
-0.46646258 -0.4754943 1.9360399 1388621
-0.43774053 -0.47497362 1.9107825 1783890
0.18953337 -0.47541985 1.9115393 1849426
0.21119119 -0.47446918 1.9361767 1980755
-0.46603724 -0.42506182 1.9361193 1257292
-0.43791792 -0.4249827 1.9113889 1454414
0.1892107 -0.42479679 1.9117554 1520206
0.21102278 -0.42502177 1.9365531 1520206
1.5298696 -0.4142718 1.9301516 2039583
-0.46567431 -0.37457454 1.9362551 1257035
-0.43743837 -0.37522176 1.9114137 1454670
0.18845184 -0.37503293 1.911465 1586255
0.21092527 -0.37524763 1.9370158 1520463
1.5217659 -0.39682585 1.9211248 2039583
-0.46502855 -0.32528779 1.9361311 1323341
-0.43614522 -0.32492065 1.9107294 1454926
0.18853948 -0.32498842 1.9121392 1520719
0.21025042 -0.32496795 1.9368263 1454927
1.5251538 -0.30176836 1.9205326 2039583
-0.46441859 -0.27505663 1.9360451 1389133
-0.43633598 -0.27494872 1.9113464 1520463
0.18860316 -0.27491108 1.9127885 1586512
0.21029001 -0.27497786 1.9374465 1586512
1.5340881 -0.27475607 1.9316171 2241091
-0.46450356 -0.22502017 1.9365711 1257548
-0.43633494 -0.22495367 1.9117953 1454670
0.18776952 -0.22500937 1.9124137 1520462
0.21036851 -0.2249552 1.9381123 1454670
1.5339745 -0.22330339 1.9321798 2373968
-0.46462113 -0.17515194 1.9371222 1323340
-0.43559673 -0.17501749 1.9115949 1586511
0.18784612 -0.17503306 1.9130766 1586511
0.20960841 -0.17514178 1.937822 1586511
1.5340247 -0.17533955 1.9325677 2242897
-0.46380371 -0.12500252 1.936855 1257290
-0.43562448 -0.12487987 1.9120711 1388620
0.18784009 -0.12496084 1.913645 1388876
0.20958352 -0.12498198 1.9383696 1388619
1.5342373 -0.12491649 1.9328351 1848398
-0.46386901 -0.074876517 1.9373629 1257803
-0.43595496 -0.074991964 1.9128101 1389132
0.18728016 -0.074811265 1.9135864 1389133
0.2096387 -0.074855447 1.9390103 1454925
1.534361 -0.073674828 1.933187 1454155
-0.46409807 -0.024888588 1.9380139 1191754
-0.43491921 -0.025039436 1.9123491 1389131
0.18706886 -0.025036739 1.9139194 1389132
0.20909205 -0.025367949 1.938957 1454924
1.5341856 -0.024834851 1.9337806 1256777
-0.46324822 0.024827152 1.9377146 1191240
-0.43500969 0.025048414 1.9128792 1257033
0.18712999 0.024991455 1.9145644 1323082
0.20890872 0.024908047 1.9393269 1257033
1.534395 0.024839358 1.9340445 1191497
-1.5169994 0.093969032 1.9280483 10197915
-1.4754701 0.094059408 1.9241712 10197915
-1.4252305 0.094110839 1.925223 10197915
-1.3753368 0.094164066 1.9260533 10197915
-1.3253791 0.094213039 1.9273142 10197915
-1.2753757 0.0942664 1.9281462 10197915
-1.2253107 0.094315477 1.9294096 10197915
-1.1751968 0.09436895 1.9302434 10197915
-1.1250243 0.094418116 1.9315095 10197915
-1.0748004 0.094471715 1.9323454 10197915
-1.0249125 0.094522767 1.9333901 10197915
-0.97497869 0.094569542 1.934867 10197915
-0.92498893 0.094625063 1.9354823 10197915
-0.87765914 0.094771437 1.9267595 10197915
-0.82506174 0.094862431 1.9241763 10197915
-0.77525753 0.094913498 1.925212 10197915
-0.72106683 0.095022514 1.9210367 10197915
-0.67517596 0.095151961 1.9138228 10197915
-0.62515521 0.095201179 1.9150662 10197915
-0.57509416 0.095254712 1.9158889 10197915
-0.5253635 0.095305756 1.916916 7699331
-0.46514347 0.075675003 1.9352149 861250
-0.43538392 0.073540889 1.9132845 992836
0.18674006 0.07371293 1.914595 992579
0.2118907 0.076572478 1.9384248 992580
0.27516469 0.096127518 1.9334445 1124421
0.325403 0.096176952 1.9346946 1059141
0.37529701 0.096228167 1.9357251 993349
0.42081013 0.096344218 1.929792 6450039
0.47435611 0.096465282 1.9243461 10197915
0.52486438 0.09651719 1.9253819 10197915
0.57787317 0.096686773 1.9150579 10197915
0.62493283 0.096751995 1.9143533 10197915
0.67485279 0.096805483 1.9151622 10197915
0.72483367 0.096854836 1.9163879 10197915
0.77486163 0.09690842 1.9171985 10197915
0.82494712 0.096957885 1.9184268 10197915
0.87508363 0.097011581 1.9192396 10197915
0.9252739 0.09706115 1.9204702 10197915
0.97511786 0.097112447 1.9214857 10197915
1.0254108 0.097166352 1.9223014 10197915
1.0753628 0.097217843 1.9233116 10197915
1.1249557 0.097266704 1.9245373 10197915
1.1750114 0.097318217 1.9255567 10197915
1.2251202 0.097369812 1.9265774 10197915
1.2748687 0.097423196 1.9273746 10197915
1.3159657 0.097423799 1.9323456 9540501
1.5342207 0.074502468 1.9338233 993605
-0.51889914 -0.86746997 1.9786351 1322566
-0.49388474 -0.86268294 1.956677 1388875
0.23993453 -0.86440831 1.9643713 2965589
0.26161912 -0.86995262 1.9889637 3359057
-0.51744258 -0.82448703 1.9777411 1257033
-0.49329501 -0.82588506 1.9564888 1256777
0.2384603 -0.82460701 1.9631529 2702419
0.26060826 -0.82552522 1.9883269 2899539
-0.51703447 -0.77499753 1.9778266 1388875
-0.49200261 -0.77424699 1.955816 1388619
0.23838387 -0.77488786 1.9636387 2636883
0.26033971 -0.77483332 1.9886044 2768211
-0.51716661 -0.72503579 1.9783921 1520461
-0.49190921 -0.72498506 1.9561769 1586255
0.23842251 -0.72488368 1.964258 2768725
0.26043117 -0.72490579 1.9892819 2768469
1.5508056 -0.70469075 1.950653 11711154
-0.51736444 -0.67499614 1.9790168 1454925
-0.49208295 -0.67505324 1.9567798 1652304
0.23798908 -0.67449766 1.9643446 2637398
0.26019433 -0.67555213 1.9895811 2571347
1.5536485 -0.6752044 1.9542285 11711154
-0.51749694 -0.62492764 1.9795837 1652303
-0.49155012 -0.62426317 1.9567677 1652048
0.23709762 -0.62543458 1.9638963 2308948
0.25902271 -0.62443233 1.9888375 2440276
1.5562738 -0.64797425 1.957531 11711154
-0.51744437 -0.5751701 1.9799844 1323597
-0.49133486 -0.57503533 1.9570211 1389390
0.23678684 -0.57504445 1.9641219 2111826
0.25874758 -0.57502824 1.9890939 2242898
-0.51674378 -0.52498597 1.9798206 1059400
-0.49148023 -0.52492255 1.9576007 1124680
0.23653284 -0.5245133 1.9644148 2111827
0.2587477 -0.52515799 1.9896668 2112083
-0.51688075 -0.47504145 1.9803902 1125193
-0.49110663 -0.47411087 1.9577287 1124937
0.23600949 -0.47486421 1.9643914 2046291
0.25795671 -0.47499245 1.9893446 2046290
-0.5170334 -0.42501652 1.9809746 1059657
-0.49070182 -0.42492765 1.9578156 1191243
0.23609369 -0.42490044 1.9650621 1651534
0.2580654 -0.42504457 1.9900435 1783120
-0.5171898 -0.374962 1.9815625 1059656
-0.49087644 -0.37493062 1.9584188 1191499
0.23602083 -0.37476552 1.9655559 1585999
0.25813881 -0.37497386 1.9907024 1520206
-0.51735735 -0.325032 1.9821582 1059657
-0.49072537 -0.32431448 1.9587419 1125706
0.23531145 -0.32503009 1.9653219 1586255
0.25743389 -0.32538736 1.9904721 1586255
-0.51749885 -0.27507252 1.9827329 1059657
-0.49011058 -0.27499655 1.9586446 1059914
0.23539142 -0.27496761 1.965989 1586512
0.2573455 -0.2749764 1.990952 1652304
-0.51763827 -0.2250316 1.9833053 1059656
-0.49024165 -0.22507852 1.9592081 1125193
0.23547065 -0.22498079 1.9666553 1454926
0.25742853 -0.22504596 1.991621 1454926
-0.51779872 -0.17506468 1.983896 994119
-0.49032408 -0.17475346 1.9597336 993863
0.23465906 -0.17498744 1.966307 1652303
0.25699821 -0.17597428 1.9916959 1652303
-0.51770693 -0.12478703 1.9842682 860993
-0.48930147 -0.12543072 1.9592783 861251
0.23469421 -0.12508093 1.9669211 1388620
0.25669426 -0.12519228 1.9919356 1388620
-0.51712322 -0.074896358 1.9842031 1125960
-0.48855168 -0.075240642 1.9590701 1125961
0.23476428 -0.075144015 1.9675748 1125192
0.25669092 -0.074885607 1.9925103 1059656
-0.51687598 -0.025174659 1.9844334 1125960
-0.48876703 -0.025167176 1.9597089 1191497
0.2341025 -0.024834458 1.9674011 1125448
0.2565915 -0.025490379 1.9929652 1059656
-0.5161978 0.024924587 1.9842873 993861
-0.48790592 0.025237024 1.9594057 1059654
0.233932 0.025085108 1.9677825 1124935
0.25593954 0.024769217 1.9928024 1059143
-1.5645437 0.093335569 1.985041 10197915
-1.5250993 0.093450069 1.9785156 10197915
-1.4746754 0.093499079 1.9798288 10197915
-1.4250038 0.093552001 1.9806644 10197915
-1.3752799 0.093600243 1.9819704 10197915
-1.325094 0.093651295 1.983052 10197915
-1.2752653 0.093704373 1.9838899 10197915
-1.2265484 0.093758933 1.9844452 10197915
-1.1755756 0.0939482 1.9719149 10197915
-1.1255357 0.093999192 1.9729854 10197915
-1.0754418 0.094050221 1.9740568 10197915
-1.0252932 0.09410134 1.9751296 10197915
-0.97509015 0.094152495 1.9762036 10197915
-0.92483252 0.094203725 1.9772785 10197915
-0.87294513 0.094385393 1.9656191 10197915
-0.82519442 0.09444882 1.9651757 10197915
-0.77512866 0.094499856 1.9662465 10197915
-0.72461265 0.094549164 1.9675416 10197915
-0.67484224 0.094602264 1.9683688 10197915
-0.62502873 0.09465079 1.9696567 10197915
-0.5747478 0.09470211 1.9707249 10197915
-0.51765454 0.074578568 1.983222 1388104
-0.48804677 0.073213801 1.9597965 927043
0.234226 0.0732482 1.9685739 1058885
0.25887775 0.076167226 1.990592 1124935
0.3249428 0.095763318 1.9756546 993092
0.37507117 0.095814578 1.9767116 993093
0.42832643 0.095978148 1.9670117 2308176
0.4749907 0.09605819 1.9647869 8883086
0.52493089 0.096109316 1.9658325 10197915
0.57492417 0.096160471 1.9668791 10197915
0.62496001 0.09620712 1.9683803 10197915
0.67505509 0.096262977 1.968976 10197915
0.72520846 0.096314304 1.9700259 10197915
0.77499521 0.096362986 1.9712951 10197915
0.82484376 0.09641628 1.9721119 10197915
0.87473392 0.096465081 1.9733838 10197915
0.92469019 0.096518494 1.9742023 10197915
0.97509897 0.096565522 1.9757128 10197915
1.0251614 0.096623711 1.976071 10197915
1.0748469 0.096669912 1.9775745 10197915
1.1245962 0.096720837 1.9786161 10197915
1.1748159 0.096774541 1.9794395 10197915
1.2250777 0.0968237 1.9807194 10197915
1.2749852 0.096874766 1.9817649 10197915
1.3249454 0.096925922 1.9828115 10197915
1.3614006 0.096889623 1.9908746 9080208
0.29305232 -0.90217096 2.0243349 2039583
0.30781177 -0.90247017 2.0411134 2039583
0.2858434 -0.87459606 2.0164537 2634560
0.30786085 -0.87493837 2.0414855 2831681
0.28514871 -0.82459539 2.0162408 3030868
0.3069897 -0.82503057 2.0410702 3425624
0.28486478 -0.77492809 2.0164897 3030868
0.30701557 -0.7750448 2.0416746 3294296
0.28501418 -0.72493714 2.0172353 2899797
0.30715904 -0.7251426 2.042412 3162710
0.28463861 -0.67463613 2.0173862 2702162
0.306651 -0.67595112 2.0424001 2965332
0.28418475 -0.62496442 2.0174413 2702933
0.30633366 -0.6248039 2.0426285 2900054
0.28429994 -0.57495952 2.0181475 2440276
0.30644307 -0.57493103 2.0433271 2703190
0.28423083 -0.52483696 2.018646 2309204
0.30631024 -0.5259077 2.0437393 2440532
0.28343567 -0.47499612 2.0183163 2177619
0.30563417 -0.47495204 2.0435572 2374740
0.28358671 -0.42501944 2.019062 1716813
0.30572399 -0.42497525 2.044234 1848399
0.2836867 -0.37500769 2.0197515 1585742
0.30585498 -0.37513605 2.0449572 1651277
0.28288159 -0.32485658 2.0194132 1652048
0.30502218 -0.32558435 2.0445797 1717583
0.28287241 -0.27504078 2.0199761 1652048
0.3050608 -0.27494133 2.0452065 1717840
0.28206992 -0.22517997 2.0196369 1454926
0.30418292 -0.22438365 2.04479 1520718
0.2814694 -0.17459126 2.019537 1652303
0.30372795 -0.17631821 2.0448263 1652303
0.28118238 -0.12490749 2.0197823 1388620
0.30326125 -0.12496317 2.0448866 1388620
0.28118384 -0.075101011 2.0203567 1125449
0.303433 -0.074993908 2.0456567 1191241
-0.53444856 -0.0058001531 2.0000637 1059654
0.28112668 -0.024849156 2.0208695 1125192
0.30329844 -0.026080811 2.0460668 1125448
-0.53454494 0.024863767 2.0004244 928068
0.28050774 0.02511649 2.0207422 1125191
0.30255941 0.024869127 2.0458128 1190984
-1.6040297 0.092926562 2.0207591 10197915
-1.5752207 0.092955761 2.0213938 10197915
-1.5249712 0.093006648 2.0225 10197915
-1.475492 0.093056761 2.0235896 10197915
-1.4251333 0.09310773 2.0246987 10197915
-1.3747194 0.093158796 2.025809 10197915
-1.3250781 0.093209065 2.026902 10197915
-1.2753828 0.093259372 2.0279965 10197915
-1.2235126 0.093339019 2.0264518 10197915
-1.1751444 0.093507551 2.0156646 10197915
-1.1248363 0.09356346 2.0162797 10197915
-1.0748698 0.093611702 2.0176141 10197915
-1.0248644 0.093664847 2.0184653 10197915
-0.97479123 0.093713202 2.0198026 10197915
-0.92467576 0.093766503 2.0206547 10197915
-0.87491101 0.09381707 2.0217345 10197915
-0.82551461 0.093864612 2.0230658 10197915
-0.77522779 0.093918107 2.0239215 10197915
-0.72489399 0.0939667 2.0252655 10197915
-0.67491543 0.094017394 2.0263579 10197915
-0.62488282 0.094068125 2.027452 10197915
-0.57522362 0.094121039 2.028285 10197915
-0.5374642 0.077649742 2.0059633 2900054
0.2806564 0.073864445 2.0205815 1125191
0.31238833 0.082195215 2.0345612 1124934
0.37525889 0.095383868 2.0194387 1058885
0.42526454 0.095432274 2.0207639 927043
0.47533286 0.09548571 2.0215948 1782604
0.52502543 0.095531277 2.0231609 8094087
0.57476896 0.095586888 2.023737 10197915
0.62499797 0.095635489 2.0250671 10197915
0.67526931 0.09568917 2.025902 10197915
0.7251814 0.095739946 2.0269771 10197915
0.7747137 0.095787823 2.0282927 10197915
0.82472932 0.095838718 2.0293703 10197915
0.87521923 0.095892608 2.0302093 10197915
0.92491376 0.09594065 2.0315289 10197915
0.9746626 0.095993809 2.0323517 10197915
1.0244596 0.09604194 2.0336735 10197915
1.0743158 0.096095175 2.0344982 10197915
1.1253744 0.096293002 2.0211313 10197915
1.1753988 0.096343987 2.0222011 10197915
1.224627 0.096394159 2.0232544 10197915
1.2747568 0.096445225 2.0243266 10197915
1.3249395 0.096496388 2.0253999 10197915
1.3734714 0.096545838 2.0264382 9869208
0.33268425 -0.90252382 2.0693944 2039583
0.35520574 -0.90286463 2.0949986 2039583
0.33271748 -0.87498462 2.0697491 2963266
0.35454008 -0.87654781 2.0945444 3028801
0.33177933 -0.82498437 2.0692575 3688794
0.3540476 -0.82523406 2.0945756 3951707
0.33184579 -0.77502304 2.0699086 3557209
0.35416815 -0.77516806 2.0952878 3754586
0.33197933 -0.72502559 2.0706356 3359832
0.35426012 -0.72528285 2.0959666 3557209
0.33146185 -0.67467958 2.0706265 3162453
0.35333285 -0.67511868 2.0954897 3359317
0.33114499 -0.62500197 2.0708375 2965846
0.35345322 -0.62497938 2.0962036 3162968
0.33128661 -0.5750072 2.0715752 2834261
0.35357293 -0.57509482 2.0969143 2965590
0.33108082 -0.52474564 2.0719187 2571348
0.35312527 -0.52780604 2.0969493 2702932
0.33048376 -0.47500557 2.0718129 2440276
0.35273677 -0.47523686 2.0971122 2571604
0.33054376 -0.42500657 2.0724552 2045776
0.35285705 -0.42499083 2.097827 2177105
0.33065486 -0.37501863 2.0731575 1848398
0.35287118 -0.37665457 2.0983994 1782349
0.32984942 -0.32494017 2.0728173 1783119
0.35202074 -0.32507461 2.0980258 1717069
0.32940161 -0.27535433 2.0728791 1783632
0.35148475 -0.27123111 2.0980361 1914705
0.32890517 -0.22495297 2.0728953 1652047
0.35118562 -0.22513951 2.0982265 1717840
0.32840636 -0.17460434 2.072907 1717839
0.35068655 -0.17866951 2.0981932 1652303
0.32807958 -0.12504961 2.0731049 1388619
0.35034904 -0.12518542 2.0984254 1388619
0.32812846 -0.07500419 2.0737369 1191498
0.35046643 -0.075657599 2.0991287 1191498
0.32816654 -0.02472068 2.0743592 1125448
0.35056961 -0.032185543 2.0997465 1125448
0.32746047 0.024920689 2.0741274 1191241
-1.6528625 0.092256807 2.0811923 794430
-1.6211193 0.092410855 2.0698032 1912394
-1.5749621 0.092492677 2.0673387 6712954
-1.5252558 0.092542782 2.0684588 10000793
-1.4750839 0.092596024 2.0693231 10197915
-1.4252675 0.092646204 2.0704451 10197915
-1.3749802 0.092694208 2.0718429 10197915
-1.3246342 0.092747621 2.072711 10197915
-1.2750854 0.092794865 2.0740924 10197915
-1.2250537 0.092845276 2.0752192 10197915
-1.1745485 0.092898838 2.0760911 10197915
-1.1248332 0.092946246 2.0774767 10197915
-1.0750675 0.092999078 2.0783312 10197915
-1.0252466 0.093046598 2.07972 10197915
-0.97537184 0.093099564 2.0805764 10197915
-0.92544496 0.093147166 2.0819671 10197915
-0.87546021 0.093200222 2.0828259 10197915
-0.8294813 0.09329439 2.0791168 10197915
-0.77509516 0.093457557 2.0695958 10197915
-0.72490096 0.093508214 2.0707173 10197915
-0.67550427 0.093558073 2.0718222 10197915
-0.62520182 0.093608841 2.0729454 10197915
-0.577407 0.093657091 2.0740137 10000537
0.32766029 0.073231339 2.0742533 1191240
0.37523103 0.094777532 2.079555 1059142
0.4249942 0.094825089 2.0809309 927043
0.47525084 0.094875902 2.0820458 1059397
0.52512354 0.094929077 2.0828805 1190726
0.5718419 0.095002323 2.0813394 6253174
0.6251297 0.095184013 2.0698493 10197915
0.67522508 0.095234759 2.0709519 10197915
0.7253741 0.095285513 2.0720563 10197915
0.77557647 0.095336385 2.0731621 10197915
0.82496542 0.095386393 2.0742495 10197915
0.87440664 0.095436446 2.0753381 10197915
0.92476821 0.095487446 2.0764475 10197915
0.97518361 0.095538504 2.0775576 10197915
1.0247822 0.095588736 2.0786495 10197915
1.0752801 0.095650069 2.0787523 10197915
1.125317 0.095843367 2.0657132 10197915
1.1751482 0.095896602 2.0665367 10197915
1.2250189 0.095944494 2.067893 10197915
1.2753866 0.095995568 2.0689943 10197915
1.325372 0.096048959 2.0698209 10197915
1.3754058 0.096097037 2.0711808 10197915
1.4166299 0.096081361 2.0777812 8553606
0.38050178 -0.90286738 2.1237614 2039583
0.4025037 -0.90305662 2.1487765 2039583
0.37948978 -0.8746236 2.1229362 3292229
0.40149954 -0.87760419 2.1479275 3291712
0.3791011 -0.82497394 2.123065 4149084
0.40142399 -0.8250984 2.1484458 4477533
0.37920067 -0.77510303 2.1237526 4017499
0.40156189 -0.77463013 2.1491833 4280412
0.3793112 -0.72505885 2.1244538 3885658
0.40167308 -0.73387676 2.1497791 4083035
0.37838355 -0.67499387 2.1239746 3556695
0.37850812 -0.62505025 2.1246922 3360088
0.37862721 -0.57502794 2.1254041 3162711
0.37709755 -0.5248704 2.1242399 2768468
0.37666538 -0.47502503 2.1243224 2571604
0.37681952 -0.42500475 2.1250734 2177105
0.37636411 -0.37510842 2.1251299 1848141
0.37484172 -0.32505 2.1239748 1783119
0.37501156 -0.27507398 2.1247435 1717840
0.37513283 -0.22502063 2.1254568 1718096
0.37354308 -0.17491238 2.1242261 1652303
0.37311956 -0.12492869 2.1243191 1388363
0.3734051 -0.074919648 2.1252196 1191498
0.37270439 -0.024967482 2.1249988 1059400
0.37125215 0.024951687 2.1239204 1191497
-1.7029612 0.091547504 2.1453929 728124
-1.6711289 0.091710255 2.1331513 794688
-1.6249328 0.091792829 2.1306174 926273
-1.5746003 0.091843195 2.1317866 926273
-1.5258707 0.09190435 2.1316874 4083040
-1.474649 0.092110865 2.1174793 10197915
-1.4245449 0.092161082 2.118634 10197915
-1.3743862 0.092211358 2.1197896 10197915
-1.3250391 0.09226083 2.1209266 10197915
-1.2756388 0.092310347 2.1220648 10197915
-1.2253174 0.092360795 2.1232247 10197915
-1.1749413 0.092411295 2.1243856 10197915
-1.1245097 0.092461839 2.1255474 10197915
-1.0748943 0.092511557 2.1266909 10197915
-1.0252249 0.092561357 2.1278353 10197915
-0.97462964 0.092612073 2.1290011 10197915
-0.92485255 0.092661969 2.1301484 10197915
-0.87502164 0.092711918 2.1312964 10197915
-0.82098609 0.092875272 2.121717 10197915
-0.77538848 0.092975639 2.1173487 10197915
-0.7253477 0.093028769 2.1182079 10197915
-0.67524767 0.093076199 2.1196387 10197915
-0.62509662 0.093129434 2.1204996 10197915
-0.58377397 0.093190245 2.1195302 9934744
0.37197292 0.072733186 2.1248553 1191497
0.42500448 0.094346993 2.1283443 926786
0.47463337 0.094396904 2.1294706 1059142
0.52431476 0.09444689 2.1305978 1058884
0.57910186 0.094578393 2.1242666 2834261
0.62527233 0.094709747 2.1168928 8751501
0.67517328 0.094762854 2.1177356 10197915
0.72513682 0.094810359 2.1191418 10197915
0.77514607 0.094863594 2.1199872 10197915
0.82521373 0.094911195 2.1213961 10197915
0.87533164 0.094964549 2.1222432 10197915
0.92550343 0.095012255 2.1236546 10197915
0.97528732 0.095062427 2.1247759 10197915
1.0246704 0.095115133 2.125596 10197915
1.0745612 0.095165312 2.1267297 10197915
1.1249408 0.095213212 2.1281466 10197915
1.1749353 0.0952636 2.1292727 10197915
1.224983 0.095314026 2.1303997 10197915
1.2746258 0.095367014 2.1312246 10197915
1.3247815 0.09541744 2.1323645 9276813
1.3715457 0.095506042 2.129302 6579300
1.4255282 0.095678769 2.118784 2829099
1.4558359 0.095709354 2.1194613 1843493
0.42654878 -0.90307814 2.1761165 2039583
0.42431131 -0.87492001 2.1738975 3555141
0.42432433 -0.82499057 2.1744859 4609117
0.42442405 -0.77518463 2.1751735 4346205
0.42378131 -0.72515297 2.1750176 4149084
0.42241135 -0.67498827 2.174037 3819864
0.4225944 -0.62504584 2.1748197 3623258
0.4226681 -0.57502401 2.1754794 3360088
0.39996508 -0.53091103 2.1501727 2768724
0.42149791 -0.52499568 2.1747246 2834004
0.42067793 -0.47510767 2.1743665 2702933
0.42084631 -0.42499602 2.1751347 2177104
0.3981747 -0.35808986 2.1501255 1914448
0.4207831 -0.3751879 2.1756351 1980240
0.39826587 -0.32431355 2.1506178 1783375
0.41991964 -0.3250775 2.1752307 1783119
0.39840034 -0.27451161 2.1513436 1717840
0.42011318 -0.27510408 2.1760263 1783633
0.39853483 -0.224676 2.15207 1717840
0.42022076 -0.22504793 2.1767242 1717840
0.39765736 -0.17270668 2.1516705 1586767
0.41975814 -0.17536773 2.17677 1586767
0.39767566 -0.12482937 2.1522422 1388363
0.41938543 -0.12498712 2.1769259 1322827
0.39780983 -0.074922368 2.1529694 1125706
0.41947776 -0.075144127 2.1776042 1191498
0.39752746 -0.022749664 2.1532483 1059399
0.41964424 -0.025164042 2.1783681 1059399
0.39695072 0.024977993 2.1531422 1257289
0.41866899 0.025099522 2.177839 1191497
-1.7163371 0.09118893 2.1793063 860480
-1.6746624 0.0912304 2.1802976 926530
-1.6249597 0.091279849 2.1814792 860994
-1.5752027 0.091329344 2.1826625 926529
-1.523196 0.091414563 2.1805792 1255493
-1.4750776 0.09160506 2.1675844 5200746
-1.4251192 0.091651835 2.1690638 9474708
-1.375538 0.091701277 2.1702335 10197915
-1.3254609 0.091754228 2.171113 10197915
-1.2753342 0.091801152 2.1725972 10197915
-1.2251463 0.091854222 2.1734798 10197915
-1.1749121 0.091901258 2.1749663 10197915
-1.1250607 0.091950931 2.1761425 10197915
-1.0747138 0.092004202 2.1770279 10197915
-1.0247521 0.092054106 2.1781957 10197915
-0.9751963 0.09210033 2.1796782 10197915
-0.92512858 0.092150256 2.1808591 10197915
-0.87500656 0.092200212 2.1820419 10197915
-0.82700342 0.092399113 2.1681986 10197915
-0.77569872 0.092473589 2.1670957 10197915
-0.72581255 0.092523403 2.1682632 10197915
-0.67587268 0.092573285 2.1694322 10197915
-0.62587899 0.092623226 2.1706023 10197915
-0.59103191 0.092658021 2.171418 9737622
0.39707777 0.072277941 2.1538308 1191753
0.4197247 0.073859446 2.1778097 1125704
0.47489589 0.093893848 2.1793847 993349
0.52528423 0.093947366 2.1802459 1059141
0.57481831 0.093993813 2.1817055 1059397
0.62096488 0.094081908 2.1786189 1387335
0.6751247 0.094265759 2.1670167 9672086
0.72488517 0.094315656 2.1681635 10197915
0.77469873 0.094365574 2.1693113 10197915
0.82547206 0.094416484 2.1704814 10197915
0.8753919 0.094466507 2.1716318 10197915
0.92536491 0.094516598 2.1727836 10197915
0.97539067 0.094566755 2.1739359 10197915
1.0245587 0.094616041 2.1750689 10197915
1.0746901 0.094666287 2.1762247 10197915
1.1248744 0.094716586 2.1773806 10197915
1.1751126 0.09476696 2.1785386 10197915
1.2254037 0.094817363 2.179697 10197915
1.2748326 0.094866902 2.1808362 8289918
1.3252304 0.094917431 2.1819973 3092271
1.3799871 0.095075488 2.1730292 2039583
1.4251076 0.09518528 2.1676691 2039583
1.4714683 0.095202632 2.1716237 1974047
1.5034231 0.095096037 2.1861036 1778217
0.4498753 -0.90340066 2.2026365 2039583
0.47224617 -0.90329087 2.2280748 2039583
0.44859082 -0.87736875 2.2014756 3554626
0.470676 -0.87504435 2.2266138 3555141
0.44773915 -0.82526118 2.201107 4805981
0.46927768 -0.82497489 2.2255998 4674909
0.447891 -0.77536994 2.201854 4543325
0.46961477 -0.77490407 2.2265604 4477789
0.44743413 -0.72048599 2.2019658 4214876
0.46958563 -0.72496384 2.2271018 4280412
0.44699019 -0.67462105 2.2019887 3951193
0.46881771 -0.6752308 2.2268004 3951450
0.4471851 -0.6246562 2.2027853 3754587
0.46873632 -0.62492973 2.2272866 3623258
0.44729385 -0.57466286 2.2034845 3360088
0.46893409 -0.57494974 2.2280872 3228503
0.4464415 -0.52349323 2.2031043 2834260
0.46886155 -0.52531224 2.228575 2834261
0.44646087 -0.47503433 2.2036843 2702933
0.46806321 -0.47515604 2.2282462 2637396
0.44655508 -0.42496803 2.2043667 2242897
0.46813962 -0.42502204 2.22891 2177361
0.44649327 -0.37398258 2.2048833 1979984
0.46836916 -0.37497661 2.2297463 1980240
0.44570121 -0.32513848 2.2045443 1848655
0.46799922 -0.32543495 2.2298961 1783119
0.44581929 -0.27522945 2.2052534 1783633
0.4673813 -0.2750262 2.2297728 1783632
0.44603577 -0.22505243 2.2060769 1717840
0.46763849 -0.22501917 2.2306411 1717840
0.44537297 -0.17347178 2.2059162 1652047
0.4677327 -0.17504412 2.231323 1520718
0.4451206 -0.12521611 2.2061858 1323083
0.46692756 -0.12528433 2.2309802 1322827
0.44456685 -0.076296188 2.2061191 1191498
0.46608132 -0.074449323 2.2306025 1191498
0.44423527 -0.024678204 2.2063355 993863
0.46585467 -0.024953118 2.2309141 1059656
0.44323629 0.024851482 2.2057691 1125705
0.46592733 0.024839291 2.2315707 1191241
-1.7700937 0.090521738 2.2388797 728380
-1.7247394 0.090824179 2.2144399 926273
-1.6751871 0.090873279 2.215637 992836
-1.6255807 0.090922438 2.2168357 926273
-1.5750173 0.090972558 2.2180574 992579
-1.525303 0.091021828 2.2192585 794430
-1.4755343 0.091071151 2.2204616 992836
-1.4248055 0.091121428 2.2216871 3622747
-1.3749282 0.09117087 2.2228925 9540500
-1.3249964 0.091220342 2.2240992 10197915
-1.2750105 0.091269888 2.2253072 10197915
-1.2249701 0.091319486 2.226516 10197915
-1.1748757 0.091369115 2.2277267 10197915
-1.1247263 0.09141884 2.2289386 10197915
-1.0745229 0.09146861 2.2301517 10197915
-1.0251787 0.091517493 2.231344 10197915
-0.97486627 0.091567352 2.2325599 10197915
-0.92449927 0.091617264 2.233777 10197915
-0.87499458 0.091666333 2.2349732 10197915
-0.82437396 0.09188953 2.2190421 10197915
-0.77510774 0.091945373 2.2195373 10197915
-0.72447664 0.091998927 2.2204261 10197915
-0.674698 0.092045099 2.2219439 10197915
-0.62486947 0.092097834 2.2228134 10066330
-0.59495366 0.092304662 2.2059712 9211537
0.44334021 0.07130044 2.2064226 1059398
0.46576455 0.07287544 2.2308416 1059655
0.52444035 0.093418427 2.232589 1125190
0.57469428 0.093468428 2.2337837 1059398
0.62957823 0.093625538 2.2249267 927042
0.67553264 0.093745865 2.218622 2570577
0.72508979 0.093798608 2.2194593 8554380
0.77469021 0.093844734 2.2209609 10197915
0.82481563 0.093894683 2.2221439 10197915
0.87499428 0.093944691 2.2233279 10197915
0.92474961 0.093997657 2.2241695 10197915
0.97457314 0.094043955 2.225677 10197915
1.0244365 0.094097018 2.2265205 10197915
1.0743626 0.094143443 2.2280314 10197915
1.124808 0.094193749 2.2292213 10197915
1.1748251 0.094246954 2.2300682 9013641
1.2249153 0.094293535 2.2315831 5395026
1.2725677 0.094483629 2.2185693 2894892
1.3249222 0.094571553 2.2162611 2039583
1.3752338 0.0946218 2.2174387 2039583
1.4255986 0.094672114 2.2186174 2039583
1.4750832 0.094721541 2.2197757 2039583
1.5152674 0.09476167 2.220716 1974049
0.49612048 -0.90347725 2.255219 2039583
0.51736385 -0.90358132 2.2793727 2039583
0.49553436 -0.87323916 2.2549005 3621192
0.51767081 -0.87501448 2.280051 3357764
0.49514139 -0.82491612 2.2550097 4411997
0.5175879 -0.82530034 2.2805288 4214620
0.49531037 -0.77473253 2.2557795 4280412
0.51666528 -0.77487969 2.2800589 4083291
0.49545458 -0.72498006 2.256516 4148827
0.51688451 -0.72484165 2.2808847 3885658
0.4945958 -0.67452383 2.2561202 3754073
0.51706731 -0.67498899 2.281666 3622488
0.49457088 -0.62507558 2.2566605 3491674
0.51671845 -0.6254974 2.2818394 3426138
0.49472064 -0.57497358 2.2574081 3162967
0.51613516 -0.57505935 2.2817564 3097431
0.49467245 -0.52457309 2.2579331 2768724
0.51634276 -0.5249781 2.2825687 2702932
0.49274606 -0.47550783 2.2563069 2571860
0.51530468 -0.47472465 2.2819657 2506068
0.49273401 -0.42486277 2.2568765 2045776
0.51458871 -0.42541069 2.2817199 2045776
0.492919 -0.37506145 2.2576599 1979983
0.51425511 -0.37492505 2.2819219 1848398
0.49248204 -0.32392192 2.2577507 1783119
0.51448143 -0.32484943 2.2827559 1717583
0.49201211 -0.27499616 2.2577803 1717840
0.51465517 -0.27497861 2.283525 1652304
0.49211583 -0.22518723 2.258471 1652304
0.51363617 -0.22515629 2.2829406 1652303
0.49234521 -0.17503145 2.2593083 1389133
0.51373208 -0.17493577 2.2836282 1454926
0.49158975 -0.12409127 2.259037 1257291
0.51386237 -0.12509497 2.2843492 1257291
0.49136966 -0.0751542 2.2593484 1125962
0.5139811 -0.075257488 2.2850573 1125962
0.49160308 -0.025280533 2.2601881 994120
0.51289308 -0.024895206 2.2844 1059656
0.49166811 0.02553479 2.2608461 1191496
0.51308954 0.024810499 2.2851958 1191497
-1.8093231 0.089992523 2.2865484 662588
-1.7712878 0.090108216 2.2797351 926787
-1.7249515 0.090269148 2.2694523 992835
-1.674621 0.090315282 2.2710416 926787
-1.6251673 0.090367571 2.2719104 926530
-1.5751894 0.090416662 2.2731609 860737
-1.5247049 0.090462931 2.2747545 992323
-1.4746192 0.090512276 2.2759955 1058628
-1.4249457 0.090564787 2.2768686 1058628
-1.3752207 0.090610169 2.2784574 2965590
-1.3249716 0.090659671 2.2797022 7831172
-1.278906 0.090759672 2.2754269 10066586
-1.2254646 0.090948947 2.2632031 10197915
-1.1754705 0.090998307 2.2644312 10197915
-1.1254222 0.091047697 2.265661 10197915
-1.0753199 0.091097154 2.266891 10197915
-1.0251628 0.091146663 2.2681231 10197915
-0.97495115 0.091196232 2.2693563 10197915
-0.92468494 0.091245838 2.2705913 10197915
-0.87436402 0.091295518 2.2718275 10197915
-0.82492173 0.091344304 2.2730412 10197915
-0.77542633 0.091393165 2.2742577 10197915
-0.72494268 0.091443002 2.2754972 10197915
-0.67440403 0.091492876 2.2767386 10197915
-0.6294353 0.091537274 2.2778432 9935000
0.49068406 0.072103441 2.2602551 1191497
0.51454967 0.073451132 2.2843304 1191753
0.57460779 0.093103014 2.2700009 1059398
0.62478411 0.093152732 2.2712138 927042
0.6750145 0.093202531 2.2724273 860480
0.72529823 0.093252353 2.2736428 1190213
0.77468562 0.093301304 2.2748361 9211794
0.82507652 0.09335126 2.2760544 10197915
0.87552071 0.093401223 2.2772727 10197915
0.92506611 0.093450345 2.2784696 10197915
0.97466344 0.093499497 2.2796686 10197915
1.0243131 0.0935487 2.2808683 10197915
1.0749717 0.093598895 2.2820923 10197915
1.1256841 0.093649164 2.283318 7171437
1.1754929 0.093698539 2.2845216 2500134
1.2253543 0.093747944 2.2857263 2039583
1.2766765 0.093971603 2.2698381 2039583
1.3249187 0.094030768 2.2698777 2039583
1.3750077 0.09408395 2.2707338 2039583
1.4251586 0.094130278 2.2722802 2039583
1.4753562 0.094183587 2.273139 2039583
1.5256106 0.094230048 2.2746882 2039583
1.5641359 0.094141982 2.2881341 1908771
0.54315472 -0.90377212 2.308696 2039583
0.56579739 -0.90363783 2.334444 2039583
0.54304981 -0.87604833 2.3088956 3094594
0.56448519 -0.87490892 2.3332822 2963265
0.54198444 -0.82429445 2.3082802 3951451
0.56340408 -0.82502013 2.3326287 3688537
0.54116571 -0.77495736 2.3079169 3820122
0.56357795 -0.77485794 2.3334024 3557208
0.54137403 -0.72500646 2.3087287 3557209
0.56376886 -0.72483432 2.3341944 3359831
0.54154092 -0.67517757 2.3094916 3359575
0.56291044 -0.67527783 2.3337889 3228246
0.54115278 -0.62407833 2.3096385 3294553
0.56284368 -0.62501132 2.3342927 3097174
0.54058284 -0.57491976 2.3095565 2966103
0.5630036 -0.5751121 2.3350487 2834261
0.54082346 -0.52479696 2.3104069 2571604
0.56320578 -0.52498674 2.3358541 2440275
1.8349392 -0.50609112 2.3092484 2039583
0.54099226 -0.47491077 2.3111727 2440275
0.5621174 -0.47499952 2.3351922 2374483
1.8350236 -0.4860228 2.309355 2039583
0.54026747 -0.42439044 2.3109291 2045776
0.56223905 -0.42505538 2.3359036 1979984
0.54004574 -0.37510628 2.3112447 1782862
0.56246412 -0.37507465 2.336736 1651533
0.54020452 -0.32494801 2.3120022 1585997
0.56252658 -0.32524008 2.3373811 1651534
0.54042459 -0.27499291 2.3128278 1322314
0.56147325 -0.27506179 2.3367589 1388363
0.53939742 -0.2249053 2.3122344 1388876
0.56170839 -0.22515909 2.3376005 1322827
0.53918153 -0.17552489 2.3125594 1389389
0.561584 -0.1744471 2.3380423 1389133
0.53829122 -0.12476943 2.3121305 1257034
0.56036627 -0.12567732 2.3372192 1257034
0.53832883 -0.074338481 2.3127544 1191498
0.55953693 -0.075277008 2.3368556 1257290
0.53743136 -0.024905534 2.3123004 1059656
0.55980456 -0.025179492 2.3377366 1125448
0.53761244 0.024916729 2.3130817 1191497
0.55999511 0.025190931 2.3385351 1191497
-1.8244441 0.089584753 2.3251379 729152
-1.7753059 0.089632839 2.326386 1059142
-1.7251686 0.089681901 2.3276596 860737
-1.6749768 0.089731015 2.3289342 794687
-1.6247296 0.089780189 2.3302104 860479
-1.5744274 0.089829408 2.3314884 992579
-1.5250206 0.089877769 2.3327429 1058628
-1.4755604 0.089926168 2.3339994 1058884
-1.4250944 0.089975558 2.3352811 1125191
-1.374573 0.090025 2.3365648 1190727
-1.3249507 0.090073571 2.3378251 1257033
-1.2709634 0.090243913 2.3275402 7568001
-1.2252843 0.090372555 2.3203754 10197915
-1.1754525 0.090417705 2.3220003 10197915
-1.1250818 0.090467118 2.3232694 10197915
-1.0746565 0.090516567 2.3245394 10197915
-1.0246656 0.09056934 2.3254275 10197915
-0.9746021 0.090614691 2.3270593 10197915
-0.92450047 0.090667583 2.32795 10197915
-0.87480962 0.090716474 2.3291867 10197915
-0.82767802 0.090916321 2.3151383 10197915
-0.77501249 0.091009155 2.3123796 10197915
-0.72463316 0.091058679 2.3136373 10197915
-0.67515093 0.091107316 2.3148735 10197915
-0.63514727 0.091146633 2.3158722 9869208
0.53784084 0.072178066 2.3133626 1257289
0.56363654 0.075438038 2.3354981 1191497
0.62541664 0.09258461 2.3276303 794943
0.67544007 0.092630029 2.3292487 860480
0.72221398 0.092722617 2.3257959 860736
0.77500349 0.092923544 2.3123395 2571604
0.82429177 0.092972197 2.3135502 10066330
0.87459946 0.093021862 2.314786 10197915
0.92496079 0.093071543 2.3160229 10197915
0.97537601 0.093121327 2.3172612 10197915
1.0248741 0.093170173 2.3184769 10197915
1.0744243 0.093219087 2.3196943 6447714
1.1249996 0.093268998 2.3209367 2302755
1.1756291 0.093318991 2.3221798 2039583
1.2253375 0.093368046 2.323401 2039583
1.2750983 0.093417175 2.3246231 2039583
1.3249115 0.093466327 2.3258469 2039583
1.3747773 0.09351556 2.3270717 2039583
1.4246955 0.093564846 2.3282979 2039583
1.4746665 0.093614154 2.3295252 2039583
1.5246899 0.093663529 2.3307538 2039583
1.5747668 0.093712971 2.331984 2039583
1.6042454 0.09374205 2.3327076 1778217
0.59009069 -0.9039169 2.3620632 2039583
0.61227727 -0.90403956 2.387289 2039583
0.58921957 -0.87424421 2.3614135 2831938
0.6109159 -0.87495971 2.3860753 2700353
0.58906561 -0.82495397 2.3618071 3425624
0.61106819 -0.82507205 2.3868232 3294295
0.58920622 -0.77495086 2.3625405 3360087
0.6113655 -0.77502859 2.3877368 3162967
0.58941948 -0.7250331 2.3633585 3162453
0.61142117 -0.72505283 2.3883748 2965075
0.58847845 -0.67469364 2.3628683 3162966
0.61032301 -0.67477745 2.3877058 2965588
0.58846056 -0.62512273 2.3634183 2965589
0.61054564 -0.62496442 2.3885326 2768212
0.58864951 -0.57505536 2.3642089 2702675
0.61076778 -0.57511628 2.3893585 2505554
0.58884972 -0.52484608 2.3650138 2374482
0.61075056 -0.5254519 2.3899102 2242897
0.5866915 -0.47535571 2.363131 2177361
0.60864061 -0.47428465 2.3880994 1913934
0.58655238 -0.42496312 2.3635519 1848911
0.60863173 -0.42508975 2.3886549 1783118
0.58672798 -0.37493372 2.3643265 1717070
0.60875982 -0.37503117 2.3893774 1717326
0.58677751 -0.32469538 2.3649628 1585998
0.60878336 -0.32551256 2.3899744 1520205
0.58572108 -0.27495408 2.3643327 1322314
0.60781264 -0.27503094 2.3894503 1256264
0.58599347 -0.22507216 2.3652165 1256777
0.60795373 -0.22511765 2.3901856 1256521
0.58618718 -0.17506237 2.3660121 1323340
0.60827911 -0.17516668 2.39113 1388876
0.58580369 -0.12447263 2.3661587 1191241
0.60807902 -0.12599075 2.391468 1256777
0.58537191 -0.075025007 2.3662362 1191754
0.60718387 -0.074696846 2.391041 1125705
0.58527786 -0.025053605 2.3667052 1059656
0.60745466 -0.024772253 2.3919237 992837
0.58547574 0.024975747 2.3675044 1191497
0.60765851 0.024783326 2.3927252 1257032
-1.8650517 0.089138545 2.3644044 794175
-1.8247136 0.089177854 2.3654463 1058885
-1.7747233 0.089226536 2.366739 860994
-1.7246789 0.089275286 2.3680315 793916
-1.6745795 0.089324109 2.3693261 794687
-1.6244247 0.089372963 2.3706222 992579
-1.5742158 0.089421876 2.3719196 1058628
-1.5249188 0.089469887 2.3731935 1124421
-1.4755687 0.089517981 2.3744688 1124934
-1.4251964 0.08956705 2.3757701 1059398
-1.374769 0.089616172 2.3770735 993349
-1.3252573 0.089664415 2.3783526 993349
-1.2756922 0.089712702 2.3796334 1322056
-1.2251008 0.089761972 2.3809409 6844537
-1.1744533 0.089811318 2.3822496 10197915
-1.1247258 0.089859761 2.3835347 10197915
-1.0749447 0.089908257 2.3848212 10197915
-1.0251099 0.08995679 2.3861084 10197915
-0.97522098 0.090005398 2.3873978 10197915
-0.92527848 0.090054043 2.3886881 10197915
-0.87528163 0.090102755 2.3899801 10197915
-0.82410091 0.090349615 2.3717735 10197915
-0.77533877 0.090405777 2.3721738 10197915
-0.7251268 0.09045881 2.3730605 10197915
-0.67485416 0.090503879 2.374748 10197915
-0.64154398 0.090624675 2.3668504 9474708
0.58550614 0.071477227 2.3680754 1257289
0.61126649 0.074075185 2.3919826 1191496
0.67589045 0.092031628 2.3886459 794688
0.72978133 0.092191286 2.3794105 794687
0.77549803 0.09233509 2.3707459 861249
0.82554358 0.092380226 2.3723993 2834261
0.8751471 0.092428878 2.3736491 8357001
0.92528689 0.09248203 2.3745182 9737364
0.97549736 0.092527285 2.3761761 7105644
1.0247506 0.092579745 2.3770068 3947580
1.0745676 0.092628442 2.3782775 2039583
1.1208056 0.092741065 2.3727691 2039583
1.1747779 0.092925623 2.3610737 2039583
1.2243274 0.09297435 2.3623114 2039583
1.2749215 0.093024068 2.363574 2039583
1.3255697 0.093073852 2.3648396 2039583
1.3752775 0.093122713 2.3660812 2039583
1.4250377 0.093171619 2.3673236 2039583
1.4748497 0.093220577 2.3685675 2039583
1.5247148 0.093269587 2.369813 2039583
1.5746317 0.093318656 2.3710597 2039583
1.6176014 0.093360886 2.3721325 1974049
0.63756067 -0.90420192 2.4160354 2039583
0.6592319 -0.90448189 2.4406736 2039583
0.63629401 -0.8750217 2.4149311 2634560
0.65942228 -0.87516713 2.4412274 2437439
0.63649952 -0.82487851 2.4157422 3096917
0.65825391 -0.82518983 2.440474 2834003
0.63677263 -0.77490056 2.4166284 3031382
0.6583606 -0.77511215 2.4411721 2834516
0.63675976 -0.72509164 2.4171855 2768210
0.65849626 -0.72461927 2.4419079 2702675
0.63429111 -0.67513436 2.4149542 2768467
0.65738159 -0.67491704 2.4412117 2637139
0.63456899 -0.62502211 2.4158468 2637139
0.65623194 -0.625202 2.4404764 2505811
1.680672 -0.60356241 2.4440584 8094861
0.63472849 -0.57497644 2.4166038 2440019
0.65643376 -0.57486051 2.4412856 2308434
1.6808637 -0.57504183 2.4441469 3292488
0.63472325 -0.52455395 2.4171784 2177105
0.65658611 -0.52487546 2.442034 2045776
1.681085 -0.52497882 2.4444025 1779249
0.63379019 -0.4748342 2.4166894 1914191
0.65680784 -0.4750582 2.4428592 1848655
1.6812053 -0.47516453 2.4447446 1779249
0.63393188 -0.42491871 2.4174254 1848655
0.6557219 -0.42563403 2.4421935 1783119
1.6810273 -0.42556536 2.4453478 1844783
0.63421953 -0.3749693 2.4183269 1717326
0.65577155 -0.37521783 2.4428303 1717326
1.6816703 -0.37507933 2.4452364 1713456
0.63403952 -0.32463452 2.4187016 1519692
0.6560393 -0.32497919 2.4437122 1454155
1.681859 -0.32509825 2.4455206 1647406
0.63318676 -0.27492908 2.418304 1190215
0.65630704 -0.27470341 2.4445951 1190215
1.6820095 -0.27472115 2.4458416 1647406
0.63337767 -0.22482836 2.4190981 1190728
0.65513796 -0.22569491 2.4438303 1124935
1.6823924 -0.22646326 2.4459388 1647150
0.63363487 -0.17486034 2.4199646 1388876
0.65524495 -0.17520267 2.4445322 1257291
1.6824161 -0.17533591 2.446378 1646892
0.63331711 -0.12456498 2.4201825 1190985
0.65546954 -0.12460832 2.4453702 1190985
1.6826115 -0.12467512 2.4466622 1647148
0.63261348 -0.075115517 2.419951 1257290
0.65568966 -0.074992336 2.4461918 1257290
1.6828032 -0.075016223 2.4469407 1647148
0.63156968 -0.025210144 2.419338 1059143
0.65330291 -0.025581652 2.4440465 1125191
1.6832649 -0.026490686 2.4469717 1647405
0.63166124 0.025066061 2.4200199 1059398
0.65322131 0.025320031 2.4445391 1059398
1.6836679 0.024263814 2.4470735 1581356
-1.9196002 0.088330947 2.4378052 860481
-1.8749292 0.088486008 2.4278965 992836
-1.8276855 0.088695854 2.4128714 993092
-1.7750992 0.08880496 2.4084895 728637
-1.7251509 0.088853389 2.4098032 793917
-1.6751487 0.088901855 2.411118 992579
-1.6250916 0.088950396 2.4124343 1058628
-1.5749799 0.088999003 2.4137523 1124421
-1.5248132 0.089047641 2.4150712 1124421
-1.474592 0.089096315 2.4163921 993349
-1.4253018 0.089144118 2.4176879 927556
-1.3749713 0.089192912 2.4190116 927300
-1.3245862 0.08924178 2.4203362 993093
-1.2751352 0.08928971 2.4216368 993092
-1.2256309 0.089337714 2.4229386 1387848
-1.1750815 0.089386739 2.424268 6779001
-1.124477 0.089435786 2.4255986 10197915
-1.0748104 0.089483939 2.4269044 10197915
-1.0250907 0.089532144 2.4282122 10197915
-0.975317 0.089580402 2.4295208 10197915
-0.92548972 0.089628719 2.430831 10197915
-0.87560892 0.089677073 2.4321432 10197915
-0.82567406 0.089725502 2.4334562 10197915
-0.77568513 0.089773968 2.4347703 10197915
-0.72564232 0.089822493 2.4360862 10197915
-0.676548 0.089870088 2.4373772 10000537
0.63160914 0.071656667 2.420367 926787
0.65992385 0.077002674 2.4408107 794944
0.72523946 0.09166196 2.4313378 860479
0.7750057 0.091710433 2.4326241 794686
0.82482439 0.091758974 2.4339113 993347
0.8746962 0.091807544 2.4351997 993090
0.92462045 0.091856182 2.4364898 2895666
0.97459793 0.091904871 2.4377813 2039583
1.024628 0.091953605 2.439074 2039583
1.0747117 0.092002399 2.4403684 2039583
1.1289915 0.092202783 2.4271481 2039583
1.1749724 0.092310056 2.4221406 2039583
1.2252914 0.092363477 2.4230049 2039583
1.2751623 0.092412174 2.4242821 2039583
1.3250673 0.092452332 2.4264119 2039583
1.3750383 0.092509687 2.426841 2039583
1.4245806 0.092562549 2.4276657 2039583
1.4750413 0.092813693 2.4089439 2039583
1.5247416 0.09286233 2.4102063 2039583
1.5755098 0.092912003 2.4114959 2039583
1.6253158 0.092960745 2.412761 2039583
1.6813302 0.073614731 2.4451332 1777960
0.68442029 -0.90432221 2.4693162 2039583
0.7052629 -0.90451527 2.4930131 2039583
0.68452477 -0.8749218 2.4697723 2371647
0.70563853 -0.87506974 2.4937792 2240318
0.68324399 -0.82491994 2.4688928 2702674
0.70592046 -0.82506704 2.4946749 2571090
-1.9627205 -0.75610399 2.4894056 2039583
0.68255234 -0.77551997 2.4686751 2702931
0.70499772 -0.77361155 2.4942181 2571603
-1.9628001 -0.7249102 2.4896429 1912641
0.68221313 -0.72509056 2.4688704 2439504
0.70450062 -0.72619665 2.4941978 2176333
-1.9630259 -0.67493129 2.4899096 1848655
0.68248945 -0.67501688 2.4697578 2571347
0.70355278 -0.67496598 2.4937103 2308690
-1.9637496 -0.6250897 2.4896097 1783376
0.6812495 -0.62477785 2.4689283 2374226
0.70379055 -0.62524307 2.4945529 2243154
1.6336826 -0.60395205 2.4853859 11711154
1.6622771 -0.60374916 2.460237 11711154
-1.9640324 -0.57506794 2.4898114 2046547
0.68143451 -0.5749352 2.4697127 2177361
0.70398837 -0.57514232 2.4953547 2177361
1.634065 -0.57503355 2.4853096 4539717
1.6624542 -0.57503945 2.4603393 4539717
-1.9642079 -0.5250982 2.4901361 1783377
0.68167627 -0.52497804 2.4705617 1980240
0.70413119 -0.52626497 2.4960792 1979984
1.6342156 -0.52505374 2.485626 2039583
1.6626487 -0.52504641 2.4606187 2039583
-1.964414 -0.4750523 2.4904273 1652048
0.68186206 -0.47490111 2.4713492 1783119
0.7030158 -0.47502553 2.4954009 1783119
1.6341196 -0.475261 2.4861591 2039583
1.662565 -0.47463605 2.4611473 2039583
-1.9649047 -0.42533147 2.4903882 1388364
0.68072927 -0.4248423 2.4706368 1783119
0.70319462 -0.42452306 2.4961855 1782605
1.6343274 -0.42522669 2.4864261 2039583
1.6626573 -0.42467445 2.4615145 2039583
-1.9654139 -0.37492597 2.4903378 1322828
0.68089432 -0.37496617 2.4713993 1717326
0.70346433 -0.37448952 2.4970677 1651533
1.634775 -0.37500551 2.486485 2039583
1.6632457 -0.37497887 2.4614439 2039583
-1.9656254 -0.32502559 2.4906213 1257292
0.68109685 -0.32490745 2.4722049 1519948
0.70362985 -0.32592109 2.4978147 1454412
1.6350209 -0.324972 2.4867182 2039583
1.6633946 -0.32499737 2.4617624 2039583
-1.9659034 -0.27497852 2.4908302 1323085
0.68133771 -0.27489421 2.4730542 1256521
0.70241499 -0.27517146 2.4970171 1388363
1.6351517 -0.27501324 2.4870536 2039583
1.6635754 -0.27500936 2.4620526 2039583
-1.9660834 -0.22505844 2.4911492 1389390
0.6801067 -0.22474852 2.4722328 1190985
0.70265079 -0.22559196 2.4978561 1257034
1.6358136 -0.22529109 2.486918 2039583
1.6641994 -0.2246891 2.461956 2039583
-1.966761 -0.17534871 2.4908988 1323341
0.68032646 -0.17504872 2.4730527 1323340
0.70289183 -0.17494506 2.4987125 1389389
1.6361467 -0.17511258 2.4870782 2039583
1.6644825 -0.17501928 2.4621546 2039583
-1.9670086 -0.12509312 2.4911432 1454925
0.67928833 -0.12537646 2.4724445 1257290
0.70172107 -0.1227371 2.497982 1454925
1.6358632 -0.1254179 2.4877729 2039583
1.6645316 -0.12476598 2.4625642 2039583
-1.9673351 -0.074689463 2.4913025 1257804
0.67935985 -0.074866936 2.4731069 1257289
0.70032805 -0.074479587 2.496954 1322826
1.6360353 -0.074764945 2.4880781 2039583
1.6641895 -0.074973948 2.4633131 2039583
-1.9674808 -0.024773901 2.4916594 1257803
0.67806929 -0.024673659 2.4722173 1125447
0.70056337 -0.024833947 2.4977925 1125704
1.6364282 -0.025040943 2.4881792 2039583
1.6649978 -0.02472203 2.4630549 2039583
-1.9679343 0.024319075 2.4916587 1257289
0.67812687 0.024888039 2.4728532 1059142
0.70079881 0.024845071 2.498632 1058885
1.6369243 0.024740351 2.4881926 2039583
1.6655158 0.025009558 2.4630461 2039583
-1.9681535 0.069378443 2.4914529 927043
-1.9248015 0.087772697 2.4925172 927043
-1.8752195 0.087820299 2.4938688 992578
-1.8226243 0.088077173 2.4748402 860480
-1.7746823 0.088147573 2.4737291 860480
-1.7248896 0.088190883 2.4755313 992323
-1.6750326 0.088243484 2.4764197 1058629
-1.6247842 0.088513739 2.4557774 1058885
-1.5747725 0.088561989 2.4571161 1058885
-1.5247055 0.088610284 2.4584565 1058628
-1.4745845 0.088658661 2.4597981 1059141
-1.4244089 0.088707067 2.4611411 1058885
-1.3741778 0.088755533 2.462486 993605
-1.3248988 0.08880306 2.463805 993092
-1.2755665 0.08885067 2.4651253 861250
-1.225173 0.088899285 2.4664745 992836
-1.1747242 0.088947967 2.4678254 1453897
-1.125231 0.088995717 2.4691503 6581880
-1.0756843 0.08904352 2.4704762 10197915
-1.0250717 0.089092351 2.4718313 10197915
