# .PCD v0.7 - Point Cloud Data file format
VERSION 0.7
FIELDS x y z rgb
SIZE 4 4 4 4
TYPE F F F U
COUNT 1 1 1 1
WIDTH 1151
HEIGHT 1
VIEWPOINT 0 0 0 1 0 0 0
POINTS 1151
DATA ascii
-0.051401559 -0.3249782 0.99253279 2894892
-0.045345698 -0.32498777 0.96859246 2894892
-0.051385038 -0.27489194 0.99230111 2894892
-0.045332521 -0.27499342 0.96837461 2894892
-0.051379859 -0.22482711 0.99211377 2894892
-0.045326751 -0.22488706 0.96818477 2894892
-0.051363356 -0.17491926 0.9918825 2894892
-0.045313302 -0.17488946 0.96796542 2894892
-0.051818483 -0.12431654 0.99351341 2894892
-0.04530745 -0.12504816 0.96777648 2894892
-0.051865354 -0.075015582 0.99353403 2894892
-0.045294546 -0.075004317 0.96755743 2894892
-0.051850095 -0.025001081 0.99330735 2894892
-0.045288306 -0.024982486 0.96736705 2894892
-0.051839136 0.024994045 0.99309784 2894892
-0.045278735 0.024975467 0.96716332 2894892
-0.051832493 0.074966349 0.99290496 2894892
-0.045265827 0.074955046 0.96694565 2894892
-0.76555717 0.10975399 0.98220128 9934743
-0.72545671 0.10986838 0.97443432 9934743
-0.67493993 0.10997758 0.97239429 9934743
-0.62489533 0.11007299 0.97322029 9934743
-0.57499146 0.11016794 0.97409016 9934743
-0.52505893 0.11026324 0.97488582 9934743
-0.47498256 0.11035863 0.97572833 9934743
-0.42430949 0.11045991 0.97553504 9934743
-0.3750678 0.11056443 0.97398525 9934743
-0.32500833 0.11065958 0.97486615 9934743
-0.27555171 0.11076608 0.97296995 9934743
-0.22501004 0.11086564 0.9730978 9934743
-0.17494009 0.11096086 0.97396481 9342606
-0.12495624 0.11105634 0.97475439 3026478
-0.072604977 0.1105194 0.97736776 2894892
-0.045578092 0.10654039 0.96623963 2894892
-0.062265012 -0.45677978 1.035917 2894892
-0.059449356 -0.42483357 1.0246797 2894892
-0.059410177 -0.37494519 1.0243585 2894892
-0.05940754 -0.32501215 1.024182 2894892
-0.059387803 -0.27499291 1.0239377 2894892
-0.059375688 -0.22488973 1.0237231 2894892
-0.059360102 -0.1749118 1.023495 2894892
-0.059826612 -0.12532231 1.0251739 2894892
-0.05988745 -0.075027511 1.0252476 2894892
-0.059880156 -0.025017869 1.0250524 2894892
-0.05986746 0.025010809 1.024835 2894892
-0.059849512 0.074978143 1.0245984 2894892
-0.81087947 0.10943435 1.033276 9934743
-0.77500737 0.10954321 1.0248749 9934743
-0.72440916 0.10964267 1.0250436 9934743
-0.67502505 0.10975061 1.0228015 9934743
-0.6250791 0.1098453 1.0237415 9934743
-0.57504642 0.10994065 1.0245732 9934743
-0.52498782 0.11003558 1.0255134 9934743
-0.47557965 0.11013234 1.025751 9934743
-0.42506647 0.11024286 1.0234289 9934743
-0.37514475 0.11033764 1.0243413 9934743
-0.32513493 0.11043234 1.025299 9934743
-0.274443 0.11054343 1.0229378 9934743
-0.2250312 0.11064015 1.0231879 9934743
-0.17503911 0.11073501 1.0241207 6645093
-0.12502156 0.11083035 1.0249468 2894892
-0.073840775 0.10926146 1.0243682 2894892
-0.072839469 -0.46611229 1.0777504 2894892
-0.072138764 -0.42489976 1.074844 2894892
-0.072126687 -0.37490243 1.0746297 2894892
-0.072105147 -0.32497236 1.0743786 2894892
-0.072090991 -0.27501771 1.0741553 2894892
-0.072075084 -0.2249074 1.0739264 2894892
-0.07206589 -0.17486033 1.0737234 2894892
-0.07204438 -0.12501465 1.0734723 2894892
-0.072027288 -0.075010858 1.0732381 2894892
-0.072329707 -0.024403449 1.0742651 2894892
-0.072609991 0.024984889 1.0752094 2894892
-0.072588973 0.074979305 1.0749595 2894892
-0.85725617 0.10910061 1.0870334 10197915
-0.82342309 0.10922973 1.0732313 10132122
-0.77506733 0.10932775 1.0727303 10066329
-0.72503227 0.10942235 1.0737346 10000536
-0.6749841 0.10951769 1.0745811 9934743
-0.62499571 0.10961259 1.0754972 9934743
-0.57499337 0.10970721 1.0764786 9934743
-0.52497864 0.10980227 1.0773703 9934743
-0.47492805 0.10990471 1.0766294 9934743
-0.42488229 0.11002948 1.0709325 9934743
-0.37484854 0.11012428 1.0718923 9934743
-0.32487708 0.11021948 1.0727292 9934743
-0.27496585 0.11031414 1.0736644 9934743
-0.22496974 0.11040884 1.0746226 9868950
-0.17496061 0.11050393 1.075498 3815994
-0.12501442 0.11059862 1.0764433 2894892
-0.080565885 0.10842479 1.075085 2894892
-0.088632248 -0.50501978 1.1403124 2894892
-0.084979936 -0.47433436 1.1257716 2894892
-0.084826976 -0.42496625 1.1250031 2894892
-0.084805012 -0.3748762 1.1247492 2894892
-0.084794663 -0.32494965 1.1245431 2894892
-0.084769294 -0.27504283 1.1242768 2894892
-0.084753074 -0.22492459 1.1240455 2894892
-0.084733523 -0.17482577 1.1238006 2894892
-0.084723115 -0.12498333 1.1235934 2894892
-0.084695473 -0.075067379 1.1233183 2894892
-0.084993012 -0.025706587 1.1243312 2894892
-0.085331544 0.025023349 1.1255 2894892
-0.085307717 0.075001694 1.1252394 2894892
-0.90477693 0.10875286 1.1433918 10197915
-0.87138754 0.10889363 1.1268101 10197915
-0.82507861 0.10899642 1.124352 10197915
-0.77505571 0.10909144 1.1252599 10197915
-0.7258743 0.10918874 1.1252782 10197915
-0.67505819 0.10930089 1.1227235 10132122
-0.62499583 0.10939597 1.1236292 10000536
-0.57503134 0.10949013 1.1247028 9934743
-0.52507204 0.10958531 1.1255379 9934743
-0.47434416 0.1096858 1.1255405 9934743
-0.42498672 0.10979538 1.1229216 9934743
-0.37483373 0.10989013 1.1239328 9934743
-0.3249011 0.10998449 1.1249415 9934743
-0.27496105 0.11007931 1.1258529 9934743
-0.22603406 0.1101844 1.1240287 8158332
-0.17496985 0.11028862 1.1233423 2894892
-0.12491184 0.11038408 1.1241721 2894892
-0.088307455 0.10750105 1.1237195 2894892
-0.10176928 -0.51665562 1.1922851 2894892
-0.096344501 -0.51184821 1.1708235 2894892
-0.10172953 -0.47505978 1.1919889 2894892
-0.09588284 -0.47488695 1.1688751 2894892
-0.10170811 -0.42509386 1.1917379 2894892
-0.095862694 -0.42492056 1.1686292 2894892
-0.10167927 -0.37490034 1.191457 2894892
-0.095840141 -0.37489259 1.1683743 2894892
-0.10167263 -0.32497913 1.1912647 2894892
-0.095824651 -0.32496825 1.1681467 2894892
-0.10239344 -0.27501485 1.1939483 2894892
-0.095806807 -0.27498299 1.1679097 2894892
-0.10236186 -0.22484604 1.193656 2894892
-0.095770493 -0.22485958 1.167599 2894892
-0.10234022 -0.17486021 1.1934042 2894892
-0.095759325 -0.17483474 1.1673883 2894892
-0.10232858 -0.12506357 1.1931922 2894892
-0.095743813 -0.12499443 1.1671615 2894892
-0.10230707 -0.075120874 1.1929412 2894892
-0.095714621 -0.075013354 1.1668788 2894892
-0.10227556 -0.025036661 1.1926497 2894892
-0.095701061 -0.024973599 1.166659 2894892
-0.10225393 0.025029615 1.1923975 2894892
-0.095680892 0.024966575 1.1664132 2894892
-0.10224221 0.075071476 1.1921848 2894892
-0.095653944 0.074964121 1.1661403 2894892
-0.95012754 0.10843039 1.1951008 10197915
-0.91898561 0.10856067 1.1798468 10197915
-0.87505901 0.10866427 1.1761734 10197915
-0.82509857 0.10875859 1.1771935 10197915
-0.77504879 0.10885309 1.1782174 10197915
-0.72490746 0.10896042 1.1764469 10197915
-0.67488223 0.10908722 1.1702938 10197915
-0.62490386 0.10918158 1.1713079 10197915
-0.57493442 0.10927566 1.1723952 10132122
-0.5249747 0.10937081 1.1732562 10066329
-0.47483292 0.10946515 1.1743492 9934743
-0.42498934 0.1095596 1.1753175 9934743
-0.37515852 0.10965369 1.1763304 9934743
-0.32504562 0.10974805 1.1774224 9934743
-0.2750428 0.10984325 1.1782809 9934743
-0.22486192 0.10995773 1.1749189 4868682
-0.17505179 0.11007627 1.1704987 2894892
-0.12279804 0.10963103 1.1735474 2894892
-0.095954187 0.10622551 1.1646352 2894892
-0.11418361 -0.55264503 1.2414807 2894892
-0.10972801 -0.52287722 1.2237679 2894892
-0.10936278 -0.4749462 1.2221645 2894892
-0.10935613 -0.42498323 1.2219716 2894892
-0.10932098 -0.3749122 1.2216663 2894892
-0.10992432 -0.32451975 1.2238839 2894892
-0.11085688 -0.27496627 1.2274055 2894892
-0.11082535 -0.22483352 1.2271132 2894892
-0.11079773 -0.17484638 1.2268379 2894892
-0.11078247 -0.12501013 1.2266122 2894892
-0.11076333 -0.075066626 1.2263697 2894892
-0.11073192 -0.025018368 1.226079 2894892
-0.11070849 0.025011335 1.2258202 2894892
-0.11069316 0.075017288 1.2255933 2894892
-0.96574295 0.10822387 1.2341009 10197915
-0.9262507 0.10834204 1.2252545 10197915
-0.87483865 0.10845299 1.2232053 10197915
-0.82512766 0.10854634 1.2243707 10197915
-0.77520108 0.10864071 1.2253516 10197915
-0.72384167 0.10874519 1.2247368 10197915
-0.67499244 0.1088541 1.2220216 10197915
-0.6250037 0.10894813 1.2231224 10197915
-0.57502991 0.10904186 1.2243098 10197915
-0.52507055 0.10913716 1.2251486 10197915
-0.47522613 0.10923026 1.226379 10132122
-0.4253906 0.10932531 1.2271686 10132122
-0.37519571 0.10944348 1.2230308 9934743
-0.32518598 0.1095377 1.2241119 9934743
-0.2749663 0.1096328 1.2250626 9079434
-0.22376096 0.10973652 1.22461 2894892
-0.17493877 0.10984512 1.2219137 2894892
-0.12436435 0.10852641 1.2224009 2894892
-0.12384928 -0.56131881 1.2797202 2894892
-0.12244545 -0.52494681 1.2740492 2894892
-0.12242796 -0.47496438 1.2738135 2894892
-0.12242075 -0.42500505 1.2736192 2894892
-0.12238112 -0.37493142 1.2732964 2894892
-0.12299985 -0.3256129 1.2755775 2894892
-0.12317942 -0.27499485 1.2761196 2894892
-0.12316398 -0.2248736 1.2758907 2894892
-0.12312736 -0.1748466 1.2755803 2894892
-0.12311189 -0.12499486 1.275353 2894892
-0.12307555 -0.075086877 1.2750423 2894892
-0.12306014 -0.025050163 1.2748152 2894892
-0.12303413 0.025043117 1.274546 2894892
-0.1229975 0.075037502 1.2742348 2894892
-1.0112957 0.10790113 1.2857875 10197915
-0.9749822 0.10800812 1.2779957 10197915
-0.92370385 0.10811915 1.275913 10197915
-0.87517321 0.10822269 1.2742441 10197915
-0.82531297 0.10831695 1.2752459 10197915
-0.77511185 0.10843724 1.2706151 10197915
-0.7249465 0.10853193 1.2716589 10197915
-0.67508197 0.10862529 1.2728488 10197915
-0.62513334 0.10871938 1.2739215 10197915
-0.57509804 0.10881345 1.2750536 10197915
-0.524975 0.10890824 1.2760675 10197915
-0.47489724 0.10900217 1.2772313 10197915
-0.42474195 0.10909786 1.2780367 10197915
-0.37502432 0.10921597 1.2736652 10132122
-0.32507744 0.10931116 1.2745154 10132122
-0.27568772 0.10940641 1.2750744 6447714
-0.22497094 0.10952555 1.2709279 2894892
-0.17496571 0.10961928 1.2721101 2894892
-0.13110645 0.10783894 1.2723612 2894892
-0.14143439 -0.60207456 1.3493733 2894892
-0.13628954 -0.57212603 1.3289347 2894892
-0.13575201 -0.52497178 1.3266537 2894892
-0.13572268 -0.4748553 1.3263702 2894892
-0.13570613 -0.42491859 1.3261392 2894892
-0.13567752 -0.37492162 1.3258594 2894892
-0.13563704 -0.32502684 1.3255335 2894892
-0.13560918 -0.27499488 1.3252561 2894892
-0.13559163 -0.22482793 1.3250198 2894892
-0.13556308 -0.17483674 1.3247403 2894892
-0.13552259 -0.12502599 1.3244151 2894892
-0.1354948 -0.075078398 1.3241384 2894892
-0.1354773 -0.024996126 1.3239025 2894892
-0.13544869 0.024989095 1.3236235 2894892
-0.13540886 0.075029038 1.3232991 2894892
-1.0580423 0.10756177 1.3406339 10197915
-1.023712 0.10768925 1.3274152 10197915
-0.97501731 0.10778593 1.3273487 10197915
-0.92495495 0.10787963 1.3285772 10197915
-0.87480414 0.10797405 1.3296648 10197915
-0.82568169 0.10809155 1.325174 10197915
-0.77528441 0.10821786 1.3192799 10197915
-0.72508526 0.10831182 1.3204968 10197915
-0.67507178 0.10840666 1.3214344 10197915
-0.62510371 0.10849972 1.3227513 10197915
-0.57505053 0.10859419 1.3237929 10197915
-0.52504653 0.1086878 1.3250049 10197915
-0.47482032 0.10878193 1.3261919 10197915
-0.42477757 0.10887607 1.3273001 10197915
-0.3747879 0.10897025 1.3283767 10197915
-0.32484558 0.10906352 1.3296227 9934743
-0.27591661 0.10917617 1.3261322 3487029
-0.22503382 0.10930784 1.3192745 2894892
-0.17490335 0.10940199 1.3204091 2894892
-0.13854212 0.10702743 1.3204508 2894892
-0.15235503 -0.61176324 1.3925769 2894892
-0.14699313 -0.60700613 1.3713647 2894892
-0.1522418 -0.57526386 1.3920078 2894892
-0.1462556 -0.57525396 1.3683431 2894892
-0.15223286 -0.52498192 1.3918048 2894892
-0.14623559 -0.52497405 1.3680964 2894892
-0.15217735 -0.47471815 1.3914186 2894892
-0.14617696 -0.47485587 1.367698 2894892
-0.15215693 -0.42476442 1.3911721 2894892
-0.14617963 -0.42490241 1.3675425 2894892
-0.15212512 -0.37512013 1.3908806 2894892
-0.14614888 -0.37496623 1.3672546 2894892
-0.15208144 -0.32520816 1.3905416 2894892
-0.14608467 -0.32505456 1.366835 2894892
-0.15207255 -0.275029 1.3903395 2894892
-0.14608172 -0.27502054 1.3666562 2894892
-0.15201709 -0.22487418 1.3899533 2894892
-0.14603978 -0.22486758 1.3663241 2894892
-0.15199672 -0.17502384 1.3897065 2894892
-0.14602552 -0.17487432 1.3661014 2894892
-0.15195313 -0.1251961 1.3893685 2894892
-0.14596146 -0.12504674 1.3656818 2894892
-0.15194428 -0.075101487 1.389167 2894892
-0.14595839 -0.075097151 1.3655034 2894892
-0.15188886 -0.025031317 1.388781 2894892
-0.14591663 -0.02502873 1.3651717 2894892
-0.15185677 0.025024256 1.3884876 2894892
-0.14588578 0.025021678 1.3648833 2894892
-0.15184799 0.075052083 1.3882862 2894892
-0.14586587 0.075047776 1.3646382 2894892
-1.1057916 0.10721087 1.3975819 10197915
-1.0727161 0.10735164 1.3808626 10197915
-1.0251578 0.10748267 1.3726835 10197915
-0.97520131 0.10757624 1.3738786 10197915
-0.9251591 0.10767042 1.3749739 10197915
-0.87521946 0.10776304 1.3763728 10197915
-0.82470375 0.10788621 1.3712319 10197915
-0.77519011 0.10798196 1.3717531 10197915
-0.72495854 0.10807575 1.3730228 10197915
-0.67491704 0.10816948 1.3742139 10197915
-0.62493169 0.10826301 1.3754425 10197915
-0.57500005 0.10835727 1.3764747 10197915
-0.52498275 0.10845027 1.3778216 10197915
-0.47679195 0.10855066 1.3767214 10197915
-0.42518643 0.10866833 1.3732929 10197915
-0.37487677 0.10876261 1.3744843 10197915
-0.32485425 0.10885587 1.3757713 7763574
-0.27318519 0.10897401 1.3722645 2894892
-0.22496098 0.10907333 1.3714209 2894892
-0.17351647 0.10878703 1.3733572 2894892
-0.14615498 0.10578083 1.3627996 2894892
-0.16122888 -0.6196363 1.4276829 2894892
-0.16056961 -0.57527906 1.4249288 2894892
-0.16054386 -0.5249905 1.4246598 2894892
-0.16049294 -0.47491947 1.4242922 2894892
-0.16047218 -0.42496902 1.4240441 2894892
-0.16043836 -0.37493831 1.4237436 2894892
-0.16039151 -0.32502979 1.4233929 2894892
-0.16037491 -0.27504283 1.4231606 2894892
-0.16033259 -0.22488123 1.4228264 2894892
-0.16030298 -0.17483643 1.4225421 2894892
-0.16025618 -0.12501238 1.4221917 2894892
-0.16023965 -0.07510978 1.4219602 2894892
-0.16019745 -0.025032662 1.4216268 2894892
-0.16016351 0.025025593 1.4213259 2894892
-0.16013801 0.075060405 1.4210582 2894892
-1.118914 0.10703541 1.4308059 10197915
-1.0743746 0.10713658 1.4279271 10197915
-1.0249941 0.10725919 1.422413 10197915
-0.97486854 0.10735211 1.4238282 10197915
-0.92494547 0.10744544 1.4250625 10197915
-0.87507915 0.10753923 1.4261714 10197915
-0.82701719 0.10764375 1.424096 10197915
-0.77530766 0.10775863 1.4213296 10197915
-0.72510123 0.10785198 1.42268 10197915
-0.67500454 0.10794669 1.4236879 10197915
-0.62501287 0.10803965 1.4250337 10197915
-0.57493442 0.10813276 1.4263843 10197915
-0.52496415 0.10822672 1.4275008 10197915
-0.4733361 0.10833848 1.4253889 10197915
-0.42494157 0.10844705 1.4225761 10197915
-0.37487417 0.10854027 1.4238876 10197915
-0.32501087 0.10863353 1.4251112 4868682
-0.27506298 0.10872657 1.4264226 2894892
-0.22673558 0.1088285 1.4250432 2894892
-0.17393875 0.1075773 1.4204402 2894892
-0.17473647 -0.6562947 1.4812034 2894892
-0.17270429 -0.62517613 1.4730666 2894892
-0.17267969 -0.57525396 1.4728037 2894892
-0.17346674 -0.5240289 1.4757437 2894892
-0.17373089 -0.47483206 1.4766238 2894892
-0.17370786 -0.42488524 1.4763674 2894892
-0.17367133 -0.37505788 1.4760574 2894892
-0.17362125 -0.32515252 1.475692 2894892
-0.17360786 -0.27506265 1.4754732 2894892
-0.17355254 -0.2248946 1.4750872 2894892
-0.17352484 -0.17494705 1.4748119 2894892
-0.17347483 -0.12512605 1.474448 2894892
-0.17346148 -0.075120665 1.4742289 2894892
-0.17340621 -0.02503714 1.4738431 2894892
-0.17336953 0.025030097 1.4735317 2894892
-0.17335145 0.075071283 1.4732933 2894892
-1.1627467 0.10673384 1.4785358 10197915
-1.1248789 0.10683145 1.4735142 10197915
-1.0751441 0.1069242 1.4747937 10197915
-1.0249212 0.10701729 1.4762131 10197915
-0.97481006 0.10711133 1.4773744 10197915
-0.92481446 0.10720456 1.4786608 10197915
-0.87472916 0.10729796 1.4799486 10197915
-0.82338995 0.10741517 1.4765005 10197915
-0.77523261 0.10751948 1.4745176 10197915
-0.72656035 0.10762387 1.472744 10197915
-0.67485273 0.10774186 1.469278 10197915
-0.62487203 0.10783515 1.4705521 10197915
-0.57500356 0.10792766 1.471946 10197915
-0.52504849 0.10802144 1.4730923 10197915
-0.47480804 0.1081152 1.4743699 10197915
-0.42488012 0.10820895 1.4755111 10197915
-0.37507594 0.10830076 1.4770347 9013641
-0.32497558 0.10839481 1.4781827 2894892
-0.27499685 0.10848811 1.4794517 2894892
-0.22325738 0.108601 1.4771343 2894892
-0.18206194 0.10728798 1.4715624 2894892
-0.18665081 -0.66685998 1.5283387 2894892
-0.18565033 -0.6251756 1.5242451 2894892
-0.18561251 -0.57516366 1.5239289 2894892
-0.18638118 -0.5259161 1.5268042 2894892
-0.18676731 -0.47494376 1.5281601 2894892
-0.1867156 -0.42496809 1.5277897 2894892
-0.18667635 -0.3750101 1.5274681 2894892
-0.1866492 -0.32507646 1.5271953 2894892
-0.18661004 -0.27503571 1.5268729 2894892
-0.18655811 -0.22489087 1.5265012 2894892
-0.18651871 -0.17489067 1.5261793 2894892
-0.18649186 -0.12504117 1.5259073 2894892
-0.18645255 -0.075084947 1.5255857 2894892
-0.18640079 -0.025024686 1.5252137 2894892
-0.1863614 0.025017628 1.5248911 2894892
-0.18633442 0.075035587 1.5246183 2894892
-1.2093323 0.10639971 1.5322737 10197915
-1.1744542 0.10651602 1.521776 10197915
-1.1249722 0.10661002 1.5226667 10197915
-1.0748173 0.10670336 1.5239996 10197915
-1.0249859 0.10679547 1.5254637 10197915
-0.97506732 0.10688903 1.5266509 10197915
-0.9250623 0.10698274 1.5278366 10197915
-0.87497365 0.10707468 1.5294504 10197915
-0.82499915 0.10716767 1.5307814 10197915
-0.77515531 0.10726173 1.531821 10197915
-0.72336262 0.10741284 1.521035 10197915
-0.67510659 0.10752325 1.5177463 10197915
-0.62492776 0.10761607 1.5192021 10197915
-0.57486886 0.10771058 1.5202408 10197915
-0.52493203 0.10780232 1.5218327 10197915
-0.47490555 0.10789677 1.5228688 10197915
-0.42500755 0.1079884 1.5244608 10197915
-0.3752282 0.10808178 1.5256268 6184542
-0.32515222 0.10817439 1.5270852 2894892
-0.27499348 0.10826843 1.5282621 2894892
-0.22495806 0.10836221 1.5294373 2894892
-0.18956336 0.10618511 1.5254467 2894892
-0.20223685 -0.70552343 1.5900822 2894892
-0.19885972 -0.70276594 1.5767224 2894892
-0.20221044 -0.67447466 1.5898741 2894892
-0.19701451 -0.67460012 1.5693341 2894892
-0.20268683 -0.62133616 1.5915804 2894892
-0.19695078 -0.62526858 1.5689174 2894892
-0.20345899 -0.57535458 1.5944804 2894892
-0.19690919 -0.57509828 1.5685867 2894892
-0.20341599 -0.52503979 1.5941432 2894892
-0.19684508 -0.52473414 1.5681661 2894892
-0.20335539 -0.47507894 1.5937372 2894892
-0.19682591 -0.47482413 1.5679239 2894892
-0.20333031 -0.42513728 1.5934719 2894892
-0.19676229 -0.42493802 1.5675062 2894892
-0.20328727 -0.37488592 1.5931344 2894892
-0.1967209 -0.37506717 1.5671767 2894892
-0.20322675 -0.32498622 1.5927289 2894892
-0.19670188 -0.325223 1.5669352 2894892
-0.20320176 -0.27510977 1.5924641 2894892
-0.19666055 -0.2751793 1.5666054 2894892
-0.20315872 -0.22492196 1.5921266 2894892
-0.19659653 -0.22494411 1.566185 2894892
-0.2031157 -0.17475545 1.5917896 2894892
-0.1965549 -0.17494085 1.5658544 2894892
-0.20305523 -0.12493999 1.5913851 2894892
-0.19653587 -0.12518075 1.5656128 2894892
-0.20303032 -0.075147651 1.5911207 2894892
-0.19649461 -0.075221524 1.5652837 2894892
-0.20298737 -0.025044506 1.5907843 2894892
-0.19643067 -0.025070982 1.5648639 2894892
-0.20294441 0.025037447 1.5904478 2894892
-0.19638905 0.025063906 1.5645325 2894892
-0.20290148 0.075098194 1.590111 2894892
-0.19636983 0.075172 1.5642895 2894892
-1.2573946 0.10604534 1.5898763 10197915
-1.2233084 0.10618269 1.5743473 10197915
-1.1749513 0.10628012 1.5739918 10197915
-1.1248615 0.10637452 1.5750611 10197915
-1.0748945 0.10646588 1.5767448 10197915
-1.0250552 0.10655988 1.5778034 10197915
-0.97513026 0.10665116 1.5794882 10197915
-0.92511803 0.10674474 1.5807066 10197915
-0.87652165 0.10686793 1.5747151 10197915
-0.82478851 0.10697199 1.5743653 10197915
-0.77458411 0.10706529 1.5757347 10197915
-0.7242133 0.10719623 1.5688121 10197915
-0.67495227 0.10729121 1.5693772 10197915
-0.62520409 0.10738301 1.5708821 10197915
-0.57515562 0.10747532 1.5723975 10197915
-0.52501982 0.10756919 1.5736058 10197915
-0.47523111 0.10766169 1.5749589 10197915
-0.42535296 0.10775441 1.5763153 9934743
-0.37539265 0.1078473 1.5776732 3421236
-0.32534236 0.10794027 1.579034 2894892
-0.27520943 0.10803342 1.580397 2894892
-0.22489986 0.10768954 1.5795869 2894892
-0.19653705 0.10469758 1.5641531 2894892
-0.2113965 -0.71383864 1.6263194 2894892
-0.21032713 -0.67490441 1.6219625 2894892
-0.21054897 -0.62615144 1.622677 2894892
-0.21160041 -0.57519871 1.6266642 2894892
-0.21159253 -0.52488148 1.6264663 2894892
-0.21149179 -0.47492054 1.6259016 2894892
-0.21150351 -0.42498305 1.6257811 2894892
-0.211459 -0.37506202 1.6254389 2894892
-0.21135825 -0.32516643 1.6248753 2894892
-0.21136045 -0.27512115 1.6247168 2894892
-0.21129735 -0.22493084 1.6243006 2894892
-0.21128049 -0.1749258 1.6240671 2894892
-0.21117996 -0.1251144 1.6235037 2894892
-0.21118215 -0.075153612 1.6233463 2894892
-0.21111904 -0.025047984 1.6229303 2894892
-0.21107438 0.025040928 1.6225873 2894892
-0.21148878 0.076227419 1.6240543 2894892
-1.3045331 0.10569924 1.6460301 10132122
-1.2716022 0.10583361 1.6306657 10132122
-1.2251034 0.1059347 1.6286666 10197915
-1.1768411 0.10603467 1.6276985 10197915
-1.1247964 0.1061637 1.6219329 10197915
-1.0750005 0.10625656 1.6232145 10197915
-1.0251173 0.10634845 1.6247553 10197915
-0.97514659 0.10644162 1.6260414 10197915
-0.92509007 0.10653382 1.6275873 10197915
-0.87404013 0.10666801 1.6202377 10197915
-0.82478189 0.10676325 1.620757 10197915
-0.77464622 0.10685622 1.6221629 10197915
-0.72486991 0.10694852 1.6235651 10197915
-0.67500359 0.107041 1.6249679 10197915
-0.62505484 0.1071336 1.6263741 10197915
-0.57501554 0.10722636 1.6277827 10197915
-0.52511686 0.10731811 1.6293564 10197915
-0.47764373 0.10742595 1.6262945 10197915
-0.42514274 0.10754748 1.6223986 7697781
-0.37505168 0.10763924 1.6240541 2894892
-0.32488239 0.10773344 1.6252038 2894892
-0.27461722 0.10782667 1.6266106 2894892
-0.22312877 0.10676759 1.6235219 2894892
-0.22713761 -0.75253183 1.6886762 2894892
-0.22338191 -0.72332937 1.6737319 2894892
-0.22313994 -0.67488754 1.6726139 2894892
-0.22305216 -0.62521625 1.6721022 2894892
-0.22300637 -0.57521385 1.6717545 2894892
-0.22299927 -0.52488995 1.6715596 2894892
-0.22289126 -0.47493187 1.6709657 2894892
-0.22290532 -0.42499709 1.670855 2894892
-0.22420807 -0.37474433 1.6758376 2894892
-0.22424743 -0.32520607 1.6758287 2894892
-0.22419934 -0.2751582 1.6754718 2894892
-0.22416905 -0.22499569 1.6751854 2894892
-0.2241209 -0.17498781 1.6748284 2894892
-0.22405815 -0.1251453 1.674414 2894892
-0.22401017 -0.075181901 1.6740583 2894892
-0.22397999 -0.025103938 1.6737721 2894892
-0.2239324 0.025096843 1.6734167 2894892
-0.22420995 0.074083544 1.6743507 2894892
-1.3174604 0.10552707 1.6786069 10066329
-1.2753886 0.10561704 1.6771289 10197915
-1.2253867 0.10570885 1.6787378 10197915
-1.1728797 0.1058258 1.6758572 10197915
-1.125181 0.10593981 1.6715195 10197915
-1.0748861 0.10603448 1.6726192 10197915
-1.0249541 0.106126 1.6742573 10197915
-0.97516596 0.10621809 1.6757102 10197915
-0.92483425 0.10631029 1.6773658 10197915
-0.875494 0.10640596 1.677827 10197915
-0.82466143 0.10654191 1.6699923 10197915
-0.77482599 0.10663411 1.6714377 10197915
-0.72524971 0.1067265 1.6727366 10197915
-0.6752407 0.10681902 1.6741867 10197915
-0.62514949 0.10691045 1.6759179 10197915
-0.57497275 0.10700453 1.6770948 10197915
-0.52504599 0.10709628 1.6786819 10197915
-0.47257328 0.10722297 1.673622 10197915
-0.42491972 0.10732753 1.6713632 4802889
-0.37469807 0.10742048 1.6728114 2894892
-0.32484534 0.10751279 1.674243 2894892
-0.27514124 0.10760476 1.6756808 2894892
-0.23379296 0.10661191 1.6755075 2894892
-0.23639838 -0.76090848 1.7253133 2894892
-0.23518793 -0.72492731 1.7204089 2894892
-0.23520489 -0.67488796 1.7203093 2894892
-0.23511088 -0.6252296 1.7197729 2894892
-0.23506267 -0.5752297 1.7194159 2894892
-0.23505642 -0.52489889 1.7192243 2894892
-0.23609941 -0.47376218 1.7231764 2894892
-0.23649317 -0.42496055 1.7245697 2894892
-0.23783208 -0.37558311 1.729699 2894892
-0.23796743 -0.32521209 1.7300667 2894892
-0.23786098 -0.27516213 1.7294796 2894892
-0.23787795 -0.22495686 1.7293789 2894892
-0.23779371 -0.17494665 1.7288795 2894892
-0.23776653 -0.12514201 1.7286065 2894892
-0.23766033 -0.07517653 1.7280197 2894892
-0.23767728 -0.025055859 1.7279201 2894892
-0.23762697 0.025048792 1.7275544 2894892
-0.23750949 0.075127065 1.7269236 2894892
-1.3677268 0.10516722 1.7364599 10066329
-1.3252196 0.10533443 1.718006 10132122
-1.2750926 0.10542694 1.7195148 10197915
-1.2248851 0.10552092 1.7207248 10197915
-1.1745826 0.10561239 1.7225398 10197915
-1.1248909 0.10570411 1.7240351 10197915
-1.0751128 0.10579595 1.7255335 10197915
-1.0249032 0.10588928 1.7268918 10197915
-0.97495013 0.10598145 1.7283945 10197915
-0.9252668 0.10607246 1.7300435 10197915
-0.87393492 0.1061748 1.7298951 10197915
-0.82453406 0.10630752 1.7221431 10197915
-0.77454698 0.1063998 1.7236382 10197915
-0.72470999 0.10649093 1.7253299 10197915
-0.67479074 0.10658399 1.7266215 10197915
-0.62740278 0.10669301 1.7232515 10197915
-0.57502198 0.10681682 1.7187918 10197915
-0.52492052 0.106908 1.720582 10197915
-0.47472912 0.10700209 1.7217724 9013641
-0.42480093 0.10709361 1.7234071 2894892
-0.37479231 0.10718663 1.7247425 2894892
-0.32469288 0.10727849 1.7263829 2894892
-0.27486295 0.10737054 1.7278637 2894892
-0.24029621 0.10543853 1.7263614 2894892
-0.25306633 -0.8007583 1.7913383 2894892
-0.25303856 -0.77469969 1.7911416 2894892
-0.24674784 -0.77021939 1.7662587 2894892
-0.25298548 -0.72483015 1.7907654 2894892
-0.24634691 -0.72495478 1.7645226 2894892
-0.2529324 -0.67498177 1.7903904 2894892
-0.24632664 -0.67485732 1.7642759 2894892
-0.25287953 -0.62515455 1.7900157 2894892
-0.24624294 -0.62527287 1.7637804 2894892
-0.25282639 -0.57534778 1.7896402 2894892
-0.24619201 -0.57521349 1.7634125 2894892
-0.25277257 -0.52481914 1.789259 2894892
-0.24617121 -0.52493846 1.763163 2894892
-0.25271958 -0.47505432 1.7888838 2894892
-0.24706855 -0.47737184 1.7665521 2894892
-0.25266659 -0.4253107 1.7885088 2894892
-0.2476932 -0.42502654 1.7688469 2894892
-0.25261286 -0.37484574 1.7881281 2894892
-0.24764109 -0.37511632 1.7684749 2894892
-0.25255993 -0.32514393 1.7877532 2894892
-0.24758898 -0.32522717 1.7681026 2894892
-0.25250697 -0.27546307 1.7873787 2894892
-0.24751273 -0.27499509 1.767634 2894892
-0.25245324 -0.22506188 1.7869989 2894892
-0.24748404 -0.22478157 1.7673538 2894892
-0.25360674 -0.17113757 1.7913789 2894892
-0.24743204 -0.17495564 1.7669821 2894892
-0.2540606 -0.12516028 1.7930204 2894892
-0.24738003 -0.12515064 1.7666101 2894892
-0.25395682 -0.075377718 1.792444 2894892
-0.24730389 -0.075003266 1.7661426 2894892
-0.2539283 -0.025244962 1.7921644 2894892
-0.24727535 -0.024874449 1.7658625 2894892
-0.25387415 0.025237784 1.7917821 2894892
-0.24722341 0.024867482 1.7654917 2894892
-0.25379521 0.075328022 1.7913038 2894892
-0.24714732 0.074953988 1.7650245 2894892
-1.4110968 0.10484563 1.7888231 10197915
-1.373288 0.10495561 1.7810326 10197915
-1.3251752 0.1050837 1.7737445 10132122
-1.2748605 0.10517631 1.7753134 10197915
-1.2270107 0.10529474 1.7700583 10197915
-1.1749018 0.10541161 1.7670262 10197915
-1.1250019 0.10550425 1.7684011 10197915
-1.0750233 0.10559555 1.7701098 10197915
-1.0249479 0.10568854 1.7714897 10197915
-0.97515523 0.10577874 1.7733592 10197915
-0.92527318 0.10587212 1.774567 10197915
-0.87529993 0.10596415 1.7761099 10197915
-0.82488191 0.10605625 1.777833 10197915
-0.77473545 0.10614864 1.7793812 10197915
-0.72486943 0.10624124 1.7807543 10197915
-0.674914 0.10633249 1.7824636 10197915
-0.62251753 0.10646125 1.7769177 10197915
-0.57497752 0.10656853 1.7739923 10197915
-0.52496153 0.10666072 1.7755265 10197915
-0.47712776 0.10677518 1.7711433 6513507
-0.42465225 0.10689613 1.7673625 2894892
-0.37482327 0.10698874 1.768718 2894892
-0.32490373 0.10708002 1.7704035 2894892
-0.27277249 0.10674591 1.773962 2894892
-0.24730293 0.10439924 1.7643262 2894892
-0.26325893 -0.8097918 1.8316619 2894892
-0.2616339 -0.77497303 1.8251218 2894892
-0.26149958 -0.72492188 1.8244236 2894892
-0.26152387 -0.67488873 1.8243541 2894892
-0.26141557 -0.62525851 1.8237606 2894892
-0.26136214 -0.57526445 1.8233831 2894892
-0.26135877 -0.52491874 1.8232021 2894892
-0.26122457 -0.47496963 1.8225049 2894892
-0.26124877 -0.42504478 1.8224344 2894892
-0.26119375 -0.37513486 1.8220509 2894892
-0.26105964 -0.32525158 1.8213546 2894892
-0.2610704 -0.27519777 1.8212309 2894892
-0.26098928 -0.22497922 1.8207431 2894892
-0.26184869 -0.17667495 1.8239796 2894892
-0.26261395 -0.12513553 1.8268328 2894892
-0.26255947 -0.075167261 1.8264511 2894892
-0.26253882 -0.024967816 1.8262028 2894892
-0.26248336 0.024960799 1.8258173 2894892
-0.26239288 0.075117767 1.8252923 2894892
-1.4571415 0.1045175 1.8414761 10197915
-1.4239763 0.10463196 1.8306372 10197915
-1.3750671 0.10472348 1.8318242 10197915
-1.325003 0.10481627 1.8332485 10197915
-1.2748561 0.10490748 1.8350426 10197915
-1.2228295 0.10504531 1.8273149 10197915
-1.1764514 0.10518866 1.8158709 10197915
-1.1251222 0.10529219 1.8154585 10197915
-1.0752913 0.1053846 1.8168578 10197915
-1.0253727 0.10547554 1.8186197 10197915
-0.97499454 0.10556813 1.8202164 10197915
-0.92490619 0.10566101 1.8216233 10197915
-0.87509406 0.10575259 1.8232019 10197915
-0.82482868 0.10584415 1.8249756 10197915
-0.77484453 0.10593606 1.82656 10197915
-0.72515148 0.10602822 1.8279541 10197915
-0.67499244 0.10612042 1.8295435 10197915
-0.62512994 0.10621125 1.8313048 10197915
-0.57517064 0.10630389 1.8327066 10197915
-0.52513671 0.10639504 1.8344738 9539985
-0.47307476 0.10652831 1.8277792 2960685
-0.42750809 0.10664568 1.8217565 2894892
-0.37485579 0.1067804 1.814994 2894892
-0.32512569 0.1068711 1.8167266 2894892
-0.2768814 0.10629504 1.8186182 2894892
-0.27461004 -0.81985205 1.8765684 2894892
-0.27416548 -0.77506548 1.8746618 2894892
-0.27406994 -0.72495091 1.8741171 2894892
-0.27405012 -0.67485613 1.8738724 2894892
-0.27395406 -0.62530512 1.873328 2894892
-0.27389747 -0.57524824 1.8729379 2894892
-0.27387702 -0.52496094 1.8726903 2894892
-0.27378148 -0.47495037 1.8721455 2894892
-0.27376169 -0.42496213 1.8719007 2894892
-0.27366617 -0.37499091 1.8713567 2894892
-0.27364627 -0.32504731 1.871112 2894892
-0.27388239 -0.27426171 1.8718764 2894892
-0.27534884 -0.22499318 1.8775092 2894892
-0.27533352 -0.1749762 1.877282 2894892
-0.27518895 -0.12518081 1.8765446 2894892
-0.27520314 -0.075209066 1.8764344 2894892
-0.27511656 -0.025066955 1.8759249 2894892
-0.2750583 0.025059873 1.8755282 2894892
-0.27502826 0.07515955 1.8752427 2894892
-1.501963 0.10420505 1.891188 10197915
-1.471324 0.1043091 1.8815491 10197915
-1.424662 0.10440591 1.880574 10197915
-1.3748308 0.10449631 1.8824185 10197915
-1.3249089 0.10458869 1.8838661 10197915
-1.2749038 0.10467941 1.8857167 10197915
-1.2282717 0.10480061 1.8793104 10197915
-1.1737779 0.10497764 1.8639497 10197915
-1.1252451 0.10507032 1.8647165 10197915
-1.0748197 0.10516195 1.8665477 10197915
-1.0246781 0.10525392 1.86818 10197915
-0.97483122 0.10534625 1.8696072 10197915
-0.92489946 0.10543694 1.8714286 10197915
-0.87487781 0.10552957 1.8728608 10197915
-0.82477343 0.10562063 1.8746885 10197915
-0.77496034 0.10571197 1.8763102 10197915
-0.72544944 0.1058037 1.8777258 10197915
-0.67508012 0.10589517 1.8795618 10197915
-0.62462515 0.10598865 1.881008 10197915
-0.57485336 0.10607906 1.882825 10197915
-0.52499515 0.10617135 1.884251 6710886
-0.47505301 0.10626204 1.8860739 2894892
-0.42320445 0.1064324 1.8710476 2894892
-0.37488988 0.10656089 1.8637561 2894892
-0.32497385 0.10665254 1.8653592 2894892
-0.28257364 0.10567613 1.8683562 2894892
-0.28761682 -0.85624832 1.9281082 2894892
-0.28549477 -0.82500207 1.9196159 2894892
-0.28543478 -0.77499473 1.9192109 2894892
-0.28700498 -0.72378129 1.9252486 2894892
-0.2872642 -0.67488956 1.9261106 2894892
-0.28720292 -0.62528676 1.9257032 2894892
-0.28714383 -0.57529861 1.9253039 2894892
-0.28708267 -0.52493805 1.9248941 2894892
-0.28705296 -0.47499523 1.9246101 2894892
-0.28696182 -0.42507645 1.9240838 2894892
-0.28688595 -0.37497279 1.9236171 2894892
-0.28688726 -0.32509631 1.9234565 2894892
-0.2869859 -0.27595159 1.9236826 2894892
-0.28865519 -0.22497329 1.9301125 2894892
-0.288636 -0.17508769 1.9298698 2894892
-0.28853381 -0.12522724 1.9292998 2894892
-0.28851393 -0.07511998 1.9290546 2894892
-0.28841174 -0.025038097 1.9284843 2894892
-0.28835076 0.025031039 1.928076 2894892
-0.288331 0.075070575 1.9278313 2894892
-1.5195268 0.10397349 1.9349265 10197915
-1.4754224 0.10407189 1.9324644 10197915
-1.4250447 0.10416494 1.9339631 10197915
-1.3775287 0.10426101 1.9335376 10197915
-1.324641 0.1044094 1.9238271 10197915
-1.2747447 0.1045007 1.9255084 10197915
-1.2222427 0.1046484 1.9157943 10197915
-1.1747988 0.10474477 1.9152627 10197915
-1.1246014 0.1048357 1.9171491 10197915
-1.0750979 0.10492723 1.9185925 10197915
-1.0255079 0.10501704 1.9204651 10197915
-0.97504842 0.10511033 1.9219471 10197915
-0.92450219 0.10520193 1.9238456 10197915
-0.87464947 0.10529407 1.9253004 10197915
-0.82471454 0.10538451 1.9271859 10197915
-0.77468765 0.10547704 1.9286449 10197915
-0.7249704 0.1055661 1.9307389 10197915
-0.67517531 0.10565917 1.9319758 10197915
-0.62528324 0.1057505 1.9336456 10197915
-0.57491153 0.10584171 1.9355458 10132122
-0.52591318 0.10598858 1.924473 4342338
-0.47538432 0.10608491 1.9253052 2894892
-0.42313498 0.10623498 1.9149492 2894892
-0.37492603 0.10632934 1.9152112 2894892
-0.32481635 0.10642017 1.9170753 2894892
-0.29067484 0.10516556 1.9197762 2894892
-0.30376396 -0.87050796 1.9919882 2894892
-0.29566929 -0.86374867 1.9599661 2894892
-0.30353943 -0.82481354 1.9909488 2894892
-0.29537013 -0.82522976 1.9586549 2894892
-0.30347618 -0.7751621 1.9905335 2894892
-0.29530749 -0.7747556 1.9582398 2894892
-0.3033784 -0.72511828 1.9899808 2894892
-0.29649854 -0.72845328 1.9627943 2894892
-0.30334848 -0.67509824 1.9896961 2894892
-0.29719162 -0.6749922 1.9653562 2894892
-0.30328512 -0.62550932 1.9892802 2894892
-0.29712927 -0.62519336 1.9649441 2894892
-0.30322072 -0.57511491 1.9888582 2894892
-0.29706696 -0.57541555 1.964532 2894892
-0.30315638 -0.52474189 1.9884363 2894892
-0.29700366 -0.52484304 1.9641137 2894892
-0.30305856 -0.47480628 1.9878829 2894892
-0.2969414 -0.47510713 1.9637017 2894892
-0.30302885 -0.4248884 1.9875993 2894892
-0.29687923 -0.42539212 1.9632902 2894892
-0.30293104 -0.37498811 1.987047 2894892
-0.29681599 -0.37488353 1.9628721 2894892
-0.30290127 -0.32511896 1.9867631 2894892
-0.29675379 -0.32521054 1.9624611 2894892
-0.30287161 -0.27526069 1.9864795 2894892
-0.29669169 -0.27555838 1.9620498 2894892
-0.30273947 -0.22502154 1.9857905 2894892
-0.29662853 -0.22511348 1.9616325 2894892
-0.30270976 -0.17520525 1.9855068 2894892
-0.29656538 -0.1746901 1.9612151 2894892
-0.30261219 -0.1254133 1.9849553 2894892
-0.29650334 -0.12510087 1.9608045 2894892
-0.30261603 -0.07523109 1.9848032 2894892
-0.29644126 -0.075532496 1.9603944 2894892
-0.30248404 -0.02507678 1.9841149 2894892
-0.29637828 -0.025172742 1.9599774 2894892
-0.30242008 0.025069699 1.9836943 2894892
-0.29631525 0.02516561 1.9595608 2894892
-0.30242383 0.075181536 1.9835428 2894892
-0.29625231 0.075482562 1.9591441 2894892
-1.5702368 0.10364788 1.9849417 10197915
-1.5250113 0.10379256 1.9726956 10197915
-1.474824 0.10388414 1.9744364 10197915
-1.4253464 0.10397441 1.9761522 10197915
-1.3709409 0.10410166 1.9718283 10197915
-1.324756 0.10422168 1.965487 10197915
-1.2749801 0.10431357 1.966976 10197915
-1.225112 0.10440362 1.9689182 10197915
-1.1751609 0.10449583 1.9704129 10197915
-1.1251193 0.10458618 1.9723611 10197915
-1.0749922 0.10467872 1.9738615 10197915
-1.0247765 0.10476939 1.9758159 10197915
-0.97487295 0.10486051 1.9775342 10197915
-0.92529404 0.10495207 1.9790078 10197915
-0.87521601 0.10504348 1.9807391 10197915
-0.82465243 0.10513479 1.9827073 10197915
-0.77480465 0.10522685 1.9841892 10197915
-0.7285744 0.10534819 1.9775794 10197915
-0.67453521 0.10547334 1.9735609 10197915
-0.6243844 0.10556494 1.9752756 10197915
-0.57495773 0.10565526 1.9769651 8553090
-0.52459276 0.105809 1.9649669 2894892
-0.47492343 0.10590081 1.9664245 2894892
-0.42478156 0.10599247 1.9681264 2894892
-0.37496436 0.10608456 1.9695882 2894892
-0.32336473 0.10585491 1.9721657 2894892
-0.29699269 0.10467759 1.9586754 2894892
-0.31362122 -0.9043113 2.0310688 2894892
-0.31201321 -0.87530965 2.0246153 2894892
-0.31291083 -0.82283533 2.0279896 2894892
-0.31403929 -0.77491331 2.0322909 2894892
-0.31402212 -0.72480631 2.0320568 2894892
-0.31390691 -0.67471534 2.0314345 2894892
-0.31389013 -0.62520933 2.0312037 2894892
-0.31382436 -0.57544023 2.0307772 2894892
-0.31370911 -0.52513278 2.0301547 2894892
-0.31369203 -0.475126 2.0299203 2894892
-0.31357697 -0.42514509 2.0292997 2894892
-0.3135592 -0.37489679 2.0290616 2894892
-0.3134442 -0.32495472 2.0284407 2894892
-0.31337881 -0.27531433 2.0280168 2894892
-0.31336114 -0.22513424 2.0277798 2894892
-0.31324619 -0.17497055 2.0271585 2894892
-0.31322917 -0.12511599 2.0269256 2894892
-0.31311437 -0.075277664 2.0263062 2894892
-0.31309676 -0.02518218 2.0260694 2894892
-0.31303012 0.025175037 2.0256381 2894892
-0.31291538 0.07522808 2.0250175 2894892
-1.6069835 0.10337815 2.0287158 10197915
-1.5708834 0.1034877 2.0202591 10197915
-1.5250975 0.10359556 2.0164416 10197915
-1.4750161 0.10368565 2.0184622 10197915
-1.4248444 0.10377815 2.0199955 10197915
-1.3749897 0.10386894 2.0217626 10197915
-1.3250619 0.10395766 2.0240245 10197915
-1.2750344 0.10405097 2.0253057 10197915
-1.2249181 0.10414226 2.0270824 10197915
-1.1751338 0.1042318 2.029094 10197915
-1.1252527 0.10432377 2.0306151 10197915
-1.0752964 0.10441362 2.0326333 10197915
-1.0273763 0.10450952 2.0324121 10197915
-0.97463572 0.10466488 2.0211036 10197915
-0.92519248 0.10475498 2.0228436 10197915
-0.8748377 0.10484676 2.024616 10197915
-0.82439482 0.1049387 2.026391 10197915
-0.77469236 0.10502927 2.0281401 10197915
-0.72217315 0.10518248 2.0172076 10197915
-0.67510909 0.10527705 2.0169075 10197915
-0.62510067 0.10536934 2.0184128 10197915
-0.57500511 0.1054596 2.0204046 5987163
-0.52482182 0.1055522 2.0219152 2894892
-0.47455344 0.10564278 2.0239134 2894892
-0.42461017 0.10573384 2.0256591 2894892
-0.37500456 0.10582544 2.0271409 2894892
-0.32827163 0.1053545 2.0267179 2894892
-0.32399768 -0.91372705 2.0721197 2894892
-0.32297805 -0.87505186 2.0679605 2894892
-0.32354361 -0.82703072 2.0700362 2894892
-0.32512558 -0.77494574 2.076118 2894892
-0.32505709 -0.7249068 2.0756805 2894892
-0.3249886 -0.67488873 2.075243 2894892
-0.3248812 -0.62532985 2.0746531 2894892
-0.32481417 -0.57534629 2.0742223 2894892
-0.32478344 -0.52496809 2.0739331 2894892
-0.32471511 -0.47503415 2.0734963 2894892
-0.32538086 -0.42309237 2.0759556 2894892
-0.3268587 -0.37512404 2.0816379 2894892
-0.32678959 -0.32503629 2.081198 2894892
-0.32661608 -0.2749795 2.0803461 2894892
-0.32665169 -0.22493424 2.0803199 2894892
-0.32658267 -0.1749099 2.0798798 2894892
-0.32646123 -0.1251972 2.0792339 2894892
-0.32639378 -0.075218372 2.0788023 2894892
-0.32637605 -0.024973486 2.0785644 2894892
-0.32630718 0.024966456 2.0781248 2894892
-0.32618654 0.075168833 2.0774813 2894892
-1.6559209 0.10300815 2.0894032 10197915
-1.6223629 0.10312942 2.0772221 10197915
-1.5750661 0.1032287 2.0759826 10197915
-1.5248032 0.10331759 2.0783486 10197915
-1.4748608 0.10340952 2.0799034 10197915
-1.4248463 0.10349915 2.082 10197915
-1.3784865 0.1035983 2.0803757 10197915
-1.3256096 0.10375109 2.0696886 10197915
-1.275286 0.10384257 2.0715127 10197915
-1.2248738 0.1039342 2.0733414 10197915
-1.1752149 0.10402446 2.0751417 10197915
-1.1254694 0.10411488 2.0769446 10197915
-1.0747923 0.10420696 2.0787823 10197915
-1.0215778 0.10432767 2.075381 10197915
-0.97522455 0.10445795 2.0668364 10197915
-0.92509252 0.10455032 2.0683763 10197915
-0.87528485 0.1046409 2.0701694 10197915
-0.82497501 0.10473123 2.0722437 10197915
-0.77499539 0.10482214 2.0740423 10197915
-0.7253589 0.10491361 2.0755639 10197915
-0.6752044 0.10500482 2.0773687 10197915
-0.62496942 0.10509379 2.0797062 9408399
-0.5746491 0.10518771 2.0809867 3092271
-0.52465773 0.10527743 2.0830512 2894892
-0.47810262 0.10540922 2.074264 2894892
-0.42469013 0.10552996 2.0709429 2894892
-0.37524769 0.10561989 2.0727088 2894892
-0.33337864 0.10467538 2.0753219 2894892
-0.3416687 -0.95401001 2.1421113 2894892
-0.33712688 -0.92367077 2.1240559 2894892
-0.33682218 -0.87496287 2.122689 2894892
-0.33669657 -0.82496381 2.1220262 2894892
-0.33662575 -0.77497494 2.1215808 2894892
-0.33660999 -0.72501701 2.1213512 2894892
-0.33648419 -0.67507523 2.1206889 2894892
-0.3364692 -0.62544972 2.1204634 2894892
-0.33639801 -0.5752545 2.1200154 2894892
-0.33627123 -0.5247907 2.1193466 2894892
-0.33625552 -0.474933 2.119117 2894892
-0.33654878 -0.42679033 2.1201165 2894892
-0.33842006 -0.37502518 2.127342 2894892
-0.33843157 -0.32472426 2.1272204 2894892
-0.33831882 -0.27487388 2.1266088 2894892
-0.33820605 -0.22505626 2.1259964 2894892
-0.33817658 -0.17524792 2.1257143 2894892
-0.3380639 -0.12546436 2.1251035 2894892
-0.33807546 -0.075261533 2.1249824 2894892
-0.33792067 -0.025087565 2.1242025 2894892
-0.33784902 0.025080487 2.1237528 2894892
-0.33786073 0.075211957 2.1236317 2894892
-1.6682708 0.10283872 2.1216238 10197915
-1.6246886 0.10291769 2.1232538 10197915
-1.5750453 0.10300771 2.1251101 10197915
-1.5253154 0.1030978 2.1269693 10197915
-1.4754981 0.10318812 2.1288321 10197915
-1.4255936 0.10327858 2.1306982 10197915
-1.3713857 0.10341472 2.1243012 10197915
-1.3253279 0.10353549 2.117732 10197915
-1.2751234 0.1036253 2.1198733 10197915
-1.2252539 0.10371576 2.1217234 10197915
-1.1748718 0.1038084 2.1233144 10197915
-1.124826 0.1038992 2.1251607 10197915
-1.0751357 0.10398802 2.1272936 10197915
-1.0249168 0.1040791 2.1291573 10197915
-0.97504586 0.10417087 2.1307178 10197915
-0.92706478 0.10426365 2.1312265 10197915
-0.87489122 0.10442577 2.1181583 10197915
-0.82471335 0.10451687 2.1200056 10197915
-0.77444774 0.10460809 2.1218562 10197915
-0.72496355 0.10469793 2.123678 10197915
-0.67539382 0.10478789 2.1255028 10197915
-0.62486708 0.1048796 2.1273632 6776679
-0.57512558 0.10496987 2.1291945 2894892
-0.52529788 0.10506032 2.1310289 2894892
-0.47254884 0.1052217 2.1183798 2894892
-0.42521176 0.10531355 2.1188085 2894892
-0.37550604 0.10540638 2.1200566 2894892
-0.34176755 0.104753 2.1181409 2894892
-0.35146379 -0.96313751 2.1808641 2894892
-0.34652287 -0.95898205 2.1613176 2894892
-0.3514075 -0.92504275 2.1805146 2894892
-0.34647441 -0.9257232 2.161015 2894892
-0.35340321 -0.87167782 2.1882267 2894892
-0.34640118 -0.87540227 2.1605585 2894892
-0.35372502 -0.82499045 2.1893442 2894892
-0.34632808 -0.82510287 2.1601026 2894892
-0.35365054 -0.77492893 2.1888828 2894892
-0.3462548 -0.77482426 2.1596456 2894892
-0.35366729 -0.72490466 2.1887827 2894892
-0.34618148 -0.72456688 2.1591885 2894892
-0.35350159 -0.67489338 2.1879609 2894892
-0.34610829 -0.67433077 2.1587315 2894892
-0.35347345 -0.62535733 2.187685 2894892
-0.3460364 -0.62501228 2.1582835 2894892
-0.35339898 -0.57538807 2.1872246 2894892
-0.34596452 -0.57571453 2.1578352 2894892
-0.3532784 -0.52498567 2.1865799 2894892
-0.34589148 -0.52554131 2.1573789 2894892
-0.35329524 -0.47505862 2.1864798 2894892
-0.34581834 -0.47538939 2.1569231 2894892
-0.35312983 -0.4251605 2.1856599 2894892
-0.34574527 -0.42525861 2.1564672 2894892
-0.35310039 -0.37481794 2.1853759 2894892
-0.34567219 -0.37514898 2.1560111 2894892
-0.35297993 -0.3245008 2.1847322 2894892
-0.34559914 -0.32506058 2.155556 2894892
-0.35295194 -0.27511498 2.1844573 2894892
-0.34552619 -0.27499327 2.1551006 2894892
-0.35287786 -0.22529306 2.1839979 2894892
-0.34545326 -0.22494717 2.1546457 2894892
-0.35275736 -0.17503509 2.1833549 2894892
-0.34538031 -0.17492214 2.1541908 2894892
-0.35277429 -0.12526341 2.1832557 2894892
-0.34530735 -0.12491829 2.1537364 2894892
-0.35260916 -0.075504206 2.1824377 2894892
-0.34523457 -0.074935503 2.1532819 2894892
-0.35258001 -0.025314039 2.1821549 2894892
-0.34516168 -0.024973815 2.1528275 2894892
-0.35326689 0.021261698 2.1847155 2894892
-0.34664068 0.029317064 2.1584935 2894892
-0.35493132 0.075342648 2.1911154 2894892
-0.34747237 0.075224213 2.1616287 2894892
-1.716186 0.10248424 2.1793156 10197915
-1.674854 0.10259682 2.1724875 10197915
-1.6254216 0.10268759 2.1740744 10197915
-1.5750235 0.10277735 2.1763096 10197915
-1.5245371 0.10287004 2.1779368 10197915
-1.4748418 0.10295854 2.1801467 10197915
-1.4276552 0.10305645 2.1791561 10197915
-1.375036 0.10321771 2.1664767 10197915
-1.3250363 0.1033082 2.168376 10197915
-1.2749493 0.10339884 2.1702788 10197915
-1.2247738 0.10348965 2.1721849 10197915
-1.1745106 0.10358063 2.174094 10197915
-1.1250428 0.10367014 2.1759729 10197915
-1.0754895 0.10375983 2.1778553 10197915
-1.0249633 0.10385127 2.1797748 10197915
-0.97434801 0.10394289 2.1816976 10197915
-0.92144698 0.10406194 2.1785307 10197915
-0.87491769 0.10419977 2.1683822 10197915
-0.82488614 0.10429172 2.1699677 10197915
-0.77475947 0.10438115 2.1721573 10197915
-0.72499055 0.10447129 2.1740329 10197915
-0.67514598 0.10456432 2.1752989 10197915
-0.62520885 0.104652 2.1777935 3881787
-0.57518137 0.10474261 2.1796787 2894892
-0.52506709 0.10483337 2.1815679 2894892
-0.47815812 0.10497643 2.1704264 2894892
-0.42574868 0.10509076 2.1680846 2894892
-0.37375155 0.10492808 2.1719773 2894892
-0.34742773 0.10297348 2.1613512 2894892
-0.36687589 -1.0012462 2.2419178 2894892
-0.36217338 -0.97179294 2.2232289 2894892
-0.36157918 -0.92518359 2.2207255 2894892
-0.36297739 -0.87751842 2.226095 2894892
-0.36399996 -0.82497889 2.2299623 2894892
-0.36392319 -0.77492791 2.2294922 2894892
-0.36384651 -0.72489786 2.2290237 2894892
-0.36376998 -0.67488909 2.2285538 2894892
-0.3636449 -0.62537271 2.2278948 2894892
-0.36357012 -0.57539731 2.2274327 2894892
-0.36354032 -0.52499741 2.2271471 2894892
-0.36346376 -0.47507271 2.2266781 2894892
-0.36338735 -0.42516911 2.2262094 2894892
-0.36331096 -0.37528625 2.2257411 2894892
-0.36318657 -0.32496297 2.2250824 2894892
-0.36315686 -0.27466524 2.2247968 2894892
-0.36308047 -0.22484583 2.2243292 2894892
-0.36300418 -0.17504731 2.2238622 2894892
-0.36292794 -0.12526973 2.2233946 2894892
-0.36280361 -0.075056702 2.2227371 2894892
-0.3627741 -0.02486073 2.2224524 2894892
-0.36269778 0.02485377 2.2219861 2894892
-0.3625738 0.075007327 2.2213285 2894892
-1.7586708 0.10220549 2.2225366 10197915
-1.7247113 0.10226677 2.2238688 10197915
-1.6745965 0.10235717 2.2258346 10197915
-1.6243931 0.10244776 2.2278044 10197915
-1.5749998 0.10253687 2.2297428 10197915
-1.5255197 0.10262614 2.2316837 10197915
-1.4750521 0.1027172 2.2336633 10197915
-1.4208956 0.10284743 2.2285669 10197915
-1.3750528 0.10298042 2.2191947 10197915
-1.3251753 0.10306901 2.2214634 10197915
-1.2752204 0.10316069 2.2230787 10197915
-1.2251694 0.10324959 2.2253556 10197915
-1.1750373 0.10334159 2.2269771 10197915
-1.1248125 0.10343079 2.2292609 10197915
-1.076519 0.10352779 2.2289605 10197915
-1.0249957 0.10369284 2.2149704 10197915
-0.9753685 0.10378254 2.2168865 10197915
-0.9247508 0.10387402 2.2188408 10197915
-0.87495011 0.10396402 2.2207627 10197915
-0.82506281 0.10405415 2.2226884 10197915
-0.77508926 0.10414446 2.2246175 10197915
-0.72502851 0.10423492 2.2265496 10197915
-0.6748811 0.10432554 2.2284853 8158332
-0.62556034 0.10441467 2.2303894 2894892
-0.57523936 0.1045056 2.2323313 2894892
-0.52483112 0.10459667 2.2342772 2894892
-0.47347209 0.10476303 2.2199137 2894892
-0.42540121 0.10485782 2.2200091 2894892
-0.37927574 0.1046918 2.2202282 2894892
-0.37561584 -1.0089842 2.2764945 2894892
-0.37484992 -0.97476518 2.2733524 2894892
-0.37472078 -0.92512679 2.2726765 2894892
-0.37474421 -0.87503666 2.2726028 2894892
-0.3745631 -0.82497603 2.2717209 2894892
-0.37448418 -0.77491862 2.2712426 2894892
-0.37450734 -0.72490007 2.2711673 2894892
