# .PCD v0.7 - Point Cloud Data file format
VERSION 0.7
FIELDS x y z rgb
SIZE 4 4 4 4
TYPE F F F U
COUNT 1 1 1 1
WIDTH 1162
HEIGHT 1
VIEWPOINT 0 0 0 1 0 0 0
POINTS 1162
DATA ascii
-0.37535289 0.10972942 1.1226091 10197915
-0.32505217 0.10965664 1.1263747 10197915
-0.27499932 0.10960755 1.1257274 10197915
-0.22499068 0.10955704 1.125352 10197915
-0.1750273 0.10950732 1.1248412 10197915
-0.12501653 0.1094583 1.1241943 10197915
-0.075051628 0.10940767 1.1238537 10197915
-0.025038574 0.10935847 1.1232417 10197915
0.025023375 0.10930868 1.1227301 10197915
0.076068781 0.10924809 1.1240495 10197915
0.12504731 0.10918486 1.1262641 10197915
0.17504932 0.10913531 1.1257206 10197915
0.22500634 0.10908524 1.125266 10197915
0.27499485 0.10903606 1.1246535 10197915
0.32485938 0.10898558 1.1243107 10197915
0.37475836 0.10893647 1.1237015 10197915
0.42499688 0.10888631 1.1232147 10197915
0.4751114 0.10883682 1.1226299 10197915
0.52401781 0.10877123 1.1253059 10197915
0.57500976 0.10871284 1.126232 10197915
0.62502092 0.10866305 1.125715 10197915
0.67498571 0.10861334 1.1252016 10197915
0.72499901 0.10856391 1.1246182 10197915
0.77496439 0.1085139 1.1241713 10197915
0.82497841 0.10846435 1.1236223 10197915
0.87159002 0.10840455 1.1256617 10197915
0.90366733 0.10829267 1.1403627 10197915
-0.67613602 -0.51352763 1.1779978 2960685
-0.67819864 -0.47499478 1.1743246 2960685
-0.6782468 -0.42499736 1.1744115 2960685
-0.67828929 -0.37500185 1.1744969 2960685
-0.67833549 -0.32499868 1.1745853 2960685
-0.67838931 -0.27500606 1.1746559 2894892
-0.67865294 -0.22503443 1.1743352 2894892
-0.67871833 -0.17499909 1.1743902 2894892
-0.67876184 -0.12501402 1.1744729 2894892
-0.67882138 -0.075004779 1.1745332 2894892
-0.67891192 -0.024906727 1.174541 2894892
-0.67913377 0.024979955 1.1742958 2894892
-0.67919463 0.074992239 1.1743582 2894892
-0.67647314 0.10584526 1.1741227 8289918
-0.6249665 0.1097028 1.176893 10197915
-0.57497448 0.10965351 1.176283 10197915
-0.52502733 0.10960351 1.1758289 10197915
-0.47493038 0.10955357 1.1753354 10197915
-0.4248772 0.10950447 1.1746844 10197915
-0.37506732 0.10945467 1.1742313 10197915
-0.32510436 0.10940479 1.1737387 10197915
-0.27499413 0.10935544 1.1731268 10197915
-0.22492844 0.10930554 1.1726345 10197915
-0.17490886 0.10925605 1.1720608 10197915
-0.12493413 0.10920602 1.1716065 10197915
-0.075004146 0.10915739 1.1709216 10197915
-0.025024705 0.10910682 1.1705422 10197915
0.025276333 0.10905501 1.1703539 10197915
0.073895983 0.10897471 1.1758697 10197915
0.12492175 0.10890571 1.178781 10197915
0.17494887 0.10885602 1.1782436 10197915
0.22492945 0.10880626 1.1777486 10197915
0.27496219 0.10875679 1.1771693 10197915
0.32494864 0.10870675 1.1767114 10197915
0.37508547 0.10865734 1.1760967 10197915
0.42507744 0.10860784 1.1755571 10197915
0.47492862 0.10855802 1.1751004 10197915
0.52492684 0.10850873 1.1744869 10197915
0.5749765 0.10845852 1.1740643 10197915
0.6249795 0.10840986 1.1733339 10197915
0.67493886 0.10836007 1.1728379 10197915
0.72494632 0.10830967 1.172453 10197915
0.77490968 0.1082607 1.1718023 10197915
0.82492453 0.1082108 1.1713034 10197915
0.8749879 0.1081615 1.1706893 10197915
0.91738337 0.10809189 1.1754262 10197915
-0.64071637 -0.55308402 1.2431202 2960685
-0.65689617 -0.5214498 1.2134185 2960685
-0.643601 -0.52496278 1.2379004 2960685
-0.65726352 -0.47501639 1.2128981 2960685
-0.64366478 -0.47500375 1.2379498 2960685
-0.65730184 -0.42501235 1.2129945 2960685
-0.64369458 -0.42499709 1.2380673 2960685
-0.65735155 -0.37500083 1.2130729 2960685
-0.64374965 -0.37498388 1.2381318 2960685
-0.65714854 -0.32500982 1.2136202 2960685
-0.64353317 -0.32499358 1.2387007 2960685
-0.65719104 -0.27499291 1.2137107 2894892
-0.64372277 -0.27528769 1.2385209 2894892
-0.65747261 -0.2249303 1.2133594 2894892
-0.64388001 -0.22502938 1.2384039 2894892
-0.65754133 -0.17500716 1.2134019 2894892
-0.64392841 -0.17498577 1.2384815 2894892
-0.65758228 -0.12499698 1.2134959 2894892
-0.64397645 -0.12500146 1.238562 2894892
-0.65761864 -0.07498008 1.2135999 2894892
-0.64400601 -0.075032577 1.2386804 2894892
-0.65767604 -0.024990067 1.2136618 2894892
-0.64406782 -0.025013389 1.2387339 2894892
-0.6577217 0.024992395 1.2137462 2894892
-0.64411336 0.025015716 1.2388197 2894892
-0.65776032 0.074979581 1.2138445 2894892
-0.64414054 0.075026557 1.238939 2894892
-0.65764451 0.10502291 1.2137178 7960953
-0.6347782 0.10696653 1.2312087 9013641
-0.57378817 0.10938653 1.2262504 10197915
-0.52488261 0.10932887 1.2274367 10197915
-0.4750382 0.1092793 1.2269248 10197915
-0.4251354 0.10923034 1.2262839 10197915
-0.3751778 0.10918088 1.2257276 10197915
-0.32516125 0.10913087 1.2252611 10197915
-0.27498844 0.10908139 1.224658 10197915
-0.22506468 0.1090324 1.2240154 10197915
-0.17508325 0.10898222 1.2235924 10197915
-0.12504688 0.10893332 1.222905 10197915
-0.075055405 0.10888364 1.2223918 10197915
-0.025009373 0.10883361 1.2219242 10197915
0.024708621 0.10878306 1.2216312 10197915
0.075050317 0.10870663 1.2260612 10197915
0.12503009 0.10865655 1.225614 10197915
0.17496262 0.1086077 1.2249454 10197915
0.22497676 0.10855773 1.2244706 10197915
0.27507073 0.10850778 1.2239653 10197915
0.32512009 0.10845856 1.2233522 10197915
0.3751246 0.10840906 1.2227935 10197915
0.42545065 0.10833235 1.2272813 10197915
0.47501215 0.10828205 1.2269627 10197915
0.52510029 0.10823151 1.2265766 10197915
0.57504106 0.10818257 1.2259266 10197915
0.62503636 0.10813306 1.2253691 10197915
0.67508733 0.10808306 1.2248933 10197915
0.72509384 0.10803448 1.2241577 10197915
0.77495074 0.1079842 1.2237736 10197915
0.82486641 0.10793525 1.2231275 10197915
0.87503552 0.10788511 1.2226511 10197915
0.92505819 0.10783608 1.2220033 10197915
0.96414751 0.10775199 1.2300972 10197915
-0.62112212 -0.56118035 1.2791929 2960685
-0.62364876 -0.52501094 1.2746582 2960685
-0.6237036 -0.47501835 1.274727 2960685
-0.62373596 -0.42501757 1.2748351 2960685
-0.62381661 -0.37506571 1.2748599 2960685
-0.62410975 -0.32501087 1.2744881 2894892
-0.62430811 -0.27486876 1.2742912 2894892
-0.62447 -0.22499079 1.2741638 2894892
-0.62450951 -0.17499542 1.2742606 2894892
-0.62455994 -0.12498242 1.274333 2894892
-0.62460858 -0.075005345 1.2744135 2894892
-0.62463623 -0.025022142 1.2745312 2894892
-0.62468004 0.025013717 1.2746209 2894892
-0.6247409 0.075010687 1.2746806 2894892
-0.6225245 0.10559799 1.2730175 8421504
-0.57638848 0.10912376 1.2761805 10197915
-0.52492219 0.1090605 1.2779121 10197915
-0.47480914 0.10901084 1.2773649 10197915
-0.42473996 0.10896186 1.2766912 10197915
-0.3751162 0.10891252 1.2761773 10197915
-0.32527012 0.10886327 1.2756031 10197915
-0.27507281 0.10881351 1.2750525 10197915
-0.22505452 0.10876473 1.2743493 10197915
-0.17494833 0.10871439 1.273924 10197915
-0.12488735 0.10866578 1.2731895 10197915
-0.075005621 0.10861585 1.2727367 10197915
-0.025036067 0.10856666 1.2721274 10197915
0.025020858 0.10851719 1.2715483 10197915
0.075031467 0.10846747 1.2710302 10197915
0.12624532 0.10840496 1.2726823 10197915
0.17502971 0.10833819 1.2756006 10197915
0.22513288 0.10828873 1.2750142 10197915
0.27508423 0.10823885 1.274534 10197915
0.32519966 0.1081899 1.2738544 10197915
0.37516668 0.10814054 1.2732691 10197915
0.42450386 0.10806429 1.2778708 10197915
0.47505987 0.10801025 1.2780508 10197915
0.52498609 0.10796116 1.2774359 10197915
0.57499886 0.1079121 1.2767886 10197915
0.62496603 0.10786241 1.2762682 10197915
0.67488796 0.10781348 1.2756239 10197915
0.72489393 0.10776362 1.2751316 10197915
0.77485561 0.10771444 1.2745166 10197915
0.82490414 0.10766536 1.2738724 10197915
0.87490249 0.10761564 1.273348 10197915
0.92498899 0.10756599 1.2727956 10197915
0.97490728 0.10751575 1.2723945 10197915
1.0099862 0.10742731 1.2820992 10197915
-0.58435398 -0.60135299 1.3467959 2960685
-0.60460359 -0.56794935 1.3096021 2960685
-0.59099698 -0.57329297 1.3346535 2960685
-0.60482007 -0.52498949 1.3093479 2960685
-0.59138924 -0.52498478 1.3340915 2960685
-0.60487145 -0.47495839 1.309423 2960685
-0.59142154 -0.47499883 1.3342016 2960685
-0.60490763 -0.424952 1.3095258 2960685
-0.59148067 -0.42502594 1.3342652 2960685
-0.60498708 -0.37483805 1.3095484 2960685
-0.59150535 -0.37500593 1.3343861 2894892
-0.60529643 -0.32500085 1.3091477 2894892
-0.59155899 -0.32497919 1.3344584 2894892
-0.60532302 -0.27500159 1.3092682 2894892
-0.59159583 -0.27500457 1.334558 2894892
-0.60537308 -0.22499461 1.3093464 2894892
-0.59167701 -0.22513898 1.3345748 2894892
-0.60541272 -0.17501149 1.309443 2894892
-0.5919835 -0.17499225 1.3341844 2894892
-0.60545868 -0.12508149 1.3095261 2894892
-0.59203374 -0.12498844 1.3342561 2894892
-0.60550815 -0.075024299 1.3096042 2894892
-0.59205258 -0.074998215 1.33439 2894892
-0.60552782 -0.024959713 1.3097383 2894892
-0.59210604 -0.025001967 1.3344655 2894892
-0.60556942 0.024962047 1.3098292 2894892
-0.59214807 0.025004281 1.3345587 2894892
-0.60539806 0.075165011 1.3103148 2894892
-0.59193242 0.074880339 1.33512 2894892
-0.60524231 0.10468715 1.3104718 8092539
-0.58342892 0.10637011 1.3308103 9013641
-0.52505779 0.10880277 1.3264019 10197915
-0.47525078 0.10875347 1.3258412 10197915
-0.4252111 0.10870434 1.3252051 10197915
-0.37494233 0.1086546 1.3246356 10197915
-0.32485932 0.10860636 1.3238256 10197915
-0.27495715 0.10855626 1.3233995 10197915
-0.22496173 0.10850697 1.322799 10197915
-0.17501347 0.10845736 1.3222678 10197915
-0.12511037 0.10840854 1.3215992 10197915
-0.074977376 0.1083595 1.3209304 10197915
-0.024891878 0.10830979 1.3203952 10197915
0.025014028 0.1082604 1.3198298 10197915
0.075007357 0.10821186 1.3190935 10197915
0.12341281 0.108154 1.3204238 10197915
0.17678252 0.10805762 1.3280102 10197915
0.22508192 0.10799632 1.3300098 10197915
0.27509877 0.10794704 1.3294029 10197915
0.32493147 0.10789889 1.3286226 10197915
0.3748543 0.1078486 1.3282276 10197915
0.42487067 0.1077995 1.3275861 10197915
0.47484267 0.10775007 1.3270143 10197915
0.524903 0.10770153 1.3262697 10197915
0.57491928 0.10765149 1.3258004 10197915
0.62502527 0.10760236 1.3251609 10197915
0.67508513 0.10755288 1.3245856 10197915
0.72510099 0.10750413 1.3238766 10197915
0.77493262 0.10745469 1.3233396 10197915
0.82485771 0.10740535 1.322771 10197915
0.87514055 0.10735652 1.3220228 10197915
0.92510951 0.10730658 1.3215525 10197915
0.97503024 0.10725741 1.3209491 10197915
1.0228558 0.10720179 1.3219585 10197915
1.0560637 0.10709356 1.3357626 10197915
-0.56602216 -0.60883504 1.3805441 2960685
-0.56939685 -0.57497895 1.3744376 2960685
-0.56944937 -0.52498919 1.3745201 2960685
-0.56948501 -0.4749921 1.3746161 2960685
-0.56953412 -0.42498887 1.3746961 2894892
-0.5695622 -0.37500489 1.3748159 2894892
-0.56960636 -0.32501402 1.3748969 2894892
-0.56964821 -0.27500299 1.3749959 2894892
-0.56973588 -0.22491944 1.375002 2894892
-0.57033652 -0.17505953 1.3740649 2894892
-0.57041055 -0.12498201 1.3741002 2894892
-0.57044363 -0.074958995 1.3742001 2894892
-0.57049608 -0.024984689 1.3742794 2894892
-0.57053673 0.02498698 1.3743724 2894892
-0.57056332 0.074975111 1.3744923 2894892
-0.56901294 0.10501251 1.3740853 8421504
-0.52491736 0.10852437 1.3787169 10197915
-0.47486743 0.10847498 1.378131 10197915
-0.42486006 0.10842602 1.3774668 10197915
-0.37475845 0.10837715 1.3767661 10197915
-0.32469901 0.10832755 1.3762165 10197915
-0.27482951 0.1082783 1.3756323 10197915
-0.2248632 0.10823 1.3748552 10197915
-0.17494094 0.10818013 1.3743846 10197915
-0.12492145 0.10813153 1.3736463 10197915
-0.074948609 0.10808144 1.3732157 10197915
-0.025021173 0.10803337 1.3723989 10197915
0.025005979 0.10798421 1.3717741 10197915
0.074985042 0.10793383 1.3713803 10197915
0.12491734 0.10788638 1.3704498 10197915
0.1730981 0.1078221 1.3730309 10197915
0.22481173 0.10775141 1.3761125 10197915
0.27485755 0.10770223 1.3754863 10197915
0.32485503 0.10765311 1.3748569 10197915
0.37480962 0.10760397 1.3742324 10197915
0.42490709 0.10755424 1.3737054 10197915
0.47495487 0.10750613 1.3728718 10197915
0.5267238 0.10744066 1.3749691 10197915
0.57511717 0.10736986 1.3787311 10197915
0.62508935 0.10732198 1.3778665 10197915
0.67501795 0.10727336 1.3771592 10197915
0.72489703 0.10722268 1.3768419 10197915
0.77473283 0.10717499 1.3759793 10197915
0.82480735 0.10712536 1.3754276 10197915
0.87483352 0.10707664 1.3747163 10197915
0.92481589 0.10702708 1.3741658 10197915
0.97503316 0.10697734 1.3736094 10197915
1.0250633 0.10692925 1.3727835 10197915
1.0708675 0.10686413 1.3759848 10197915
1.103757 0.10674075 1.3926954 10197915
-0.55280101 -0.61429805 1.4048839 2960685
-0.53890145 -0.61933887 1.4304756 2960685
-0.55290037 -0.5750187 1.4048346 2960685
-0.53950697 -0.57500958 1.4295089 2960685
-0.55294865 -0.52500331 1.4049141 2960685
-0.53955817 -0.52501345 1.4295835 2960685
-0.55297703 -0.47498113 1.4050304 2960685
-0.53958303 -0.47500959 1.4297073 2894892
-0.55301601 -0.4249512 1.4051284 2894892
-0.53963649 -0.42501804 1.4297767 2894892
-0.55280906 -0.37437928 1.4056814 2894892
-0.53941303 -0.37517849 1.4303592 2894892
-0.55276883 -0.32501516 1.4059225 2894892
-0.53936243 -0.32499471 1.4306226 2894892
-0.5527935 -0.2750071 1.4060459 2894892
-0.53939074 -0.27499026 1.4307395 2894892
-0.55283374 -0.22499174 1.4061409 2894892
-0.53942239 -0.22499886 1.4308501 2894892
-0.5531829 -0.17478041 1.4056675 2894892
-0.53946996 -0.17500032 1.4309316 2894892
-0.55325812 -0.12509312 1.4056972 2894892
-0.53960735 -0.12514742 1.4308472 2894892
-0.55328405 -0.075131081 1.4058177 2894892
-0.53989041 -0.074998811 1.4304959 2894892
-0.55332321 -0.025045244 1.4059168 2894892
-0.5399242 -0.02501596 1.4306031 2894892
-0.55336225 0.02504758 1.406015 2894892
-0.53996253 0.02501828 1.4307021 2894892
-0.55340761 0.075089447 1.4060991 2894892
-0.54000294 0.075015247 1.4307952 2894892
-0.55338013 0.10421812 1.4062492 8158332
-0.53365129 0.10553391 1.4291335 8882055
-0.47503629 0.10821418 1.4272085 10197915
-0.42497697 0.10816382 1.426793 10197915
-0.37476242 0.10811519 1.4260303 10197915
-0.32478917 0.10806558 1.4254962 10197915
-0.27506375 0.10801805 1.4246215 10197915
-0.22518091 0.1079685 1.4240937 10197915
-0.1751498 0.10791882 1.4235598 10197915
-0.12516388 0.1078704 1.4228005 10197915
-0.075024426 0.10782128 1.4221512 10197915
-0.024933573 0.10777215 1.4215044 10197915
0.024918506 0.1077233 1.4208592 10197915
0.076120049 0.10764232 1.4259731 10197915
0.12502332 0.10758617 1.4268808 10197915
0.17504174 0.10753689 1.4262744 10197915
0.22501484 0.10748859 1.4254935 10197915
0.27494159 0.10743898 1.4249746 10197915
0.3248238 0.10739034 1.4242824 10197915
0.37480891 0.10734128 1.4236329 10197915
0.42503929 0.10729249 1.4228971 10197915
0.47522619 0.10724284 1.4223272 10197915
0.52358264 0.10718466 1.4237278 10197915
0.57497752 0.10710622 1.4283311 10197915
0.62499142 0.10705721 1.4276782 10197915
0.6749565 0.10700823 1.4270256 10197915
0.72487903 0.10695932 1.4263726 10197915
0.77475291 0.10691042 1.4257205 10197915
0.8247804 0.10686079 1.4251815 10197915
0.87514645 0.10681263 1.4242965 10197915
0.92508197 0.1067631 1.4237561 10197915
0.97496855 0.10671359 1.4232204 10197915
1.0250032 0.10666518 1.422451 10197915
1.0749955 0.10661677 1.4216859 10197915
1.1166912 0.10655472 1.425128 10197915
-0.51496136 -0.62100726 1.4745746 2960685
-0.51500523 -0.57501358 1.4746488 2960685
-0.51504397 -0.52500373 1.4747472 2894892
-0.51507759 -0.47498599 1.4748571 2894892
-0.5154056 -0.42511114 1.4744184 2894892
-0.5155279 -0.37498808 1.4743674 2894892
-0.51556748 -0.32499182 1.4744599 2894892
-0.51558816 -0.27500573 1.4745911 2894892
-0.51563907 -0.22499585 1.4746672 2894892
-0.51566875 -0.17499554 1.4747822 2894892
-0.51581955 -0.12485933 1.4746766 2894892
-0.51611263 -0.074977368 1.4743025 2894892
-0.5161472 -0.024979165 1.4744076 2894892
-0.51618433 0.024981475 1.4745095 2894892
-0.5162192 0.074993648 1.4746112 2894892
-0.51541471 0.10461795 1.4734724 8553090
-0.47500494 0.10797361 1.4724349 10197915
-0.42519635 0.1079249 1.4717705 10197915
-0.37502825 0.10787578 1.4711037 10197915
-0.32490227 0.10782674 1.4704322 10197915
-0.2748253 0.10777774 1.469766 10197915
-0.22479051 0.10772878 1.4690963 10197915
-0.17331602 0.10765842 1.4721612 10197915
-0.12501322 0.10759012 1.4754766 10197915
-0.075005844 0.10753994 1.4750451 10197915
-0.025043888 0.10749234 1.4741354 10197915
0.025028674 0.10744337 1.473464 10197915
0.073647261 0.10736545 1.4785134 10197915
0.12508217 0.10730413 1.4798923 10197915
0.17487377 0.10725477 1.4793488 10197915
0.22482364 0.10720523 1.4788045 10197915
0.27493316 0.1071576 1.4778727 10197915
0.32499254 0.1071073 1.4774536 10197915
0.37501273 0.10705835 1.476779 10197915
0.42497891 0.10701086 1.4758494 10197915
0.47490746 0.10696069 1.4754311 10197915
0.52478498 0.10691328 1.4745033 10197915
0.57482368 0.1068637 1.4739579 10197915
0.62501526 0.10681392 1.4734056 10197915
0.6751616 0.10676555 1.4726045 10197915
0.72526437 0.10671659 1.4719286 10197915
0.77491415 0.10666803 1.4712561 10197915
0.8247242 0.10661932 1.4705874 10197915
0.87488788 0.10657025 1.46991 10197915
0.92500871 0.10652124 1.4692351 10197915
0.97508025 0.10647228 1.4685593 10197915
1.0261738 0.10638925 1.4740949 10197915
1.074937 0.10633271 1.4751017 10197915
1.1251404 0.10628416 1.4743235 10197915
1.1656181 0.10618386 1.485196 10197915
-0.50059879 -0.62061799 1.5010372 2960685
-0.48728022 -0.62112308 1.5255747 2960685
-0.50063097 -0.57463694 1.5011338 2960685
-0.48731047 -0.57498419 1.5256704 2894892
-0.50066572 -0.52492142 1.501238 2894892
-0.48735717 -0.52499205 1.525758 2894892
-0.50070041 -0.4751986 1.5013424 2894892
-0.48738751 -0.47499311 1.5258697 2894892
-0.50107324 -0.42285326 1.5008328 2894892
-0.48742288 -0.42498747 1.5259757 2894892
-0.50093365 -0.37268388 1.50126 2894892
-0.48727363 -0.37520832 1.5264167 2894892
-0.50081152 -0.32495388 1.501647 2894892
-0.48736238 -0.3251867 1.5264248 2894892
-0.50084007 -0.2749956 1.5017632 2894892
-0.48752835 -0.27500048 1.5262865 2894892
-0.5008747 -0.22523814 1.5018669 2894892
-0.48756498 -0.22498083 1.526389 2894892
-0.50090319 -0.17526425 1.5019841 2894892
-0.48758265 -0.17497458 1.5265255 2894892
-0.50095129 -0.12487537 1.5020659 2894892
-0.48762292 -0.12500228 1.5266219 2894892
-0.50097996 -0.074680082 1.5021828 2894892
-0.4876487 -0.075002313 1.526744 2894892
-0.50101489 -0.024894895 1.5022873 2894892
-0.48771045 -0.024996659 1.5267996 2894892
-0.50104964 0.024897201 1.5023919 2894892
-0.48774415 0.024998985 1.5269049 2894892
-0.50108463 0.074696228 1.5024962 2894892
-0.48774678 0.074998185 1.5270696 2894892
-0.50110501 0.10395611 1.5025575 8158332
-0.48202536 0.1051705 1.5240157 8947848
-0.42480004 0.10766898 1.5197986 10197915
-0.37489036 0.10762027 1.5191114 10197915
-0.32502189 0.10757159 1.5184238 10197915
-0.27520239 0.10752296 1.5177376 10197915
-0.22500515 0.10747323 1.5171853 10197915
-0.17497472 0.10739177 1.5226227 10197915
-0.12506576 0.107287 1.5324833 10197915
-0.075089566 0.10723899 1.5316446 10197915
-0.024950413 0.10719009 1.530946 10197915
0.0249353 0.10714144 1.5302511 10197915
0.074983209 0.10709263 1.5295541 10197915
0.12498916 0.10704384 1.5288574 10197915
0.17494597 0.10699511 1.5281609 10197915
0.22507139 0.10694622 1.5274628 10197915
0.27514687 0.10689662 1.5269078 10197915
0.32517886 0.10684857 1.5260683 10197915
0.3751671 0.10679982 1.5253717 10197915
0.42489657 0.10675129 1.5246787 10197915
0.47479394 0.10670187 1.5241252 10197915
0.52506047 0.10665431 1.5231456 10197915
0.57507604 0.10660478 1.5225866 10197915
0.62504178 0.10655531 1.5220315 10197915
0.67496568 0.10650811 1.5210559 10197915
0.72483891 0.10645796 1.5206413 10197915
0.77467054 0.10641011 1.5198061 10197915
0.82466584 0.10636134 1.5191129 10197915
0.87502992 0.10631145 1.5185477 10197915
0.92513722 0.10626406 1.5175722 10197915
0.97499406 0.10621396 1.5171559 10197915
1.0229019 0.10613906 1.5217842 10197915
1.0758563 0.10602989 1.5318606 10197915
1.1247281 0.10597903 1.5317782 10197915
1.1749551 0.10593007 1.5310739 10197915
1.212316 0.10584655 1.5394052 10197915
-0.46228445 -0.62129277 1.5716261 2894892
-0.44854984 -0.6213944 1.5969272 2894892
-0.46232077 -0.57503206 1.5717089 2894892
-0.44858214 -0.57495391 1.5970246 2894892
-0.46234339 -0.52504677 1.57184 2894892
-0.44861639 -0.52487171 1.5971314 2894892
-0.46238887 -0.47503138 1.5719249 2894892
-0.44863623 -0.47494826 1.5972638 2894892
-0.46239737 -0.42500833 1.5720817 2894892
-0.44868493 -0.42501992 1.5973432 2894892
-0.46203515 -0.37496933 1.5729182 2894892
-0.44827926 -0.37521154 1.5982594 2894892
-0.46234661 -0.32480356 1.5725155 2894892
-0.44845608 -0.32765862 1.5980943 2894892
-0.46251699 -0.27498576 1.5723686 2894892
-0.44877088 -0.27535194 1.5976913 2894892
-0.46253413 -0.22499402 1.5725055 2894892
-0.44880244 -0.225063 1.5978035 2894892
-0.46256939 -0.17501719 1.5726062 2894892
-0.44883376 -0.17476702 1.5979158 2894892
-0.46260989 -0.12503345 1.5727036 2894892
-0.4488593 -0.1247912 1.5980378 2894892
-0.46262291 -0.075020857 1.5728471 2894892
-0.44890219 -0.075150602 1.5981272 2894892
-0.4626835 -0.025002521 1.5729073 2894892
-0.44892758 -0.025160855 1.5982498 2894892
-0.46271521 0.02500481 1.5730177 2894892
-0.44895911 0.025163217 1.5983618 2894892
-0.46271992 0.075037129 1.5731791 2894892
-0.44899637 0.075166956 1.5984626 2894892
-0.46229053 0.10432018 1.5714067 8750469
-0.42712262 0.10706584 1.5736203 10000536
-0.37496057 0.10734778 1.5703653 10197915
-0.3249324 0.10729906 1.5696518 10197915
-0.27495137 0.10724955 1.5690918 10197915
-0.22501852 0.10720173 1.5682288 10197915
-0.17732818 0.10714248 1.5699626 10197915
-0.12501277 0.10705753 1.5756205 10197915
-0.075037062 0.10700828 1.5750203 10197915
-0.025112769 0.10696032 1.5741895 10197915
0.025097469 0.10691144 1.5734702 10197915
0.077270478 0.10683005 1.578482 10197915
0.12488755 0.10676651 1.5810275 10197915
0.17524099 0.10671753 1.5803016 10197915
0.22511487 0.10666816 1.5797385 10197915
0.27494437 0.10662054 1.5788654 10197915
0.32516021 0.10657168 1.5781424 10197915
0.37533376 0.10652284 1.5774187 10197915
0.42524359 0.10647348 1.576854 10197915
0.4751032 0.1064258 1.5759817 10197915
0.52492332 0.10637733 1.5752635 10197915
0.5749104 0.10632867 1.5745435 10197915
0.62507159 0.10627987 1.5738209 10197915
0.67496711 0.10623135 1.5731022 10197915
0.72482091 0.10618284 1.5723835 10197915
0.77462542 0.10613438 1.571666 10197915
0.82481873 0.10608552 1.5709473 10197915
0.87517738 0.10603654 1.5702181 10197915
0.92506307 0.10598802 1.5694989 10197915
0.97490108 0.1059387 1.5689365 10197915
1.0249084 0.10589167 1.56791 10197915
1.073861 0.1058021 1.5750905 10197915
1.1250134 0.10574606 1.5755323 10197915
1.1750631 0.10569678 1.5749242 10197915
1.223841 0.10564737 1.5745872 10197915
1.2544023 0.10557175 1.582776 10197915
-0.43347278 -0.62144613 1.624704 2894892
-0.43349084 -0.57497227 1.6248287 2894892
-0.4335438 -0.52499491 1.6248997 2894892
-0.43356642 -0.47498789 1.6250273 2894892
-0.43358645 -0.42497382 1.6251621 2894892
-0.43361798 -0.37497553 1.6252694 2894892
-0.43385252 -0.32475826 1.62501 2894892
-0.43425548 -0.27514163 1.6244339 2894892
-0.4346115 -0.22499955 1.6239487 2894892
-0.43464509 -0.17500217 1.6240559 2894892
-0.43469176 -0.12497457 1.6241392 2894892
-0.43470943 -0.075007811 1.6242766 2894892
-0.43472543 -0.025035616 1.6244142 2894892
-0.43475613 0.025037955 1.6245273 2894892
-0.43480885 0.075001627 1.6245993 2894892
-0.42955595 0.1046814 1.6235956 9013641
-0.37503746 0.10705535 1.6253663 10197915
-0.32506073 0.10700682 1.6246296 10197915
-0.27513734 0.10696016 1.6235528 10197915
-0.22502807 0.10691057 1.6229866 10197915
-0.1749687 0.10686108 1.6224167 10197915
-0.1249522 0.10681436 1.6213415 10197915
-0.07498505 0.106764 1.6209432 10197915
-0.025060033 0.10671643 1.6200391 10197915
0.02504479 0.10666777 1.6193007 10197915
0.072698407 0.10659893 1.6228439 10197915
0.12539525 0.10651956 1.6273686 10197915
0.17520644 0.1064712 1.6266298 10197915
0.22530238 0.10642327 1.62576 10197915
0.275361 0.10637398 1.6251446 10197915
0.32536665 0.1063261 1.6242764 10197915
0.37533274 0.10627695 1.6236621 10197915
0.42524824 0.10622915 1.6227952 10197915
0.47512224 0.10618007 1.6221821 10197915
0.52494818 0.1061324 1.6213168 10197915
0.57496232 0.1060328 1.6301688 10197915
0.62510115 0.10598328 1.6295898 10197915
0.6751948 0.10593557 1.6286733 10197915
0.72524577 0.10588702 1.6279265 10197915
0.77502739 0.1058378 1.627355 10197915
0.82475585 0.1057914 1.6262691 10197915
0.87466937 0.10574204 1.6256983 10197915
0.92475998 0.10569344 1.6249511 10197915
0.97480047 0.1056449 1.6242044 10197915
1.0250193 0.10559526 1.6236255 10197915
1.0751927 0.1055475 1.6227071 10197915
1.1250954 0.10549909 1.6219628 10197915
1.1751776 0.10545049 1.6212157 10197915
1.2249881 0.10540216 1.6204729 10197915
1.2698698 0.1053348 1.6242849 10197915
1.3013992 0.10522529 1.6386493 10197915
-0.40983957 -0.62152457 1.6682436 2894892
-0.39631626 -0.62178689 1.6931585 2894892
-0.40988448 -0.57502645 1.6683203 2894892
-0.39635801 -0.57502764 1.6932403 2894892
-0.40990013 -0.52503496 1.6684593 2894892
-0.39637384 -0.52495706 1.69338 2894892
-0.40990114 -0.47500366 1.6686275 2894892
-0.39639765 -0.47498038 1.6935059 2894892
-0.40997246 -0.42499822 1.6686655 2894892
-0.3964211 -0.42499623 1.6936311 2894892
-0.40997607 -0.37501851 1.6688274 2894892
-0.39646849 -0.37500504 1.6937131 2894892
-0.41001835 -0.32503265 1.668919 2894892
-0.39648455 -0.32500663 1.6938529 2894892
-0.41017166 -0.2747725 1.6688069 2894892
-0.39651629 -0.27500162 1.6939642 2894892
-0.41054472 -0.22500114 1.6682872 2894892
-0.39652398 -0.22499034 1.6941185 2894892
-0.41057599 -0.17499883 1.6683991 2894892
-0.39658734 -0.17507157 1.6941717 2894892
-0.41061178 -0.12505318 1.668502 2894892
-0.39659128 -0.12494541 1.6943338 2894892
-0.41063604 -0.075005375 1.668627 2894892
-0.39660698 -0.075010687 1.6944742 2894892
-0.41064233 -0.024952348 1.6687835 2894892
-0.39688638 -0.026140066 1.6941236 2894892
-0.41067103 0.024954677 1.6689012 2894892
-0.39716586 0.025262013 1.6937834 2894892
-0.41072184 0.075021714 1.6689763 2894892
-0.39719361 0.075088948 1.6939017 2894892
-0.41042763 0.10381643 1.6685979 8882055
-0.38165939 0.10572821 1.6798649 9671571
-0.32509953 0.10674842 1.6732283 10197915
-0.27506423 0.10669995 1.6724687 10197915
-0.22507961 0.106653 1.6714312 10197915
-0.17513835 0.10660318 1.6709517 10197915
-0.12523915 0.10655486 1.6701944 10197915
-0.072834894 0.10646978 1.6758509 10197915
-0.025040703 0.10640372 1.6788374 10197915
0.025025494 0.10635525 1.6780721 10197915
0.075036608 0.1063088 1.6769334 10197915
0.12500995 0.10625842 1.6765448 10197915
0.17493346 0.10621208 1.6754079 10197915
0.22481261 0.10616177 1.67502 10197915
0.27487856 0.10611428 1.6740707 10197915
0.32489911 0.10606685 1.6731172 10197915
0.37486717 0.1060165 1.6727262 10197915
0.42502654 0.10596889 1.671777 10197915
0.47514048 0.10592037 1.6710112 10197915
0.52520597 0.10587092 1.6704291 10197915
0.57546628 0.10576889 1.6796907 10197915
0.62528414 0.10572068 1.678925 10197915
0.67539632 0.10567292 1.6780155 10197915
0.72512436 0.10562482 1.6772473 10197915
0.77514696 0.10557566 1.6766216 10197915
0.82547218 0.10552694 1.675848 10197915
0.87540305 0.10547934 1.6749417 10197915
0.9252913 0.10543033 1.674314 10197915
0.97513193 0.10538284 1.6734089 10197915
1.0249279 0.10533389 1.6727824 10197915
1.0746785 0.1052865 1.6718792 10197915
1.1250675 0.105237 1.6712437 10197915
1.1750704 0.10518859 1.6704751 10197915
1.2246809 0.10514132 1.6695739 10197915
1.2766641 0.10504758 1.6769404 10197915
1.3195184 0.1049621 1.684552 10197915
1.3504447 0.10485475 1.6986325 10197915
-0.37933165 -0.62171847 1.7244513 2894892
-0.37938005 -0.57494825 1.7245195 2894892
-0.37939391 -0.52497381 1.7246627 2894892
-0.37941948 -0.47501799 1.7247871 2894892
-0.37945911 -0.42502922 1.7248824 2894892
-0.3794829 -0.37500656 1.7250072 2894892
-0.37951076 -0.32500383 1.7251248 2894892
-0.37965137 -0.27516252 1.7250348 2894892
-0.38004887 -0.2250123 1.7244714 2894892
-0.3801223 -0.17501566 1.7245054 2894892
-0.38008338 -0.12498466 1.7247463 2894892
-0.38022715 -0.075001366 1.7246511 2894892
-0.3803758 -0.024773577 1.7245466 2894892
-0.38064182 0.025001701 1.7242266 2894892
-0.38081861 0.07500425 1.724071 2894892
-0.37599343 0.10437635 1.7228894 9276813
-0.32513797 0.10647289 1.7250369 10197915
-0.27499554 0.10642661 1.7238467 10197915
-0.22489218 0.10637604 1.7234674 10197915
-0.17483731 0.10632983 1.7222781 10197915
-0.1248287 0.10627934 1.721902 10197915
-0.077555768 0.10620821 1.7259504 10197915
-0.025100496 0.10612668 1.7309271 10197915
0.025085216 0.10607823 1.7301365 10197915
0.074863397 0.10603099 1.7291964 10197915
0.12459949 0.10598212 1.7285695 10197915
0.17500344 0.10593425 1.7276238 10197915
0.22536165 0.1058848 1.7269812 10197915
0.2749612 0.10583775 1.7260453 10197915
0.32451349 0.10578906 1.7254204 10197915
0.37473658 0.10574136 1.7244781 10197915
0.42490903 0.10569209 1.7238392 10197915
0.47468454 0.10564402 1.7230548 10197915
0.52476692 0.10559645 1.7221149 10197915
0.57480514 0.10554732 1.7214775 10197915
0.62479722 0.10549985 1.7205395 10197915
0.67474264 0.10545081 1.7199035 10197915
0.72464436 0.10540341 1.7189668 10197915
0.77520412 0.10535378 1.7183207 10197915
0.82764637 0.10527781 1.7222614 10197915
0.87499905 0.10520077 1.7274003 10197915
0.9249118 0.10515151 1.7268121 10197915
0.97477591 0.10510446 1.7258188 10197915
1.0250647 0.10505591 1.7250218 10197915
1.0750767 0.10500877 1.7240205 10197915
1.1248037 0.10495963 1.7234414 10197915
1.1747171 0.1049104 1.7228506 10197915
1.2245898 0.10486332 1.7218599 10197915
1.2724266 0.10478089 1.7279203 10197915
1.3246373 0.10470866 1.7311949 10197915
1.3642486 0.10465216 1.7340041 10197915
-0.35804033 -0.62190974 1.7636759 2894892
-0.34453401 -0.62187368 1.7885591 2894892
-0.35755283 -0.57496756 1.7647334 2894892
-0.34405476 -0.57511872 1.7896001 2894892
-0.35754853 -0.52503681 1.7649099 2894892
-0.34405494 -0.52497113 1.7897701 2894892
-0.35757753 -0.4750089 1.7650261 2894892
-0.34407258 -0.47502849 1.7899065 2894892
-0.35759431 -0.42497307 1.7651644 2894892
-0.34409985 -0.42507762 1.7900262 2894892
-0.35761711 -0.37497962 1.7652915 2894892
-0.34412223 -0.37504745 1.7901541 2894892
-0.35765031 -0.32497868 1.7653997 2894892
-0.34413806 -0.32500881 1.7902927 2894892
-0.35782015 -0.27471545 1.7652576 2894892
-0.34418333 -0.27496427 1.7903805 2894892
-0.35821563 -0.22503597 1.7646967 2894892
-0.34418949 -0.224912 1.7905385 2894892
-0.35826474 -0.17501472 1.7647755 2894892
-0.34422666 -0.17492707 1.7906387 2894892
-0.35825783 -0.12498658 1.7649567 2894892
-0.34420648 -0.12500945 1.790845 2894892
-0.35833788 -0.074860774 1.7649801 2894892
-0.34471491 -0.07566911 1.7900753 2894892
-0.35830501 -0.024864096 1.7652097 2894892
-0.34482855 -0.025213784 1.7900375 2894892
-0.35832995 0.024866385 1.7653327 2894892
-0.34485278 0.025216153 1.7901626 2894892
-0.35841292 0.074877009 1.7653481 2894892
-0.34490976 0.07516025 1.7902271 2894892
-0.35808605 0.10330383 1.7657169 8947848
-0.33166459 0.10500369 1.783331 9671571
-0.2752859 0.10613379 1.7789476 10197915
-0.22543292 0.10608487 1.7783117 10197915
-0.17525519 0.10603662 1.7775023 10197915
-0.12512599 0.10599001 1.7763592 10197915
-0.0750461 0.10594003 1.7758837 10197915
-0.025005236 0.10589182 1.775075 10197915
0.024990069 0.10584367 1.7742678 10197915
0.075302996 0.10579604 1.773291 10197915
0.12557322 0.10574669 1.772643 10197915
0.17506267 0.10569993 1.7716749 10197915
0.22450791 0.1056514 1.7710447 10197915
0.27464104 0.10560395 1.7700711 10197915
0.32472613 0.10555486 1.7694261 10197915
0.37476903 0.10550743 1.7684537 10197915
0.42476127 0.10545841 1.76781 10197915
0.47471413 0.10541112 1.7668399 10197915
0.52498114 0.10536098 1.7663544 10197915
0.57635617 0.10526154 1.7749057 10197915
0.6250996 0.10520565 1.7757996 10197915
0.67506319 0.10515636 1.7752076 10197915
0.72498393 0.10510948 1.7741754 10197915
0.77534091 0.10506098 1.7733576 10197915
0.8230446 0.10499898 1.7755995 10197915
0.87469149 0.10490392 1.7832844 10197915
0.92487472 0.10485648 1.7822967 10197915
0.97500306 0.10480735 1.7816433 10197915
1.0247266 0.10475946 1.7808297 10197915
1.0747685 0.1047122 1.7798442 10197915
1.1247628 0.10466319 1.7791926 10197915
1.1747139 0.10461601 1.7782093 10197915
1.2246145 0.10456709 1.777559 10197915
1.2748383 0.10451874 1.7767376 10197915
1.3253747 0.10447099 1.7757441 10197915
1.375141 0.10442221 1.7750959 10197915
1.4091181 0.1043438 1.7831354 10197915
-0.32503766 -0.62201738 1.8244765 2894892
-0.32502273 -0.57500267 1.8246653 2894892
-0.32507351 -0.52499074 1.8247411 2894892
-0.32509416 -0.4749721 1.8248708 2894892
-0.32512522 -0.42497879 1.8249823 2894892
-0.3251408 -0.3749772 1.8251243 2894892
-0.32514313 -0.32500166 1.8252884 2894892
-0.32518411 -0.27498606 1.8253844 2894892
-0.32533464 -0.22519577 1.8252742 2894892
-0.32580698 -0.17500867 1.8245736 2894892
-0.32579443 -0.12499584 1.8247654 2894892
-0.32635406 -0.074816331 1.8239055 2894892
-0.32638669 -0.024968686 1.8240123 2894892
-0.32640946 0.024971036 1.8241422 2894892
-0.32653603 0.075007565 1.8240774 2894892
-0.32322943 0.10377324 1.8238361 9474192
-0.27492648 0.10588589 1.8254992 10197915
-0.22452709 0.10583653 1.8248428 10197915
-0.17493188 0.10578987 1.8238376 10197915
-0.12538171 0.10574125 1.8232 10197915
-0.075118758 0.10569385 1.822189 10197915
-0.024904998 0.10564461 1.8215345 10197915
0.024889957 0.10559678 1.8207091 10197915
0.075012289 0.10554955 1.8197002 10197915
0.12509242 0.10550043 1.8190478 10197915
0.17512488 0.10545328 1.8180411 10197915
0.22511224 0.10540431 1.8173901 10197915
0.27505493 0.10535722 1.8163847 10197915
0.32494986 0.10530835 1.8157352 10197915
0.3748031 0.10526141 1.8147316 10197915
0.42625785 0.1051992 1.8162642 10197915
0.47509196 0.10510235 1.8248354 10197915
0.52500975 0.10505304 1.8242494 10197915
0.57321936 0.10495778 1.8326526 10197915
0.62517232 0.10489295 1.8345886 10197915
0.67540675 0.10484377 1.8339267 10197915
0.72522098 0.10479591 1.8330899 10197915
0.7753607 0.10474874 1.8320664 10197915
0.82546079 0.1046997 1.831406 10197915
0.8751381 0.10465195 1.8305717 10197915
0.92513674 0.10460493 1.829551 10197915
0.97510272 0.10455597 1.8288926 10197915
1.0250114 0.10450905 1.8278735 10197915
1.0752577 0.10446081 1.8270297 10197915
1.1250783 0.10441203 1.8263738 10197915
1.1748573 0.10436515 1.825357 10197915
1.2249646 0.10431512 1.8248764 10197915
1.2750151 0.10426891 1.8236748 10197915
1.3250312 0.10422095 1.822835 10197915
1.3750011 0.10417295 1.8219956 10197915
1.4226773 0.10411768 1.8229851 10197915
1.4541667 0.10403178 1.8329182 10197915
-0.30588993 -0.62220556 1.8597541 2894892
-0.29211006 -0.62218022 1.8851421 2894892
-0.30588779 -0.57498771 1.8599172 2894892
-0.29223171 -0.57534093 1.885076 2894892
-0.30592537 -0.52502567 1.860018 2894892
-0.29273069 -0.52501357 1.8843269 2894892
-0.30580008 -0.47454286 1.8604199 2894892
-0.2926237 -0.475402 1.8846921 2894892
-0.30537111 -0.42497742 1.8613778 2894892
-0.29219148 -0.42504728 1.8856587 2894892
-0.30539596 -0.37503403 1.8615012 2894892
-0.29221383 -0.37501076 1.8857878 2894892
-0.30540261 -0.32508197 1.8616579 2894892
-0.29219925 -0.3250325 1.8859838 2894892
-0.30543682 -0.27504784 1.8617655 2894892
-0.29222766 -0.2749809 1.8861016 2894892
-0.3056263 -0.22453503 1.8615856 2894892
-0.29225895 -0.22492288 1.8862125 2894892
-0.30605829 -0.17500819 1.8609583 2894892
-0.29228574 -0.17492305 1.8863324 2894892
-0.30610907 -0.12511456 1.8610339 2894892
-0.29233006 -0.12498275 1.8864194 2894892
-0.30607787 -0.0749323 1.8612598 2894892
-0.29230109 -0.075034536 1.8866411 2894892
-0.30616224 -0.024889084 1.8612748 2894892
-0.29232153 -0.025013065 1.8867742 2894892
-0.30618355 0.024891369 1.8614048 2894892
-0.29234213 0.025015404 1.8869056 2894892
-0.30614197 0.074948572 1.8616494 2894892
-0.29236242 0.075050868 1.8870368 2894892
-0.3061105 0.10318613 1.8612704 9408399
-0.28134301 0.10445605 1.8788476 9868950
-0.22512849 0.10557628 1.8739007 10197915
-0.17497769 0.10552926 1.872854 10197915
-0.12487274 0.10548016 1.8721943 10197915
-0.074811555 0.10543319 1.8711493 10197915
-0.024799371 0.10538419 1.8704913 10197915
0.025172349 0.1053373 1.8694472 10197915
0.07509204 0.1052884 1.8687906 10197915
0.12497457 0.10524159 1.8677483 10197915
0.17480201 0.10519277 1.8670934 10197915
0.22497739 0.10514464 1.8662398 10197915
0.27510706 0.10509659 1.8653858 10197915
0.32479927 0.10504995 1.8643475 10197915
0.37483922 0.10500196 1.8634959 10197915
0.42376751 0.10494971 1.8636628 10197915
0.47926936 0.10480426 1.8800627 10197915
0.52517623 0.10472193 1.8864815 10197915
0.57531309 0.10467499 1.8854189 10197915
0.62541646 0.10462592 1.8847518 10197915
0.67546302 0.10457903 1.8836912 10197915
0.72547305 0.1045301 1.8830255 10197915
0.77542949 0.10448331 1.8819665 10197915
0.82534671 0.10443443 1.8813027 10197915
0.87521315 0.10438773 1.880245 10197915
0.92503738 0.10433896 1.8795823 10197915
0.97481436 0.10429232 1.8785268 10197915
1.0249356 0.10424431 1.8776623 10197915
1.0750017 0.10419428 1.8771915 10197915
1.1250261 0.10414847 1.8759351 10197915
1.1750088 0.1041006 1.8750727 10197915
1.2253234 0.10405134 1.8744015 10197915
1.2752126 0.10400358 1.8735406 10197915
1.3246691 0.10395725 1.8724912 10197915
1.3748487 0.10390814 1.8718214 10197915
1.4249806 0.10386116 1.8707604 10197915
1.4699032 0.10379913 1.87356 10197915
-0.27037653 -0.62233824 1.9251822 2894892
-0.27053958 -0.57480407 1.9250426 2894892
-0.27103949 -0.5250302 1.9242899 2894892
-0.27108803 -0.4749853 1.9243704 2894892
-0.27107385 -0.42500457 1.924566 2894892
-0.27111277 -0.37501758 1.9246637 2894892
-0.2711308 -0.32498679 1.924798 2894892
-0.27112728 -0.27502209 1.9249741 2894892
-0.27115574 -0.22505037 1.9250908 2894892
-0.27163327 -0.1752657 1.9243791 2894892
-0.27184802 -0.12492692 1.9241536 2894892
-0.27180246 -0.074899875 1.9244084 2894892
-0.27190912 -0.024983525 1.9243797 2894892
-0.2719281 0.024985833 1.9245145 2894892
-0.27185929 0.074916087 1.9248099 2894892
-0.26962987 0.10333859 1.9233923 9474192
-0.22536045 0.1053024 1.9254513 10197915
-0.17502624 0.10525203 1.9249927 10197915
-0.12473723 0.10520617 1.9236912 10197915
-0.074885055 0.10515735 1.9230303 10197915
-0.025087047 0.10511086 1.9219487 10197915
0.025071781 0.10506288 1.9210712 10197915
0.074779429 0.1050142 1.9204122 10197915
0.12484537 0.10496631 1.9195365 10197915
0.17525966 0.10491922 1.9184442 10197915
0.22483531 0.10487068 1.9177874 10197915
0.2747646 0.10482293 1.9169137 10197915
0.32503736 0.10477595 1.9158245 10197915
0.37487718 0.10472828 1.9149531 10197915
0.42505914 0.10467916 1.9142851 10197915
0.47215179 0.10462371 1.915418 10197915
0.52495831 0.10451338 1.9257426 10197915
0.57495761 0.10446559 1.9248619 10197915
0.62491095 0.10441783 1.9239823 10197915
0.67857027 0.10433697 1.9285986 10197915
0.72454405 0.10425168 1.9355644 10197915
0.77510476 0.10420225 1.9348826 10197915
0.82522649 0.10415436 1.9339937 10197915
0.87489974 0.10410805 1.9328982 10197915
0.92493105 0.10406027 1.9320108 10197915
0.97491026 0.10401024 1.9315536 10197915
1.0248417 0.10396484 1.9302387 10197915
1.0747356 0.10391717 1.9293536 10197915
1.1249733 0.10386804 1.9286772 10197915
1.1751688 0.10382121 1.9275725 10197915
1.2253128 0.10377219 1.9268972 10197915
1.2754169 0.10372546 1.9257948 10197915
1.3250777 0.10367577 1.9253417 10197915
1.3746861 0.10363065 1.9240341 10197915
1.4246557 0.10358179 1.9233619 10197915
1.4749629 0.10353597 1.922049 10197915
1.5161988 0.10346651 1.9269695 10197915
-0.25363749 -0.62235135 1.9560218 2894892
-0.24438195 -0.62249947 1.9730723 2894892
-0.25365436 -0.57490253 1.9561502 2894892
-0.24441864 -0.57503653 1.9731659 2894892
-0.25368911 -0.52485639 1.9562563 2894892
-0.24391615 -0.52456874 1.9742634 2894892
-0.25368968 -0.47496498 1.9564245 2894892
-0.24377212 -0.47505859 1.9746958 2894892
-0.25370747 -0.42490447 1.9565613 2894892
-0.24380448 -0.42510444 1.9748043 2894892
-0.25373372 -0.37483603 1.9566823 2894892
-0.24383456 -0.37506035 1.9749184 2894892
-0.25375998 -0.32492405 1.9568026 2894892
-0.24385151 -0.32500914 1.9750571 2894892
-0.25374353 -0.2750057 1.9570019 2894892
-0.24384242 -0.2749517 1.9752434 2894892
-0.25377837 -0.22491652 1.9571068 2894892
-0.24388582 -0.22505045 1.9753321 2894892
-0.25427839 -0.17397235 1.9563581 2894892
-0.24386987 -0.17506063 1.9755317 2894892
-0.25449842 -0.12521182 1.9561173 2894892
-0.24394581 -0.12490056 1.9755598 2894892
-0.25448406 -0.075374082 1.9563131 2894892
-0.24385789 -0.074974716 1.9758919 2894892
-0.25450185 -0.025126254 1.9564501 2894892
-0.24397978 -0.025053004 1.9758354 2894892
-0.25451958 0.025128623 1.956588 2894892
-0.24399692 0.025055347 1.975975 2894892
-0.25455528 0.075257406 1.9566916 2894892
-0.24390878 0.074990958 1.976306 2894892
-0.25437492 0.10280173 1.9571172 9803157
-0.23035629 0.10406268 1.9775175 9934743
-0.17507677 0.10496368 1.9792249 10197915
-0.12499408 0.1049159 1.9783242 10197915
-0.074968651 0.10486572 1.9778847 10197915
-0.024980638 0.10482052 1.9765251 10197915
0.024965513 0.10477288 1.9756269 10197915
0.07526654 0.10472367 1.9749517 10197915
0.12511997 0.1046761 1.9740551 10197915
0.17451675 0.10463019 1.9729369 10197915
0.22468497 0.10458114 1.9722642 10197915
0.27480865 0.10453454 1.9711329 10197915
0.32488349 0.10448554 1.9704616 10197915
0.37491733 0.10443904 1.9693325 10197915
0.42489898 0.10439014 1.9686626 10197915
0.47524706 0.10434213 1.9677566 10197915
0.52513939 0.10429575 1.9666302 10197915
0.57498819 0.10424699 1.9659625 10197915
0.6247915 0.1042007 1.9648379 10197915
0.67179829 0.10414366 1.9662868 10197915
0.72493035 0.10402982 1.9772052 10197915
0.77535802 0.10398176 1.9762919 10197915
0.82492715 0.10393452 1.9753937 10197915
0.87445104 0.10388731 1.9744964 10197915
0.92474097 0.10383935 1.9735856 10197915
0.97498411 0.10379148 1.972675 10197915
1.0272055 0.10372827 1.9742531 10197915
1.0752656 0.10362106 1.9849216 10197915
1.1253225 0.10357212 1.9842426 10197915
1.1753373 0.10352574 1.9830956 10197915
1.2253008 0.1034769 1.9824182 10197915
1.2752253 0.10343059 1.9812732 10197915
1.3250952 0.10338183 1.9805974 10197915
1.3753321 0.10333398 1.9796804 10197915
1.4251144 0.1032878 1.9785384 10197915
1.4748513 0.10323921 1.9778644 10197915
1.5249493 0.10319149 1.9769503 10197915
1.5637273 0.10311808 1.9830948 10197915
-0.22045206 0.10477696 2.023268 10197915
-0.17511673 0.10473383 2.0224347 10197915
-0.12562597 0.10468673 2.0215256 10197915
-0.072672747 0.10461771 2.0240514 10197915
-0.024868004 0.10451309 2.0342896 10197915
0.024853006 0.1044658 2.0333691 10197915
0.074940659 0.10441682 2.0326939 10197915
0.12499276 0.10437057 2.0315158 10197915
0.17498726 0.10432167 2.0308416 10197915
0.22536492 0.10427375 2.0299098 10197915
0.27527559 0.10422762 2.0287335 10197915
0.3251377 0.10417887 2.0280612 10197915
0.37495947 0.10413283 2.0268881 10197915
0.42472905 0.10408414 2.0262179 10197915
0.47487754 0.10403646 2.0252891 10197915
0.52498019 0.10398882 2.0243611 10197915
0.57503057 0.10394382 2.0229411 10197915
0.6250357 0.10389364 2.0225091 10197915
0.67500103 0.10384611 2.021584 10197915
0.72492033 0.10379864 2.0206597 10197915
0.77520293 0.10375212 2.0194871 10197915
0.82544672 0.10370304 2.0187984 10197915
0.8752287 0.1036557 2.0178769 10197915
0.92495692 0.10361101 2.0164645 10197915
0.97464454 0.10356114 2.0160363 10197915
1.023497 0.10351197 2.0156398 10197915
1.0742261 0.10338815 2.0289121 10197915
1.1249748 0.10333991 2.0279658 10197915
1.1756762 0.10329174 2.02702 10197915
1.2255006 0.10324439 2.0260911 10197915
1.2752789 0.10319707 2.0251625 10197915
1.3250118 0.10314981 2.024235 10197915
1.3746997 0.10310259 2.0233085 10197915
1.425168 0.10305463 2.022367 10197915
1.4755902 0.10300671 2.0214267 10197915
1.5251397 0.10295962 2.0205028 10197915
1.5773747 0.10284206 2.0322962 10197915
1.6124035 0.10274541 2.0435586 10197915
-0.22368568 0.10453703 2.0690269 9539985
-0.17515872 0.10449536 2.067287 10197915
-0.12499627 0.10444634 2.0666044 10197915
-0.076493509 0.10439583 2.0665286 10197915
-0.024992209 0.10426993 2.0800383 10197915
0.02497706 0.10422252 2.0790923 10197915
0.074900895 0.10417515 2.0781474 10197915
0.1247794 0.10412782 2.0772033 10197915
0.17461257 0.10408052 2.0762601 10197915
0.22440049 0.1040333 2.0753176 10197915
0.2750003 0.10398528 2.0743597 10197915
0.32555386 0.10393731 2.0734029 10197915
0.37520492 0.10389019 2.0724633 10197915
0.42481092 0.10384314 2.0715239 10197915
0.47522607 0.10379528 2.0705698 10197915
0.52559495 0.10374751 2.0696166 10197915
0.57935822 0.10364483 2.078311 10197915
0.6248765 0.10356988 2.0834215 10197915
0.67505085 0.10352373 2.0821986 10197915
0.7251904 0.10347477 2.0815077 10197915
0.7752741 0.10342868 2.0802875 10197915
0.82532018 0.10337982 2.0795984 10197915
0.87531412 0.10333384 2.0783794 10197915
0.92526644 0.10328508 2.0776923 10197915
0.97517043 0.10323917 2.0764754 10197915
1.0250297 0.10319048 2.0757892 10197915
1.0748439 0.10314467 2.0745745 10197915
1.1246104 0.10309607 2.07389 10197915
1.1747602 0.10304853 2.0729339 10197915
1.225282 0.10300203 2.0717058 10197915
1.2749155 0.10295357 2.0710237 10197915
1.3244984 0.10290796 2.0698135 10197915
1.374886 0.1028588 2.0691168 10197915
1.4252249 0.10281248 2.067893 10197915
1.4750997 0.10276519 2.0669417 10197915
1.5249182 0.10271514 2.0665188 10197915
1.5708892 0.10262603 2.0742023 10197915
1.6251104 0.10253891 2.079885 10197915
1.6522713 0.10251318 2.0793631 10197915
-0.25255388 0.10417904 2.1420414 2894892
-0.22475483 0.10420623 2.131439 5987163
-0.17477226 0.10415743 2.1307571 10197915
-0.12485033 0.10411168 2.1295044 10197915
-0.074960552 0.10406296 2.128824 10197915
-0.025126986 0.10401729 2.1275737 10197915
0.025111679 0.10396974 2.1266015 10197915
0.074854724 0.10392113 2.1259229 10197915
0.12499989 0.10387366 2.1249523 10197915
0.17553501 0.10382733 2.1236887 10197915
0.22514667 0.10377886 2.1230128 10197915
0.27471468 0.10373345 2.1217687 10197915
0.32511052 0.10368425 2.1210775 10197915
0.37546551 0.10363808 2.1198175 10197915
0.4248926 0.10358979 2.1191449 10197915
0.47471866 0.10354266 2.1181805 10197915
0.52493149 0.10349662 2.116924 10197915
0.57110351 0.10342654 2.1209857 10197915
0.62518167 0.10331424 2.131434 10197915
0.67520475 0.1032669 2.1304581 10197915
0.72518241 0.10321967 2.1294827 10197915
0.775114 0.10317241 2.1285086 10197915
0.82499999 0.10312525 2.1275353 10197915
0.8748405 0.10307811 2.1265624 10197915
0.92550856 0.10303019 2.1255741 10197915
0.97525728 0.10298312 2.1246033 10197915
1.0249604 0.10293613 2.1236336 10197915
1.075489 0.10288835 2.1226478 10197915
1.1251009 0.10284142 2.1216795 10197915
1.1746672 0.10279452 2.1207125 10197915
1.2250569 0.10274688 2.1197295 10197915
1.2753999 0.10269927 2.118747 10197915
1.3256965 0.10265169 2.1177657 10197915
1.3789675 0.10253728 2.1287677 10197915
1.4248726 0.10246987 2.1323817 10197915
1.4749765 0.10242408 2.1311059 10197915
1.5250489 0.10237522 2.1304114 10197915
1.5750623 0.10232951 2.1291385 10197915
1.6250405 0.10228073 2.1284454 10197915
1.6711161 0.10221574 2.1315751 10197915
1.7022948 0.10211993 2.1434348 10197915
1.6904879 -0.72409022 2.1949933 2040615
1.7147183 -0.72403938 2.1818721 2040615
1.6911097 -0.67534822 2.1949062 2111569
1.7148544 -0.67500651 2.1820498 2111568
1.6914107 -0.62498999 2.1950014 1980240
1.7150388 -0.62506413 2.1822047 2111569
1.6915436 -0.57502502 2.1951857 2045777
1.715139 -0.57503331 2.1824083 2177362
1.6913034 -0.5254423 2.19557 2046290
1.7149364 -0.52473533 2.1827755 2111826
1.6917287 -0.47515187 2.1955981 1717328
1.714756 -0.47497785 2.1831295 1717327
1.6920086 -0.42503968 2.1957042 1849169
1.7149531 -0.42500487 2.1832783 1783633
1.6920651 -0.37503767 2.1959298 1783890
1.7150964 -0.37502539 2.1834579 1849426
1.6923294 -0.32517976 2.1960425 1454670
1.7152443 -0.32495931 2.1836348 1520206
1.6929778 -0.27498698 2.1959496 1388621
1.7153786 -0.27496272 2.1838179 1388878
1.6932195 -0.22497658 2.1960747 1520719
1.7154315 -0.22499429 2.1840458 1586512
1.6932567 -0.17494285 2.1963108 1454670
1.715773 -0.17509621 2.1841185 1454926
1.6936072 -0.12525903 2.1963768 1586511
1.7157758 -0.12488399 2.1843727 1586511
