# .PCD v0.7 - Point Cloud Data file format
VERSION 0.7
FIELDS x y z rgb
SIZE 4 4 4 4
TYPE F F F U
COUNT 1 1 1 1
WIDTH 1152
HEIGHT 1
VIEWPOINT 0 0 0 1 0 0 0
POINTS 1152
DATA ascii
-0.31621262 -0.51318449 1.1768942 2894892
-0.31517529 -0.47492769 1.1740056 2894892
-0.31529671 -0.42491513 1.1744835 2894892
-0.31545863 -0.37485623 1.1750791 2894892
-0.3156423 -0.32499108 1.1757365 2894892
-0.31575367 -0.27495641 1.176186 2894892
-0.31590524 -0.22487362 1.1767516 2894892
-0.31609961 -0.17498466 1.1774399 2894892
-0.31620955 -0.12504981 1.1778853 2894892
-0.31639424 -0.074942328 1.1785462 2894892
-0.31652528 -0.02491077 1.1790524 2894892
-0.31667724 0.02492672 1.1796184 2894892
-0.31571847 0.076472044 1.1769905 8684676
-0.95129937 0.11463231 1.197823 10197915
-0.91956341 0.11464629 1.1815903 10197915
-0.87504554 0.11463683 1.1774917 10197915
-0.82496744 0.11461927 1.1773518 10197915
-0.77490377 0.11460194 1.1770546 10197915
-0.72505236 0.1145844 1.1769531 10197915
-0.67511636 0.11456699 1.1767354 10197915
-0.62509972 0.11454932 1.1766726 10197915
-0.57509786 0.11453207 1.1763377 10197915
-0.52501261 0.1145144 1.1762747 10197915
-0.47504184 0.11449698 1.1760553 10197915
-0.42508441 0.11447972 1.1757624 10197915
-0.3748523 0.1144619 1.1757355 10197915
-0.32702893 0.11237182 1.1737885 10197915
-0.33932108 -0.55308115 1.2433295 2894892
-0.33339614 -0.52315825 1.2263464 2894892
-0.33299863 -0.47495285 1.2253255 2894892
-0.33325407 -0.42489699 1.2261903 2894892
-0.33335531 -0.37491703 1.2266103 2894892
-0.3335641 -0.32501695 1.2273403 2894892
-0.33367699 -0.27506852 1.2277939 2894892
-0.33388612 -0.2250713 1.228525 2894892
-0.33399937 -0.17502718 1.2289801 2894892
-0.3323071 -0.12621745 1.2242334 2894892
-0.33201173 -0.075185314 1.2235141 2894892
-0.33217227 -0.025016971 1.2241061 2894892
-0.3323324 0.025033042 1.2246963 2894892
-0.33246022 0.074961446 1.2251928 8816262
-0.96382225 0.11458878 1.2286866 10197915
-0.92515373 0.11458258 1.2238284 10197915
-0.87508041 0.11456528 1.2235324 10197915
-0.82515031 0.11454753 1.2235363 10197915
-0.77510595 0.1145302 1.2232417 10197915
-0.72508001 0.11451282 1.2229995 10197915
-0.67434841 0.11449357 1.2237942 10197915
-0.6250546 0.11446941 1.2280762 10197915
-0.5750078 0.11445206 1.2277992 10197915
-0.52497536 0.1144345 1.2276556 10197915
-0.47495797 0.11441718 1.2273806 10197915
-0.42495719 0.11439958 1.2272811 10197915
-0.37486982 0.114382 1.2271382 10197915
-0.33785221 0.11188707 1.2234868 10197915
-0.35485414 -0.56296355 1.2880294 2894892
-0.34773922 -0.55843717 1.2675549 2894892
-0.35498497 -0.52473521 1.2885045 2894892
-0.34735754 -0.52498746 1.2665417 2894892
-0.35291436 -0.47241098 1.2826769 2894892
-0.34597322 -0.47868666 1.2626748 2894892
-0.35277206 -0.42500561 1.2823894 2894892
-0.3452214 -0.42512688 1.2606479 2894892
-0.35291547 -0.37498474 1.2829312 2894892
-0.34538773 -0.37516952 1.2612554 2894892
-0.35311326 -0.32491097 1.2836297 2894892
-0.34555462 -0.32516435 1.261865 2894892
-0.35322872 -0.27505836 1.284091 2894892
-0.34572172 -0.2751109 1.2624753 2894892
-0.35345355 -0.2251569 1.2848665 2894892
-0.345889 -0.22500896 1.2630857 2894892
-0.3536239 -0.1752046 1.2854861 2894892
-0.34605634 -0.17485851 1.2636969 2894892
-0.35376847 -0.12494044 1.2860312 2894892
-0.34400293 -0.12308793 1.257918 2894892
-0.35393852 -0.074892037 1.2866505 2894892
-0.34388849 -0.075037867 1.2577125 2894892
-0.35413587 -0.025064623 1.2873478 2894892
-0.34410533 -0.025023617 1.2584659 2894892
-0.35430709 0.025080759 1.2879696 2894892
-0.34427127 0.025039708 1.2590724 2894892
-0.35444978 0.075004175 1.2885091 9211020
-0.34441072 0.074887037 1.2596023 9013641
-1.0119739 0.11451472 1.287321 10197915
-0.97447824 0.11452175 1.274233 10197915
-0.92490518 0.11450481 1.2737985 10197915
-0.87496024 0.11448761 1.273456 10197915
-0.82492352 0.11447015 1.2732615 10197915
-0.77490318 0.11445261 1.2731175 10197915
-0.72510976 0.11443521 1.2729229 10197915
-0.67575574 0.11441687 1.2734696 10197915
-0.62491596 0.11439132 1.2782581 10197915
-0.57491386 0.11437373 1.2781568 10197915
-0.52492803 0.11435635 1.2779288 10197915
-0.4749575 0.11433883 1.2777668 10197915
-0.42500094 0.11432156 1.2774783 10197915
-0.37324831 0.11336645 1.2782317 10197915
-0.34506264 0.10830252 1.2603952 10197915
-0.37636265 -0.60173285 1.3498611 2894892
-0.36672199 -0.57175076 1.322179 2894892
-0.36556056 -0.52474678 1.3189557 2894892
-0.36569831 -0.47488636 1.3194801 2894892
-0.36595324 -0.42497995 1.3203437 2894892
-0.36608952 -0.37520522 1.3208635 2894892
-0.36622751 -0.32520032 1.3213903 2894892
-0.36648384 -0.27496541 1.3222573 2894892
-0.3666214 -0.22486369 1.3227826 2894892
-0.36675876 -0.17489818 1.3233076 2894892
-0.36697525 -0.12488261 1.3240595 2894892
-0.3671515 -0.075000323 1.3246952 2894892
-0.36732823 -0.025072677 1.3253331 2894892
-0.36750501 0.024905652 1.3259711 2894892
-0.36768198 0.074929498 1.3266101 9474192
-1.0588733 0.11444558 1.3425111 10197915
-1.0241857 0.11445425 1.3290131 10197915
-0.97492695 0.11443829 1.3280334 10197915
-0.92499483 0.11442099 1.32776 10197915
-0.87507707 0.11440342 1.327629 10197915
-0.82503784 0.11438594 1.3274612 10197915
-0.7750119 0.11436857 1.3272243 10197915
-0.72514176 0.11435125 1.3269511 10197915
-0.67528385 0.11433375 1.3268204 10197915
-0.62502962 0.11431615 1.3266511 10197915
-0.57492912 0.1142987 1.3264487 10197915
-0.52498019 0.11428163 1.3260056 10197915
-0.47504741 0.11426387 1.3260443 10197915
-0.42499271 0.11424637 1.3258414 10197915
-0.37939024 0.11248908 1.3243589 10197915
-0.38578621 -0.60787278 1.3769794 2894892
-0.3825841 -0.5737974 1.3678468 2894892
-0.38239002 -0.52532959 1.3674126 2894892
-0.38257593 -0.47514334 1.3680774 2894892
-0.38276082 -0.4250935 1.3687385 2894892
-0.38290188 -0.3749975 1.3692737 2894892
-0.3831318 -0.32485339 1.3700646 2894892
-0.38336051 -0.27484718 1.3708538 2894892
-0.38345671 -0.2249838 1.3712584 2894892
-0.38372993 -0.1750697 1.3721721 2894892
-0.38382638 -0.12511142 1.3725811 2894892
-0.38405684 -0.074911304 1.3733728 2894892
-0.38424113 -0.024855634 1.3740325 2894892
-0.38442516 0.024871506 1.3746907 2894892
-0.38461185 0.075023636 1.3753573 9737364
-1.1019469 0.11439095 1.3875102 10197915
-1.0712335 0.11439835 1.3757282 10197915
-1.0247234 0.11438511 1.3736182 10197915
-0.97506702 0.11436778 1.3734105 10197915
-0.92504323 0.11435018 1.3733041 10197915
-0.87503558 0.11433293 1.3729916 10197915
-0.82504261 0.11431564 1.372682 10197915
-0.7740643 0.11428883 1.3782895 10197915
-0.72533166 0.11427021 1.3791263 10197915
-0.67523319 0.11425286 1.3788402 10197915
-0.62515432 0.11423527 1.3787048 10197915
-0.57508665 0.11421763 1.3786496 10197915
-0.5248943 0.11420052 1.3781686 10197915
-0.47485948 0.11418284 1.3781111 10197915
-0.424981 0.11416552 1.3778626 10197915
-0.3888503 0.11129611 1.3735369 10197915
-0.4035975 -0.61933684 1.4282357 2894892
-0.39397624 -0.61330277 1.4005477 2894892
-0.40348139 -0.57501972 1.4280145 2894892
-0.39412096 -0.57521725 1.4010623 2894892
-0.40363833 -0.52528191 1.4285947 2894892
-0.39431226 -0.52497333 1.4017421 2894892
-0.4038721 -0.47490895 1.4293973 2894892
-0.39450407 -0.47468111 1.402424 2894892
-0.40406767 -0.42477939 1.43009 2894892
-0.39469391 -0.42491892 1.4030988 2894892
-0.40422526 -0.3749015 1.4306722 2894892
-0.39488402 -0.37510872 1.4037745 2894892
-0.40445763 -0.32496929 1.43147 2894892
-0.39507431 -0.3252506 1.404451 2894892
-0.40461561 -0.27499557 1.4320532 2894892
-0.39526474 -0.27534443 1.4051281 2894892
-0.40484846 -0.22496621 1.4328527 2894892
-0.39545539 -0.22539012 1.4058058 2894892
-0.40500656 -0.17489652 1.4334373 2894892
-0.39564624 -0.17538753 1.4064841 2894892
-0.4052003 -0.1250696 1.4341238 2894892
-0.39583725 -0.12533674 1.4071633 2894892
-0.40539604 -0.075194575 1.434816 2894892
-0.39602843 -0.075237542 1.4078429 2894892
-0.40562975 -0.024977896 1.4356184 2894892
-0.39621988 -0.025089957 1.4085232 2894892
-0.40582502 0.024993924 1.4363092 2894892
-0.39641142 0.02510613 1.4092044 2894892
-0.40594438 0.075012825 1.436782 10132122
-0.39660311 0.075350776 1.4098858 10066329
-1.1182915 0.11433209 1.4291081 10197915
-1.074615 0.1143269 1.4224864 10197915
-1.0248078 0.11430944 1.42231 10197915
-0.97501904 0.11429217 1.422055 10197915
-0.92494845 0.11427465 1.4218801 10197915
-0.87504119 0.11425753 1.4214916 10197915
-0.82514989 0.11423992 1.4214472 10197915
-0.77635449 0.11421468 1.4265056 10197915
-0.72520202 0.11419395 1.4281627 10197915
-0.67519903 0.11417651 1.4279479 10197915
-0.62481964 0.11415896 1.4277279 10197915
-0.57484758 0.11414136 1.4276239 10197915
-0.5250901 0.11412439 1.4271768 10197915
-0.47514886 0.1141068 1.4270757 10197915
-0.42323643 0.11292292 1.4281235 10197915
-0.39706025 0.10844974 1.4106194 10197915
-0.42352447 -0.65721053 1.4855151 2894892
-0.41959757 -0.62488627 1.4742908 2894892
-0.41990927 -0.57507837 1.4753164 2894892
-0.42005855 -0.52501255 1.4758749 2894892
-0.42025974 -0.47510582 1.4765831 2894892
-0.42046422 -0.42514804 1.4773012 2894892
-0.42066613 -0.37514538 1.478011 2894892
-0.42081434 -0.32529509 1.4785661 2894892
-0.42112839 -0.27519381 1.4795997 2894892
-0.41994464 -0.22744106 1.4763141 2894892
-0.41812134 -0.17491664 1.4711998 2894892
-0.41832268 -0.12499776 1.471908 2894892
-0.41844225 -0.075037643 1.4723812 2894892
-0.41872588 -0.025023637 1.473327 2894892
-0.41892767 0.025039729 1.4740373 3158064
-0.41908702 0.074841335 1.4746244 10197915
-1.163885 0.11426825 1.4806107 10197915
-1.1251171 0.11426337 1.4748821 10197915
-1.0748491 0.11424588 1.4746588 10197915
-1.0247979 0.11422843 1.4744312 10197915
-0.97517306 0.11421117 1.4742082 10197915
-0.92515254 0.11419356 1.4741105 10197915
-0.87494463 0.11417644 1.4736333 10197915
-0.82475263 0.11415858 1.4736595 10197915
-0.77477765 0.1141414 1.4733076 10197915
-0.72522873 0.11412416 1.4730844 10197915
-0.67528385 0.11410674 1.4728636 10197915
-0.62515348 0.11408928 1.472635 10197915
-0.57523978 0.1140717 1.4725379 10197915
-0.52513874 0.11405467 1.4720618 10197915
-0.47505391 0.11403684 1.4720877 10197915
-0.43038592 0.11236042 1.4711651 10197915
-0.43749571 -0.66621721 1.5257204 2894892
-0.43712649 -0.62508023 1.524763 2894892
-0.43738359 -0.57513845 1.5256318 2894892
-0.4375492 -0.52514482 1.5262371 2894892
-0.43780693 -0.475106 1.5271081 2894892
-0.43797317 -0.42501673 1.527716 2894892
-0.43823138 -0.37488005 1.5285889 2894892
-0.438398 -0.32469416 1.5291979 2894892
-0.43865401 -0.27509198 1.5300634 2894892
-0.43676224 -0.22282283 1.5247508 2894892
-0.43550631 -0.17518157 1.5212579 2894892
-0.43559831 -0.12483199 1.5216521 2894892
-0.4358674 -0.074848704 1.5225554 2894892
-0.43607643 -0.02503149 1.5232856 2894892
-0.43628678 0.025047589 1.524021 3487029
-0.43649647 0.074960686 1.5247538 10197915
-1.2105478 0.11420102 1.534508 10197915
-1.1746695 0.11420573 1.5232869 10197915
-1.1246433 0.11418876 1.5227777 10197915
-1.0746418 0.11417137 1.5225456 10197915
-1.0246521 0.11415399 1.5223135 10197915
-0.97468108 0.11413655 1.5220819 10197915
-0.92493361 0.11411904 1.5219901 10197915
-0.87520182 0.11410195 1.5216204 10197915
-0.82527637 0.1140846 1.5213884 10197915
-0.77536267 0.11406725 1.5211571 10197915
-0.72525376 0.11404958 1.5210643 10197915
-0.6749562 0.11403253 1.5205557 10197915
-0.62466776 0.1140148 1.520458 10197915
-0.57481509 0.11399743 1.5202264 10197915
-0.52498108 0.11398008 1.5199951 10197915
-0.47494876 0.11396269 1.5197629 10197915
-0.43918431 0.1105777 1.5202948 10197915
-0.45554584 -0.70259941 1.5776001 2894892
-0.4556689 -0.67467546 1.5780259 2894892
-0.44802725 -0.673006 1.5560273 2894892
-0.45588589 -0.62528771 1.5787778 2894892
-0.44823456 -0.62494683 1.5567478 2894892
-0.45610711 -0.57520318 1.5795435 2894892
-0.44845191 -0.5749197 1.5575023 2894892
-0.45632818 -0.52507001 1.5803094 2894892
-0.44866905 -0.52484393 1.5582564 2894892
-0.45654991 -0.47488829 1.581077 2894892
-0.44888678 -0.47471985 1.5590122 2894892
-0.45677161 -0.42465806 1.5818454 2894892
-0.44910461 -0.4245472 1.559769 2894892
-0.4569909 -0.37503213 1.5826044 2894892
-0.4493199 -0.37497005 1.5605167 2894892
-0.45721024 -0.32535851 1.5833641 2894892
-0.44953531 -0.3253451 1.5612651 2894892
-0.45743278 -0.27498251 1.5841345 2894892
-0.44975382 -0.27502728 1.5620239 2894892
-0.45550007 -0.22019848 1.578711 2894892
-0.44993055 -0.23435152 1.5626374 2894892
-0.45403215 -0.17481557 1.5746006 2894892
-0.45420054 -0.12497528 1.5752144 2894892
-0.45446894 -0.07508453 1.576116 2894892
-0.45463765 -0.025148908 1.5767306 2894892
-0.45485783 0.025165154 1.5774944 3815994
-0.45512706 0.075197235 1.5783982 10197915
-1.2571231 0.11413136 1.5899887 10197915
-1.2232659 0.11414155 1.5756854 10197915
-1.175182 0.11412666 1.574286 10197915
-1.1252278 0.1141095 1.5738938 10197915
-1.0748565 0.114092 1.5736524 10197915
-1.0249325 0.11407462 1.573409 10197915
-0.97524559 0.11405735 1.5731742 10197915
-0.9251346 0.11403992 1.5729342 10197915
-0.87504184 0.11402228 1.572845 10197915
-0.82496411 0.11400509 1.5724535 10197915
-0.77489871 0.11398766 1.5722131 10197915
-0.724635 0.11397021 1.5719726 10197915
-0.67481756 0.1139529 1.5717297 10197915
-0.62523663 0.11393565 1.5714958 10197915
-0.57501471 0.11391821 1.5712551 10197915
-0.52481204 0.11390073 1.5710139 10197915
-0.47311547 0.11273876 1.5713305 10197915
-0.448526 0.11390115 1.5532895 10197915
-0.47362104 -0.71452945 1.6296149 2894892
-0.47164002 -0.67504245 1.6240121 2894892
-0.47186777 -0.62510628 1.624796 2894892
-0.47209683 -0.57490265 1.6255852 2894892
-0.46821034 -0.52475506 1.6145235 2894892
-0.46848926 -0.47515091 1.6154542 2894892
-0.46871573 -0.42516151 1.6162356 2894892
-0.46888986 -0.37479666 1.6168667 2894892
-0.46911699 -0.32471102 1.6176494 2894892
-0.46939674 -0.27491298 1.6185837 2894892
-0.46956843 -0.22506765 1.6192067 2894892
-0.46984878 -0.175173 1.6201425 2894892
-0.47002089 -0.12523217 1.6207666 2894892
-0.47024909 -0.074904598 1.6215531 2894892
-0.47053003 -0.024868626 1.6224914 2894892
-0.4707554 0.02488452 1.623269 4079166
-0.4709284 0.075016886 1.6238958 10197915
-1.3058566 0.11405756 1.6485616 10197915
-1.2720491 0.11407094 1.6322577 10197915
-1.2249552 0.11405946 1.6288807 10197915
-1.1748337 0.11404146 1.6289715 10197915
-1.1249505 0.11402447 1.6285521 10197915
-1.0748609 0.11400701 1.6283077 10197915
-1.0247815 0.11398961 1.6280546 10197915
-0.9749456 0.11397205 1.6279793 10197915
-0.92490149 0.11395517 1.6273913 10197915
-0.87486982 0.11393727 1.6274827 10197915
-0.824853 0.11392044 1.6268954 10197915
-0.77485555 0.11390252 1.6269863 10197915
-0.72464508 0.11388536 1.6265697 10197915
-0.67467254 0.11386797 1.6263176 10197915
-0.6249429 0.11385044 1.6262423 10197915
-0.57500565 0.11383363 1.6256552 10197915
-0.52508068 0.11381571 1.6257467 10197915
-0.48185009 0.112188 1.6228479 10197915
-0.49702588 -0.75432634 1.6969036 2894892
-0.49274713 -0.72441751 1.6846604 2894892
-0.49298131 -0.67518449 1.6854609 2894892
-0.49321979 -0.62521172 1.6862763 2894892
-0.49250025 -0.57819426 1.6843258 2894892
-0.48496792 -0.52488446 1.6627748 2894892
-0.48514238 -0.47517604 1.6634051 2894892
-0.48537749 -0.42507127 1.6642118 2894892
-0.48567021 -0.37526417 1.6651828 2894892
-0.48584533 -0.32540804 1.6658151 2894892
-0.48608112 -0.27515802 1.6666237 2894892
-0.48637465 -0.22520995 1.6675978 2894892
-0.48655027 -0.17520553 1.6682321 2894892
-0.48684427 -0.12516029 1.6692077 2894892
-0.48702037 -0.07506001 1.6698434 2894892
-0.4873147 -0.024917252 1.6708208 2894892
-0.48754868 0.024933206 1.6716233 4408131
-0.48772535 0.075172767 1.6722609 10197915
-1.3183481 0.11401223 1.6805682 10197915
-1.2752175 0.11400126 1.6778063 10197915
-1.2249781 0.11398378 1.6775531 10197915
-1.1747528 0.11396631 1.6772927 10197915
-1.1249014 0.11394886 1.6771789 10197915
-1.0747088 0.11393135 1.6769224 10197915
-1.0248792 0.11391427 1.6765265 10197915
-0.97507071 0.11389685 1.6764132 10197915
-0.92492402 0.11387941 1.6761568 10197915
-0.87514246 0.11386227 1.6757618 10197915
-0.82537651 0.11384483 1.6756482 10197915
-0.77527571 0.11382748 1.675392 10197915
-0.7248469 0.11381008 1.6749973 10197915
-0.6747753 0.11379272 1.6747378 10197915
-0.6250729 0.11377528 1.6746243 10197915
-0.57503313 0.11375789 1.6743687 10197915
-0.52500862 0.11374055 1.674113 10197915
-0.49056107 0.11022555 1.6716894 10197915
-0.5100593 -0.76647335 1.7344006 2763306
-0.50628573 -0.72479361 1.7236422 2894892
-0.50652903 -0.67513174 1.72447 2894892
-0.5067727 -0.62542266 1.7253 2894892
-0.50702041 -0.57495475 1.7261429 2894892
-0.49797118 -0.55784017 1.7001309 2894892
-0.50726849 -0.52443779 1.7269877 2894892
-0.49813002 -0.52490157 1.7006731 2894892
-0.50751323 -0.47458366 1.7278209 2894892
-0.49837005 -0.47510603 1.7014928 2894892
-0.5077582 -0.42468151 1.7286549 3618615
-0.49861041 -0.4252626 1.7023132 2894892
-0.50800341 -0.37473112 1.7294899 3881787
-0.49885094 -0.37537089 1.7031344 2894892
-0.50824893 -0.32473248 1.7303257 4737096
-0.49909511 -0.32472739 1.7039682 2894892
-0.50849468 -0.2746855 1.7311621 4144959
-0.49933609 -0.27473879 1.7047911 2894892
-0.5087406 -0.22459006 1.7319995 2894892
-0.49957731 -0.22470172 1.7056143 2894892
-0.50898677 -0.17444618 1.7328377 2894892
-0.49981874 -0.17461646 1.7064389 2894892
-0.50526816 -0.12231074 1.7222648 2894892
-0.49996853 -0.14355519 1.7069499 2894892
-0.5048213 -0.075224973 1.7210994 2894892
-0.50513047 -0.024968866 1.722119 2894892
-0.50537348 0.024984885 1.7229481 4737096
-0.50548548 0.074985199 1.7233993 10197915
-1.3606553 0.11395979 1.7240057 10197915
-1.3247246 0.11395451 1.7191974 10197915
-1.2746732 0.11393713 1.7189351 10197915
-1.2249963 0.1139201 1.718523 10197915
-1.1753353 0.11390267 1.7184162 10197915
-1.1249727 0.11388543 1.7180039 10197915
-1.0740957 0.1138519 1.7279223 10197915
-1.0247451 0.11383413 1.728085 10197915
-0.97495842 0.11381654 1.7280287 10197915
-0.92519051 0.11379962 1.7275608 10197915
-0.875193 0.11378255 1.7270966 10197915
-0.82497501 0.1137645 1.7272372 10197915
-0.77500856 0.11374749 1.7267692 10197915
-0.72482222 0.11373006 1.7265099 10197915
-0.67464662 0.11371266 1.7262408 10197915
-0.6249662 0.1136951 1.726185 10197915
-0.57506484 0.1136784 1.7255167 10197915
-0.52412575 0.11247497 1.7236271 10197915
-0.49922225 0.11368427 1.7044023 10197915
-0.52246606 -0.76866424 1.7701186 2171169
-0.52047241 -0.72482795 1.7644907 2302755
-0.5207938 -0.67508006 1.7655439 2236962
-0.52097434 -0.62527752 1.7661921 2171169
-0.52129644 -0.57543284 1.7672482 2105376
-0.52147788 -0.52553529 1.7678989 3750201
-0.52173173 -0.47522491 1.7687598 6513507
-0.52205437 -0.42523918 1.7698183 6513507
-0.52223665 -0.37519249 1.7704715 6513507
-0.52256006 -0.32510906 1.7715315 6513507
-0.52281141 -0.27533457 1.7723837 5855577
-0.52299386 -0.22514921 1.773039 2894892
-0.52331811 -0.17491382 1.774102 2894892
-0.5235703 -0.12499467 1.7749565 2894892
-0.52367872 -0.075037457 1.7753978 2894892
-0.52407479 -0.025023753 1.776667 2894892
-0.52432758 0.025039844 1.777524 5066061
-0.52450556 0.074776791 1.7781651 10197915
-1.4123374 0.11387508 1.7902894 10197915
-1.3741205 0.11388585 1.7746409 10197915
-1.3250625 0.11387058 1.7732456 10197915
-1.2751563 0.11385295 1.7731979 10197915
-1.225021 0.11383623 1.7724892 10197915
-1.1749016 0.11381818 1.772657 10197915
-1.1250405 0.11380124 1.7721653 10197915
-1.0758651 0.11376874 1.7818285 10197915
-1.0248474 0.11374913 1.7827924 10197915
-0.97484499 0.11373153 1.7826887 10197915
-0.92484963 0.11371446 1.7822489 10197915
-0.87487906 0.11369687 1.782146 10197915
-0.82454681 0.11367939 1.7818724 10197915
-0.77460033 0.11366237 1.7814323 10197915
-0.72467244 0.11364478 1.7813294 10197915
-0.67475468 0.11362775 1.7808899 10197915
-0.62485886 0.11361019 1.7807869 10197915
-0.5746032 0.11359274 1.7805138 10197915
-0.53246713 0.11099439 1.7784457 10197915
-0.54260045 -0.8090688 1.8279895 2434341
-0.54024971 -0.77533722 1.8213068 2039583
-0.54051185 -0.72512919 1.8221914 2039583
-0.54085028 -0.67525464 1.8232938 2039583
-0.5410347 -0.6253249 1.8239534 2039583
-0.54137385 -0.57535309 1.8250593 2039583
-0.54155874 -0.52532774 1.8257205 5263440
-0.54189855 -0.47525826 1.8268282 6513507
-0.5420838 -0.42513683 1.8274907 6513507
-0.54242438 -0.37496909 1.8286005 6513507
-0.54261005 -0.32475138 1.829265 6513507
-0.54295117 -0.27448511 1.8303764 6381921
-0.54313087 -0.22492786 1.8310217 3092271
-0.54347098 -0.1753213 1.8321288 2894892
-0.54365766 -0.12491139 1.8327962 2894892
-0.54391766 -0.074828193 1.833674 2894892
-0.54342073 -0.027953414 1.8323641 2894892
-0.53930765 0.024893107 1.8206573 5329233
-0.5395664 0.074711181 1.8215303 10197915
-1.4581214 0.11380833 1.8436791 10197915
-1.4246019 0.11381496 1.8317682 10197915
-1.3754421 0.11379824 1.831305 10197915
-1.3251655 0.1137808 1.8310244 10197915
-1.2752948 0.1137638 1.8305631 10197915
-1.2250476 0.11374639 1.8302886 10197915
-1.1748155 0.11372897 1.8300033 10197915
-1.1249902 0.11371143 1.829908 10197915
-1.0747904 0.11369404 1.8296281 10197915
-1.0249854 0.11367708 1.8291674 10197915
-0.97520238 0.11365953 1.8290734 10197915
-0.92504877 0.11364216 1.8287933 10197915
-0.87491 0.11362479 1.8285139 10197915
-0.8251738 0.11360784 1.8280536 10197915
-0.77506435 0.11359046 1.8277795 10197915
-0.72459632 0.11357271 1.8276757 10197915
-0.67489743 0.11355578 1.8272158 10197915
-0.62522042 0.11353827 1.8271214 10197915
-0.57517362 0.11352093 1.8268424 10197915
-0.54251486 0.11048403 1.8213125 10197915
-0.56228727 -0.82167679 1.884643 2894892
-0.56171924 -0.77542084 1.8831254 2434341
-0.56034374 -0.72923613 1.879284 2039583
-0.55673105 -0.67519897 1.8690209 2039583
-0.55700105 -0.62517154 1.869927 2039583
-0.55727124 -0.57509565 1.8708342 2039583
-0.55754185 -0.52497113 1.8717425 6513507
-0.55781245 -0.47479814 1.8726513 6513507
-0.55807924 -0.42534915 1.8735471 6513507
-0.55835062 -0.37507898 1.874458 6513507
-0.55862212 -0.32476023 1.8753694 6513507
-0.55888981 -0.27516767 1.876268 6513507
-0.55915761 -0.22552748 1.8771672 3684408
-0.55942994 -0.17506288 1.8780814 2894892
-0.55970252 -0.12454933 1.8789966 2894892
-0.55997115 -0.074764669 1.8798984 2894892
-0.56024015 -0.0249322 1.880801 2894892
-0.54956532 -0.0068981582 1.8501108 2894892
-0.56050926 0.024948161 1.8817048 5723991
-0.54973578 0.025303695 1.8506846 5658198
-0.55720729 0.079070486 1.872337 10197915
-0.54993463 0.062893979 1.8513542 10197915
-1.5030279 0.11374689 1.8935165 10197915
-1.471969 0.11375244 1.8828334 10197915
-1.4252533 0.11373977 1.8803111 10197915
-1.3751813 0.11372244 1.8800308 10197915
-1.3247411 0.11370467 1.8799351 10197915
-1.2747014 0.11368732 1.8796488 10197915
-1.2250702 0.11367047 1.8791656 10197915
-1.1754545 0.11365295 1.8790804 10197915
-1.1250705 0.11363582 1.878599 10197915
-1.0747056 0.11361808 1.878504 10197915
-1.0247421 0.11360078 1.8782177 10197915
-0.97518808 0.11358392 1.877735 10197915
-0.92525303 0.11356664 1.8774551 10197915
-0.87495315 0.11354888 1.87736 10197915
-0.82505041 0.11353161 1.8770745 10197915
-0.77516282 0.11351436 1.8767889 10197915
-0.7249068 0.11349725 1.8763084 10197915
-0.67465949 0.11347954 1.8762134 10197915
-0.62481797 0.1134623 1.875928 10197915
-0.57308388 0.11175606 1.8724015 10197915
-0.57823509 -0.85655546 1.9304729 2894892
-0.578412 -0.82481527 1.9310639 2894892
-0.5786919 -0.77478874 1.9319981 2829099
-0.57543343 -0.72065336 1.9227548 2105376
-0.57343149 -0.67553765 1.9171072 2039583
-0.57380098 -0.62540174 1.9183 2039583
-0.57398897 -0.57522279 1.9189706 3289650
-0.57426584 -0.52538514 1.9198971 6513507
-0.57463646 -0.47510755 1.9210932 6513507
-0.57482523 -0.42477804 1.9217665 6513507
-0.57519186 -0.37519526 1.92295 6513507
-0.57537663 -0.32556355 1.9236099 6513507
-0.57574832 -0.27508926 1.9248106 6513507
-0.57593805 -0.22456673 1.9254864 4276545
-0.57630593 -0.17478971 1.9266744 2894892
-0.57649153 -0.12496769 1.9273378 2894892
-0.57686019 -0.075093955 1.928527 2894892
-0.57704616 -0.025176967 1.9291918 2894892
-0.57732612 0.02519325 1.9301274 6118749
-0.57769573 0.075206652 1.9313202 10197915
-1.5199088 0.11368628 1.9363483 10197915
-1.4745901 0.11367629 1.9324139 10197915
-1.4251466 0.11365952 1.9319055 10197915
-1.3753077 0.11364225 1.9316194 10197915
-1.3250906 0.11362455 1.9315345 10197915
-1.2752843 0.11360732 1.9312414 10197915
-1.2250944 0.11359029 1.9307358 10197915
-1.1749189 0.11357259 1.9306509 10197915
-1.1251578 0.11355537 1.9303581 10197915
-1.0750172 0.11353837 1.9298533 10197915
-1.0248846 0.11352067 1.9297682 10197915
-0.97477263 0.11350368 1.9292637 10197915
-0.92467266 0.11348602 1.9291791 10197915
-0.87498724 0.11346882 1.9288867 10197915
-0.82492495 0.11345181 1.9283823 10197915
-0.77486664 0.11343417 1.928298 10197915
-0.72483313 0.11341718 1.9277934 10197915
-0.67480731 0.11339954 1.9277091 10197915
-0.62480253 0.11338255 1.9272052 10197915
-0.58391178 0.11096229 1.9271066 10197915
-0.60223794 -0.87229085 1.9995456 3750201
-0.5900256 -0.86428505 1.9644018 2894892
-0.60237062 -0.84928459 1.9999862 2894892
-0.59025025 -0.82472008 1.9651501 2894892
-0.59053689 -0.7746194 1.9661046 2894892
-0.59082389 -0.72447014 1.9670601 2500134
-0.59110671 -0.6750828 1.9680022 2039583
-0.59138995 -0.62564778 1.9689449 2039583
-0.59167814 -0.57535386 1.9699044 4671303
-0.59196657 -0.52501106 1.9708644 6513507
-0.59225529 -0.474619 1.9718258 6513507
-0.59253961 -0.42499202 1.9727726 6513507
-0.59282422 -0.37531704 1.9737201 6513507
-0.59311384 -0.32477883 1.9746839 6513507
-0.59339893 -0.27500778 1.9756334 6513507
-0.59368438 -0.22518855 1.9765836 5000268
-0.59397006 -0.17532164 1.977535 2894892
-0.59425604 -0.12540644 1.9784871 2894892
-0.59454697 -0.074623831 1.9794557 2894892
-0.59483361 -0.024611859 1.9804096 2894892
-0.59511566 0.024627423 1.9813489 6381921
-0.59540278 0.074735388 1.9823047 10197915
-1.5599312 0.11364277 1.973443 10197915
-1.5254334 0.11363085 1.973236 10197915
-1.4753418 0.11361352 1.9729353 10197915
-1.4252654 0.11359621 1.9726347 10197915
-1.3752042 0.1135789 1.9723338 10197915
-1.3212656 0.11355021 1.9784763 10197915
-1.2750732 0.11352252 1.9857416 10197915
-1.2247031 0.1135051 1.9854368 10197915
-1.1747689 0.11348817 1.9849054 10197915
-1.1248387 0.11347058 1.9848326 10197915
-1.0749333 0.11345366 1.9843017 10197915
-1.0250355 0.11343608 1.9842294 10197915
-0.97515821 0.11341918 1.983698 10197915
-0.92529237 0.11340156 1.9836261 10197915
-0.87544376 0.11338469 1.9830952 10197915
-0.82519382 0.11336733 1.9827909 10197915
-0.77497083 0.11334924 1.9829463 10197915
-0.72475517 0.11333258 1.9821836 10197915
-0.67496377 0.11331502 1.9821118 10197915
-0.62519282 0.11329816 1.9815816 10197915
-0.59536797 0.10958672 1.9763731 10197915
-0.61474651 -0.90567583 2.0354769 11711154
-0.61492503 -0.87557018 2.0360677 8882055
-0.6089769 -0.8249976 2.0190711 2894892
-0.60905898 -0.77518582 2.0194352 2894892
-0.60946012 -0.72491795 2.0207202 2829099
-0.60965329 -0.67460525 2.0214057 2302755
-0.60994482 -0.62465483 2.0223742 2039583
-0.6103459 -0.57507879 2.0236559 6052956
-0.61064148 -0.52503049 2.0246372 6513507
-0.61082703 -0.47536027 2.0252993 6513507
-0.61112678 -0.42521644 2.0262916 6513507
-0.61153054 -0.37460932 2.0275848 6513507
-0.61171681 -0.32478926 2.0282493 6513507
-0.61211973 -0.27492106 2.0295382 6513507
-0.61230642 -0.22500597 2.0302038 5789784
-0.61108804 -0.17887986 2.0268147 2894892
-0.60660517 -0.12515722 2.0140455 2894892
-0.60689759 -0.075129762 2.015017 2894892
-0.60719043 -0.025053991 2.0159891 2894892
-0.6074838 0.02507012 2.0169625 6645093
-0.60777724 0.075242653 2.0179367 10197915
-1.6076581 0.11357081 2.0306292 10197915
-1.5731832 0.11357933 2.0173028 10197915
-1.5251979 0.11356515 2.0154524 10197915
-1.4752834 0.11354753 2.0153906 10197915
-1.4253943 0.11353066 2.0148401 10197915
-1.3755122 0.11351302 2.0147786 10197915
-1.3282164 0.11349273 2.0170319 10197915
-1.2749082 0.11345583 2.028573 10197915
-1.2251379 0.11343864 2.0282657 10197915
-1.1745396 0.11342115 2.0279531 10197915
-1.1248001 0.11340398 2.0276458 10197915
-1.0750754 0.11338679 2.0273385 10197915
-1.0245233 0.11336932 2.0270262 10197915
-0.97482914 0.11335213 2.0267193 10197915
-0.9251498 0.11333498 2.026412 10197915
-0.87464398 0.11331752 2.0260997 10197915
-0.8249951 0.11330037 2.0257933 10197915
-0.77536136 0.1132832 2.0254867 10197915
-0.72490156 0.11326577 2.0251749 10197915
-0.67445737 0.11324835 2.0248632 10197915
-0.62424707 0.11163522 2.0230308 10197915
-0.6278733 -0.9138943 2.0732524 11711154
-0.62810481 -0.87556416 2.0740173 11711154
-0.62841111 -0.82527107 2.0750287 5855577
-0.6287179 -0.77492917 2.0760417 2894892
-0.62901998 -0.72539312 2.0770388 2894892
-0.62932765 -0.67495382 2.0780551 2829099
-0.62963563 -0.62446558 2.0790718 3289650
-0.62993866 -0.57478476 2.0800724 6513507
-0.63024205 -0.52505594 2.0810742 6513507
-0.63054556 -0.47527924 2.0820768 6513507
-0.63084966 -0.42545468 2.0830805 6513507
-0.63115388 -0.37558195 2.084085 5592405
-0.63145834 -0.32566112 2.0850906 6447714
-0.63176304 -0.27569216 2.0860968 5658198
-0.63206816 -0.22567485 2.0871043 6316128
-0.62851739 -0.17094795 2.0770214 4210752
-0.62604278 -0.12519707 2.0700138 4144959
-0.6262328 -0.07506419 2.0706904 4210752
-0.62664813 -0.024891941 2.0720155 4605510
-0.62694883 0.024907863 2.0730095 7697781
-0.62713939 0.075176977 2.0736883 10197915
-1.6564939 0.11349408 2.0912189 10197915
-1.6225021 0.11350376 2.0772109 10197915
-1.5751058 0.11348972 2.0754128 10197915
-1.525004 0.11347242 2.0750959 10197915
-1.4749169 0.11345512 2.0747797 10197915
-1.4252849 0.1134384 2.0741985 10197915
-1.3752264 0.1134211 2.0738914 10197915
-1.3247614 0.11340327 2.0738316 10197915
-1.2747357 0.11338599 2.0735152 10197915
-1.2251592 0.11336929 2.0729344 10197915
-1.175598 0.11335174 2.0728896 10197915
-1.1251879 0.11333474 2.0723124 10197915
-1.0747976 0.11331695 2.0722532 10197915
-1.0248482 0.11329969 2.0719373 10197915
-0.97491342 0.11328245 2.0716219 10197915
-0.92500252 0.11326602 2.0707808 10197915
-0.87510318 0.11324798 2.0709918 10197915
-0.82521439 0.11323075 2.0706766 10197915
-0.77491176 0.11321378 2.0701005 10197915
-0.7246291 0.11319601 2.0700412 10197915
-0.67478615 0.11317882 2.0697267 10197915
-0.63376528 0.11102209 2.0686824 10197915
-0.6414957 -0.92242205 2.1124549 11711154
-0.64179122 -0.87469041 2.1134281 11711154
-0.6420995 -0.8251791 2.1144431 10658466
-0.64240819 -0.77562034 2.1154594 4473924
-0.64272285 -0.72514361 2.1164954 3815994
-0.64303774 -0.67461717 2.1175325 4079166
-0.64334744 -0.62491411 2.1185527 5263440
-0.64365768 -0.57516271 2.1195738 5789784
-0.64397347 -0.52448922 2.1206138 6250335
-0.64428425 -0.47464117 2.1216369 5723991
-0.64459509 -0.42474478 2.1226614 6513507
-0.64490646 -0.37480038 2.1236861 6513507
-0.6452179 -0.32480749 2.1247122 6513507
-0.64552987 -0.27476659 2.1257393 6513507
-0.64584213 -0.22467695 2.1267672 6513507
-0.64615446 -0.17453916 2.1277966 6513507
-0.64646184 -0.1252335 2.1288083 6513507
-0.64677501 -0.074999094 2.1298394 6513507
-0.64708841 -0.024716288 2.1308711 6513507
-0.64739662 0.024731979 2.131886 8487297
-0.64771062 0.075111791 2.1329203 10197915
-1.669202 0.11344943 2.1228054 10197915
-1.6250113 0.11343419 2.1225197 10197915
-1.5755314 0.1134171 2.1222012 10197915
-1.5251831 0.11339973 2.1218758 10197915
-1.4748499 0.11338234 2.1215501 10197915
-1.4254153 0.11336529 2.1212308 10197915
-1.375113 0.11334793 2.1209064 10197915
-1.3248262 0.11333056 2.1205812 10197915
-1.2754366 0.11331353 2.1202626 10197915
-1.2251804 0.1132962 2.1199379 10197915
-1.1749394 0.11327883 2.1196139 10197915
-1.1247138 0.11326151 2.1192892 10197915
-1.0745035 0.11324418 2.1189649 10197915
-1.0251892 0.11322714 2.1186466 10197915
-0.97500938 0.11320985 2.1183226 10197915
-0.92484504 0.11319252 2.1179988 10197915
-0.87083787 0.11316301 2.1246531 10197915
-0.82463449 0.1131328 2.1335454 10197915
-0.77501869 0.11311568 2.1332223 10197915
-0.72498274 0.11309887 2.1326132 10197915
-0.6758191 0.11308237 2.1319778 10197915
-0.6471718 0.10951316 2.1263342 10197915
-0.6660679 -0.96325415 2.1831026 11711154
-0.66280085 -0.92512351 2.1737928 11711154
-0.66338587 -0.87510771 2.1756055 11711154
-0.66370815 -0.82503384 2.1766629 11119017
-0.6638937 -0.77536547 2.1773252 6776679
-0.66125751 -0.72930884 2.1698527 6513507
-0.65727872 -0.67426771 2.1585388 6513507
-0.65759593 -0.62449038 2.1595802 6513507
-0.65791333 -0.57466513 2.1606231 6513507
-0.65823114 -0.52479178 2.1616664 6513507
-0.65854901 -0.47487018 2.1627107 6513507
-0.65886748 -0.42490026 2.1637561 6513507
-0.65918618 -0.37488204 2.1648026 6513507
-0.65950519 -0.32481548 2.1658499 6513507
-0.65982443 -0.27470034 2.1668987 6513507
-0.66014391 -0.22453675 2.167948 6513507
-0.66046375 -0.1743245 2.168999 6513507
-0.66077816 -0.12496163 2.1700315 6513507
-0.66109294 -0.075551465 2.1710653 6513507
-0.66141397 -0.025194688 2.1721189 6513507
-0.66173512 0.02521099 2.1731732 8487297
-0.66205066 0.074764095 2.1742098 10197915
-1.7170694 0.11337684 2.1804335 10197915
-1.6749852 0.1133754 2.1717503 10197915
-1.6247956 0.11335763 2.1717227 10197915
-1.5746245 0.1133408 2.1710873 10197915
-1.5249141 0.11332367 2.1707585 10197915
-1.4747829 0.11330588 2.1707315 10197915
-1.4251051 0.11328877 2.1704028 10197915
-1.3754429 0.11327164 2.1700754 10197915
-1.3253498 0.11325482 2.16944 10197915
-1.2752676 0.11323708 2.1694131 10197915
-1.2252027 0.11322029 2.1687787 10197915
-1.1751536 0.11320256 2.1687517 10197915
-1.1251168 0.11318577 2.168117 10197915
-1.0751004 0.11316802 2.1680903 10197915
-1.025092 0.11315127 2.1674564 10197915
-0.97510844 0.11313356 2.1674297 10197915
-0.92468166 0.11311618 2.1670966 10197915
-0.87776548 0.11309613 2.1692731 10197915
-0.82485533 0.11305574 2.1831331 10197915
-0.77499306 0.11303855 2.1828012 10197915
-0.72514588 0.11302138 2.1824691 10197915
-0.67654318 0.1110257 2.1800182 10197915
-0.68530655 -1.0006032 2.2384019 11711154
-0.68547666 -0.9748776 2.2389574 11711154
-0.6858058 -0.92523265 2.2400327 11711154
-0.68613625 -0.87554127 2.2411118 11711154
-0.68646771 -0.82580274 2.2421942 9013641
-0.68680561 -0.77509362 2.2432983 6513507
-0.68144065 -0.72073472 2.2279909 6513507
-0.67963624 -0.67463338 2.2229135 6513507
-0.68010497 -0.62473726 2.2243922 6513507
-0.68029398 -0.57480061 2.225065 6513507
-0.68076348 -0.52480614 2.2265456 6513507
-0.67918372 -0.47835648 2.2221167 6513507
-0.67370331 -0.42506197 2.2064741 6513507
-0.67402977 -0.37496695 2.2075427 6513507
-0.67435634 -0.32482371 2.2086127 6513507
-0.67467737 -0.2755447 2.2096641 6513507
-0.67500478 -0.22530472 2.2107358 6513507
-0.67533231 -0.1750163 2.2118089 6513507
-0.67565411 -0.12559453 2.2128632 6513507
-0.6759823 -0.075208947 2.2139382 6513507
-0.67631102 -0.024774691 2.2150142 6513507
-0.67663378 0.024790455 2.2160716 8421504
-0.67695701 0.074402951 2.2171299 10197915
-1.7597539 0.11332446 2.2239046 10197915
-1.7254852 0.11331267 2.2236729 10197915
-1.6754836 0.11329543 2.2233348 10197915
-1.6254966 0.11327819 2.2229967 10197915
-1.5755252 0.11326098 2.2226586 10197915
-1.525569 0.11324375 2.2223208 10197915
-1.475628 0.11322655 2.221983 10197915
-1.4257021 0.11320933 2.2216456 10197915
-1.3757912 0.11319213 2.2213078 10197915
-1.3249718 0.11317462 2.2209642 10197915
-1.2741681 0.1131571 2.2206209 10197915
-1.2243035 0.11313991 2.220283 10197915
-1.174454 0.11312275 2.2199461 10197915
-1.1246195 0.11310557 2.2196093 10197915
-1.0748001 0.1130884 2.2192719 10197915
-1.024996 0.11307122 2.218935 10197915
-0.97520691 0.11305405 2.2185984 10197915
-0.92543292 0.11303693 2.218262 10197915
-0.87567419 0.11301976 2.2179251 10197915
-0.82500935 0.1130023 2.2175827 10197915
-0.77436018 0.11298486 2.2172401 10197915
-0.7246471 0.11296771 2.2169037 10197915
-0.68409711 0.1104028 2.2170546 10197915
-0.70121789 -1.0106617 2.2841909 11711154
-0.70145798 -0.97503412 2.2849734 11711154
-0.70179647 -0.92530853 2.2860751 11711154
-0.70214188 -0.8745957 2.2872007 11711154
-0.70248151 -0.82477391 2.2883072 7039851
-0.70282161 -0.77490383 2.2894149 6513507
-0.7031619 -0.72498554 2.2905238 6513507
-0.70350266 -0.67501873 2.2916336 6513507
-0.70384377 -0.6250037 2.2927449 6513507
-0.70418519 -0.57493985 2.2938569 6513507
-0.70452684 -0.52482772 2.2949698 6513507
-0.70486897 -0.47466663 2.2960837 6513507
-0.68891418 -0.45865431 2.2501853 6513507
-0.70521122 -0.42445713 2.2971992 6513507
-0.68914312 -0.42430115 2.2509329 6513507
-0.70554739 -0.3751474 2.2982941 6513507
-0.68947113 -0.37505546 2.2520044 6513507
-0.70589054 -0.3248409 2.2994115 6513507
-0.68979955 -0.32576269 2.2530775 6513507
-0.69013458 -0.27549151 2.2541716 6513507
-0.69046986 -0.22517148 2.2552669 6513507
-0.69080567 -0.17480265 2.2563629 6513507
-0.69114155 -0.12438474 2.2574604 6513507
-0.69147152 -0.074852936 2.2585387 6513507
-0.69180191 -0.02527353 2.2596176 6513507
-0.69213891 0.025289942 2.2607181 8421504
-0.69246984 0.074964806 2.2617991 10197915
-1.8135885 0.11323034 2.2967484 10197915
-1.7746744 0.11324497 2.278429 10197915
-1.7253212 0.11322906 2.2773788 10197915
-1.6750546 0.11321069 2.277725 10197915
-1.6248144 0.11319446 2.2766824 10197915
-1.5745733 0.11317716 2.2763343 10197915
-1.5248282 0.1131595 2.2763371 10197915
-1.4750955 0.11314291 2.2756457 10197915
-1.4253831 0.11312522 2.2756479 10197915
-1.375206 0.11310796 2.2753003 10197915
-1.3245773 0.11309107 2.2746029 10197915
-1.274905 0.11307342 2.2746055 10197915
-1.2252508 0.11305685 2.2739146 10197915
-1.1751323 0.11303959 2.2735677 10197915
-1.1250446 0.11302125 2.2739141 10197915
-1.0749614 0.11300509 2.2728734 10197915
-1.0248886 0.11298783 2.272527 10197915
-0.97531515 0.11297023 2.2725301 10197915
-0.9252755 0.112953 2.2721832 10197915
-0.87478256 0.11293615 2.271487 10197915
-0.82524931 0.11291854 2.2714903 10197915
-0.77525532 0.11290134 2.2711439 10197915
-0.72527599 0.1128852 2.270092 10197915
-0.69338262 0.10914068 2.2577472 10197915
-0.71779251 -1.0211382 2.3318882 11711154
-0.71811777 -0.97424132 2.3329451 11711154
-0.71846396 -0.92442805 2.3340695 11711154
-0.71881205 -0.87456882 2.3352003 10461087
-0.7191605 -0.8246612 2.3363323 6513507
-0.71950918 -0.77470505 2.337465 6513507
-0.71985823 -0.72470039 2.338599 6513507
-0.72020763 -0.67464733 2.3397343 6513507
-0.72055745 -0.62454575 2.3408706 6513507
-0.72090757 -0.5743953 2.3420076 6513507
-0.72125787 -0.52419615 2.3431461 6513507
-0.72160196 -0.47491521 2.3442636 6513507
-0.7219463 -0.42558673 2.3453825 6513507
-0.72229773 -0.37524277 2.3465242 6513507
-0.72264957 -0.32484978 2.347667 6513507
-0.71461773 -0.27444676 2.3246706 6513507
-0.71241665 -0.22872226 2.3184512 6513507
-0.70690852 -0.17553271 2.3027277 6513507
-0.70725292 -0.1250318 2.3038497 6513507
-0.70759767 -0.074481986 2.3049724 6513507
-0.70793617 -0.024837889 2.3060751 6513507
-0.70827496 0.024853734 2.307179 8355711
-0.70861411 0.074592948 2.308284 10197915
-1.8535254 0.113185 2.3350739 10197915
-1.8243423 0.11317497 2.3348663 10197915
-1.774742 0.11315789 2.3345146 10197915
-1.7251567 0.11314083 2.3341625 10197915
-1.6746142 0.11312343 2.3338039 10197915
-1.6250588 0.11310638 2.333452 10197915
-1.5755188 0.11308933 2.3330998 10197915
-1.5250225 0.11307196 2.3327415 10197915
-1.4745415 0.11305459 2.3323836 10197915
-1.4250467 0.11303755 2.3320315 10197915
-1.3755666 0.11302052 2.3316805 10197915
-1.3251318 0.11300317 2.3313222 10197915
-1.2747123 0.11298581 2.3309646 10197915
-1.2243086 0.11296847 2.3306069 10197915
-1.174889 0.11295146 2.3302557 10197915
-1.1254842 0.11293444 2.3299048 10197915
-1.0751262 0.11291712 2.3295474 10197915
-1.0247835 0.1128998 2.3291903 10197915
-0.97445625 0.11288249 2.3288331 10197915
-0.92511195 0.11286549 2.3284824 10197915
-0.87578255 0.11284852 2.3281322 10197915
-0.82550091 0.11283124 2.3277755 10197915
-0.77523482 0.11281393 2.3274188 10197915
-0.72602618 0.11094622 2.3220398 10197915
-0.73489428 -1.0574585 2.381037 11711154
-0.7351222 -1.0252223 2.3817759 11711154
-0.73547733 -0.97536922 2.3829265 11711154
-0.73584074 -0.92449027 2.3841038 11711154
-0.73619789 -0.87454176 2.3852606 8487297
-0.73655534 -0.82454431 2.3864193 6513507
-0.73691308 -0.77449858 2.3875782 6513507
-0.73726416 -0.72538686 2.388716 6513507
-0.7376228 -0.67524445 2.3898776 6513507
-0.73798162 -0.62505358 2.3910398 6513507
-0.73834074 -0.57481349 2.392204 6513507
-0.73870027 -0.52452481 2.3933682 6513507
-0.73905313 -0.47517449 2.3945119 6513507
-0.73941338 -0.42478836 2.3956792 6513507
-0.73977399 -0.37435341 2.396847 6513507
-0.74012786 -0.3248595 2.3979938 6513507
-0.74048203 -0.27531818 2.3991413 6513507
-0.72953379 -0.22303806 2.3677521 6513507
-0.72369325 -0.17532068 2.351058 6513507
-0.72404647 -0.12473273 2.3522055 6513507
-0.72439307 -0.075069793 2.3533316 6513507
-0.72474015 -0.025358967 2.3544593 6513507
-0.72509438 0.025375485 2.3556092 8355711
-0.72544205 0.075182311 2.356739 10197915
-1.8690904 0.11312915 2.3745115 10197915
-1.8245761 0.11311384 2.3741903 10197915
-1.7751294 0.11309686 2.3738337 10197915
-1.7256972 0.11307983 2.3734765 10197915
-1.6752919 0.1130625 2.3731127 10197915
-1.624902 0.11304518 2.3727486 10197915
-1.5755152 0.11302818 2.3723922 10197915
-1.525156 0.11301087 2.3720288 10197915
-1.4748119 0.11299355 2.3716657 10197915
-1.4254702 0.11297656 2.3713088 10197915
-1.3751571 0.11295928 2.3709459 10197915
-1.3248589 0.11294197 2.3705826 10197915
-1.2755624 0.11292502 2.3702269 10197915
-1.2252949 0.11290772 2.3698642 10197915
-1.175043 0.11289042 2.3695011 10197915
-1.1248063 0.11287315 2.3691385 10197915
-1.0745848 0.11285589 2.3687756 10197915
-1.0253632 0.11283896 2.3684206 10197915
-0.97517258 0.11282169 2.3680582 10197915
-0.92499703 0.11280445 2.3676958 10197915
-0.87483698 0.11278717 2.3673339 10197915
-0.82469213 0.11276994 2.366972 10197915
-0.77554542 0.11275303 2.3666172 10197915
-0.73452634 0.1102969 2.3628955 10197915
-0.75292093 -1.0694084 2.4329116 11711154
-0.75324005 -1.0254935 2.4339433 11711154
-0.75360519 -0.97554851 2.4351227 11711154
-0.75397146 -0.92555594 2.4363062 11711154
-0.75433803 -0.87551481 2.4374909 6579300
-0.75470489 -0.82542491 2.4386764 6513507
-0.75507236 -0.77528632 2.4398637 6513507
-0.75544 -0.72509897 2.4410517 6513507
-0.75580794 -0.67486268 2.4422407 6513507
-0.75617635 -0.62457728 2.4434311 6513507
-0.75654513 -0.57424295 2.4446225 6513507
-0.75690681 -0.52486783 2.445791 6513507
-0.75726873 -0.47544524 2.4469612 6513507
-0.75763869 -0.42496526 2.4481561 6513507
-0.7580089 -0.37443602 2.449352 6513507
-0.75820148 -0.34814337 2.4499748 6513507
-0.74087906 -0.21977641 2.4004281 6513507
-0.7411986 -0.17509979 2.4014628 6513507
-0.74156082 -0.12442098 2.402637 6513507
-0.74191648 -0.074687585 2.4037893 6513507
-0.74227244 -0.024906481 2.404942 6513507
-0.74262869 0.024922412 2.4060965 8289918
-0.74298507 0.074799158 2.4072518 10197915
-1.9103541 0.11308017 2.4154918 10197915
-1.8751291 0.11306805 2.4152331 10197915
-1.8258259 0.11305111 2.414871 10197915
-1.7755321 0.11303382 2.4145019 10197915
-1.725253 0.11301654 2.4141328 10197915
-1.6749898 0.11299927 2.4137635 10197915
-1.6247416 0.11298198 2.4133949 10197915
-1.574509 0.11296472 2.4130259 10197915
-1.5242915 0.11294746 2.4126573 10197915
-1.4750934 0.11293053 2.4122956 10197915
-1.4259099 0.11291363 2.4119346 10197915
-1.3757383 0.1128964 2.4115665 10197915
-1.3255813 0.11287915 2.4111981 10197915
-1.2754401 0.11286189 2.41083 10197915
-1.2253143 0.11284471 2.4104617 10197915
-1.1752034 0.11282746 2.4100938 10197915
-1.125108 0.11281023 2.4097257 10197915
-1.0750281 0.11279301 2.4093583 10197915
-1.024963 0.1127758 2.4089909 10197915
-0.97491342 0.1127586 2.408623 10197915
-0.92487913 0.1127414 2.4082556 10197915
-0.87391841 0.11269333 2.4275239 10197915
-0.8249411 0.11267439 2.4285011 10197915
-0.77640444 0.11266056 2.4263182 10197915
-0.74427623 0.10851891 2.407558 10197915
-0.77156907 -1.1063617 2.4865119 11711154
-0.77180374 -1.0747523 2.487268 11711154
-0.7721777 -1.0247571 2.4884732 11711154
-0.77255309 -0.97471434 2.4896836 11711154
-0.77292925 -0.92462355 2.4908955 9605778
-0.7732982 -0.87550777 2.4920843 6513507
-0.77367491 -0.82532001 2.4932983 6513507
-0.77405232 -0.77508372 2.4945152 6447714
-0.77442992 -0.72479814 2.4957316 5855577
-0.77480799 -0.67446357 2.4969499 5592405
-0.77517849 -0.62510866 2.4981444 6908265
-0.77554947 -0.57570642 2.4993398 6908265
-0.77574295 -0.5499593 2.4999633 6908265
-0.7583794 -0.32385772 2.4505494 6513507
-0.75873542 -0.27525535 2.4517 5921370
-0.7591067 -0.22457966 2.4528997 6184542
-0.75947088 -0.17486954 2.4540765 6513507
-0.7598353 -0.12511136 2.4552543 6513507
-0.76020026 -0.075305738 2.4564335 6513507
-0.7605654 -0.025451917 2.4576139 6513507
-0.76093841 0.025468562 2.4588189 8289918
-0.76130432 0.075418949 2.4600012 10197915
-1.9530649 0.1130293 2.4579084 10197915
-1.9254106 0.11301983 2.4577024 10197915
-1.8752328 0.1130026 2.4573271 10197915
-1.8250705 0.11298537 2.4569523 10197915
-1.7731925 0.11296232 2.4599166 10197915
-1.725068 0.11291785 2.477545 10197915
-1.6750332 0.11289996 2.477612 10197915
-1.624999 0.11288348 2.4767916 10197915
-1.5749979 0.11286563 2.4768579 10197915
-1.5255135 0.11284862 2.476486 10197915
-1.4755301 0.11283214 2.4756649 10197915
-1.4255689 0.11281431 2.4757321 10197915
-1.3756132 0.11279783 2.4749122 10197915
-1.3251631 0.1127791 2.4754195 10197915
-1.2747395 0.11276316 2.4741516 10197915
-1.224824 0.11274535 2.4742184 10197915
-1.1749443 0.11272891 2.4733992 10197915
-1.1250621 0.11271108 2.4734688 10197915
-1.0752096 0.11269462 2.4726493 10197915
-1.0248454 0.11267739 2.4722695 10197915
-0.97502369 0.11265955 2.4723375 10197915
-0.92520189 0.11264312 2.4715178 10197915
-0.87656504 0.112597 2.4901044 10197915
-0.82416636 0.11257399 2.4929249 10197915
-0.7781769 0.11049622 2.4825573 10197915
-0.79125524 -1.1189245 2.5431638 11711154
-0.79159003 -1.075127 2.5442395 11711154
-0.79197526 -1.0250311 2.5454776 11711154
-0.79236144 -0.97488731 2.5467188 11711154
-0.79274803 -0.92469484 2.5479612 7368816
-0.79313499 -0.87445307 2.5492051 6513507
-0.79335284 -0.84617257 2.5499053 6513507
-0.77593637 -0.52419543 2.500587 7697781
-0.77630812 -0.47469643 2.5017846 8224125
-0.77668017 -0.42515007 2.5029838 8487297
-0.7770527 -0.3755562 2.504184 9474192
-0.77743316 -0.32487983 2.5054107 9474192
-0.77781421 -0.27415416 2.5066381 11119017
-0.77818769 -0.2244153 2.5078418 7434609
-0.77856177 -0.17462863 2.509047 6513507
-0.77893591 -0.12479413 2.510253 6513507
-0.77931052 -0.074911684 2.5114605 6513507
-0.7796855 -0.024981245 2.5126686 6513507
-0.78006095 0.024997279 2.5138786 8224125
-0.78043652 0.075023934 2.515089 10197915
-2.0134218 0.11291201 2.5471468 10197915
-1.9729909 0.11292921 2.5268731 10197915
-1.9253446 0.11291771 2.523401 10197915
-1.8753977 0.11289978 2.5234981 10197915
-1.8249356 0.11288247 2.5231113 10197915
-1.7760303 0.1128649 2.523237 10197915
-1.7248799 0.11281303 2.5449138 10197915
-1.6750727 0.11279593 2.5445275 10197915
-1.6252807 0.11277885 2.5441425 10197915
-1.5744448 0.11276139 2.5437491 10197915
-1.5246831 0.11274432 2.5433638 10197915
-1.4749366 0.11272725 2.5429788 10197915
-1.4252049 0.11271019 2.5425935 10197915
-1.3754886 0.11269313 2.5422087 10197915
-1.32473 0.1126757 2.541816 10197915
-1.275044 0.11265864 2.5414317 10197915
-1.225373 0.1126416 2.5410469 10197915
-1.1746606 0.11262422 2.5406542 10197915
-1.1250199 0.11260718 2.5402703 10197915
-1.0753945 0.11259016 2.5398858 10197915
-1.0247284 0.11257276 2.5394938 10197915
-0.97513306 0.11255572 2.5391099 10197915
-0.92555285 0.11253873 2.5387263 10197915
-0.87493306 0.11252135 2.5383344 10197915
-0.82432896 0.11250401 2.5379422 10197915
-0.78662205 0.10912243 2.5257823 10197915
-0.79354668 -0.8210181 2.550528 6513507
-0.7939021 -0.77487189 2.5516703 6513507
-0.79428202 -0.7255339 2.552892 7500402
-0.79467058 -0.67509753 2.5541406 11711154
-0.7950595 -0.62461185 2.5553904 11711154
-0.7954405 -0.57513016 2.5566154 11711154
-0.79582208 -0.52560079 2.5578415 11711154
-0.79621196 -0.47496864 2.5590949 11711154
-0.7965942 -0.4253433 2.5603237 11711154
-0.79697686 -0.37567011 2.5615535 11711154
-0.79736805 -0.32489088 2.5628102 11711154
-0.79775137 -0.27512139 2.5640426 11711154
-0.7981351 -0.22530369 2.5652757 7039851
