# .PCD v0.7 - Point Cloud Data file format
VERSION 0.7
FIELDS x y z rgb
SIZE 4 4 4 4
TYPE F F F U
COUNT 1 1 1 1
WIDTH 1160
HEIGHT 1
VIEWPOINT 0 0 0 1 0 0 0
POINTS 1160
DATA ascii
-0.19834708 0.082209662 3.1497779 2039583
0.04367131 0.083488837 3.1003637 2039583
0.074567027 0.083559737 3.1029963 2039583
0.12487452 0.083675146 3.1072822 2697513
0.17532238 0.083790891 3.1115801 2894892
0.2259088 0.083906949 3.11589 2303271
0.27533367 0.084020339 3.1201012 927555
0.32489234 0.084134035 3.1243236 928068
0.37458503 0.084247977 3.1285548 795715
0.42441264 0.084362261 3.1327984 993605
0.47437581 0.084476896 3.1370552 1060424
0.50335842 0.084543377 3.1395245 1060424
-2.2111731 0.075380936 3.1921573 10197915
-2.1751111 0.07546059 3.1955304 10197915
-2.1377373 0.075543158 3.1990271 10197915
-1.8202157 0.077039428 3.1517999 10197915
-1.7755026 0.077139184 3.1558814 10197915
-1.7256882 0.077250347 3.1604292 8224125
-1.6757294 0.077361807 3.1649892 2039583
-1.6256266 0.077473626 3.1695635 2039583
-1.5753787 0.077585742 3.1741502 2039583
-1.5249852 0.077698186 3.1787505 2039583
-1.4744451 0.077810958 3.1833642 2039583
-1.425028 0.077921219 3.1878755 2039583
-1.3754694 0.078031793 3.1923993 2039583
-1.3244942 0.078145534 3.1970525 2039583
-1.2951223 0.078211077 3.199734 2039583
-1.0090224 0.079625361 3.1507878 2039583
-0.97471809 0.07970266 3.1538463 2039583
-0.92505819 0.079814561 3.1582747 2039583
-0.87525761 0.079926804 3.1627162 2039583
-0.82531786 0.080039322 3.1671689 2565927
-0.77523601 0.080152169 3.1716337 4934475
-0.72501391 0.080265336 3.1761119 10197915
-0.67464864 0.080378816 3.1806026 10197915
-0.62414205 0.080492631 3.1851063 10197915
-0.57479209 0.080603831 3.1895061 10197915
-0.52530557 0.080715351 3.1939187 10197915
-0.47829825 0.080821261 3.1981101 10197915
-0.17236756 0.082268752 3.1520417 2039583
-0.12421557 0.082378261 3.1562378 2039583
-0.074629091 0.08249104 3.1605585 2039583
-0.02490668 0.082604118 3.1648912 2039583
0.024952242 0.082717516 3.1692357 2039583
0.074948244 0.082831211 3.1735921 2039583
0.12508187 0.082945228 3.1779604 2631720
0.17535371 0.083059549 3.1823406 2894892
0.22576435 0.083174221 3.1867337 2500134
0.27498162 0.083286144 3.1910219 927298
0.32433274 0.08339835 3.1953216 927812
0.36444023 0.083489493 3.1988134 795714
-2.1127715 0.075598285 3.2013617 10197915
-2.0739985 0.075683914 3.2049873 10197915
-2.0251 0.075791888 3.2095604 10197915
-1.9760616 0.075900197 3.2141461 10197915
-1.9256201 0.076011583 3.218863 10197915
-1.8750302 0.07612329 3.223594 10197915
-1.8242918 0.076235339 3.2283387 10197915
-1.7746781 0.076344892 3.2329781 9868950
-1.7249205 0.076454774 3.2376316 2039583
-1.6750207 0.076564968 3.2422974 2039583
-1.6249756 0.07667549 3.2469776 2039583
-1.5954008 0.076740801 3.2497432 2039583
-1.2708124 0.078265317 3.2019527 2039583
-1.2246641 0.078368291 3.206166 2039583
-1.1745358 0.078480147 3.2107422 2039583
-1.1255547 0.078589439 3.2152133 2039583
-1.0751418 0.078701928 3.219815 2039583
-1.0245858 0.07881473 3.2244303 2039583
-0.97518557 0.078924961 3.2289402 2039583
-0.92564744 0.079035528 3.2334635 2039583
-0.87597013 0.079146378 3.237998 2039583
-0.82615298 0.079257526 3.2425454 2894892
-0.776196 0.079369001 3.2471066 7303023
-0.74721479 0.079433665 3.2497518 10197915
-0.45344296 0.080877259 3.200326 10197915
-0.42592058 0.080939285 3.20278 10197915
-0.37602103 0.08105173 3.2072296 10197915
-0.32598266 0.081164472 3.2116911 10197915
-0.27580482 0.081277542 3.2161648 10197915
-0.22548701 0.081390917 3.2206516 3618615
-0.17502861 0.081504628 3.2251506 2039583
-0.12442905 0.081618637 3.2296624 2039583
-0.075025469 0.081729963 3.234067 2039583
-0.0254857 0.081841595 3.2384839 2039583
0.025533406 0.08195655 3.2430332 2039583
0.0753472 0.082068801 3.2474747 2039583
0.10097528 0.082126558 3.2497609 2039583
0.38988873 0.083547376 3.2010307 729922
0.42477581 0.083626702 3.2040706 927557
0.47453177 0.083739854 3.208406 1060167
0.50957048 0.083819553 3.2114594 1060167
-2.2617731 0.074445002 3.2671607 10197915
-2.2249188 0.074525528 3.2706943 10197915
-2.1752379 0.07463406 3.2754581 10197915
-2.1254094 0.074742898 3.2802341 10197915
-2.0754371 0.074852034 3.2850242 10197915
-2.025317 0.074961513 3.2898285 10197915
-1.9750515 0.075071298 3.2946465 10197915
-1.9349943 0.075158782 3.2984865 10197915
-1.5709219 0.076794855 3.2520328 2039583
-1.5257452 0.076894619 3.2562571 2039583
-1.4752678 0.077006087 3.2609773 2039583
-1.4246452 0.077117883 3.2657115 2039583
-1.3751786 0.077227108 3.2703373 2039583
-1.3255714 0.077336662 3.2749765 2039583
-1.2758234 0.077446513 3.2796285 2039583
-1.2259339 0.077556692 3.2842939 2039583
-1.1759021 0.077667177 3.2889724 2039583
-1.1257278 0.077777974 3.2936645 2039583
-1.0793893 0.077880301 3.297998 2039583
-0.7221387 0.079489633 3.2520411 10197915
-0.67585903 0.079592884 3.2562661 10197915
-0.62547803 0.079705298 3.260865 10197915
-0.57495433 0.079818048 3.2654769 10197915
-0.52428782 0.079931095 3.2701025 10197915
-0.47481692 0.080041483 3.2746184 10197915
-0.425208 0.080152176 3.2791471 10197915
-0.37546289 0.080263168 3.2836885 10197915
-0.32557863 0.080374494 3.2882421 10197915
-0.27555707 0.080486089 3.2928085 10197915
-0.2253951 0.080598027 3.2973874 2763306
-0.19822891 0.080658659 3.2998681 2039583
0.12665017 0.082184389 3.2520492 2631720
0.17538649 0.082294211 3.2563949 2894892
0.22425325 0.08240433 3.2607515 2565927
0.27461445 0.082517803 3.2652423 1123900
0.32511297 0.082631506 3.2697418 927556
0.37438139 0.082742497 3.2741334 795458
0.42515716 0.082856916 3.278661 795972
0.47607219 0.082971632 3.2832005 1059910
0.51607442 0.083061777 3.286767 1125703
-2.3135099 0.07346683 3.3459008 9342606
-2.2849326 0.073528558 3.348712 10197915
-1.909101 0.07521534 3.3009682 10197915
-1.874076 0.075291827 3.3043256 10197915
-1.8246677 0.075399734 3.3090615 10197915
-1.7751175 0.075507969 3.3138108 2960685
-1.7254249 0.075616501 3.318574 2039583
-1.6755896 0.075725354 3.3233514 2039583
-1.62561 0.075834505 3.3281417 2039583
-1.5754862 0.075943992 3.3329463 2039583
-1.5252177 0.076053791 3.337765 2039583
-1.4748034 0.076163903 3.342597 2039583
-1.4242433 0.07627432 3.3474436 2039583
-1.0541862 0.077935956 3.3003547 2039583
-1.0249481 0.078000538 3.3030889 2039583
-0.97434193 0.078112297 3.307822 2039583
-0.92492843 0.078221425 3.312444 2039583
-0.87537545 0.078330845 3.3170772 2368548
-0.82433927 0.07844355 3.3218505 3092271
-0.77450544 0.07855361 3.3265104 10197915
-0.72453022 0.078663975 3.3311839 10197915
-0.67441577 0.078774646 3.3358705 10197915
-0.62551963 0.078882605 3.3404431 10197915
-0.57512468 0.078993909 3.345156 10197915
-0.53689873 0.079078324 3.3487303 10197915
-0.17373388 0.080713294 3.3021033 2039583
-0.12465272 0.080822803 3.3065844 2039583
-0.074071154 0.080935687 3.3112016 2039583
-0.024720246 0.081045799 3.3157067 2039583
0.024765126 0.081156224 3.320224 2039583
0.074385524 0.081266955 3.3247538 2039583
0.12414152 0.081377968 3.3292959 2500134
0.17403363 0.081489287 3.3338504 2894892
0.22406238 0.081600927 3.338418 2697513
0.27422836 0.081712812 3.3429954 1254712
0.32453194 0.081825003 3.347585 992835
-2.2602141 0.073581949 3.3511434 10197915
-2.2250187 0.07365793 3.3546038 10197915
-2.1753683 0.073765099 3.3594849 10197915
-2.1255729 0.073872589 3.3643806 10197915
-2.0756323 0.073980406 3.3692904 10197915
-2.0255458 0.074088514 3.3742146 10197915
-1.9753127 0.074196957 3.3791528 10197915
-1.9249324 0.074305713 3.3841059 10197915
-1.8744037 0.07441479 3.3890734 10197915
-1.8250631 0.074521303 3.3939247 3947580
-1.7822773 0.074613668 3.3981309 2039583
-1.374873 0.07638216 3.3521757 2039583
-1.3253616 0.076490298 3.3569221 2039583
-1.2743667 0.076601684 3.36181 2039583
-1.2245717 0.076710433 3.3665826 2039583
-1.1746335 0.076819502 3.3713701 2039583
-1.1245544 0.076928876 3.3761699 2039583
-1.0756912 0.077035598 3.3808537 2039583
-1.0253288 0.077145599 3.3856816 2039583
-0.97482365 0.077255942 3.3905241 2039583
-0.92554379 0.077363566 3.3952472 2039583
-0.88849801 0.077444494 3.3987982 2631720
-0.51227868 0.079132691 3.351033 10197915
-0.47528061 0.079214394 3.3544927 10197915
-0.42583665 0.079323575 3.3591163 10197915
-0.37487635 0.079436123 3.3638823 10197915
-0.32377252 0.07954897 3.3686609 10197915
-0.27390966 0.079659075 3.3733237 9605778
-0.22390859 0.079769507 3.3779995 2039583
-0.17376871 0.07988023 3.3826888 2039583
-0.12488861 0.079988167 3.3872595 2039583
-0.075874954 0.080096401 3.3918431 2039583
-0.025322989 0.080208041 3.3965704 2039583
0.0056337053 0.0802764 3.3994656 2039583
0.37497416 0.081937544 3.3521893 861250
0.42555535 0.08205042 3.3568068 795715
0.47486463 0.082160443 3.3613086 1059655
0.52147746 0.082264438 3.3655629 1125703
-2.3678026 0.072440356 3.4285307 2960685
-2.3252561 0.072531126 3.4328263 5592405
-2.2745953 0.07263913 3.4379385 9342606
-2.2251232 0.072744608 3.4429302 10197915
-2.1781926 0.072844647 3.4476655 10197915
-1.7568251 0.074668601 3.4006333 2039583
-1.7246116 0.074738152 3.4038005 2039583
-1.6748407 0.074845582 3.4086936 2039583
-1.6249253 0.074953347 3.4136012 2039583
-1.5748669 0.075061403 3.4185224 2039583
-1.5246634 0.075169772 3.4234579 2039583
-1.4743156 0.075278468 3.4284077 2039583
-1.4251881 0.07538452 3.433238 2039583
-1.3759217 0.075490862 3.4380813 2039583
-1.3251412 0.075600483 3.4430735 2039583
-1.2769724 0.07570447 3.4478095 2039583
-0.86375493 0.077498525 3.4011703 2960685
-0.8251918 0.077582747 3.4048667 5789784
-0.77411199 0.077694319 3.4097631 10197915
-0.72427094 0.07780318 3.4145403 10197915
-0.67429 0.077912346 3.4193313 10197915
-0.62416846 0.078021817 3.4241354 10197915
-0.57390606 0.078131601 3.4289536 10197915
-0.52490473 0.078238614 3.4336505 10197915
-0.47576755 0.078345947 3.4383607 10197915
-0.42508626 0.078456625 3.4432187 10197915
-0.37709028 0.078561477 3.4478195 10197915
0.031009052 0.080332436 3.4018383 2039583
0.074790239 0.080429137 3.4059327 2039583
0.12434614 0.080538556 3.410567 2500134
0.17545813 0.080651417 3.4153466 2894892
0.2252873 0.08076147 3.4200068 2763306
0.27525353 0.080871709 3.424675 1385524
0.32535544 0.080982335 3.4293602 992579
0.37415799 0.081090115 3.4339237 862019
0.42453241 0.081201345 3.4386342 795457
0.47504386 0.081312895 3.4433579 1059398
0.52279621 0.08141835 3.4478238 1191239
-2.1526666 0.072899073 3.4502406 10197915
-2.1243978 0.072959341 3.4530933 10197915
-2.0744882 0.07306575 3.4581294 10197915
-2.0244312 0.073172472 3.4631798 10197915
-1.9742296 0.073279485 3.4682455 10197915
-1.9252429 0.07338392 3.4731884 10197915
-1.8747488 0.073491573 3.4782836 4671303
-1.8241079 0.07359954 3.4833932 2039583
-1.7746921 0.073704891 3.4883795 2039583
-1.7251344 0.073810548 3.4933801 2039583
-1.6795837 0.073907658 3.4979765 2039583
-1.2521517 0.07575804 3.4502492 2039583
-1.2245212 0.075817682 3.4529657 2039583
-1.1746869 0.075925268 3.4578655 2039583
-1.1247107 0.076033145 3.4627786 2039583
-1.0745925 0.076141343 3.467706 2039583
-1.0243316 0.07624986 3.4726479 2039583
-0.9739272 0.076358683 3.4776044 2039583
-0.92478526 0.076464757 3.4824352 2236962
-0.87550533 0.076571144 3.4872808 2960685
-0.82467484 0.076680869 3.4922776 8750469
-0.7751171 0.076787844 3.4971499 10197915
-0.74816144 0.076846048 3.4998002 10197915
-0.3516326 0.078617059 3.4502592 10197915
-0.32471138 0.078675874 3.4528403 10197915
-0.2750231 0.078784399 3.457603 8684676
-0.22519884 0.078893222 3.4623792 2039583
-0.17523545 0.079002343 3.4671683 2039583
-0.12513499 0.07911177 3.4719708 2039583
-0.07489419 0.079221502 3.4767861 2039583
-0.024515163 0.079331547 3.4816153 2039583
0.024559297 0.079438724 3.4863191 2039583
0.075216509 0.079549365 3.4911757 2039583
0.12601365 0.079660311 3.4960442 2434341
0.15946743 0.079733379 3.4992507 2894892
0.54743987 0.081472777 3.4501286 1125960
0.55324435 0.081485577 3.4506705 1060167
-2.4221249 0.071367644 3.5156281 2960685
-2.3744786 0.071467914 3.5205672 2960685
-2.3253307 0.071571298 3.5256603 3223857
-2.2760403 0.071675003 3.5307682 6316128
-2.2252314 0.071781881 3.5360332 9605778
-2.1742718 0.071889088 3.5413148 10197915
-2.1245425 0.071993709 3.546468 10197915
-2.0954728 0.072054863 3.5494804 10197915
-1.6546901 0.073960736 3.5004885 2039583
-1.6255918 0.074022748 3.5034244 2039583
-1.5756054 0.074129328 3.5084677 2039583
-1.525475 0.074236214 3.513526 2039583
-1.4751997 0.074343391 3.518599 2039583
-1.4247792 0.07445088 3.5236866 2039583
-1.3742126 0.074558698 3.5287888 2039583
-1.3249106 0.074663788 3.5337636 2039583
-1.2754683 0.074769199 3.5387523 2039583
-1.2244682 0.07487794 3.5438986 2039583
-1.1818578 0.07496877 3.5481977 2039583
-0.72257686 0.076901279 3.5023155 10197915
-0.67558432 0.077002712 3.5069354 10197915
-0.62560797 0.077110596 3.5118484 10197915
-0.57549286 0.077218778 3.5167756 10197915
-0.52523553 0.077327281 3.5217171 10197915
-0.4748382 0.077436067 3.5266714 10197915
-0.42574406 0.077542044 3.5314982 10197915
-0.37506476 0.077651441 3.5364809 10197915
-0.32424366 0.077761143 3.541477 10197915
-0.27473623 0.077868037 3.5463443 7631988
-0.24409541 0.077934168 3.5493565 2039583
0.18423887 0.079787485 3.5016251 2894892
0.2251126 0.079876691 3.5055404 2894892
0.27486423 0.079985321 3.510308 1516335
0.3247515 0.080094278 3.5150895 992835
0.37477481 0.080203533 3.5198841 927812
0.42493489 0.080313079 3.5246925 795201
0.47523212 0.080422938 3.5295136 993348
0.52566719 0.080533095 3.5343485 1191239
0.56134683 0.080611028 3.5377679 1191240
-2.0705078 0.07210739 3.552068 10197915
-2.0246489 0.072203867 3.5568209 10197915
-1.9744827 0.072309397 3.5620193 10197915
-1.9241698 0.072415233 3.5672331 4868682
-1.875114 0.072518438 3.5723166 2039583
-1.8259165 0.072621934 3.5774155 2039583
-1.7751675 0.072728701 3.5826747 2039583
-1.724269 0.072835781 3.587949 2039583
-1.6746411 0.072940178 3.593092 2039583
-1.6291431 0.073035903 3.5978074 2039583
-1.1576664 0.075020343 3.5506387 2039583
-1.1248751 0.075090259 3.5539479 2039583
-1.0748674 0.075196885 3.5589938 2039583
-1.024716 0.075303823 3.5640554 2039583
-0.97442311 0.075411037 3.5691302 2039583
-0.92542917 0.075515494 3.5740738 2697513
-0.87485152 0.075623319 3.5791769 4737096
-0.82413059 0.075731456 3.5842953 10197915
-0.77471918 0.075836815 3.5892811 10197915
-0.7251699 0.075942442 3.5942805 10197915
-0.68426436 0.076029651 3.5984077 10197915
-0.21924545 0.07798782 3.5517998 2039583
-0.17531192 0.078082651 3.5561192 2039583
-0.12539399 0.078190416 3.5610271 2039583
-0.075338058 0.078298472 3.565948 2039583
-0.025143579 0.078406826 3.570883 2039583
0.025190009 0.078515485 3.5758312 2039583
0.075663283 0.078624442 3.5807934 2039583
0.12478554 0.078730479 3.585623 2368548
0.17404173 0.078836776 3.5904644 2894892
0.22492909 0.078946561 3.5954645 2894892
0.26093021 0.079024278 3.5990036 2302755
-2.5043318 0.070187002 3.6045945 2960685
-2.4751024 0.070247672 3.6077106 2960685
-2.424886 0.070351824 3.6130595 2960685
-2.3745201 0.070456281 3.6184244 2960685
-2.3240039 0.070561059 3.6238048 2960685
-2.2747476 0.070663206 3.6290514 3552822
-2.2253473 0.070765652 3.6343129 6974058
-2.1743865 0.070871346 3.6397405 9868950
-2.1246955 0.07097441 3.6450334 10197915
-2.0891178 0.071048185 3.6488223 10197915
-1.6035012 0.073089831 3.6004639 2039583
-1.5749561 0.07314989 3.6034229 2039583
-1.5248976 0.073255211 3.6086099 2039583
-1.474696 0.073360808 3.6138127 2039583
-1.4257894 0.073463693 3.6188805 2039583
-1.3753003 0.073569916 3.6241133 2039583
-1.324666 0.07367643 3.6293602 2039583
-1.2753376 0.073780201 3.6344724 2039583
-1.2258698 0.073884264 3.6395986 2039583
-1.1762621 0.073988631 3.6447396 2039583
-1.1382366 0.074068636 3.6486807 2039583
-0.6593827 0.076082699 3.6009188 10197915
-0.62565637 0.07615459 3.604322 10197915
-0.57569081 0.076261133 3.6093636 10197915
-0.52558517 0.07636793 3.6144192 10197915
-0.47533906 0.076475069 3.6194894 10197915
-0.42495179 0.076582491 3.624573 10197915
-0.37442276 0.076690219 3.6296721 10197915
-0.32524437 0.076795056 3.6346343 10197915
-0.27592999 0.076900184 3.6396101 6710886
-0.2249805 0.077008814 3.6447511 2039583
-0.18592627 0.077092081 3.6486919 2039583
0.28497428 0.079076178 3.601367 1516593
0.32411659 0.079160668 3.6052155 927556
0.37542343 0.079271421 3.6102593 993605
0.42535803 0.079379216 3.6151688 795202
0.4754301 0.079487309 3.6200914 992836
0.52563721 0.079595692 3.6250272 1191239
0.56834298 0.079687871 3.629226 1125960
-2.0634522 0.071101427 3.6515565 10197915
-2.0248778 0.071181417 3.6556647 10197915
-1.9747499 0.071285389 3.6610043 4868682
-1.9244764 0.071389645 3.6663589 2039583
-1.8754979 0.071491227 3.6715755 2039583
-1.8249321 0.071596093 3.6769617 2039583
-1.7742189 0.071701273 3.6823633 2039583
-1.7248113 0.071803749 3.6876259 2039583
-1.6752625 0.071906507 3.6929035 2039583
-1.6299636 0.072000459 3.6977277 2039583
-1.1118603 0.074124128 3.6514142 2039583
-1.073687 0.074204452 3.6553712 2039583
-1.0236483 0.074309722 3.6605573 2039583
-0.97494602 0.074412189 3.6656044 2236962
-0.92610788 0.074514925 3.670665 2960685
-0.87564933 0.074621066 3.6758943 7829367
-0.82504678 0.07472752 3.6811383 10197915
-0.77429968 0.074834287 3.6863973 10197915
-0.72490686 0.074938193 3.6915162 10197915
-0.67537534 0.075042397 3.6966491 10197915
-0.64680117 0.075102516 3.6996105 10197915
-0.16184892 0.077143416 3.6511214 2039583
-0.1256666 0.077220552 3.654772 2039583
-0.074291453 0.077330075 3.6599562 2039583
-0.02428847 0.077436686 3.6650014 2039583
0.024331786 0.077540338 3.6699073 2039583
0.074608646 0.077647537 3.6749809 2039583
0.12502326 0.077754997 3.6800668 2302755
0.17404416 0.077859417 3.6850092 2894892
0.22473601 0.077967502 3.690124 2894892
0.27556732 0.078075856 3.6952529 2106408
0.31107491 0.078151569 3.6988358 928325
-2.5623212 0.069003306 3.7013059 2960685
-2.5252182 0.069079101 3.7053709 2960685
-2.4751482 0.06918136 3.7108569 2960685
-2.4249313 0.069283932 3.7163589 2960685
-2.3745639 0.06938681 3.7218764 2960685
-2.3240478 0.069489986 3.7274113 2960685
-2.2748301 0.069590509 3.7328033 2960685
-2.2254698 0.06969133 3.7382107 3881787
-2.1759665 0.069792435 3.7436345 7303023
-2.1350946 0.069875903 3.7481117 9868950
-1.6050745 0.072052069 3.7003787 2039583
-1.575738 0.07211291 3.7035038 2039583
-1.5257608 0.07221657 3.708827 2039583
-1.4756401 0.072320513 3.7141654 2039583
-1.4253746 0.072424755 3.7195194 2039583
-1.3749642 0.072529308 3.7248888 2039583
-1.3244081 0.072634161 3.7302735 2039583
-1.2751994 0.072736211 3.7355146 2039583
-1.2258511 0.072838567 3.7407703 2039583
-1.1748627 0.072944313 3.7462018 2039583
-1.1448063 0.073006652 3.7494037 2039583
-0.62118584 0.075156406 3.702265 10197915
-0.57438862 0.075254858 3.7071147 10197915
-0.52443743 0.075359941 3.712291 10197915
-0.47434783 0.075465307 3.7174819 10197915
-0.42564151 0.075567782 3.7225296 10197915
-0.37527367 0.075673744 3.7277493 10197915
-0.3247658 0.075779989 3.7329836 10197915
-0.27565217 0.075883314 3.7380733 5460819
-0.2248625 0.075990155 3.7433367 2039583
-0.18011476 0.076084308 3.7479742 2039583
0.33582026 0.078204311 3.7013326 862019
0.37455454 0.078286886 3.7052405 927556
0.42424908 0.078392833 3.7102554 795714
0.47407833 0.078499064 3.7152829 861251
0.52404279 0.078605577 3.720325 1059655
0.57414305 0.078712389 3.7253797 1125960
0.60080874 0.078769267 3.7280715 1060424
-2.9806399 -1.670846 3.7810059 2960685
-2.9815247 -1.624934 3.7797439 2960685
-2.9817381 -1.5748565 3.7801313 2960685
-2.9820163 -1.524965 3.7803669 2960685
-2.9827816 -1.4749573 3.7794609 2960685
-2.9830294 -1.4249687 3.779773 2960685
-2.9833181 -1.3749737 3.7799761 2960685
-2.9835181 -1.3249705 3.7803953 2960685
-2.9837639 -1.2749579 3.7807076 2960685
-2.9840193 -1.2250415 3.7809975 2960685
-2.9842832 -1.175223 3.7812617 2960685
-2.9847584 -1.1474897 3.7806418 2960685
-2.1102312 0.069926687 3.7508361 10197915
-2.0750604 0.069998533 3.7546892 10197915
-2.0236492 0.070103534 3.7603211 4079166
-1.975034 0.070202827 3.7656474 2039583
-1.9262797 0.070302412 3.7709894 2039583
-1.8759037 0.070405304 3.7765081 2039583
-1.8253802 0.070508495 3.7820439 2039583
-1.7747084 0.070612006 3.787595 2039583
-1.7253847 0.07071273 3.7929986 2039583
-1.6819251 0.070801497 3.7977602 2039583
-1.1207162 0.073056646 3.7519705 2039583
-1.0754615 0.073150493 3.7567911 2039583
-1.0255506 0.073254019 3.7621069 2039583
-0.97549653 0.073357828 3.7674382 2697513
-0.92530179 0.073461927 3.7727845 4079166
-0.87496322 0.073566318 3.7781467 10197915
-0.82448262 0.073671013 3.7835236 10197915
-0.77539378 0.073772825 3.7887518 10197915
-0.72616887 0.073874913 3.7939951 10197915
-0.68607688 0.073958077 3.798265 10197915
-0.15537995 0.076136343 3.7505376 2039583
-0.12440495 0.076201491 3.7537472 2039583
-0.07474304 0.076305971 3.758894 2039583
-0.02494476 0.076410733 3.7640548 2039583
0.024990449 0.076515779 3.7692297 2039583
0.075063154 0.076621138 3.7744191 2039583
0.12527376 0.076726675 3.7796175 2302755
0.17562309 0.076832578 3.7848353 2894892
0.22611161 0.076938786 3.790067 2894892
0.27515498 0.077041961 3.7951496 2368548
0.31003627 0.077115349 3.7987645 1059394
-2.9580936 -1.7075385 3.8333507 2960685
-2.9618363 -1.6749582 3.8251331 2960685
-2.96207 -1.6249652 3.8254738 2960685
-2.9623318 -1.5751319 3.8257451 2960685
-2.9629364 -1.5252993 3.8252099 2960685
-2.9638853 -1.4749206 3.823879 2960685
-2.9641633 -1.4250125 3.824115 2960685
-2.9644365 -1.3750112 3.8243604 2960685
-2.9646628 -1.3249214 3.8247173 2960685
-2.9648848 -1.2749048 3.8250871 2960685
-2.9651561 -1.2249631 3.8253393 2960685
-2.9654222 -1.1751821 3.8256013 2960685
-2.965507 -1.1475388 3.8258922 2960685
-2.6220422 0.067757241 3.8035131 2960685
-2.5737238 0.06785433 3.8089626 2960685
-2.523797 0.067954637 3.8145931 2960685
-2.4737222 0.068055242 3.8202407 2960685
-2.424979 0.068153165 3.8257377 2960685
-2.3760941 0.068251386 3.8312511 2960685
-2.3255806 0.068352871 3.8369482 2960685
-2.2749169 0.068454675 3.8426626 2960685
-2.2300909 0.068544731 3.8477175 2960685
-1.6564002 0.070853636 3.8005569 2039583
-1.624807 0.07091815 3.8040175 2039583
-1.5750551 0.071019769 3.8094687 2039583
-1.5251585 0.071121685 3.8149352 2039583
-1.4751201 0.071223885 3.8204169 2039583
-1.4249361 0.07132639 3.8259151 2039583
-1.3746091 0.071429193 3.831429 2039583
-1.3256675 0.071529143 3.8367906 2039583
-1.2750521 0.071632519 3.8423359 2039583
-1.227374 0.071729913 3.8475592 2039583
-0.65981281 0.074012533 3.8010623 10197915
-0.62421125 0.074086376 3.8048546 10197915
-0.57456684 0.074189328 3.8101425 10197915
-0.52478433 0.074292585 3.8154447 10197915
-0.4748629 0.074396111 3.8207622 10197915
-0.4248023 0.074499942 3.8260946 10197915
-0.37460169 0.074604057 3.8314416 10197915
-0.32426059 0.074708462 3.8368034 10197915
-0.27377838 0.074813157 3.84218 3947580
-0.22473937 0.074914865 3.8474035 2039583
0.33544993 0.0771688 3.801398 862531
0.37523222 0.0772525 3.8055203 796226
0.4246766 0.07735651 3.8106439 795970
0.47425571 0.077460818 3.8157823 795201
0.52557391 0.077568769 3.8211005 928069
0.57542419 0.077673644 3.8262663 1060167
0.60926652 0.077744842 3.8297737 1060424
-2.9503319 -1.7121179 3.8515146 2960685
-2.9390159 -1.7175342 3.8780169 2960685
-0.15524794 -1.7220927 3.8968015 2039583
-0.12486937 -1.7187977 3.8839052 2039583
-0.094840318 -1.7199892 3.8875437 2039583
-2.95051 -1.6755191 3.8517473 2960685
-2.940177 -1.6750234 3.8760462 2960685
-0.15489022 -1.6750796 3.8970716 2039583
-0.12391838 -1.675017 3.8838935 2039583
-0.095027961 -1.6751345 3.8879001 2039583
-2.950758 -1.6245922 3.8520713 2960685
-2.9404111 -1.6249988 3.8763869 2960685
-0.15512031 -1.6252053 3.8976176 2039583
-0.12386348 -1.6250058 3.8843198 2039583
-0.095114805 -1.6250008 3.8885887 2039583
-2.9509985 -1.5752485 3.8523841 2960685
-2.9407182 -1.575158 3.8765497 2960685
-0.15371756 -1.5764995 3.8974586 2039583
-0.1240458 -1.5749849 3.8848588 2039583
-0.095004193 -1.57543 3.8897316 2039583
-2.9511096 -1.522319 3.8530653 2960685
-2.9403744 -1.5253893 3.8782454 2960685
-0.15347737 -1.5249046 3.8978193 2039583
-0.12386528 -1.5250717 3.8852572 2039583
-0.09508986 -1.5247201 3.8904331 2039583
-2.9514854 -1.4749452 3.8530238 2960685
-2.9405668 -1.4751117 3.8786843 2960685
-0.15335402 -1.4750412 3.8982153 2039583
-0.12389475 -1.4750299 3.8857467 2039583
-0.095110297 -1.475072 3.891268 2039583
-2.9517071 -1.4245133 3.8534009 2960685
-2.9408443 -1.4251151 3.8789248 2960685
-0.15252978 -1.4275842 3.8982909 2039583
-0.12404901 -1.4250886 3.8862813 2039583
-0.095130712 -1.4254028 3.8921044 2039583
-2.9519744 -1.3746077 3.8536608 2960685
-2.9410808 -1.3751113 3.8792601 2960685
-0.15176526 -1.3752621 3.8984354 2039583
-0.12398108 -1.3750266 3.8867326 2039583
-0.096058205 -1.3767023 3.8907907 2039583
-2.9521096 -1.3235935 3.8542538 2960685
-2.9416306 -1.3256755 3.8788488 2960685
-0.15183629 -1.3245263 3.898922 2039583
-0.12381459 -1.3248428 3.8871396 2039583
-0.09669856 -1.3247883 3.8902097 2039583
-2.9518604 -1.2750812 3.8556993 2960685
-2.9415343 -1.2750176 3.8799758 2960685
-0.15103129 -1.2785152 3.8989925 2039583
-0.12426304 -1.2748643 3.8877952 2039583
-0.096719332 -1.2751004 3.8910458 2039583
-2.9521227 -1.2248639 3.8559761 2960685
-2.941819 -1.2250601 3.8801963 2960685
-0.15022904 -1.2244467 3.899137 2039583
-0.12383 -1.2249793 3.8880956 2039583
-0.096789598 -1.2245797 3.8917797 2039583
-2.9524128 -1.1750387 3.8561854 2960685
-2.9420242 -1.1752074 3.8805959 2960685
-0.15024659 -1.1745079 3.8995931 2039583
-0.1241395 -1.1749706 3.8887019 2039583
-0.096712083 -1.1748679 3.8928466 2039583
-2.9522648 -1.1475328 3.8570209 2960685
-2.9421594 -1.1479294 3.8807671 2960685
-0.15025851 -1.1406721 3.8999021 2039583
-0.12399958 -1.1250658 3.8891032 2039583
-0.096831217 -1.1250993 3.8934529 2039583
-0.12415579 -1.0750322 3.889657 2039583
-0.096753664 -1.0753391 3.8945205 2039583
-0.12412868 -1.0249904 3.8901062 2039583
-0.096872836 -1.0255336 3.8951268 2039583
-0.12325136 -0.97536087 3.8902314 2039583
-0.096896425 -0.97727162 3.8959308 2039583
-0.12237345 -0.92490625 3.8903565 2039583
-0.098390661 -0.92583907 3.8933337 2039583
-0.12265919 -0.8750577 3.8909252 2039583
-0.098412491 -0.87441826 3.8941977 2039583
-0.12163635 -0.82547992 3.8910055 2039583
-0.098433651 -0.82458282 3.8950353 2039583
-0.12109676 -0.77503377 3.8912451 2039583
-0.098454833 -0.77472562 3.8958726 2039583
-0.12061238 -0.72490323 3.8915486 2039583
-0.098476015 -0.72484714 3.8967111 2039583
-0.12059429 -0.67538399 3.8920045 2039583
-0.09849719 -0.67494702 3.8975494 2039583
-0.11902361 -0.62494755 3.891881 2039583
-0.098518401 -0.62502563 3.8983879 2039583
-0.11965241 -0.57501924 3.8925943 2039583
-0.098539598 -0.5750826 3.8992274 2039583
-0.11855073 -0.52555615 3.8926566 2039583
-0.098554648 -0.53962696 3.899823 2039583
-0.11793123 -0.4748694 3.8929427 2039583
-0.11756212 -0.42495859 3.8932595 2039583
-0.11747615 -0.37551561 3.8938081 2039583
-0.11599418 -0.32506898 3.8937201 2039583
-0.1163369 -0.27490076 3.8944402 2039583
-0.11561774 -0.22543859 3.8946481 2039583
-0.1147078 -0.17478564 3.8949404 2039583
-0.11453384 -0.12499017 3.8952971 2039583
-0.11602669 -0.075139165 3.8953226 2039583
-0.11448822 -0.024687836 3.8952067 2039583
-0.11453292 0.024453197 3.8957226 2039583
-2.2046387 0.068595856 3.8505878 2960685
-2.1746373 0.068656139 3.8539715 4013373
-2.1250277 0.068755813 3.8595672 7500402
-2.0752752 0.06885577 3.8651779 3026478
-2.0253761 0.068956025 3.8708057 2039583
-1.9753331 0.069056578 3.8764501 2039583
-1.9251424 0.069157407 3.8821101 2039583
-1.8748065 0.069258541 3.8877876 2039583
-1.8258547 0.069356896 3.8933082 2039583
-1.7844462 0.069440097 3.8979788 2039583
-1.202718 0.071780249 3.8502603 2039583
-1.1749288 0.071837038 3.8533063 2039583
-1.1254267 0.07193815 3.8587303 2039583
-1.0757848 0.072039552 3.8641691 2039583
-1.0260026 0.07214123 3.8696227 2302755
-0.97607982 0.072243199 3.8750925 2960685
-0.92601585 0.072345465 3.8805771 7697781
-0.87580967 0.072447993 3.8860776 10197915
-0.82546115 0.072550841 3.8915942 10197915
-0.77496946 0.072653964 3.897126 10197915
-0.17556541 0.075016849 3.8526413 2039583
-0.11696496 0.064603128 3.8876021 2039583
-0.075219706 0.075224966 3.8633294 2039583
-0.025637496 0.075327799 3.8686106 2039583
0.025685765 0.075434238 3.8740771 2039583
0.075542875 0.07553757 3.879384 2039583
0.1255383 0.075641222 3.8847075 2236962
0.17566973 0.075745195 3.8900468 2894892
0.22431612 0.075846091 3.8952284 2894892
0.25844121 0.075916864 3.8988631 2894892
-2.9139786 -1.7554413 3.9361961 2960685
-0.2671662 -1.7573617 3.9441051 2039583
-0.23125014 -1.7539223 3.9288542 2039583
-0.19951795 -1.7502428 3.915385 2039583
-0.074435391 -1.7546102 3.9348905 2039583
-2.9193838 -1.7246479 3.9240396 2960685
-0.26632041 -1.7252879 3.9440334 2039583
-0.22630323 -1.72493 3.9270101 2039583
-0.18184158 -1.7240081 3.9080982 2039583
-0.07952898 -1.7242572 3.9234576 2039583
-2.919734 -1.6750054 3.9241025 2960685
-0.26474673 -1.6751159 3.9438152 2039583
-0.22605589 -1.6749123 3.9273529 2039583
-0.1813 -1.6748993 3.9083111 2039583
-0.079776548 -1.6748995 3.9237537 2039583
-2.9199853 -1.6250162 3.9244001 2960685
-0.26468271 -1.6248691 3.9442391 2039583
-0.22618334 -1.6249841 3.9278564 2039583
-0.18144536 -1.6248982 3.9088221 2039583
-0.079507135 -1.6248807 3.9252782 2039583
-2.9202826 -1.5748354 3.9245901 2960685
-0.26469934 -1.5750035 3.944695 2039583
-0.22625341 -1.574945 3.9283364 2039583
-0.17995453 -1.5747443 3.908637 2039583
-0.079840653 -1.5750269 3.9253817 2039583
-2.920423 -1.5247378 3.9251554 2960685
-0.26328558 -1.5253087 3.94454 2039583
-0.22620715 -1.5249956 3.9287646 2039583
-0.17987409 -1.5250263 3.9090497 2039583
-0.07951431 -1.5249492 3.9270406 2039583
-2.9207242 -1.4749005 3.9253318 2960685
-0.26322719 -1.4748725 3.9449677 2039583
-0.22623472 -1.4750357 3.9292257 2039583
-0.1796982 -1.4749941 3.9094245 2039583
-0.07987655 -1.4750711 3.9270768 2039583
-2.9209611 -1.4249679 3.9256654 2960685
-0.26313204 -1.4250723 3.9453738 2039583
-0.22640492 -1.4249611 3.9297483 2039583
-0.17871895 -1.4245458 3.9094632 2039583
-0.080987446 -1.4253057 3.9253502 2039583
-2.921196 -1.3749325 3.9260035 2960685
-0.2617411 -1.3757504 3.9452255 2039583
-0.22627282 -1.3749739 3.9301414 2039583
-0.17814362 -1.3749194 3.9096608 2039583
-0.082417563 -1.3739911 3.9229031 2039583
-2.9224169 -1.3247459 3.9240274 2960685
-0.26168784 -1.3251227 3.9456573 2039583
-0.22638592 -1.3249843 3.9306371 2039583
-0.17818794 -1.3249793 3.9101291 2039583
-0.082914948 -1.3249354 3.9226069 2039583
-2.9228671 -1.2749337 3.9238551 2960685
-0.26151797 -1.2748761 3.9460371 2039583
-0.22635452 -1.2749764 3.9310744 2039583
-0.17713691 -1.2746609 3.910135 2039583
-0.082818933 -1.2748351 3.9237235 2039583
-2.9231102 -1.2249136 3.9241741 2960685
-0.26034012 -1.2256699 3.9459789 2039583
-0.22633792 -1.2249594 3.9315169 2039583
-0.17647558 -1.2250501 3.9103 2039583
-0.083008677 -1.224943 3.9241669 2039583
-2.9233243 -1.1751517 3.9245574 2960685
-0.26003855 -1.1751528 3.9463031 2039583
-0.22653788 -1.1749303 3.9320505 2039583
-0.17675199 -1.1749672 3.9108651 2039583
-0.082883045 -1.1752565 3.9253454 2039583
-2.9237742 -1.148001 3.9239829 2960685
-0.25998053 -1.1249363 3.9467299 2039583
-0.22630414 -1.1248909 3.9324009 2039583
-0.17534436 -1.1246668 3.9107203 2039583
-0.082957819 -1.125092 3.9260623 2039583
-0.25900567 -1.0759649 3.9467549 2039583
-0.22664934 -1.0749429 3.9329972 2039583
-0.17522936 -1.0750587 3.9111152 2039583
-0.08300516 -1.0746671 3.9268484 2039583
-0.258358 -1.02525 3.9469354 2039583
-0.22644436 -1.0248815 3.9333599 2039583
-0.17482357 -1.0249532 3.9113953 2039583
-0.083294526 -1.0254551 3.9270444 2039583
-0.25846851 -0.97507161 3.9474337 2039583
-0.22649863 -0.97491574 3.9338324 2039583
-0.17521113 -0.97492874 3.9120071 2039583
-0.14703563 -0.96300238 3.9001272 2039583
-0.084815077 -0.97437429 3.9243803 2039583
-0.25589591 -0.92556626 3.9467828 2039583
-0.2250029 -0.92516243 3.9336421 2039583
-0.17491795 -0.92490423 3.9123323 2039583
-0.14704895 -0.92430705 3.90048 2039583
-0.086097613 -0.92457902 3.922251 2039583
-0.25508502 -0.87480551 3.9468942 2039583
-0.22489031 -0.87498903 3.9340444 2039583
-0.17509796 -0.87495619 3.9128587 2039583
-0.14706613 -0.87431592 3.9009368 2039583
-0.086116701 -0.87439495 3.9231005 2039583
-0.25519732 -0.82542467 3.9473863 2039583
-0.22502492 -0.82502532 3.9345517 2039583
-0.17509909 -0.82490766 3.9133115 2039583
-0.14608504 -0.82078779 3.9010003 2039583
-0.086250469 -0.82464939 3.9236722 2039583
-0.25442284 -0.77658188 3.9474964 2039583
-0.22481899 -0.77504641 3.9349124 2039583
-0.17510504 -0.7749393 3.9137592 2039583
-0.14540514 -0.77498788 3.901123 2039583
-0.086096101 -0.77489161 3.9249196 2039583
-0.25349247 -0.72449511 3.9475677 2039583
-0.22448024 -0.72451574 3.9352226 2039583
-0.17449927 -0.72535735 3.9139504 2039583
-0.14552817 -0.72492731 3.9016254 2039583
-0.086200625 -0.72487372 3.9255648 2039583
-0.25352156 -0.67550957 3.9480207 2039583
-0.22337343 -0.67494386 3.9351969 2039583
-0.1736526 -0.6748746 3.9140425 2039583
-0.14454247 -0.67234546 3.9016781 2039583
-0.086190887 -0.67506659 3.9264739 2039583
-0.25315914 -0.62694311 3.9483023 2039583
-0.22303687 -0.62502092 3.9355021 2039583
-0.17315826 -0.62500346 3.9142797 2039583
-0.14386693 -0.62557477 3.9018111 2039583
-0.086265616 -0.62500733 3.9271896 2039583
-0.25189951 -0.57413346 3.9482405 2039583
-0.22378947 -0.57508624 3.9362714 2039583
-0.17396377 -0.57501364 3.9150712 2039583
-0.14388375 -0.57553148 3.9022677 2039583
-0.087051392 -0.57587498 3.9262168 2039583
-0.25192842 -0.52512228 3.9486938 2039583
-0.22340833 -0.52503181 3.9365597 2039583
-0.17328553 -0.52490789 3.9152327 2039583
-0.14324446 -0.52382517 3.9024611 2039583
-0.088824503 -0.52415323 3.9229691 2039583
-0.25176913 -0.4782699 3.9490469 2039583
-0.22315736 -0.47507867 3.9369011 2039583
-0.17382139 -0.47499788 3.9159091 2039583
-0.14227563 -0.4753246 3.9024847 2039583
-0.089412883 -0.47498322 3.9224608 2039583
-0.25030521 -0.42535475 3.948899 2039583
-0.22386797 -0.42520612 3.9376509 2039583
-0.17349797 -0.42487052 3.9162233 2039583
-0.14229231 -0.42525521 3.9029412 2039583
-0.089374796 -0.42492491 3.9234419 2039583
-0.25033489 -0.37468377 3.9493673 2039583
-0.22327302 -0.37480295 3.9378514 2039583
-0.17345674 -0.37505347 3.9166541 2039583
-0.14171468 -0.37386289 3.9031568 2039583
-0.089394063 -0.37485796 3.924288 2039583
-0.25036168 -0.32890621 3.9497898 2039583
-0.22345334 -0.32480764 3.9383769 2039583
-0.17401797 -0.32509792 3.9173386 2039583
-0.14068401 -0.32502285 3.9031563 2039583
-0.089442588 -0.32498774 3.9250622 2039583
-0.22390419 -0.27533126 3.9390144 2039583
-0.17332724 -0.27484545 3.9174991 2039583
-0.14070049 -0.27492705 3.903614 2039583
-0.089489222 -0.27510297 3.9258413 2039583
-0.223297 -0.22479528 3.9392092 2039583
-0.17396826 -0.22529161 3.9182155 2039583
-0.14021868 -0.22390793 3.9038672 2039583
-0.089366436 -0.22496188 3.9270215 2039583
-0.22363523 -0.17464635 3.9398041 2039583
-0.17347555 -0.17501454 3.918458 2039583
-0.13909204 -0.17466898 3.9038308 2039583
-0.089642651 -0.17481062 3.9272649 2039583
-0.2219855 -0.12567161 3.9395425 2039583
-0.17374744 -0.12501706 3.9190221 2039583
-0.13869828 -0.12429694 3.9042416 2039583
-0.090920553 -0.12546355 3.9251401 2039583
-0.22201176 -0.075085171 3.9400082 2039583
-0.17376791 -0.074694045 3.9194818 2039583
-0.13363254 -0.073851511 3.9040284 2039583
-0.091059558 -0.074812345 3.9257138 2039583
-0.22203805 -0.024486914 3.9404736 2039583
-0.17378835 -0.024359332 3.919944 2039583
-0.13304034 -0.024260858 3.9041049 2039583
-0.09107931 -0.024400089 3.9265656 2039583
-0.22050767 0.024369622 3.9402606 2039583
-0.17380808 0.024363022 3.9203918 2039583
-0.13305667 0.0242649 3.9045944 2039583
-0.091098405 0.024406904 3.9273896 2039583
-2.7091584 0.066393033 3.9087353 2960685
-2.6746495 0.066461138 3.9127452 2960685
-2.6250186 0.066559106 3.9185123 2960685
-2.5752437 0.066657349 3.9242961 2960685
-2.5253193 0.066755891 3.9300973 2960685
-2.4752486 0.066854708 3.9359152 2960685
-2.4250283 0.066953838 3.9417515 2960685
-2.3761895 0.067050233 3.9474268 2960685
-1.7583228 0.069492571 3.9009247 2039583
-1.7244503 0.069560632 3.9047446 2039583
-1.67507 0.069659844 3.9103138 2039583
-1.6255488 0.069759339 3.9158993 2039583
-1.5758857 0.069859125 3.9215004 2039583
-1.5260801 0.069959186 3.9271173 2039583
-1.476132 0.07005953 3.9327505 2039583
-1.4260401 0.07016018 3.9384 2039583
-1.3758043 0.070261106 3.944066 2039583
-1.3364611 0.070340157 3.9485028 2039583
-0.72433406 0.072757378 3.902673 10197915
-0.67514414 0.072857849 3.9080622 10197915
-0.62581664 0.072958611 3.9134667 10197915
-0.57475531 0.073062904 3.9190607 10197915
-0.52515101 0.073164217 3.9244955 10197915
-0.47540751 0.073265813 3.9299448 10197915
-0.42552719 0.0733677 3.9354103 10197915
-0.3755064 0.073469862 3.9408898 10197915
-0.3253476 0.073572308 3.9463851 10197915
-0.29616377 0.07363192 3.9495823 6776679
-0.22040746 0.062036119 3.940556 2039583
-0.17382321 0.061724003 3.9207318 2039583
-0.13306916 0.061475858 3.904969 2039583
-0.091113061 0.061838865 3.9280202 2039583
0.28448907 0.075970873 3.9016373 2302755
0.32526377 0.076055445 3.9059803 1124158
0.37430972 0.07615716 3.9112041 795970
0.42512935 0.076262556 3.9166164 795713
0.47608832 0.076368235 3.922045 794687
0.52553874 0.076470807 3.9273119 862020
0.57512224 0.076573633 3.9325929 1059911
0.61820012 0.076662973 3.9371817 1060424
-2.9040947 -1.7607739 3.9593337 2960685
-2.8930099 -1.7665216 3.9852896 2960685
-0.37453189 -1.7675344 3.9896991 11711154
-0.32551551 -1.7628 3.968884 11711154
-0.29016152 -1.7595383 3.9538708 2500134
-0.0581096 -1.7631295 3.9731128 2039583
-0.048018247 -1.7683954 3.9967396 2039583
-2.9046209 -1.7251352 3.9587317 2960685
-2.8936772 -1.7249862 3.9844608 2960685
-0.37352848 -1.7250059 3.9896541 11711154
-0.32382426 -1.7250066 3.9685035 11711154
-0.28982219 -1.7246363 3.954041 2500134
-0.059210163 -1.7241811 3.9712198 2039583
-0.048027474 -1.7240198 3.997508 2039583
-2.9045234 -1.674394 3.9598649 2960685
-2.8936553 -1.6755259 3.9853909 2960685
-0.37364513 -1.6750257 3.9901528 11711154
-0.32398161 -1.6751095 3.9690206 11711154
-0.28835198 -1.6748828 3.9538634 2434341
-0.059222739 -1.6751798 3.9720619 2039583
-0.04803773 -1.6746938 3.9983623 2039583
-2.9044487 -1.6251469 3.9609175 2960685
-2.8935261 -1.6249796 3.9865942 2960685
-0.37225783 -1.6252868 3.99001 11711154
-0.32401949 -1.6250938 3.9694862 11711154
-0.2883299 -1.6251118 3.9542975 2434341
-0.059389424 -1.6253275 3.9725575 2039583
-0.048047997 -1.6253468 3.9992163 2039583
-2.9047194 -1.5748208 3.9611769 2960685
-2.8938174 -1.5750686 3.9867992 2960685
-0.37194091 -1.5749396 3.9903264 9803157
-0.32395411 -1.5749607 3.969908 10658466
-0.28821677 -1.575057 3.954699 2434341
-0.059094604 -1.5746739 3.974153 2039583
-0.048055183 -1.5907921 3.9998143 2039583
-2.9049447 -1.5246876 3.9615405 2960685
-2.8946245 -1.5251967 3.9857864 2960685
-0.37194943 -1.525014 3.9907775 2039583
-0.32403597 -1.5249208 3.970392 2039583
-0.28696367 -1.5245944 3.9546177 2039583
-0.05926127 -1.5247784 3.974649 2039583
-2.9052072 -1.4749542 3.9618063 2960685
-2.8948641 -1.4750574 3.9861164 2960685
-0.37084574 -1.4754423 3.9907551 2039583
-0.32399914 -1.4750856 3.970825 2039583
-0.28677338 -1.4748816 3.9549842 2039583
-0.059412211 -1.4751476 3.975178 2039583
-2.9051282 -1.4242756 3.9628954 2960685
-2.8948636 -1.4258249 3.9869971 2960685
-0.3704769 -1.4249754 3.991051 2039583
-0.32417154 -1.4251336 3.9713464 2039583
-0.28668061 -1.424955 3.955395 2039583
-0.060659811 -1.4246099 3.9731445 2039583
-2.9050488 -1.374894 3.9639595 2960685
-2.8947024 -1.3750849 3.9882789 2960685
-0.37048236 -1.3749824 3.9915035 2039583
-0.32419488 -1.3749527 3.971806 2039583
-0.28534558 -1.3744512 3.9552832 2039583
-0.060913116 -1.3750029 3.9734306 2039583
-2.9058645 -1.3247519 3.9629359 2960685
-2.8950214 -1.3248051 3.9884214 2960685
-0.3695417 -1.3256993 3.991544 2039583
-0.32423297 -1.3249736 3.9722729 2039583
-0.28526413 -1.3249513 3.9556937 2039583
-0.060986128 -1.3249677 3.9741516 2039583
-2.9061217 -1.2750902 3.9632142 2960685
-2.8952205 -1.2749234 3.9888432 2960685
-0.36872688 -1.2751532 3.9916523 2039583
-0.3241961 -1.2750945 3.9727035 2039583
-0.2851865 -1.2751148 3.95611 2039583
-0.060820837 -1.2749077 3.9754307 2039583
-2.906374 -1.2251137 3.9635129 2960685
-2.8954499 -1.2250354 3.9891956 2960685
-0.36883184 -1.2247895 3.9921513 2039583
-0.32411534 -1.2249851 3.9731195 2039583
-0.28378329 -1.2245818 3.955965 2039583
-0.06101286 -1.2250594 3.9758661 2039583
-2.9064457 -1.1746192 3.9642408 2960685
-2.8955071 -1.1758388 3.9899311 2960685
-0.36824962 -1.1752564 3.9923444 2039583
-0.32451147 -1.174973 3.9737375 2039583
-0.28363809 -1.175019 3.956346 2039583
-0.060966171 -1.175191 3.9768631 2039583
-2.9061418 -1.1483319 3.9654248 2960685
-2.8954868 -1.1482401 3.9904721 2960685
-0.36720562 -1.1248721 3.9923556 2039583
-0.3243697 -1.1250591 3.9741268 2039583
-0.28367144 -1.1250684 3.9568067 2039583
-0.062239785 -1.1254866 3.9747548 2039583
-0.36722556 -1.0750469 3.9928119 2039583
-0.32437804 -1.075024 3.9745808 2039583
-0.28252801 -1.074508 3.9567759 2039583
-0.062627725 -1.0747739 3.9747453 2039583
-0.36676723 -1.0255171 3.9930601 2039583
-0.32429707 -1.0248705 3.9749961 2039583
-0.28184354 -1.0249078 3.9569314 2039583
-0.062976211 -1.0241832 3.9748275 2039583
-0.36552364 -0.97490984 3.9929864 2039583
-0.32446873 -0.97491789 3.9755182 2039583
-0.28214163 -0.97486085 3.9575071 2039583
-0.064195774 -0.97507882 3.9728341 2039583
-0.36554116 -0.92502326 3.9934402 2039583
-0.3245517 -0.92506433 3.9760005 2039583
-0.28114974 -0.92437565 3.9575396 2039583
-0.064239807 -0.92496413 3.9736238 2039583
-0.36558175 -0.8754701 3.9939055 2039583
-0.3245897 -0.87498367 3.9764676 2039583
-0.28026447 -0.87495357 3.9576075 2039583
-0.064194046 -0.87529111 3.9746137 2039583
-0.36410373 -0.82540244 3.9937265 2039583
-0.3245087 -0.82478493 3.9768841 2039583
-0.28033793 -0.82496834 3.9580903 2039583
-0.064207725 -0.82512939 3.9754746 2039583
-0.36415985 -0.775235 3.9941995 2039583
-0.32468098 -0.77478594 3.9774063 2039583
-0.27981487 -0.77440929 3.9583185 2039583
-0.064281799 -0.77471197 3.9761982 2039583
-0.36410379 -0.72506124 3.9946256 2039583
-0.32465845 -0.72499651 3.9778435 2039583
-0.27882284 -0.72496533 3.9583411 2039583
-0.06441956 -0.72540748 3.9767532 2039583
-0.36237693 -0.67492849 3.994343 2039583
-0.3245768 -0.6750868 3.9782562 2039583
-0.2786074 -0.67489332 3.958698 2039583
-0.065841839 -0.67505974 3.9743068 2039583
-0.3622911 -0.62442201 3.9947631 2039583
-0.32448027 -0.6250568 3.9786654 2039583
-0.27817091 -0.62459826 3.9589658 2039583
-0.06587407 -0.62497902 3.9751217 2039583
-0.36249447 -0.57435519 3.9952991 2039583
-0.32505766 -0.57501352 3.979363 2039583
-0.27751067 -0.57518834 3.9591291 2039583
-0.066855118 -0.57395667 3.9737225 2039583
-0.36120206 -0.52532619 3.9951863 2039583
-0.32493094 -0.52506775 3.9797578 2039583
-0.27727085 -0.52503788 3.9594772 2039583
-0.067522541 -0.52484089 3.9730284 2039583
-0.36085558 -0.47506604 3.9954901 2039583
-0.32489318 -0.47500166 3.9801905 2039583
-0.27647534 -0.47436827 3.9595945 2039583
-0.067536429 -0.47486004 3.9738855 2039583
-0.36089748 -0.42545703 3.9959557 2039583
-0.32469288 -0.42470881 3.9805565 2039583
-0.27561408 -0.42487478 3.9596713 2039583
-0.06749212 -0.42485428 3.97488 2039583
-0.35986176 -0.37682801 3.9959519 2039583
-0.32474446 -0.37462094 3.9810288 2039583
-0.27590829 -0.37534514 3.9602444 2039583
-0.067536429 -0.37506005 3.9756634 2039583
-0.35925838 -0.32614425 3.9961514 2039583
-0.32497779 -0.32495481 3.9815741 2039583
-0.2755011 -0.32480907 3.9605231 2039583
-0.06758064 -0.32524705 3.9764454 2039583
-0.35943335 -0.2754949 3.9966791 2039583
-0.3250151 -0.27550107 3.9820352 2039583
-0.2736558 -0.27455917 3.960191 2039583
-0.06810113 -0.27616969 3.976095 2039583
-0.35827899 -0.22562174 3.9966359 2039583
-0.32532334 -0.22569443 3.9826121 2039583
-0.27405506 -0.2248048 3.9608076 2039583
-0.069052629 -0.22530581 3.9747643 2039583
-0.3576636 -0.17386304 3.9968407 2039583
-0.32514983 -0.17501551 3.9829948 2039583
-0.27408656 -0.17559758 3.9612637 2039583
-0.069086075 -0.1751183 3.9755785 2039583
-0.35770509 -0.12420215 3.9973018 2039583
-0.32480201 -0.12422739 3.9833019 2039583
-0.27443385 -0.12515873 3.9618647 2039583
-0.24711663 -0.12601265 3.9502325 2039583
-0.070745178 -0.12438465 3.9725816 2039583
-0.35717112 -0.07618206 3.9975097 2039583
-0.32516813 -0.074271381 3.9839077 2039583
-0.27382672 -0.074321911 3.9620626 2039583
-0.24714591 -0.075288959 3.9507008 2039583
-0.070848905 -0.074318968 3.9732292 2039583
-0.35606575 -0.024841264 3.9974985 2039583
-0.32520571 -0.024759673 3.9843698 2039583
-0.27418327 -0.024624772 3.9626598 2039583
-0.24717523 -0.02455336 3.9511688 2039583
-0.070774838 -0.02469662 3.9742868 2039583
-0.35610712 0.024845103 3.9979625 2039583
-0.32524344 0.02476348 3.9848313 2039583
-0.27421489 0.024628537 3.9631157 2039583
-0.24558073 0.025342885 3.9509387 2039583
-0.070789896 0.024703613 3.9751306 2039583
-2.3517208 0.067098506 3.9502683 2960685
-2.3256748 0.067149945 3.9532967 2960685
-2.2750094 0.067249939 3.9591837 2960685
-2.2241948 0.067350239 3.9650886 2960685
-2.1747737 0.067447782 3.9708314 2894892
-2.1252093 0.067545615 3.9765906 2039583
-2.0755012 0.067643732 3.9823666 2039583
-2.0256486 0.067742132 3.9881601 2039583
-1.9756507 0.067840815 3.9939702 2039583
-1.9364921 0.067918107 3.9985204 2039583
-1.3112329 0.070390835 3.9513481 2039583
-1.2748977 0.070463851 3.9554458 2039583
-1.224226 0.070565671 3.9611621 2039583
-1.1749986 0.070664592 3.9667146 2039583
-1.1256313 0.070763774 3.9722826 2039583
-1.0745268 0.070866451 3.9780462 2039583
-1.0248783 0.070966206 3.9836457 2829099
-0.97508848 0.071066238 3.9892614 4539717
-0.92515957 0.071166553 3.9948924 10197915
-0.88964432 0.071237914 3.998898 10197915
-0.35613742 0.061288722 3.9983029 4342338
-0.32527107 0.061087381 3.9851682 4342338
-0.27378967 0.062178858 3.9622281 2105376
-0.24554388 0.062204514 3.9512539 2039583
-0.069952011 0.063161679 3.9749587 2039583
-0.024723195 0.074186333 3.9793208 2039583
0.024768045 0.07428737 3.9847405 2039583
0.074394301 0.074388668 3.9901748 2039583
0.12415615 0.074490316 3.9956267 2105376
0.1557371 0.074554816 3.9990864 2894892
-2.8692679 -1.8038378 4.0404329 2960685
-0.50790769 -1.8053263 4.0461092 11711154
-0.48436469 -1.8030944 4.0361123 11711154
-0.028461594 -1.8035269 4.0420837 2039583
-2.8758335 -1.7738925 4.0255346 2960685
-0.50794351 -1.7752787 4.0463939 11711154
-0.474399 -1.7752218 4.0321226 11711154
-0.42634466 -1.7724191 4.0117002 11711154
-0.39939937 -1.7699522 4.000258 11711154
-0.03628077 -1.7730123 4.0242476 2039583
-2.8764558 -1.725078 4.0249376 2960685
-0.50760269 -1.7261535 4.0466914 11711154
-0.47448817 -1.7250737 4.0326123 11711154
-0.4254002 -1.7249415 4.011724 11711154
-0.39944112 -1.7253861 4.0006757 11711154
-0.036659651 -1.723856 4.0242314 2039583
-2.876678 -1.6750929 4.0253057 2960685
-0.50629121 -1.6747793 4.0465946 11711154
-0.47454348 -1.6751499 4.0330834 11711154
-0.42551628 -1.6748037 4.0122252 11711154
-0.39948753 -1.6758579 4.0011401 11711154
-0.036667533 -1.6742007 4.0250969 2039583
-2.876931 -1.6250033 4.0256038 2960685
-0.5063507 -1.624676 4.04707 11711154
-0.47459942 -1.6252148 4.0335569 11711154
-0.42557403 -1.6247727 4.0126982 11711154
-0.3979978 -1.6238519 4.0009732 11711154
-0.03667542 -1.6245233 4.0259624 2039583
-2.8771291 -1.575001 4.0260262 2960685
-0.50631958 -1.5749432 4.0475039 7303023
-0.47458011 -1.5751483 4.0339961 7895160
-0.42564869 -1.5749644 4.0131783 8816262
-0.39790636 -1.5756345 4.001368 9342606
-0.037717585 -1.5740319 4.0244112 2039583
-2.8779862 -1.5251526 4.0249009 2960685
-0.50469822 -1.5241522 4.0472703 2039583
-0.47471094 -1.5250715 4.0345025 2039583
-0.42571479 -1.5250272 4.0136547 2039583
-0.39784238 -1.5244633 4.0018005 2039583
-0.038408577 -1.525081 4.0236588 2039583
-2.8789108 -1.475078 4.0236192 2960685
-0.50475764 -1.4740235 4.0477462 2039583
-0.47476661 -1.4751003 4.0349751 2039583
-0.42569056 -1.4749594 4.0140953 2039583
-0.3965542 -1.4720639 4.0017238 2039583
-0.038386457 -1.4749166 4.0246038 2039583
