# .PCD v0.7 - Point Cloud Data file format
VERSION 0.7
FIELDS x y z rgb
SIZE 4 4 4 4
TYPE F F F U
COUNT 1 1 1 1
WIDTH 1147
HEIGHT 1
VIEWPOINT 0 0 0 1 0 0 0
POINTS 1147
DATA ascii
-0.47214672 0.10749102 0.62632471 10197915
-0.42501268 0.10751285 0.62383026 10197915
-0.37502071 0.10750537 0.62379837 10197915
-0.32500711 0.1074983 0.62372249 10197915
-0.2750003 0.10749044 0.62370539 10197915
-0.22498618 0.10748333 0.6236589 10197915
-0.17497878 0.10747641 0.62360007 10197915
-0.12499273 0.10746872 0.62357402 10197915
-0.074999206 0.10746148 0.62352759 10197915
-0.024998447 0.10745418 0.62349236 10197915
0.024996158 0.10744637 0.62345248 10197915
0.074997462 0.10743972 0.62339538 10197915
0.12500659 0.10743121 0.62335026 10197915
0.17499435 0.10742439 0.62331176 10197915
0.22498962 0.10741636 0.62328523 10197915
0.27500677 0.10740989 0.62321717 10197915
0.32500252 0.10740197 0.6231696 10197915
0.37499174 0.1073948 0.6231845 10197915
0.42498752 0.10738696 0.62307584 10197915
0.47200194 0.10735025 0.62563133 10197915
0.50546992 0.10714963 0.64223254 10197915
-0.55199218 0.10667717 0.696661 10197915
-0.51937431 0.10688965 0.67814136 10197915
-0.47498745 0.10693214 0.67393899 10197915
-0.42496413 0.1069255 0.67384386 10197915
-0.3750025 0.10691829 0.67379707 10197915
-0.32502961 0.1069099 0.67381227 10197915
-0.27500772 0.10690288 0.67373121 10197915
-0.22502969 0.10689519 0.67369884 10197915
-0.17504017 0.1068886 0.67362458 10197915
-0.12502006 0.10688032 0.67359436 10197915
-0.075006932 0.10687336 0.67354929 10197915
-0.02500106 0.10686608 0.67350316 10197915
0.024998752 0.10685877 0.67345721 10197915
0.074990891 0.1068513 0.67341179 10197915
0.12499503 0.10684367 0.673365 10197915
0.17501092 0.10683659 0.67330813 10197915
0.22500125 0.10682893 0.67327261 10197915
0.27500331 0.10682167 0.67322391 10197915
0.3250176 0.10681476 0.67313969 10197915
0.37502363 0.10680714 0.67315525 10197915
0.42500496 0.1067998 0.67306888 10197915
0.47497907 0.10679257 0.67305672 10197915
0.51912606 0.10673498 0.67732221 10197915
0.55184364 0.10651162 0.6959011 10197915
-0.5651477 0.10629305 0.72953403 10197915
-0.52500713 0.10636098 0.72319323 10197915
-0.47500882 0.10635364 0.72315317 10197915
-0.4250409 0.10634692 0.72307265 10197915
-0.37498692 0.10633943 0.7230202 10197915
-0.32494023 0.10633188 0.72299153 10197915
-0.27496973 0.10632461 0.72294891 10197915
-0.2249597 0.10631698 0.72290152 10197915
-0.17497976 0.10631021 0.72281337 10197915
-0.1249836 0.10630239 0.72279984 10197915
-0.074971542 0.1062951 0.72274876 10197915
-0.02498916 0.10628815 0.72269499 10197915
0.02500991 0.10628054 0.72264373 10197915
0.075222678 0.10625372 0.72425908 10197915
0.12500134 0.10624384 0.72443062 10197915
0.17500268 0.10623679 0.72436851 10197915
0.22501872 0.10622919 0.72433192 10197915
0.27500626 0.10622169 0.7243011 10197915
0.32503015 0.10621466 0.72421974 10197915
0.37498185 0.10620726 0.72418159 10197915
0.42497095 0.10620024 0.72410291 10197915
0.47501668 0.10619215 0.72411299 10197915
0.52499157 0.1061852 0.72403985 10197915
0.56577212 0.10609527 0.73114622 10197915
-0.61205637 0.105653 0.78462547 10197915
-0.5748809 0.1057741 0.77381653 10197915
-0.52502245 0.10576808 0.77364933 10197915
-0.47501689 0.10576101 0.773601 10197915
-0.42496529 0.10575408 0.77350926 10197915
-0.37499955 0.10574617 0.77350771 10197915
-0.32504168 0.10573946 0.77340567 10197915
-0.27501011 0.10573198 0.77336627 10197915
-0.22501209 0.10572496 0.77330846 10197915
-0.17499463 0.10571748 0.7732659 10197915
-0.12498379 0.10570999 0.77323067 10197915
-0.07500647 0.10570307 0.77313912 10197915
-0.025009926 0.10569529 0.77312553 10197915
0.025007611 0.105688 0.77307117 10197915
0.074723057 0.1056595 0.77483934 10197915
0.12497357 0.10564826 0.77511555 10197915
0.17496857 0.10564104 0.77505779 10197915
0.22498585 0.1056337 0.77500004 10197915
0.27499625 0.10562642 0.77495569 10197915
0.32494119 0.10561907 0.77492309 10197915
0.37499696 0.10561206 0.77483541 10197915
0.42504445 0.10560529 0.77472943 10197915
0.47499844 0.10559695 0.77476925 10197915
0.52497411 0.10558983 0.77470034 10197915
0.57497275 0.10558261 0.77465171 10197915
0.61173326 0.1054695 0.78377622 10197915
-0.65848064 0.10502654 0.83855808 10197915
-0.62397772 0.10517732 0.82526714 10197915
-0.57501179 0.10518137 0.82426286 10197915
-0.52501494 0.1051737 0.82424289 10197915
-0.47502482 0.10516579 0.82424349 10197915
-0.42504126 0.10515989 0.82406944 10197915
-0.37499702 0.10515209 0.82405686 10197915
-0.32495919 0.10514447 0.82404166 10197915
-0.27499628 0.10513745 0.82395667 10197915
-0.22500642 0.10513031 0.82389855 10197915
-0.17498906 0.10512281 0.82385272 10197915
-0.1249787 0.10511583 0.8237856 10197915
-0.074975587 0.10510895 0.82371312 10197915
-0.024979273 0.10510126 0.82367879 10197915
0.02497698 0.10509403 0.82362288 10197915
0.074993663 0.10508677 0.82356739 10197915
0.12500343 0.10507984 0.82349658 10197915
0.17497252 0.1050726 0.82344818 10197915
0.2250028 0.10506492 0.82339644 10197915
0.27502644 0.10505804 0.8233099 10197915
0.32504308 0.1050511 0.82324129 10197915
0.37505215 0.1050427 0.82326275 10197915
0.42505503 0.10503624 0.82314879 10197915
0.47505116 0.10502869 0.8231355 10197915
0.52504045 0.10502192 0.82304269 10197915
0.5750218 0.10501445 0.82299554 10197915
0.62376124 0.1049952 0.8239671 10197915
0.65801793 0.10483184 0.83741957 10197915
-0.70508343 0.10439588 0.89285326 10197915
-0.67194521 0.10458487 0.87632269 10197915
-0.62503541 0.10460781 0.87374216 10197915
-0.57500428 0.10460132 0.87362123 10197915
-0.52493972 0.10459378 0.87358677 10197915
-0.475003 0.1045865 0.87353534 10197915
-0.42507282 0.10457943 0.87346625 10197915
-0.37510946 0.10457221 0.87340659 10197915
-0.32507247 0.1045652 0.87332839 10197915
-0.27500224 0.10455782 0.87328589 10197915
-0.22497892 0.10455037 0.87324417 10197915
-0.1749628 0.10454327 0.87317473 10197915
-0.12499361 0.10453647 0.8730877 10197915
-0.074991092 0.10452903 0.87304717 10197915
-0.024995957 0.10452183 0.87297809 10197915
0.024993658 0.10451476 0.87291723 10197915
0.07501521 0.10450725 0.87288505 10197915
0.12503041 0.10450029 0.87279636 10197915
0.17503862 0.10449325 0.87272787 10197915
0.22499979 0.10448554 0.87271094 10197915
0.27495423 0.1044789 0.87259912 10197915
0.32494152 0.10447097 0.87260097 10197915
0.37492272 0.10446475 0.87246984 10197915
0.42497683 0.10445639 0.8724997 10197915
0.47498327 0.1044503 0.87234116 10197915
0.52498388 0.10444261 0.87233567 10197915
0.57501721 0.10443556 0.87225628 10197915
0.62496358 0.10442829 0.87220514 10197915
0.67146105 0.10438944 0.87489408 10197915
0.7043221 0.10419225 0.8912226 10197915
-0.75078559 0.10378622 0.94534737 10197915
-0.71874857 0.10398909 0.92764878 10197915
-0.67502761 0.10403364 0.92327511 10197915
-0.62502289 0.10402726 0.92314887 10197915
-0.57497823 0.10401976 0.92310756 10197915
-0.52503484 0.1040132 0.92299616 10197915
-0.47500327 0.10400604 0.92293411 10197915
-0.42493176 0.10399798 0.92294711 10197915
-0.37486699 0.10399155 0.92281824 10197915
-0.32490256 0.10398342 0.92283028 10197915
-0.27499449 0.10397746 0.92267394 10197915
-0.22499761 0.1039699 0.92264527 10197915
-0.17500731 0.10396288 0.92257094 10197915
-0.12502407 0.1039556 0.92251837 10197915
-0.075047642 0.10394776 0.92250252 10197915
-0.025030637 0.10394146 0.92237443 10197915
0.025028348 0.10393428 0.92231065 10197915
0.075031564 0.10392638 0.9223119 10197915
0.12502801 0.10392014 0.92217213 10197915
0.17501798 0.10391242 0.92214876 10197915
0.22504844 0.10390548 0.92207485 10197915
0.27507234 0.10389818 0.92202216 10197915
0.32513645 0.10389088 0.9219653 10197915
0.3750518 0.10388451 0.92184079 10197915
0.42486355 0.10387705 0.92180312 10197915
0.47495574 0.10386951 0.92177492 10197915
0.52499211 0.10386245 0.92170465 10197915
0.57497478 0.10385538 0.92163038 10197915
0.62495029 0.10384808 0.92157769 10197915
0.67504704 0.10380608 0.92447746 10197915
0.71933013 0.1037356 0.92988527 10197915
0.75245345 0.10350502 0.94905865 10197915
-0.76586896 0.1033475 0.98288596 10197915
-0.72492605 0.10343061 0.9752624 10197915
-0.67498231 0.10342434 0.97512835 10197915
-0.62499475 0.10341658 0.97510922 10197915
-0.57501453 0.10340942 0.97504783 10197915
-0.52499014 0.1034029 0.97492689 10197915
-0.47492254 0.10339463 0.97496301 10197915
-0.42491135 0.1033893 0.97474349 10197915
-0.37500995 0.103381 0.97477227 10197915
-0.32506278 0.10337349 0.97474182 10197915
-0.27497259 0.10336702 0.97461939 10197915
-0.22498938 0.10335994 0.97455096 10197915
-0.17501348 0.10335291 0.97447181 10197915
-0.12499397 0.10334566 0.97442389 10197915
-0.074981086 0.10333806 0.97439331 10197915
-0.024975982 0.10333139 0.97428948 10197915
0.024973694 0.10332435 0.97422278 10197915
0.074965097 0.10331675 0.9741925 10197915
0.12500088 0.10331018 0.97408152 10197915
0.17497893 0.10330305 0.97400904 10197915
0.22495052 0.1032956 0.97397524 10197915
0.27496538 0.10328873 0.97388303 10197915
0.32487214 0.10328133 0.97384083 10197915
0.37497491 0.10327467 0.97373539 10197915
0.42517027 0.10326793 0.97363871 10197915
0.47510791 0.10325942 0.97368884 10197915
0.52503783 0.10325355 0.97351861 10197915
0.57501149 0.10324541 0.97353387 10197915
0.62497783 0.10323934 0.97338426 10197915
0.67488265 0.10319237 0.97670251 10197915
0.72500664 0.1031846 0.97669327 10197915
0.7656374 0.10311294 0.98224854 10197915
-0.81151587 0.10274943 1.0343952 10197915
-0.77515948 0.10284474 1.0257956 10197915
-0.72510386 0.10283741 1.0257452 10197915
-0.67505544 0.10283083 1.0256319 10197915
-0.62494266 0.10282307 1.0256147 10197915
-0.57490742 0.10281648 1.0255016 10197915
-0.52495027 0.10280964 1.0254189 10197915
-0.47507113 0.10280199 1.0253924 10197915
-0.42512745 0.10279455 1.0253534 10197915
-0.37511888 0.10278749 1.0252837 10197915
-0.32504901 0.10278171 1.025095 10197915
-0.27498415 0.1027736 1.0251209 10197915
-0.22499742 0.10276703 1.0250078 10197915
-0.17501713 0.10275945 1.0249796 10197915
-0.12497352 0.102753 1.0248553 10197915
-0.075007528 0.10274539 1.0248281 10197915
-0.025048522 0.10273863 1.0247365 10197915
0.025046239 0.10273152 1.0246658 10197915
0.074991494 0.10272419 1.0246164 10197915
0.12492994 0.10271768 1.0245025 10197915
0.17493233 0.10270986 1.0244859 10197915
0.22492827 0.10270347 1.0243626 10197915
0.27498743 0.10269538 1.0243769 10197915
0.32503957 0.10268909 1.0242419 10197915
0.37508604 0.10268199 1.0241719 10197915
0.42498332 0.10267463 1.0241228 10197915
0.47487333 0.10266813 1.0240089 10197915
0.52489829 0.1026605 1.0239816 10197915
0.57491648 0.10265376 1.02389 10197915
0.62492776 0.10264636 1.0238409 10197915
0.6749323 0.10263977 1.0237279 10197915
0.7249999 0.1026326 1.0236676 10197915
0.77506131 0.10262442 1.0236928 10197915
0.81084996 0.1025115 1.0328186 10197915
-0.85785294 0.10212054 1.0885341 10197915
-0.82367581 0.10227785 1.0746875 10197915
-0.77506626 0.10228441 1.073474 10197915
-0.72498643 0.10227863 1.0732905 10197915
-0.67491192 0.10227037 1.073326 10197915
-0.62499398 0.10226344 1.0732393 10197915
-0.57508236 0.10225625 1.0731786 10197915
-0.52502954 0.10224959 1.0730697 10197915
-0.47490963 0.1022423 1.0730181 10197915
-0.42494377 0.10223559 1.0729197 10197915
-0.37491244 0.10222892 1.072811 10197915
-0.32488587 0.10222147 1.0727724 10197915
-0.27501616 0.10221377 1.0727597 10197915
-0.2250043 0.10220774 1.0726017 10197915
-0.17499988 0.10220058 1.0725379 10197915
-0.12500221 0.10219222 1.0725774 10197915
-0.074936584 0.10218722 1.0723302 10197915
-0.02495339 0.10217886 1.0723664 10197915
0.024951097 0.10217189 1.0722926 10197915
0.074920528 0.10216609 1.0721087 10197915
0.12503242 0.10215719 1.0721951 10197915
0.17513697 0.10215145 1.0720104 10197915
0.22508663 0.10214429 1.0719478 10197915
0.27495533 0.10213672 1.0719236 10197915
0.3250396 0.10213033 1.0717895 10197915
0.3751159 0.10212234 1.0718011 10197915
0.42511216 0.10211642 1.0716294 10197915
0.47510204 0.10210855 1.0716279 10197915
0.52501035 0.10210138 1.0715673 10197915
0.57498533 0.10209518 1.0714201 10197915
0.62495416 0.10208755 1.0713941 10197915
0.67498988 0.10208156 1.0712355 10197915
0.72501874 0.10207264 1.0713216 10197915
0.77503979 0.10206714 1.0711129 10197915
0.82337916 0.10204287 1.0725313 10197915
0.8572275 0.10186927 1.0868466 10197915
-0.90584761 0.10144985 1.1462547 10197915
-0.87193578 0.10164919 1.1288353 10197915
-0.82492447 0.10167706 1.125829 10197915
-0.77488577 0.10167094 1.1256782 10197915
-0.72493374 0.10166191 1.1257714 10197915
-0.67491162 0.10165742 1.1254811 10197915
-0.62489444 0.1016496 1.1254755 10197915
-0.57496351 0.10164195 1.1254525 10197915
-0.52496076 0.10163506 1.1253636 10197915
-0.47504267 0.1016288 1.1252277 10197915
-0.42505425 0.10162061 1.1252506 10197915
-0.37499508 0.10161495 1.1250588 10197915
-0.32501888 0.10160719 1.125054 10197915
-0.27497384 0.10160054 1.1249461 10197915
-0.22493504 0.10159314 1.1248994 10197915
-0.17498039 0.10158667 1.1247772 10197915
-0.12503289 0.10157917 1.1247445 10197915
-0.075014621 0.1015725 1.1246368 10197915
-0.025004195 0.10156521 1.1245887 10197915
0.025001908 0.10155814 1.124512 10197915
0.075075917 0.10155237 1.1243348 10197915
0.12506717 0.1015434 1.1244268 10197915
0.17497331 0.10153792 1.1242218 10197915
0.22495024 0.10153056 1.1241742 10197915
0.27499795 0.10152306 1.1241394 10197915
0.32488275 0.10151627 1.1240443 10197915
0.37484029 0.10150956 1.1239423 10197915
0.42486629 0.10150313 1.1238203 10197915
0.47488752 0.1014956 1.1237882 10197915
0.52505505 0.10148772 1.1237807 10197915
0.57506162 0.10148197 1.1236019 10197915
0.62498301 0.10147394 1.1236104 10197915
0.67497551 0.10146715 1.1235197 10197915
0.72496212 0.10146165 1.1233145 10197915
0.7749396 0.10145316 1.1233647 10197915
0.82499027 0.10144614 1.1232876 10197915
0.87132007 0.10140124 1.1264861 10197915
0.90468764 0.10119274 1.1437807 10197915
-0.9517439 0.10083716 1.1990082 10197915
-0.91975784 0.10102702 1.1824232 10197915
-0.87502664 0.10106581 1.1785203 10197915
-0.82487762 0.10105836 1.1784793 10197915
-0.77482933 0.10105231 1.1783179 10197915
-0.72498721 0.10104542 1.1782379 10197915
-0.67505157 0.10103798 1.1781954 10197915
-0.62502712 0.10103052 1.1781552 10197915
-0.57491076 0.10102499 1.1779553 10197915
-0.52499741 0.10101715 1.1779525 10197915
-0.47499353 0.10100969 1.1779121 10197915
-0.42489722 0.10100368 1.1777512 10197915
-0.37510264 0.10099675 1.1776696 10197915
-0.32511744 0.10098885 1.1776683 10197915
-0.27494583 0.10098283 1.1775084 10197915
-0.22497541 0.10097633 1.1773894 10197915
-0.1749156 0.100968 1.1774259 10197915
-0.12495808 0.10096245 1.1772255 10197915
-0.075009644 0.10095365 1.1773025 10197915
-0.024969665 0.10094807 1.1771029 10197915
0.024967378 0.1009411 1.177022 10197915
0.074993573 0.10093281 1.1770594 10197915
0.12501247 0.1009272 1.1768607 10197915
0.17502505 0.1009207 1.1767423 10197915
0.22503097 0.10091332 1.1766982 10197915
0.27493212 0.10090595 1.176656 10197915
0.32492349 0.10089854 1.1766151 10197915
0.37490982 0.10089248 1.1764553 10197915
0.42508179 0.10088547 1.1763769 10197915
0.47515169 0.10087813 1.1763312 10197915
0.52501786 0.10087067 1.1762909 10197915
0.57497531 0.10086514 1.1760912 10197915
0.62492621 0.10085683 1.1761299 10197915
0.67496753 0.10085169 1.1758921 10197915
0.72500074 0.10084248 1.1760052 10197915
0.77493083 0.1008369 1.1758069 10197915
0.8249526 0.10082901 1.1758047 10197915
0.87506217 0.10082385 1.175568 10197915
0.9192012 0.1007634 1.1801214 10197915
0.95073986 0.10057332 1.195871 10197915
0.89433765 0.099946238 1.2499906 10197915
0.92485189 0.099942051 1.2499381 10197915
0.97191185 0.099935554 1.2498569 10197915
-0.96423745 0.10047173 1.2302742 10197915
-0.92488098 0.10052308 1.2253736 10197915
-0.87494004 0.1005152 1.2253726 10197915
-0.82513285 0.10050895 1.2252327 10197915
-0.77520823 0.10050049 1.2252861 10197915
-0.72515923 0.10049416 1.2251477 10197915
-0.67512077 0.10048853 1.2249525 10197915
-0.62508684 0.10048033 1.224979 10197915
-0.57506067 0.10047469 1.2247839 10197915
-0.52504158 0.10046649 1.2248102 10197915
-0.47502819 0.10046089 1.2246155 10197915
-0.42489785 0.10045235 1.2246689 10197915
-0.37477008 0.10044509 1.2246113 10197915
-0.32490689 0.10043981 1.2243897 10197915
-0.27504778 0.10043193 1.224389 10197915
-0.22507031 0.10042636 1.2241942 10197915
-0.17509899 0.10041808 1.2242205 10197915
-0.12500808 0.10041149 1.2241088 10197915
-0.075049937 0.10040525 1.2239685 10197915
-0.025100267 0.10039771 1.2239405 10197915
0.025097976 0.10039079 1.2238557 10197915
0.075033888 0.10038451 1.2237153 10197915
0.12496449 0.10037696 1.2236876 10197915
0.17501403 0.10036971 1.2236307 10197915
0.22505677 0.1003638 1.2234633 10197915
0.27509215 0.10035586 1.223462 10197915
0.32512116 0.10034931 1.2233504 10197915
0.37501788 0.10034305 1.2232101 10197915
0.42490527 0.10033549 1.2231822 10197915
0.47504133 0.10032854 1.2230978 10197915
0.52504247 0.10032135 1.2230407 10197915
0.57503688 0.10031542 1.2228734 10197915
0.62502438 0.10030752 1.2228721 10197915
0.67500472 0.10030095 1.2227606 10197915
0.7251066 0.10029402 1.2226763 10197915
0.7749458 0.10028777 1.2225361 10197915
0.82478034 0.10028024 1.2225083 10197915
0.87498665 0.10027293 1.2224507 10197915
0.9250589 0.10026602 1.2223666 10197915
0.9631573 0.10020211 1.2272935 10197915
-1.0106701 0.099851169 1.2837052 10197915
-0.97499782 0.099863954 1.2821382 10197915
-0.9247365 0.099856302 1.2821119 10197915
-0.87287778 0.099825695 1.2840211 10197915
-0.82521808 0.099773169 1.2878499 10197915
-0.77500957 0.099766247 1.2877625 10197915
-0.72481149 0.099759378 1.2876716 10197915
-0.67497271 0.099752538 1.2875835 10197915
-0.62496519 0.099744648 1.28758 10197915
-0.57496423 0.099739797 1.2873223 10197915
-0.52497047 0.099730931 1.2874033 10197915
-0.47323981 0.099756256 1.2845534 10197915
-0.42516038 0.099788614 1.2811514 10197915
-0.37497622 0.099780947 1.2811271 10197915
-0.32492909 0.099773765 1.2810684 10197915
-0.27502376 0.099766865 1.280982 10197915
-0.22499247 0.099761873 1.2807359 10197915
-0.17496708 0.099753141 1.2808056 10197915
-0.12508237 0.099746309 1.2807158 10197915
-0.075069778 0.09973976 1.2805986 10197915
-0.024934493 0.099733658 1.2804455 10197915
0.024932228 0.099726781 1.280358 10197915
0.07505367 0.099719144 1.2803336 10197915
0.1250387 0.099711984 1.2802746 10197915
0.17488229 0.099705115 1.2801889 10197915
0.22498499 0.099699683 1.2799743 10197915
0.27507982 0.099691354 1.2800122 10197915
0.32517007 0.09968596 1.2797976 10197915
0.37498462 0.0996769 1.2798982 10197915
0.42479649 0.099670783 1.2797486 10197915
0.47486255 0.099665403 1.2795337 10197915
0.52540064 0.099721208 1.2741051 10197915
0.57499784 0.099720225 1.2735214 10197915
0.62497342 0.099712186 1.2735333 10197915
0.67494202 0.099707596 1.2732482 10197915
0.72490191 0.09969788 1.2734079 10197915
0.77475131 0.099692799 1.2731706 10197915
0.82480574 0.099685825 1.2730861 10197915
0.87401307 0.099664755 1.2742196 10197915
0.92489958 0.099603564 1.2787402 10197915
0.97489899 0.099595226 1.2787783 10197915
1.0116949 0.099496134 1.2867162 10197915
-1.0028305 0.10007346 1.2646873 10197915
-0.97426969 0.10013519 1.2590488 10197915
-0.92516142 0.10012987 1.2588396 10197915
-0.87503535 0.10012298 1.2587526 10197915
-0.8251794 0.10011682 1.2586061 10197915
-0.77532727 0.10010925 1.2585799 10197915
-0.72496271 0.10010298 1.2584338 10197915
-0.67486316 0.10009608 1.2583456 10197915
-0.62503511 0.1000885 1.2583193 10197915
-0.5749501 0.10008162 1.2582326 10197915
-0.52487189 0.10007471 1.2581459 10197915
-0.47866109 0.1000849 1.2566572 10197915
-0.42541513 0.10012811 1.2522652 10197915
-0.37506562 0.10012117 1.2521785 10197915
-0.32472315 0.10011425 1.2520919 10197915
-0.27490655 0.10010738 1.2520058 10197915
-0.22509676 0.10010049 1.2519201 10197915
-0.1752938 0.10009364 1.2518343 10197915
-0.12497904 0.10008672 1.2517475 10197915
-0.074671209 0.10007977 1.2516609 10197915
-0.024888886 0.10007293 1.2515749 10197915
0.024886608 0.10006606 1.2514893 10197915
0.074655294 0.10005921 1.2514037 10197915
0.12493543 0.10005228 1.2513169 10197915
0.17520869 0.10004533 1.2512302 10197915
0.2249568 0.10003849 1.2511445 10197915
0.27469802 0.10003164 1.2510587 10197915
0.32495049 0.10002473 1.2509722 10197915
0.37519598 0.10001779 1.2508854 10197915
0.42491671 0.10001094 1.2507999 10197915
0.47463056 0.10000411 1.2507143 10197915
0.50207412 0.10000032 1.2506669 10197915
-1.0558468 0.099255979 1.3349636 10197915
-1.0227196 0.099418625 1.3206761 10197915
-0.97507983 0.099433303 1.3187891 10197915
-0.92502624 0.099428028 1.3185626 10197915
-0.87628889 0.099404462 1.3199142 10197915
-0.82508433 0.099339433 1.3247565 10197915
-0.77508545 0.099332616 1.3246657 10197915
-0.72509623 0.099325769 1.3245744 10197915
-0.67511117 0.099318951 1.3244835 10197915
-0.62513584 0.099312104 1.3243922 10197915
-0.57498246 0.099304162 1.3243937 10197915
-0.52316338 0.099266268 1.3269225 10197915
-0.47486323 0.099216588 1.3304982 10197915
-0.42494893 0.099210635 1.3303343 10197915
-0.37504393 0.099202961 1.3303156 10197915
-0.32500491 0.099195741 1.3302591 10197915
-0.27511388 0.099190556 1.3300253 10197915
-0.22508934 0.099182516 1.3300409 10197915
-0.17493556 0.099174835 1.3300192 10197915
-0.12478831 0.0991688 1.3298571 10197915
-0.074922413 0.099162847 1.3296936 10197915
-0.025065178 0.099155188 1.3296747 10197915
0.02506287 0.099148341 1.3295829 10197915
0.074906394 0.099142373 1.3294193 10197915
0.12488277 0.099134289 1.3294352 10197915
0.17498824 0.099127471 1.3293436 10197915
0.2249493 0.099121064 1.329217 10197915
0.27490503 0.099115498 1.3290184 10197915
0.32471371 0.099107027 1.3290695 10197915
0.37493157 0.099101365 1.3288746 10197915
0.42527679 0.099093713 1.3288503 10197915
0.47520551 0.099086478 1.3287942 10197915
0.52498674 0.099081367 1.3285606 10197915
0.57490116 0.099073276 1.3285767 10197915
0.62494451 0.099065602 1.328555 10197915
0.67498153 0.099059597 1.328393 10197915
0.72501296 0.099052772 1.3283015 10197915
0.77475965 0.099046826 1.3281381 10197915
0.82477802 0.099039957 1.328051 10197915
0.87506109 0.09903229 1.3280267 10197915
0.92506444 0.099025466 1.327935 10197915
0.97505987 0.099017791 1.3279136 10197915
1.0241103 0.099001765 1.3286208 10197915
1.0588025 0.098840423 1.3418838 10197915
-1.1035857 0.098596223 1.3917518 10197915
-1.0708387 0.098790154 1.3748066 10197915
-1.025056 0.098827384 1.3710246 10197915
-0.97500765 0.098820582 1.3709273 10197915
-0.92510706 0.098816067 1.3706422 10197915
-0.8750723 0.098805659 1.3708557 10197915
-0.82504499 0.098801546 1.3705306 10197915
-0.77502114 0.098794706 1.3704362 10197915
-0.7250061 0.098785192 1.3705723 10197915
-0.67500103 0.098782063 1.3701702 10197915
-0.62499857 0.098774336 1.3701531 10197915
-0.57500476 0.098764844 1.3702893 10197915
-0.52662462 0.09873753 1.3719627 10197915
-0.4749234 0.098674655 1.3766201 10197915
-0.42489499 0.098665394 1.3767333 10197915
-0.37505996 0.098659866 1.3765335 10197915
-0.32504034 0.098651856 1.3765438 10197915
-0.27484185 0.098647453 1.3762416 10197915
-0.22483614 0.098639473 1.3762491 10197915
-0.17503043 0.098631449 1.3762599 10197915
-0.12523122 0.098625951 1.37606 10197915
-0.075056493 0.098619103 1.3759673 10197915
-0.024891591 0.098612309 1.37587 10197915
0.02488932 0.098605566 1.3757758 10197915
0.0750404 0.098598734 1.375683 10197915
0.12518747 0.098591939 1.3755857 10197915
0.17494556 0.098583944 1.3755972 10197915
0.22488758 0.0985796 1.3752944 10197915
0.27501133 0.098570347 1.375407 10197915
0.32493946 0.098564804 1.3752074 10197915
0.37505195 0.098557994 1.3751147 10197915
0.42515472 0.098551221 1.3750178 10197915
0.47506401 0.098543212 1.3750275 10197915
0.52515239 0.098538853 1.3747261 10197915
0.57523674 0.0985296 1.3748379 10197915
0.62512386 0.098524071 1.3746387 10197915
0.67519212 0.098517224 1.3745463 10197915
0.7252562 0.098510437 1.3744489 10197915
0.77531058 0.098503627 1.374356 10197915
0.82517141 0.098496869 1.3742591 10197915
0.8748346 0.098488897 1.37427 10197915
0.92486787 0.098484531 1.3739684 10197915
0.97489709 0.0984753 1.3740804 10197915
1.024919 0.098470941 1.3737791 10197915
1.0714356 0.098438904 1.3758807 10197915
1.1019632 0.098297186 1.3875307 10197915
-1.1169391 0.098132931 1.4313533 10197915
-1.074862 0.098171413 1.4275137 10197915
-1.0248163 0.098162606 1.4275882 10197915
-0.97492969 0.098159455 1.4271853 10197915
-0.92490041 0.098150626 1.4272627 10197915
-0.87502432 0.09814547 1.4270319 10197915
-0.82500935 0.098137662 1.4270231 5395026
-0.77499878 0.098131962 1.4268354 3684408
-0.72499835 0.098124154 1.4268267 5197647
-0.67485309 0.09811689 1.4267715 6776679
-0.62486613 0.098112188 1.4264978 9868950
-0.57503229 0.098101892 1.4267052 9935001
-0.5252049 0.098098755 1.4263021 10197915
-0.47523859 0.098089963 1.4263799 10197915
-0.42512798 0.09808369 1.4262381 10197915
-0.37517574 0.098078012 1.4260509 10197915
-0.32522702 0.098070227 1.4260421 10197915
-0.27513906 0.098062947 1.4259869 10197915
-0.22505879 0.098057732 1.4257574 10197915
-0.17498451 0.098049402 1.42579 10197915
-0.12491749 0.098043151 1.4256488 10197915
-0.075003758 0.098037466 1.4254614 10197915
-0.025099019 0.098029688 1.4254529 10197915
0.025096716 0.098022908 1.4253546 10197915
0.074987724 0.098017216 1.4251672 10197915
0.12487396 0.098009437 1.4251585 10197915
0.1750472 0.098001651 1.4251463 10197915
0.22506644 0.097997487 1.4248297 10197915
0.27493012 0.097988695 1.4249074 10197915
0.32493541 0.097982444 1.4247661 10197915
0.37508279 0.097975686 1.4246674 10197915
0.42492527 0.097970031 1.4244807 10197915
0.47476375 0.097962223 1.4244717 10197915
0.52488911 0.097954422 1.4244599 10197915
0.57500643 0.09794867 1.4242752 10197915
0.62497085 0.097943477 1.424045 10197915
0.67477965 0.097934686 1.424122 10197915
0.72487932 0.097929895 1.4238542 10197915
0.77526188 0.097921103 1.4239248 10197915
0.82520103 0.097915947 1.4236944 10197915
0.87498087 0.097908176 1.423686 10197915
0.9250524 0.097901449 1.4235878 10197915
0.97511506 0.097893611 1.4235755 10197915
1.0251703 0.097887903 1.4233913 10197915
1.0750736 0.097882703 1.4231611 10197915
1.1186243 0.097796649 1.429899 10197915
-1.165212 0.097519293 1.4842234 10197915
-1.1263273 0.097582079 1.4783578 10197915
-1.07504 0.097545095 1.4808122 10197915
-1.025071 0.097536884 1.4808403 10197915
-0.97490555 0.097531676 1.4806082 10197915
-0.9251582 0.097525008 1.4805074 10197915
-0.87520844 0.09751977 1.4802779 8289918
-0.82486171 0.097510003 1.480432 2039583
-0.7749263 0.097504854 1.4802005 2039583
-0.72520602 0.097498186 1.4800994 2039583
-0.67508024 0.097489946 1.4801273 2697513
-0.62496358 0.09748476 1.4798957 10132122
-0.57505804 0.097479552 1.4796655 3229017
-0.52495545 0.097469792 1.4798217 2045262
-0.47485927 0.097464606 1.4795897 4346725
-0.42497224 0.097457916 1.4794885 6450552
-0.37509269 0.09744969 1.4795176 8619916
-0.32502085 0.097446017 1.4791578 10066330
-0.27495065 0.097437784 1.4791827 10197915
-0.22488756 0.097429574 1.4792106 10197915
-0.1748322 0.097424366 1.4789786 10197915
-0.12498775 0.097419195 1.4787495 10197915
-0.074948654 0.097409442 1.4789056 10197915
-0.024913736 0.097404234 1.4786735 10197915
0.02491146 0.097397588 1.4785721 10197915
0.075134739 0.097390816 1.4784729 10197915
0.12515035 0.097384162 1.4783682 10197915
0.17495236 0.097375922 1.4783964 10197915
0.22495101 0.097370744 1.4781651 10197915
0.27494657 0.097365536 1.4779365 10197915
0.32513425 0.097355805 1.4780908 10197915
0.3751159 0.09735059 1.4778593 10197915
0.42508933 0.097342387 1.4778872 10197915
0.47505161 0.097338699 1.4775281 10197915
0.52480757 0.097330526 1.4775543 10197915
0.57476014 0.097322308 1.4775825 10197915
0.62490934 0.097318567 1.477224 10197915
0.67504972 0.097308837 1.4773781 10197915
0.7249822 0.097303674 1.4771466 10197915
0.77510911 0.097296886 1.4770477 10197915
0.82523215 0.097290203 1.4769423 10197915
0.87514275 0.097281992 1.4769704 10197915
0.92504454 0.097278334 1.4766114 10197915
0.97494221 0.097268619 1.4767673 10197915
1.0248308 0.097263448 1.476536 10197915
1.0749196 0.097256698 1.4764371 10197915
1.1249975 0.097250037 1.4763319 10197915
1.1641827 0.097181492 1.4816353 10197915
-1.2121964 0.096881941 1.539093 10197915
-1.1749907 0.096982785 1.5300113 10197915
-1.1248349 0.096976094 1.5299056 10197915
-1.0748996 0.096967779 1.5299418 10197915
-1.024974 0.09696278 1.5296954 10197915
-0.97505081 0.096956097 1.5295904 10197915
-0.92492616 0.096949413 1.5294851 10132122
-0.87480551 0.096942745 1.5293794 3618615
-0.82469505 0.096936025 1.5292742 2039583
-0.77458805 0.096929371 1.5291686 2039583
-0.72491151 0.096921071 1.5292064 2039583
-0.67503458 0.096916094 1.5289593 4671303
-0.62494808 0.096909419 1.5288538 8882830
-0.57487196 0.096902728 1.5287485 927555
-0.52479941 0.096896067 1.5286433 927812
-0.47473723 0.096889392 1.5285381 928582
-0.42467827 0.096882723 1.5284326 861506
-0.37462991 0.096876048 1.5283275 1058884
-0.3247954 0.096867733 1.5283648 1452358
-0.27497137 0.096862763 1.5281179 3424857
-0.22494358 0.096856102 1.5280125 5595247
-0.17491901 0.096849427 1.5279073 7567746
-0.12490506 0.096842766 1.5278019 9474708
-0.075105354 0.096836112 1.5276974 10197915
-0.025105098 0.096829444 1.5275925 10197915
0.025102779 0.096822746 1.5274867 10197915
0.075089261 0.096816085 1.5273815 10197915
0.1250724 0.096809424 1.5272765 10197915
0.17504516 0.096802749 1.5271711 10197915
0.22501449 0.09679611 1.5270661 10197915
0.27518374 0.096787736 1.527104 10197915
0.32534826 0.096782722 1.526855 10197915
0.37529686 0.096776038 1.5267498 10197915
0.42523515 0.096769392 1.5266453 10197915
0.47517014 0.096762754 1.5265399 10197915
0.52509463 0.096756078 1.5264348 10197915
0.57501578 0.09674941 1.5263293 10197915
0.62492645 0.096742764 1.5262251 10197915
0.67504454 0.096736066 1.5261191 10197915
0.7251507 0.096727714 1.5261573 10197915
0.77525401 0.0967227 1.5259087 10197915
0.82514054 0.096716061 1.5258036 10197915
0.87501699 0.0967094 1.5256988 10197915
0.92510068 0.09670274 1.5255932 10197915
0.97496319 0.096696086 1.5254884 10197915
1.0250311 0.096687756 1.5255249 10197915
1.0750932 0.096682742 1.5252776 10197915
1.1249353 0.096676096 1.5251728 10197915
1.1749845 0.096669421 1.5250678 10197915
1.2110801 0.096529029 1.5365293 10197915
-1.2542239 0.096377902 1.5825511 10197915
-1.223658 0.096472867 1.5740579 10197915
-1.174949 0.096473575 1.5733409 10197915
-1.1250038 0.096465588 1.5733485 10197915
-1.0750687 0.096460328 1.5731246 10197915
-1.0251383 0.09645234 1.5731325 10197915
-0.97521585 0.09644708 1.5729086 10197915
-0.9253 0.096439093 1.5729164 7697781
-0.87350631 0.096348099 1.5799634 2039583
-0.82495117 0.096323065 1.5814388 2039583
-0.774885 0.096312739 1.5816448 2039583
-0.72482067 0.096307956 1.5813797 2105376
-0.67476177 0.096299484 1.5814267 6842472
-0.62493241 0.096296586 1.5810022 5004138
-0.57510757 0.096286282 1.5812103 927555
-0.52507079 0.096281484 1.5809454 927812
-0.47504067 0.096276738 1.5806762 928325
-0.42502221 0.096266404 1.5808824 860994
-0.37478748 0.096261561 1.5806181 993092
-0.32477641 0.096253119 1.5806656 859966
-0.27499628 0.096250236 1.5802412 860480
-0.224999 0.096241727 1.5802922 926530
-0.17501271 0.096233256 1.5803398 860737
-0.12503043 0.096230358 1.5799162 992578
-0.075059071 0.096220024 1.5801224 2307150
-0.025091361 0.096215241 1.5798576 4280419
0.025089048 0.096208602 1.5797482 6187124
0.075043 0.096200138 1.5797956 8093831
0.12498683 0.096197218 1.5793723 9737623
0.17514499 0.096188702 1.5794219 10197915
0.225078 0.096180275 1.5794693 10197915
0.27500498 0.096175477 1.5792046 10197915
0.32514343 0.096170723 1.5789371 10197915
0.37505105 0.096160412 1.579143 10197915
0.42495766 0.096155614 1.5788785 10197915
0.4750759 0.09614896 1.5787693 10197915
0.52496707 0.096140519 1.5788163 10197915
0.57506728 0.096135706 1.5785515 10197915
0.62516475 0.096130945 1.5782826 10197915
0.67481625 0.096120685 1.5784905 10197915
0.72489983 0.096115842 1.5782257 10197915
0.77519053 0.096109211 1.5781164 10197915
0.82526058 0.09610258 1.5780075 10197915
0.87510419 0.096094131 1.5780545 10197915
0.92493844 0.096091203 1.5776322 10197915
0.97498608 0.09608274 1.5776815 10197915
1.0248088 0.096074283 1.5777291 10197915
1.0748434 0.096069492 1.5774647 10197915
1.1250859 0.096062854 1.5773551 10197915
1.175107 0.096056201 1.5772461 10197915
1.223842 0.096034288 1.5784564 10197915
1.258417 0.095868886 1.5920669 10197915
-1.3014565 0.095725276 1.6387213 10197915
-1.270088 0.095895439 1.6238214 10197915
-1.2250814 0.095938258 1.6195716 10197915
-1.1749054 0.095933579 1.6192932 10197915
-1.1247344 0.095926963 1.6191816 10197915
-1.0750225 0.095920458 1.6190662 10197915
-1.0250893 0.095913813 1.6189595 10197915
-0.97494233 0.095905207 1.6190158 10000536
-0.92502648 0.095900603 1.6187364 3487029
-0.87707847 0.095821209 1.6248474 2039583
-0.82522309 0.095776439 1.6279613 2039583
-0.77525562 0.095769823 1.6278528 2039583
-0.72496295 0.095761701 1.6278675 2500134
-0.67501062 0.09575513 1.6277556 8421504
-0.62506503 0.095748536 1.6276438 1716811
-0.57479537 0.095743425 1.627404 861763
-0.52486247 0.095736876 1.6272886 862020
-0.47527742 0.0957288 1.6273085 927556
-0.42502221 0.095723696 1.6270685 927299
-0.37477764 0.09571559 1.6270835 1058627
-0.32487327 0.095709011 1.6269717 794430
-0.27497575 0.095702432 1.6268597 926530
-0.22508979 0.095698886 1.62649 926786
-0.17520931 0.095689274 1.6266364 926787
-0.12533239 0.09568271 1.6265246 860480
-0.075125977 0.095677599 1.626285 992322
-0.024929287 0.095669486 1.6262999 1058628
0.024926996 0.095662907 1.6261883 1058885
0.075109869 0.095657803 1.6259488 1124934
0.12528856 0.095649689 1.6259634 1256776
0.17512421 0.095643133 1.6258521 3491932
0.22528358 0.095638022 1.6256124 6055795
0.27510661 0.095631503 1.6254973 8619915
0.32458243 0.095623456 1.6255174 10197915
0.37472722 0.09561833 1.6252779 10197915
0.42486104 0.095610216 1.6252925 10197915
0.47499314 0.09560509 1.625053 10197915
0.52511203 0.095597006 1.6250677 10197915
0.5748927 0.095590442 1.6249563 10197915
0.62500143 0.095585346 1.624717 10197915
0.67510223 0.095577255 1.6247318 10197915
0.72486246 0.095570691 1.6246206 10197915
0.77494788 0.095565587 1.6243815 10197915
0.82503057 0.095557503 1.6243964 10197915
0.87510335 0.095552385 1.624157 10197915
0.92517149 0.095544301 1.6241721 10197915
0.97523111 0.095539212 1.6239328 10197915
1.0252842 0.095531128 1.6239476 10197915
1.0749964 0.095524572 1.6238368 10197915
1.1250329 0.095519476 1.6235975 10197915
1.1750674 0.095511392 1.6236124 10197915
1.2250912 0.095506296 1.6233733 10197915
1.2714462 0.095478497 1.6251149 10197915
-1.3507547 0.095024437 1.6990225 10197915
-1.3197594 0.095192246 1.6843264 10197915
-1.2751806 0.095254101 1.6784632 10197915
-1.2250311 0.09525194 1.6779714 10197915
-1.1748967 0.095240943 1.6782317 10197915
-1.1249928 0.095236652 1.6779263 10197915
-1.0748695 0.095230021 1.6778152 10197915
-1.0247489 0.095223531 1.6776947 10197915
-0.97487056 0.095214747 1.67777 5789784
-0.92499727 0.095212661 1.6772768 2039583
-0.87513351 0.095201686 1.6775398 2039583
-0.82527453 0.095197394 1.6772344 2039583
-0.77518821 0.095190771 1.6771238 2039583
-0.72511327 0.095184274 1.6770034 3026478
-0.67504084 0.095177665 1.676893 6910330
-0.62497956 0.095171191 1.6767725 861762
-0.57515419 0.095162407 1.6768476 861762
-0.52510339 0.095160276 1.6763566 796227
-0.47506326 0.095149308 1.6766169 795714
-0.42502329 0.09514717 1.676126 927043
-0.37500027 0.095136203 1.6763861 927043
-0.32497343 0.095129646 1.6762705 794430
-0.2749618 0.095127523 1.6757796 927299
-0.22495161 0.095116563 1.6760396 992323
-0.17495035 0.095114417 1.675549 926530
-0.12495723 0.095103472 1.675809 860480
-0.074966513 0.095101327 1.6753184 992835
-0.024990484 0.095090382 1.6755782 1058628
0.024988186 0.09508384 1.675463 1124934
0.074950449 0.095081709 1.6749724 1059398
0.12491369 0.095070757 1.6752324 993092
0.17486556 0.095068634 1.674742 993349
0.22481172 0.095057681 1.6750017 993092
0.27498361 0.09505327 1.6747012 993092
0.32491413 0.095046788 1.6745811 1650762
0.37484199 0.095040202 1.6744707 3491932
0.4247587 0.095033705 1.6743504 5069674
0.47467279 0.095027104 1.6742401 6713466
0.52503949 0.095018357 1.6743073 8225416
0.57516754 0.095016181 1.6738181 9869208
0.62505841 0.095005237 1.6740782 10197915
0.67517316 0.095000856 1.6737777 10197915
0.72505283 0.094994381 1.6736577 10197915
0.77492148 0.094987802 1.6735479 10197915
0.82501918 0.094979063 1.673617 10197915
0.87487227 0.094976947 1.6731271 10197915
0.92495602 0.094968148 1.6732012 10197915
0.97502857 0.09495943 1.6732706 10197915
1.0248654 0.0949573 1.6727808 10197915
1.0749236 0.094946362 1.6730387 10197915
1.1252075 0.094941922 1.6727393 10197915
1.1750253 0.094935462 1.6726197 10197915
1.2248323 0.094928883 1.6725094 10197915
1.2750974 0.094922304 1.6723939 10197915
1.3180763 0.094830416 1.6796358 10197915
-0.56837118 -0.75968528 1.7197728 1974047
-0.52480477 -0.76034498 1.7226001 2039583
-0.47434992 -0.76107711 1.7258768 2039583
-0.4244138 -0.76180077 1.72912 2039583
-0.39263481 -0.76296061 1.7337271 2039583
-0.30546394 -0.75323868 1.7348783 2039583
-0.27530047 -0.75281119 1.7368478 2039583
-0.22537363 -0.75282109 1.7401013 2039583
-0.17538506 -0.75285149 1.7433574 2039583
-0.12517613 -0.75288212 1.7466284 2039583
-0.086759247 -0.75296342 1.7491305 2039583
-0.56877536 -0.72492063 1.7201548 1323082
-0.52540898 -0.72499162 1.7229767 1388360
-0.47489032 -0.72500372 1.726266 1519172
-0.42489892 -0.72499359 1.729521 1650242
-0.39285421 -0.72519261 1.7336088 1715777
-0.30551764 -0.72533458 1.7351834 2042938
-0.2755264 -0.72492254 1.7371424 2042936
-0.2255522 -0.72505224 1.740397 2042163
-0.17546801 -0.72499567 1.7436608 2107440
-0.12514582 -0.72501493 1.7469389 2172460
-0.089003742 -0.72674346 1.7492745 2106408
-0.56842917 -0.67485487 1.7207646 1323083
-0.52522391 -0.67511034 1.7235746 1256778
-0.47507864 -0.6749689 1.726841 1256521
-0.42504331 -0.67496079 1.730098 1520205
-0.39296123 -0.67514855 1.7339945 1585741
-0.30561435 -0.67522734 1.7357329 1914447
-0.27495861 -0.67498404 1.7377326 1979984
-0.22488111 -0.67489505 1.7409955 2111312
-0.17549323 -0.67511714 1.7442105 2308177
-0.12536125 -0.67506284 1.7474782 2571346
-0.093085051 -0.67747724 1.7495543 2768467
-0.56826484 -0.62515289 1.7213589 1454925
-0.52500695 -0.6250158 1.7241769 1454925
-0.47526354 -0.62490082 1.7274157 1520462
-0.42518049 -0.62493438 1.7306772 1586254
-0.39307055 -0.62520963 1.7344095 1651791
-0.30518523 -0.62443703 1.7363225 1914705
-0.27456671 -0.62514788 1.7383096 1914704
-0.22444829 -0.62505841 1.7415761 2111569
-0.17506847 -0.62505299 1.7447934 2308433
-0.12526071 -0.62499607 1.7480386 2571091
-0.097025119 -0.63175052 1.7498037 2636626
-0.5685491 -0.57500458 1.7219296 1455183
-0.5250051 -0.57503915 1.7247627 1520719
-0.47524381 -0.57497907 1.7280043 1652304
-0.42531464 -0.57491577 1.7312554 1718097
-0.3931421 -0.57518059 1.7348685 1849425
-0.30509615 -0.57493311 1.7368776 2177875
-0.27450415 -0.57505769 1.7388686 2177619
-0.22456934 -0.57508409 1.7421222 2177618
-0.17488994 -0.57495224 1.7453603 2308947
-0.12695447 -0.57573706 1.748474 2637141
-0.56885064 -0.52479696 1.7224988 1586511
-0.52460271 -0.5251385 1.7253754 1586511
-0.47479737 -0.52493411 1.7286203 1652047
-0.42499983 -0.52474207 1.7318639 1586511
-0.3928372 -0.5256325 1.735363 1652048
-0.30519277 -0.52472907 1.7374257 1783377
-0.27468577 -0.52514666 1.73941 1849170
-0.22448643 -0.52491277 1.7426822 2046034
-0.17495447 -0.52494842 1.7459097 2177619
-0.13141428 -0.52591509 1.7487357 2374740
-0.56895459 -0.47473714 1.7230808 1257804
-0.52480215 -0.475122 1.7259493 1323597
-0.47495577 -0.47496229 1.7291973 1389390
-0.42487299 -0.47492012 1.7324574 1454927
-0.39266586 -0.47499806 1.7358735 1520719
-0.30527136 -0.47458154 1.7379774 1586512
-0.27463523 -0.47503722 1.7399675 1651791
-0.22445373 -0.47487384 1.7432393 1717327
-0.17525463 -0.47508624 1.7464424 1914449
-0.13547701 -0.47609121 1.749023 2111827
-0.56875086 -0.42512116 1.723676 1059144
-0.52498811 -0.42509189 1.726526 1058887
-0.47511458 -0.42495719 1.7297736 1058887
-0.4250246 -0.42497972 1.7330339 1190729
-0.39275709 -0.42489961 1.7362533 1256778
-0.30540287 -0.42503676 1.7385167 1718097
-0.27463445 -0.42481419 1.7405245 1783890
-0.22484811 -0.42513788 1.7437646 1849170
-0.17508687 -0.42491093 1.7470086 1914962
-0.13986148 -0.42669713 1.7492841 1980498
-0.5686149 -0.37503004 1.7242724 1125450
-0.52517754 -0.37506819 1.7270995 1125193
-0.4752728 -0.37491855 1.7303512 1125450
-0.42521957 -0.3751063 1.7336071 1257036
-0.39283732 -0.37470865 1.7366897 1323085
-0.3053323 -0.37593761 1.7390654 1586512
-0.27474076 -0.37495118 1.7410697 1652305
-0.22473735 -0.37505585 1.744326 1783633
-0.17470945 -0.37485033 1.7475878 1849426
-0.14347173 -0.37846479 1.7495831 1915219
-0.56880391 -0.3251338 1.7248461 1191499
-0.5253579 -0.32507056 1.7276753 1191499
-0.47482479 -0.32476792 1.7309684 1191499
-0.42484829 -0.32537115 1.7342165 1191499
-0.39289537 -0.3247143 1.7371665 1191243
-0.30486435 -0.32504356 1.7396594 1323341
-0.27504987 -0.3251839 1.7416015 1323084
-0.2246305 -0.32487923 1.744889 1520206
-0.17462651 -0.32511955 1.7481441 1520206
-0.14687257 -0.33506641 1.7498419 1519950
-0.56831253 -0.27518624 1.7254647 1125962
-0.5248639 -0.27513099 1.7282933 1125962
-0.47488528 -0.27474827 1.7315522 1191499
-0.42475057 -0.27526495 1.7348099 1257035
-0.39310047 -0.27514246 1.7376285 1257548
-0.304961 -0.27468014 1.7402107 1323085
-0.27498138 -0.27498806 1.7421614 1323085
-0.22505744 -0.27509302 1.7454126 1388877
-0.17701219 -0.27581018 1.7485347 1454670
-0.56848198 -0.22524807 1.72604 1059657
-0.52507472 -0.22527084 1.7288646 1059913
-0.4750438 -0.22460786 1.7321301 1059657
-0.42489263 -0.22503035 1.7353902 1191755
-0.39316428 -0.22524154 1.7381297 1323597
-0.30505633 -0.22500509 1.7407546 1455183
-0.2748884 -0.22486195 1.7427224 1520719
-0.22494978 -0.22495627 1.7459751 1520976
-0.1815269 -0.22604685 1.7487916 1586768
-0.56867152 -0.17525098 1.7266145 1059913
-0.52526444 -0.17543769 1.7294379 1125449
-0.47504655 -0.17464946 1.7327167 1059400
-0.42503494 -0.17476231 1.735971 1125706
-0.39329165 -0.17495766 1.7386093 1191755
-0.30515182 -0.17529875 1.7413002 1323084
-0.27533436 -0.17510754 1.7432441 1389133
-0.22502041 -0.175101 1.7465223 1454670
-0.18561193 -0.17613807 1.7490789 1454926
-0.56886107 -0.12522051 1.7271894 993606
-0.52484632 -0.12528461 1.7300533 993863
-0.47500816 -0.1253071 1.7332985 993350
-0.42500448 -0.12474365 1.7365602 993863
-0.39338899 -0.12464481 1.739121 993607
-0.30524853 -0.12484042 1.7418524 1520718
-0.2752409 -0.12498038 1.7438056 1586510
-0.22509083 -0.12521444 1.7470707 1586511
-0.19000831 -0.12676571 1.7493386 1586511
-0.56859499 -0.075372078 1.7277913 993349
-0.5248248 -0.07528197 1.7306433 993349
-0.47481048 -0.075423539 1.7338974 993349
-0.42548972 -0.075136535 1.7371109 993606
-0.39349967 -0.074951582 1.7396085 1059143
-0.30534399 -0.075071573 1.742397 1323340
-0.275327 -0.075155795 1.744352 1323340
-0.22508705 -0.075211816 1.7476246 1323340
-0.19406557 -0.077953152 1.7496152 1323340
-0.56853926 -0.025060348 1.7283849 1191752
-0.52499986 -0.025101455 1.7312223 1191753
-0.47496897 -0.025148645 1.734477 1191497
-0.42545804 -0.025195379 1.7376993 1125961
-0.39361042 -0.02523037 1.7400962 1125961
-0.30543959 -0.025271464 1.7429427 1257804
-0.27541354 -0.025299836 1.7448992 1323340
-0.22534558 -0.025305515 1.7481608 1389132
-0.1977019 -0.035418272 1.7498492 1323852
-0.56872892 0.025071505 1.7289631 1125703
-0.52517456 0.025112614 1.7318001 1125960
-0.47512779 0.025159884 1.7350574 1125447
-0.42489114 0.025207315 1.7383287 1125703
-0.39301798 0.025240954 1.7406645 1257289
-0.30553657 0.025282161 1.7434968 1257034
-0.27550101 0.02531055 1.745453 1257290
-0.22811759 0.024321407 1.7485293 1257546
-1.3644953 0.094611898 1.7343155 10197915
-1.3247077 0.094648622 1.7306563 10197915
-1.2747873 0.094640292 1.7306937 10197915
-1.224872 0.094635621 1.7304186 10197915
-1.1749667 0.094627306 1.730456 10197915
-1.1250634 0.094622634 1.7301811 10197915
-1.0751735 0.094614297 1.7302185 10197915
-1.0249258 0.094607763 1.730099 9013641
-0.97504658 0.094603099 1.7298241 2039583
-0.92517382 0.094594769 1.7298616 2039583
-0.87494707 0.094588242 1.7297421 2039583
-0.8250916 0.094583586 1.729467 2039583
-0.77523637 0.094575286 1.7295047 2368548
-0.72503024 0.094568752 1.7293854 4737096
-0.6751985 0.094564095 1.7291105 3360347
-0.62500483 0.094557524 1.7289957 861763
-0.56914395 0.073591769 1.7291297 928069
-0.52514511 0.073051929 1.7319201 994374
-0.47526091 0.073312879 1.7350554 927300
-0.42504102 0.073408239 1.7382302 992836
-0.38943782 0.076742932 1.7385311 993092
-0.3104907 0.077819087 1.7401152 860994
-0.2755647 0.07370194 1.7448705 992836
-0.23135521 0.073352553 1.7471023 1124677
-0.17503619 0.094498977 1.7279253 794429
-0.12455753 0.09449061 1.7279568 992322
-0.07479997 0.094485998 1.7276824 1058628
-0.025052376 0.094477676 1.7277203 1124421
0.02505007 0.094471171 1.7276009 1058885
0.074783996 0.094466545 1.7273266 993349
0.12451428 0.09445823 1.7273644 993093
0.17495129 0.094453439 1.7270929 1059142
0.22538178 0.094445109 1.7271246 861250
0.27509099 0.094440468 1.7268499 992836
0.32479101 0.09443216 1.7268877 1059398
0.37484509 0.094425641 1.7267689 993605
0.42524558 0.094420865 1.7264967 993091
0.47528729 0.094414406 1.7263737 1059141
0.52495736 0.09440612 1.7264116 993348
0.57498378 0.094399601 1.7262923 1058884
0.62500364 0.094393112 1.7261734 2833748
0.67501432 0.094390206 1.7257469 5266283
0.72501343 0.094380088 1.7259357 7568002
0.77501243 0.094373584 1.7258165 9803415
0.8250047 0.094367087 1.7256975 10197915
0.87498969 0.094360583 1.7255787 10197915
0.92496216 0.094357692 1.7251524 10197915
0.9749307 0.094347581 1.7253408 10197915
1.0248951 0.094341077 1.725222 10197915
1.0748527 0.09433458 1.7251034 10197915
1.125155 0.094329819 1.7248323 10197915
1.1751002 0.094323359 1.7247089 10197915
1.2246757 0.094315082 1.7247468 10197915
1.2746058 0.094308592 1.724628 10197915
1.3248829 0.094303824 1.724357 10197915
1.3625968 0.094246596 1.7287198 10197915
-0.39194539 -0.80174029 1.7951988 2039583
-0.39075795 -0.77220583 1.7773743 1974307
-0.061477739 -0.75285649 1.7507786 2039583
-0.02481357 -0.75293684 1.7531666 2039583
0.024581153 -0.75295001 1.7563844 2039583
0.074994594 -0.75296563 1.7596688 2039583
0.12560613 -0.75299621 1.7629656 2039583
0.17574601 -0.75303108 1.7662324 2039583
0.22542855 -0.75307316 1.7694685 2039583
0.27533212 -0.75310308 1.7727194 2039583
0.32618555 -0.75313807 1.7760326 2039583
0.37626523 -0.75314695 1.779295 2039583
0.425035 -0.75314623 1.7824725 2039583
0.47469091 -0.75316471 1.7857072 2039583
0.52441651 -0.75320899 1.7889464 2039583
0.57413113 -0.75318503 1.7921859 2039583
0.62450767 -0.75320482 1.7954679 2039583
0.67201257 -0.75326067 1.7985624 2039583
-0.39059371 -0.7248441 1.7755232 1717326
-0.06378407 -0.72370487 1.7509511 2172201
-0.024711367 -0.72503579 1.753482 2105892
0.024669483 -0.72501922 1.7566992 2039584
0.074935809 -0.72503585 1.759974 2039583
0.12545724 -0.72494018 1.763267 2039583
0.17546283 -0.7250402 1.7665235 2039583
0.22496243 -0.72489125 1.7697495 2039583
0.27472603 -0.72499949 1.7729914 2039583
0.32529509 -0.72500414 1.776286 2039583
0.37528372 -0.72504282 1.7795419 2039583
0.42468891 -0.72505665 1.7827606 2039583
0.4749859 -0.72507054 1.7860373 2039583
0.52558959 -0.72499037 1.7893356 2039583
0.57565546 -0.72493625 1.7925979 2039583
0.62514228 -0.72500396 1.7958213 2039583
0.66948265 -0.72582048 1.7987013 2039583
-0.39053223 -0.67500538 1.7752833 1651534
-0.06822592 -0.67410851 1.7512112 2899796
-0.024770347 -0.67497468 1.754033 3031125
0.024842361 -0.67501473 1.7572644 3425624
0.074581183 -0.67503387 1.760505 3688278
0.12510382 -0.67499197 1.7637973 3819603
0.17491595 -0.67503047 1.7670416 3884879
0.2242856 -0.67492259 1.7702597 3884106
0.27475023 -0.67496306 1.7735473 3555141
0.32517758 -0.67512643 1.7768306 3225920
0.37518865 -0.67490906 1.7800913 2896698
0.42478925 -0.67509174 1.7833215 2567476
0.47451103 -0.67507726 1.7865608 2369839
0.52495754 -0.67500889 1.7898483 2237994
