# .PCD v0.7 - Point Cloud Data file format
VERSION 0.7
FIELDS x y z rgb
SIZE 4 4 4 4
TYPE F F F U
COUNT 1 1 1 1
WIDTH 1169
HEIGHT 1
VIEWPOINT 0 0 0 1 0 0 0
POINTS 1169
DATA ascii
-0.10357195 -0.12577115 3.5716114 2039583
-0.10360438 -0.075485766 3.5727282 2039583
-0.10363678 -0.025168922 3.5738466 2039583
-0.10366921 0.025179422 3.5749652 2039583
-1.9606066 0.090603836 3.5852077 6513507
-1.9247396 0.090663604 3.5875726 6513507
-1.8758887 0.090744995 3.5907938 6513507
-1.8255086 0.09082894 3.5941157 6513507
-1.7750361 0.090913042 3.5974433 6513507
-1.7432659 0.090966001 3.5995383 6513507
-1.0545993 0.092663549 3.550308 6513507
-1.0257145 0.092711978 3.5521626 6513507
-0.97509885 0.092796817 3.5554135 6513507
-0.92439151 0.092881806 3.5586703 6513507
-0.87504339 0.092964537 3.5618393 6513507
-0.8256073 0.093047403 3.5650141 6513507
-0.77608305 0.093130417 3.5681953 6513507
-0.72500944 0.093216039 3.5714755 6513507
-0.67384261 0.093301795 3.5747616 6513507
-0.62404704 0.093385279 3.5779593 5329233
-0.57416224 0.093468897 3.5811634 2039583
-0.52418816 0.093552671 3.5843732 2039583
-0.47412434 0.09363658 3.5875883 2039583
-0.42397061 0.093720652 3.5908101 2039583
-0.37372679 0.093804888 3.5940366 2039583
-0.33228382 0.093874343 3.596698 2039583
-0.10369978 0.072594613 3.5760186 2039583
-0.095516942 -1.6103581 3.6214969 6447714
-0.095919482 -1.575245 3.6178412 6447714
-0.095949888 -1.5247679 3.618988 6447714
-0.096014567 -1.4749987 3.6197131 6447714
-0.096009828 -1.42521 3.6212485 6447714
-0.096040279 -1.374638 3.6223974 6447714
-0.09603557 -1.3247643 3.6239355 6447714
-0.096134596 -1.2756448 3.6242392 6447714
-0.096129917 -1.2257092 3.6257787 6447714
-0.096160434 -1.1750103 3.6269298 6447714
-0.096225329 -1.125016 3.6276588 6447714
-0.096220672 -1.0750147 3.6292009 6447714
-0.096216001 -1.0249653 3.6307442 6447714
-0.096315295 -0.97563809 3.6310515 6447714
-0.096310675 -0.92552614 3.632596 6447714
-0.096341319 -0.87463647 3.6337516 6447714
-0.09637107 -0.8252126 3.6348736 6447714
-0.096400842 -0.77575785 3.6359973 6447714
-0.097581983 -0.72510785 3.623714 6447714
-0.097612962 -0.67427891 3.6248641 6447714
-0.097777404 -0.62351072 3.624454 6447714
-0.098808415 -0.57491058 3.6138639 6513507
-0.098804839 -0.52490622 3.6153927 6513507
-0.10001051 -0.46721265 3.603034 6513507
-0.098350771 -0.47987595 3.6220322 6513507
-0.10003648 -0.42552698 3.6039708 6513507
-0.097764447 -0.42565003 3.6304896 6513507
-0.10006806 -0.37488049 3.6051083 6513507
-0.097795531 -0.37463075 3.6316442 6513507
-0.10009966 -0.32420206 3.6062465 5592405
-0.097825736 -0.32508123 3.6327651 6513507
-0.10013034 -0.27498364 3.6073518 5395026
-0.09785594 -0.2755008 3.6338868 6513507
-0.10016106 -0.22573477 3.6084583 5395026
-0.097887084 -0.22438598 3.6350436 6513507
-0.10019272 -0.17496204 3.6095986 5395026
-0.097917333 -0.17474359 3.6361673 6513507
-0.10022438 -0.12415724 3.6107395 5395026
-0.097947598 -0.1250702 3.6372912 6513507
-0.10025515 -0.074816078 3.6118479 5000268
-0.097977877 -0.0753664 3.6384158 6513507
-0.10028594 -0.025444347 3.6129572 4276545
-0.098008193 -0.025631554 3.6395409 6513507
-0.10031767 0.025455074 3.6141005 4276545
-0.098039433 0.02564244 3.6407011 6513507
-1.7186866 0.091006942 3.6011591 6513507
-1.6752578 0.09107931 3.6040225 6513507
-1.6245067 0.091163889 3.6073692 6513507
-1.575115 0.091246188 3.6106255 6513507
-1.5256336 0.091328628 3.6138885 6513507
-1.4760628 0.09141124 3.617157 6513507
-1.42494 0.091496415 3.6205275 6513507
-1.3737226 0.091581762 3.6239045 6513507
-1.3238765 0.091664828 3.6271915 6513507
-1.2739401 0.091748044 3.6304841 6513507
-1.223913 0.091831394 3.6337831 6513507
-1.1737947 0.091914907 3.6370871 6513507
-1.1250637 0.091996111 3.6403005 6513507
-1.0762458 0.092077464 3.6435194 6513507
-1.0258585 0.092161417 3.646842 6513507
-0.98875326 0.092223249 3.6492882 6513507
-0.10034005 0.073382504 3.6149073 4276545
-0.085681066 0.084092617 3.6265445 6447714
-0.043434568 0.094358541 3.6152496 6447714
-0.091077559 -1.6216584 3.6729872 6447714
-0.091272928 -1.5745319 3.6721082 6447714
-0.091301419 -1.5248046 3.6732545 6447714
-0.091329925 -1.4750465 3.6744015 6447714
-0.091394655 -1.4245049 3.6751494 6447714
-0.091351666 -1.3746785 3.6771326 6447714
-0.091451779 -1.3248426 3.6774461 6447714
-0.091408774 -1.2749316 3.6794319 6447714
-0.091508955 -1.2250559 3.6797457 6447714
-0.091537587 -1.1750749 3.6808968 6447714
-0.091494545 -1.1251277 3.682884 6447714
-0.091594867 -1.0751008 3.6832006 6447714
-0.09155184 -1.0250683 3.6851904 6447714
-0.091818988 -0.97754586 3.6834848 6447714
-0.092828825 -0.92524344 3.6732509 6447714
-0.092857808 -0.87529761 3.6743982 6447714
-0.09288682 -0.82532102 3.6755462 6447714
-0.09291584 -0.77531278 3.6766944 6447714
-0.094148383 -0.72484285 3.6638067 6447714
-0.09410689 -0.6749773 3.6657746 6447714
-0.094207041 -0.62505251 3.6660895 6447714
-0.094165556 -0.57510221 3.6680593 6513507
-0.094265781 -0.52513784 3.668375 6513507
-0.094224297 -0.47510278 3.6703482 6513507
-0.094324581 -0.42509845 3.6706638 6513507
-0.094354048 -0.3749916 3.6718104 6513507
-0.094312534 -0.32492083 3.673784 6513507
-0.09441296 -0.27476463 3.674103 6513507
-0.094371438 -0.22460873 3.6760795 6513507
-0.094471954 -0.17441252 3.676399 6513507
-0.094465517 -0.12494454 3.6779454 6513507
-0.094495058 -0.074684657 3.6790953 6513507
-0.0945246 -0.024393683 3.6802461 6513507
-0.094553284 0.024403539 3.6813626 6513507
-2.012383 0.089947462 3.6798871 6513507
-1.9756032 0.090008348 3.6823783 6513507
-1.9255066 0.090091303 3.6857722 6513507
-1.8753181 0.090174414 3.6891725 6513507
-1.8250366 0.090257674 3.6925781 6513507
-1.7746626 0.090341076 3.6959906 6513507
-1.7331101 0.090409882 3.698806 6513507
-0.96349114 0.092265353 3.6509542 6513507
-0.92480767 0.0923298 3.6535048 6513507
-0.87414378 0.092414215 3.6568456 6513507
-0.82488161 0.092496306 3.6600935 6513507
-0.77553117 0.092578545 3.6633472 6513507
-0.72459364 0.09266343 3.6667066 6513507
-0.6750654 0.092745952 3.6699719 6513507
-0.62544799 0.092828631 3.6732438 4013373
-0.5742349 0.09291397 3.6766207 2039583
-0.52443832 0.092996955 3.679904 2039583
-0.47455183 0.093080088 3.6831932 2039583
-0.42457703 0.093163356 3.6864886 2039583
-0.37451178 0.093246773 3.6897898 2039583
-0.33652729 0.093310073 3.6922941 2039583
-0.09458109 0.071703941 3.6824448 6513507
-0.086033709 -1.6589431 3.7307599 6447714
-0.086457431 -1.6242502 3.726846 6447714
-0.086484008 -1.5753267 3.7279913 6447714
-0.086547852 -1.5255985 3.7287247 6447714
-0.086501569 -1.4751008 3.730767 6447714
-0.086602718 -1.4245466 3.7310891 6447714
-0.08659292 -1.3747367 3.7326851 6447714
-0.086619526 -1.3256595 3.7338338 6447714
-0.086647026 -1.2750168 3.7350187 6447714
-0.087620594 -1.2267284 3.72509 6447714
-0.087919518 -1.1753439 3.7231283 6447714
-0.087947339 -1.1247987 3.7243066 6447714
-0.087975159 -1.0742216 3.7254844 6447714
-0.088002145 -1.0251465 3.7266271 6447714
-0.088511989 -0.97214365 3.7222519 6447714
-0.089259207 -0.92495722 3.7149324 6447714
-0.089287385 -0.87444466 3.7161052 6447714
-0.089314766 -0.8254323 3.7172441 6447714
-0.089342967 -0.77485663 3.7184191 6447714
-0.089371212 -0.72424912 3.7195938 6447714
-0.089398593 -0.67514467 3.7207339 6447714
-0.089462936 -0.62524343 3.721467 6447714
-0.089454316 -0.57531422 3.7230523 6513507
-0.089445695 -0.52533633 3.7246399 6513507
-0.08954706 -0.47459677 3.7249653 6513507
-0.08953844 -0.42455629 3.7265539 6513507
-0.089565933 -0.37526777 3.7276986 6513507
-0.089630485 -0.32516718 3.7284355 6513507
-0.089621872 -0.27506307 3.7300265 6513507
-0.089613274 -0.2249102 3.7316177 6513507
-0.089677863 -0.17472149 3.7323565 6513507
-0.089742482 -0.1245186 3.7330952 6513507
-0.089733936 -0.074266121 3.7346895 6513507
-0.090097837 -0.028650386 3.7317984 6513507
-0.090998188 0.024678729 3.7228739 6513507
-1.7078503 0.090451695 3.7005165 6513507
-1.6751227 0.090505913 3.7027338 6513507
-1.6259614 0.090587296 3.7060642 6513507
-1.5752181 0.090671331 3.7095015 6513507
-1.5243808 0.090755515 3.7129455 6513507
-1.4749489 0.090837367 3.7162945 6513507
-1.4254265 0.090919353 3.7196486 6513507
-1.3743106 0.091003999 3.7231116 6513507
-1.3246073 0.091086291 3.7264783 6513507
-1.2748132 0.091168739 3.7298517 6513507
-1.2249297 0.091251343 3.7332311 6513507
-1.1749548 0.091334097 3.7366164 6513507
-1.1248902 0.091417007 3.7400081 6513507
-1.0747336 0.091500036 3.7434058 6513507
-1.0244869 0.091583252 3.7468092 6513507
-0.98941505 0.091641322 3.7491856 6513507
-0.080860332 0.08236108 3.7168834 6447714
-0.04305511 0.093799092 3.7116446 6447714
-0.081319451 -1.6713015 3.7854276 6447714
-0.08152242 -1.6242726 3.7844567 6447714
-0.082297795 -1.5784452 3.7767673 6447714
-0.082826659 -1.5252595 3.7721753 6447714
-0.082852446 -1.47571 3.7733495 6447714
-0.082878202 -1.4261293 3.774523 6447714
-0.082904816 -1.3749667 3.7757344 6447714
-0.082931407 -1.3237716 3.7769463 6447714
-0.082957216 -1.2740965 3.7781219 6447714
-0.084138125 -1.2229362 3.7658572 6447714
-0.084245935 -1.174827 3.7660289 6447714
-0.084272079 -1.1252493 3.7671976 6447714
-0.084298261 -1.0756404 3.7683678 6447714
-0.08436238 -1.0252272 3.7691188 6447714
-0.08435145 -0.97478372 3.7707458 6447714
-0.084377654 -0.92508125 3.7719164 6447714
-0.084403887 -0.87534833 3.7730894 6447714
-0.084430113 -0.82558453 3.7742631 6447714
-0.084456384 -0.77578956 3.7754366 6447714
-0.084482662 -0.72596353 3.776612 6447714
-0.084547006 -0.67532283 3.7773676 6447714
-0.084536098 -0.62466496 3.7790005 6447714
-0.084562458 -0.574745 3.7801776 6447714
-0.084588811 -0.52479374 3.7813556 6513507
-0.084615164 -0.47481152 3.7825344 6513507
-0.084641539 -0.42479798 3.7837143 6513507
-0.084667943 -0.37475336 3.784894 6513507
-0.085937902 -0.32500026 3.7715485 6513507
-0.085964628 -0.27508551 3.7727208 6513507
-0.08599136 -0.22513974 3.7738943 6513507
-0.0860181 -0.17516287 3.7750685 6513507
-0.086044893 -0.12515491 3.7762432 6513507
-0.086071663 -0.075115792 3.7774186 6513507
-0.086847782 -0.02073295 3.7699754 6513507
-0.087352745 0.024960905 3.765439 6513507
-2.0639505 0.089260444 3.7799134 6513507
-2.0246966 0.089325011 3.7826467 6513507
-1.9747943 0.089407064 3.7861226 6513507
-1.9248015 0.089489311 3.7896047 6513507
-1.8747152 0.089571677 3.793093 6513507
-1.8245382 0.089654222 3.7965877 6513507
-1.78799 0.089714333 3.7991333 6513507
-0.96498829 0.091681771 3.7508402 6513507
-0.92524678 0.091747575 3.7535324 6513507
-0.87472761 0.091831222 3.7569544 6513507
-0.82565087 0.091912493 3.7602792 6513507
-0.77494889 0.091996446 3.7637136 6513507
-0.72415531 0.092080548 3.7671545 6513507
-0.67481148 0.092162251 3.7704976 6513507
-0.62538004 0.092244096 3.7738461 2434341
-0.5758608 0.092326097 3.7772009 2039583
-0.52625334 0.09240824 3.780561 2039583
-0.47500274 0.092493102 3.7840328 2039583
-0.42365888 0.092578121 3.7875111 2039583
-0.37378016 0.092660703 3.7908902 2039583
-0.3410022 0.09271498 3.7931106 2039583
-0.087378152 0.071780778 3.7665346 6513507
-0.077685021 -1.7058997 3.8268268 6447714
-0.077700339 -1.6745201 3.8275812 6447714
-0.077724859 -1.6242894 3.8287895 6447714
-0.078841619 -1.5715171 3.8173218 6447714
-0.07904692 -1.5241177 3.816334 6447714
-0.079112507 -1.474767 3.8170369 6447714
-0.0790959 -1.4253993 3.8186986 6447714
-0.0791208 -1.3752065 3.819901 6447714
-0.079145707 -1.3249826 3.8211038 6447714
-0.079170644 -1.274727 3.8223071 6447714
-0.079195589 -1.2244395 3.8235116 6447714
-0.079220556 -1.1741203 3.8247168 6447714
-0.079286322 -1.1245462 3.8254235 6447714
-0.079269744 -1.0749677 3.827091 6447714
-0.079294756 -1.0245543 3.8282986 6447714
-0.079278156 -0.97488898 3.8299689 6447714
-0.079344019 -0.92520356 3.8306787 6447714
-0.079409912 -0.87550586 3.8313873 6447714
-0.079393342 -0.82574129 3.8330588 6447714
-0.079418428 -0.77517056 3.8342698 6447714
-0.080437392 -0.72731334 3.823797 6447714
-0.080748335 -0.67448473 3.8217385 6447714
-0.080773763 -0.62401557 3.8229427 6447714
-0.080798417 -0.57509357 3.8241103 6447714
-0.080823109 -0.52614129 3.8252771 6513507
-0.080848582 -0.47557861 3.8264832 6513507
-0.080874085 -0.4249841 3.8276908 6513507
-0.080899611 -0.37435764 3.8288984 6513507
-0.082228333 -0.32480377 3.8148601 6513507
-0.082213037 -0.27511653 3.8165164 6513507
-0.082238883 -0.22459079 3.8177173 6513507
-0.082223594 -0.17481671 3.819376 6513507
-0.08228986 -0.12501913 3.8200836 6513507
-0.082356162 -0.075209357 3.820791 6513507
-0.082340889 -0.025336213 3.8224518 6513507
-0.082366832 0.025346847 3.8236563 6513507
-1.7635953 0.089754455 3.8008327 6513507
-1.725432 0.089817226 3.8034906 6513507
-1.6749791 0.089900203 3.8070049 6513507
-1.6259652 0.089980811 3.8104181 6513507
-1.5753276 0.090064101 3.8139451 6513507
-1.5245966 0.090147533 3.8174787 6513507
-1.4753131 0.09022861 3.8209116 6513507
-1.4259405 0.090309806 3.8243504 6513507
-1.3749316 0.090393715 3.8279028 6513507
-1.3238287 0.09047775 3.8314621 6513507
-1.2741829 0.090559401 3.8349199 6513507
-1.2244477 0.090641201 3.8383839 6513507
-1.1746223 0.090723157 3.8418548 6513507
-1.1247069 0.090805262 3.8453312 6513507
-1.0793942 0.09087979 3.8484876 6513507
-0.078082301 0.077804901 3.820842 6447714
-0.044233315 0.093206368 3.8132143 6447714
-0.073521569 -1.7171303 3.8750978 6447714
-0.073803447 -1.675135 3.8730559 6447714
-0.073827021 -1.6243072 3.8742926 6447714
-0.073849849 -1.5750374 3.8754914 6447714
-0.073872708 -1.5257366 3.8766906 6447714
-0.073896319 -1.4748135 3.8779297 6447714
-0.073961981 -1.4246573 3.8786547 6447714
-0.07394284 -1.3744701 3.8803706 6447714
-0.073965743 -1.3250453 3.8815732 6447714
-0.073988684 -1.2755895 3.8827765 6447714
-0.074012369 -1.2245067 3.8840191 6447714
-0.075351931 -1.1751684 3.8698499 6447714
-0.075375222 -1.1258157 3.8710458 6447714
-0.075399272 -1.0748392 3.8722808 6447714
-0.075422578 -1.0254248 3.8734787 6447714
-0.075445913 -0.9759798 3.8746769 6447714
-0.075470015 -0.92490768 3.8759141 6447714
-0.075493366 -0.87540066 3.8771136 6447714
-0.075516731 -0.82586247 3.8783138 6447714
-0.07554087 -0.77469432 3.8795538 6447714
-0.07682012 -0.72313571 3.8661501 6447714
-0.076845966 -0.67522454 3.867274 6447714
-0.076912045 -0.62494749 3.8679981 6447714
-0.076978132 -0.57465816 3.8687212 6447714
-0.076917976 -0.52511245 3.8708975 6513507
-0.077025704 -0.47558045 3.8711135 6513507
-0.077007912 -0.42517501 3.8728197 6513507
-0.07707414 -0.37473387 3.8735464 6513507
-0.07701391 -0.32511714 3.8757257 6513507
-0.077121846 -0.2754088 3.8759441 6513507
-0.077104039 -0.22490382 3.8776536 6513507
-0.077086233 -0.17434809 3.8793652 6513507
-0.077194273 -0.12458453 3.8795838 6513507
-0.077133998 -0.074749559 3.8817692 6513507
-0.077242106 -0.024949547 3.881988 6513507
-0.077266105 0.024959868 3.883193 6513507
-2.1184037 0.088535212 3.8855352 6513507
-2.0749896 0.088606097 3.8886468 6513507
-2.0252905 0.088687263 3.8922088 6513507
-1.9755003 0.088768572 3.8957775 6513507
-1.9334205 0.088837288 3.8987925 6513507
-1.054364 0.090920955 3.8502309 6513507
-1.0246044 0.090969905 3.8523033 6513507
-0.97441709 0.09105245 3.8557987 6513507
-0.92413849 0.091135144 3.8593006 6513507
-0.87376857 0.091217987 3.8628092 6513507
-0.82488543 0.091298379 3.866214 6513507
-0.7759155 0.091378942 3.8696249 6513507
-0.72527552 0.09146221 3.8731515 6513507
-0.67454302 0.091545671 3.8766851 5197647
-0.62530822 0.091626644 3.8801143 2039583
-0.57598519 0.091707766 3.8835499 2039583
-0.52497995 0.09179166 3.8871021 2039583
-0.47547996 0.091873065 3.8905497 2039583
-0.42589122 0.091954634 3.8940039 2039583
-0.37461087 0.092038982 3.8975754 2039583
-0.34572813 0.092086479 3.8995869 2039583
-0.077725753 0.067726828 3.8790987 6513507
-0.067530327 -1.7575088 3.9438393 6447714
1.5060937 -1.7603821 3.9497807 2894892
-0.068783976 -1.729514 3.9300373 6447714
1.5071119 -1.7280238 3.9498763 2894892
-0.069823503 -1.6757627 3.9195008 6447714
-0.069846056 -1.6243255 3.9207671 6447714
-0.069867924 -1.5744642 3.9219947 6447714
-0.069889799 -1.5245714 3.9232228 6447714
-0.069911703 -1.4746478 3.9244516 6447714
-0.069933608 -1.4246925 3.9256818 6447714
-0.069955543 -1.3747065 3.9269128 6447714
-0.069977477 -1.3246884 3.9281437 6447714
-0.069999427 -1.2746392 3.9293759 6447714
-0.070021383 -1.2245586 3.9306087 6447714
-0.07138104 -1.1746285 3.9162209 6447714
-0.071403362 -1.124684 3.9174452 6447714
-0.071425699 -1.0747091 3.9186716 6447714
-0.071490899 -1.0255113 3.9193738 6447714
-0.071426868 -0.97546947 3.9216101 6447714
-0.071535654 -0.92541808 3.9218287 6447714
-0.071515225 -0.87450081 3.9235816 6447714
-0.071537614 -0.82436901 3.9248106 6447714
-0.071602955 -0.774997 3.9255161 6447714
-0.071538828 -0.7248379 3.9277563 6447714
-0.071647838 -0.67458951 3.927978 6447714
-0.071626648 -0.62515396 3.9296954 6447714
-0.071605437 -0.57566887 3.9314132 6447714
-0.07171455 -0.52536535 3.9316356 6447714
-0.071693368 -0.4758186 3.9333558 6447714
-0.072418056 -0.42967623 3.9262683 6513507
-0.073082827 -0.37515727 3.92013 6513507
-0.073105708 -0.32491285 3.9213569 6513507
-0.073128596 -0.27463728 3.9225848 6513507
-0.073150769 -0.22595334 3.9237738 6513507
-0.073173687 -0.17561544 3.9250033 6513507
-0.073196627 -0.12524633 3.926234 6513507
-0.073219568 -0.074845277 3.927465 6513507
-0.073242538 -0.024412951 3.9286966 6513507
-0.073264785 0.024422823 3.929889 6513507
-1.9084539 0.08887805 3.9005821 6513507
-1.875645 0.088931635 3.9029331 6513507
-1.8255796 0.089013383 3.9065213 6513507
-1.7754223 0.089095294 3.9101164 6513507
-1.7251726 0.089177355 3.913718 6513507
-1.6748301 0.089259557 3.9173255 6513507
-1.6243944 0.089341924 3.9209402 6513507
-1.5738662 0.089424446 3.9245617 6513507
-1.5248282 0.089504518 3.928076 6513507
-1.4757011 0.089584745 3.9315972 6513507
-1.4248973 0.089667708 3.9352379 6513507
-1.3739996 0.089750826 3.9388859 6513507
-1.3246026 0.089831486 3.9424257 6513507
-1.275116 0.089912318 3.9459727 6513507
-1.2335451 0.089980192 3.9489512 6513507
-0.070823431 0.079212032 3.9193189 6447714
-0.04385497 0.092582993 3.9206126 6447714
-0.064323023 -1.7647594 3.9810669 6447714
0.93483591 -1.7697084 3.9986727 2894892
0.97447574 -1.768935 3.9952812 2894892
1.0251046 -1.7674884 3.9909515 2894892
1.0752038 -1.76724 3.9866617 2894892
1.1247007 -1.7657435 3.9824266 2894892
1.1750809 -1.7650993 3.9781156 2894892
1.2241205 -1.7639103 3.9739194 2894892
1.2745302 -1.7629675 3.9696054 2894892
1.3233434 -1.762194 3.9654279 2894892
1.3751485 -1.7607872 3.9609973 2894892
1.4260874 -1.7604862 3.9566345 2894892
1.4745194 -1.7590249 3.9524934 2894892
1.5012383 -1.7581729 3.9502094 2894892
-0.065217465 -1.7195873 3.9719682 6447714
0.93641061 -1.7251294 3.9987891 2894892
0.97487199 -1.7251316 3.9954927 2894892
1.0251658 -1.724601 3.9911873 2894892
1.0749149 -1.7254862 3.9869194 2894892
1.1255772 -1.7246168 3.9825842 2894892
1.1749609 -1.7254142 3.9783471 2894892
1.2252376 -1.724623 3.9740469 2894892
1.2745962 -1.7252338 3.9698143 2894892
1.3242078 -1.72493 3.965564 2894892
1.3752166 -1.7247703 3.9611948 2894892
1.424937 -1.7256997 3.9569309 2894892
1.474839 -1.7243854 3.952661 2894892
1.5026464 -1.7235811 3.9502838 2894892
-0.065736562 -1.6747804 3.9672406 6447714
0.93809438 -1.6755586 3.9989228 2894892
0.97516656 -1.6747143 3.9957528 2894892
1.0252357 -1.6751112 3.9914596 2894892
1.075341 -1.6749612 3.9871683 2894892
1.1253364 -1.6748124 3.9828849 2894892
1.1750166 -1.6753143 3.9786282 2894892
1.2251093 -1.6746202 3.9743378 2894892
1.2743362 -1.6754495 3.9701164 2894892
1.3245689 -1.6746379 3.9658179 2894892
1.3750542 -1.6753373 3.9614868 2894892
1.4250506 -1.6746421 3.9572074 2894892
1.4738153 -1.6752489 3.9530268 2894892
1.504054 -1.6742626 3.9504416 2894892
-0.065801509 -1.6251342 3.9679589 6447714
0.93977726 -1.6260052 3.9990594 2894892
0.97534865 -1.6243968 3.9960201 2894892
1.0252059 -1.6255072 3.9917421 2894892
1.075767 -1.6244303 3.9874179 2894892
1.1254143 -1.6254215 3.9831579 2894892
1.1755173 -1.6247842 3.9788687 2894892
1.2250928 -1.62523 3.9746175 2894892
1.2748698 -1.6249191 3.9703526 2894892
1.324345 -1.6250396 3.9661152 2894892
1.3753031 -1.6250901 3.9617491 2894892
1.4247651 -1.6247939 3.9575129 2894892
1.4737306 -1.6252013 3.9533155 2894892
1.5041559 -1.6252742 3.9507079 2894892
-0.065733425 -1.5747126 3.9702532 6447714
0.9413597 -1.5763233 3.9992034 2894892
0.97515976 -1.5745009 3.9963179 2894892
1.0251114 -1.5754825 3.9920318 2894892
1.0754905 -1.5744182 3.9877207 2894892
1.1251299 -1.575498 3.9834638 2894892
1.1755741 -1.5745616 3.979147 2894892
1.2248172 -1.5754145 3.9749212 2894892
1.2751149 -1.5745913 3.9706173 2894892
1.3241218 -1.5754337 3.966414 2894892
1.3758595 -1.5746423 3.9619858 2894892
1.4246109 -1.5753787 3.9578052 2894892
1.4745072 -1.5746623 3.9535336 2894892
1.504261 -1.5746454 3.9509842 2894892
-0.065798394 -1.5250041 3.9709733 6447714
0.94303924 -1.5268131 3.9993384 2894892
0.97522646 -1.5249367 3.9965904 2894892
1.0254155 -1.52505 3.9922898 2894892
1.0755637 -1.5249602 3.9879937 2894892
1.1255701 -1.5249721 3.9837115 2894892
1.1754705 -1.5249842 3.9794335 2894892
1.2252628 -1.5249963 3.9751658 2894892
1.274948 -1.5250084 3.9709117 2894892
1.324528 -1.5250206 3.9666638 2894892
1.3755968 -1.5249795 3.9622881 2894892
1.4249616 -1.5249912 3.9580584 2894892
1.4742206 -1.5250037 3.9538383 2894892
1.5042168 -1.525002 3.951268 2894892
-0.065863408 -1.4752845 3.9716926 6447714
0.94471377 -1.4773749 3.9994733 2894892
0.9752934 -1.4753652 3.9968653 2894892
1.0258174 -1.4745114 3.9925416 2894892
1.0756376 -1.4754959 3.9882677 2894892
1.1260107 -1.4744405 3.9839559 2894892
1.1754509 -1.4755127 3.9797142 2894892
1.2257082 -1.4745727 3.975415 2894892
1.2748526 -1.4755299 3.9711974 2894892
1.3249348 -1.4746003 3.9669135 2894892
1.3753766 -1.4754144 3.9625869 2894892
1.4253122 -1.4745982 3.9583137 2894892
1.4739342 -1.4753367 3.9541433 2894892
1.5028826 -1.4750513 3.9516642 2894892
-0.065795295 -1.4247286 3.9739909 6447714
0.94644266 -1.4268193 3.9996102 2894892
0.97525978 -1.4256731 3.9971464 2894892
1.0256919 -1.4243619 3.9928336 2894892
1.0754011 -1.4255726 3.9885685 2894892
1.1257267 -1.4244953 3.9842634 2894892
1.1753397 -1.4253719 3.9800069 2894892
1.2254317 -1.4247353 3.9757178 2894892
1.2749599 -1.4251764 3.9714735 2894892
1.3247112 -1.4249734 3.9672103 2894892
1.3758441 -1.4249421 3.9628303 2894892
1.4251575 -1.4251623 3.9586046 2894892
1.4748056 -1.4246793 3.954354 2894892
1.5029845 -1.4260339 3.9519315 2894892
-0.065860346 -1.3749462 3.9747124 6447714
0.94808728 -1.3764983 3.999753 2894892
0.97517294 -1.3755311 3.9974382 2894892
1.025661 -1.3747234 3.9931176 2894892
1.0757161 -1.3751137 3.9888256 2894892
1.1256 -1.3752558 3.9845514 2894892
1.1757009 -1.3745155 3.9802623 2894892
1.2255156 -1.375416 3.9759877 2894892
1.2755628 -1.3745062 3.9717073 2894892
1.3245456 -1.3754433 3.9675045 2894892
1.3761379 -1.3745613 3.9630899 2894892
1.4248841 -1.3753862 3.9589088 2894892
1.4745263 -1.3745905 3.9546602 2894892
1.5030895 -1.3753759 3.9522076 2894892
-0.065925434 -1.3251522 3.9754333 6447714
0.94952393 -1.3290018 3.9998977 2894892
0.97546744 -1.3250656 3.9976966 2894892
1.0247853 -1.3255972 3.9934678 2894892
1.0752561 -1.3240688 3.9891524 2894892
1.1242688 -1.325684 3.9849432 2894892
1.1743728 -1.3244765 3.9806581 2894892
1.2252088 -1.3254597 3.9762945 2894892
1.2753018 -1.3246728 3.9720092 2894892
1.3247911 -1.3251003 3.9677684 2894892
1.3759761 -1.3250787 3.963382 2894892
1.4257232 -1.3246641 3.9591231 2894892
1.4745286 -1.3254225 3.954937 2894892
1.5031948 -1.3247107 3.9524846 2894892
-0.06590151 -1.2753022 3.9771955 6447714
0.97614992 -1.2747531 3.9979219 2894892
1.0241834 -1.2756841 3.9938018 2894892
1.0743203 -1.2743146 3.9895122 2894892
1.1239698 -1.2755693 3.9852543 2894892
1.1742671 -1.2748762 3.9809473 2894892
1.2258224 -1.2748092 3.9765325 2894892
1.2753878 -1.2753924 3.972281 2894892
1.325345 -1.2745564 3.9680057 2894892
1.375249 -1.2758321 3.963722 2894892
1.4249014 -1.274206 3.9594777 2894892
1.474475 -1.2752255 3.955224 2894892
1.5032966 -1.2756728 3.9527524 2894892
-0.065966666 -1.2254059 3.9779186 6447714
0.97766006 -1.2244602 3.9980762 2894892
1.0239428 -1.2256771 3.9941022 2894892
1.0743936 -1.2248137 3.9897866 2894892
1.1246198 -1.2247169 3.9854846 2894892
1.1743469 -1.2254823 3.9812193 2894892
1.2260289 -1.2244469 3.9767983 2894892
1.2751273 -1.2255439 3.9725833 2894892
1.3250775 -1.2247964 3.9683084 2894892
1.3747754 -1.2248098 3.9640508 2894892
1.4239593 -1.225462 3.9598322 2894892
1.4751872 -1.2246392 3.9554484 2894892
1.5034019 -1.2249937 3.9530292 2894892
-0.065898471 -1.1747319 3.9802217 6447714
0.97924858 -1.1747087 3.9982204 2894892
1.0242552 -1.1751348 3.9943619 2894892
1.0744672 -1.1753069 3.9900594 2894892
1.1246884 -1.1742734 3.9857619 2894892
1.1740671 -1.1755527 3.9815226 2894892
1.2258556 -1.1747822 3.9770906 2894892
1.2758119 -1.1747413 3.9728131 2894892
1.3251674 -1.1755557 3.9685783 2894892
1.3747672 -1.1744152 3.9643352 2894892
1.4236547 -1.1753891 3.9601405 2894892
1.474932 -1.1750333 3.95575 2894892
1.503507 -1.1743072 3.9533052 2894892
-0.065963641 -1.1247729 3.9809465 6447714
0.98093688 -1.1250803 3.9983554 2894892
1.0247754 -1.1243759 3.9946034 2894892
1.0745407 -1.1257926 3.9903314 2894892
1.1245806 -1.1245846 3.9860518 2894892
1.1745565 -1.1249255 3.9817688 2894892
1.2248913 -1.1258119 3.9774501 2894892
1.2746631 -1.1240122 3.9731944 2894892
1.3248547 -1.1253687 3.9688873 2894892
1.3747619 -1.1251061 3.9646137 2894892
1.4245629 -1.1246406 3.9603493 2894892
1.4746774 -1.1254194 3.9560504 2894892
1.5036087 -1.1252495 3.9535735 2894892
-0.066028878 -1.0748025 3.9816718 6447714
0.98252374 -1.0753524 3.9984992 2894892
1.0244682 -1.074124 3.9949136 2894892
1.0742205 -1.0756367 3.9906411 2894892
1.1246578 -1.0751175 3.9863229 2894892
1.174908 -1.0743893 3.9820213 2894892
1.2241093 -1.0756534 3.9777973 2894892
1.2741386 -1.0749556 3.9735172 2894892
1.3257605 -1.0745052 3.9690964 2894892
1.3746032 -1.0755653 3.9649057 2894892
1.4242555 -1.0747581 3.9606559 2894892
1.4754854 -1.0747164 3.9562676 2894892
1.5036612 -1.0753417 3.95385 2894892
-0.066103108 -1.0262841 3.9822469 6447714
0.98421198 -1.0257176 3.9986351 2894892
1.0245383 -1.0245422 3.9951859 2894892
1.0748283 -1.0247886 3.990876 2894892
1.1247348 -1.0256424 3.9865956 2894892
1.1746733 -1.0245434 3.9823215 2894892
1.224627 -1.0248783 3.9780424 2894892
1.2742261 -1.02564 3.9737868 2894892
1.325444 -1.0245088 3.9694054 2894892
1.3751004 -1.0248442 3.9651499 2894892
1.4243523 -1.0256022 3.9609253 2894892
1.4752395 -1.024475 3.9565718 2894892
1.5038687 -1.024685 3.9541171 2894892
-0.067408726 -0.97495908 3.9685314 6447714
0.98589998 -0.97608602 3.9987688 2894892
1.0246084 -0.97495413 3.99546 2894892
1.0750242 -0.97422773 3.9911437 2894892
1.1245019 -0.97570652 3.9868975 2894892
1.1747533 -0.975115 3.9825945 2894892
1.2247732 -0.97429901 3.9783144 2894892
1.2738997 -0.9754774 3.9740961 2894892
1.3255337 -0.97524089 3.9696755 2894892
1.3751465 -0.97431427 3.96543 2894892
1.4241018 -0.97529763 3.96123 2894892
1.4753397 -0.97536629 3.95684 2894892
1.5039213 -0.97476333 3.9543946 2894892
-0.067429401 -0.92591947 3.9697487 6447714
0.98758757 -0.92645931 3.9989045 2894892
1.0246787 -0.92535955 3.995733 2894892
1.0748391 -0.92436546 3.9914403 2894892
1.1249461 -0.92491567 3.9871454 2894892
1.1748335 -0.92567992 3.9828653 2894892
1.2246728 -0.9246887 3.9786 2894892
1.2748169 -0.92453998 3.9743068 2894892
1.3253684 -0.92564672 3.9699702 2894892
1.3751409 -0.92497826 3.9657104 2894892
1.424908 -0.92452008 3.9614477 2894892
1.47504 -0.92531168 3.9571476 2894892
1.504023 -0.92567825 3.9546626 2894892
-0.067450784 -0.87521362 3.9710081 6447714
0.9890635 -0.89297438 3.9989672 2894892
1.0247253 -0.8922928 3.9959159 2894892
1.0748882 -0.89133424 3.9916241 2894892
1.125688 -0.89074391 3.9872735 2894892
1.1738161 -0.89164108 3.9831438 2894892
1.2247281 -0.89176369 3.9787817 2894892
1.2744626 -0.89081001 3.9745269 2894892
1.3263586 -0.89119238 3.970078 2894892
1.3741798 -0.89112473 3.965982 2894892
1.424616 -0.89120895 3.9616597 2894892
1.4766618 -0.89099693 3.9572017 2894892
1.5040942 -0.89131522 3.9548495 2894892
-0.067472182 -0.82447582 3.9722674 6447714
-0.067492887 -0.77534384 3.9734867 6447714
-0.067513607 -0.72618181 3.9747069 6447714
-0.067535043 -0.67534906 3.9759681 6447714
-0.067556478 -0.6244843 3.9772303 6447714
-0.067577243 -0.57522935 3.9784529 6447714
-0.067598015 -0.52594429 3.9796753 6447714
-0.067619488 -0.47498429 3.9809403 6447714
-0.068797857 -0.42117861 3.9687843 6447714
-0.069027916 -0.37475097 3.967479 6447714
-0.069049075 -0.32554039 3.9686949 6447714
-0.069114707 -0.2754727 3.9694183 6447714
-0.069092162 -0.22539231 3.9711709 6447714
-0.069069587 -0.17526095 3.9729254 6447714
-0.069179766 -0.12429719 3.9731545 6447714
-0.06915722 -0.074102849 3.9749103 6447714
-0.069178455 -0.024707697 3.9761317 6447714
-0.069199711 0.024717808 3.9773531 6447714
-2.1743906 0.087770678 3.9973409 6513507
-2.1441267 0.087819725 3.9995747 6513507
-1.209533 0.090019397 3.9506726 6513507
-1.175876 0.090074375 3.9530849 6513507
-1.1245151 0.090158239 3.9567654 6513507
-1.0746686 0.090239652 3.9603384 6513507
-1.0247309 0.090321183 3.9639173 6513507
-0.97470379 0.090402879 3.9675026 6513507
-0.92458528 0.090484723 3.9710944 6513507
-0.87437695 0.090566725 3.9746928 6513507
-0.825701 0.090646222 3.9781811 6513507
-0.77531213 0.090728499 3.9817927 6513507
-0.72483259 0.090810917 3.9854097 6513507
-0.67589384 0.090890855 3.9889176 3618615
-0.62523258 0.090973578 3.9925485 2039583
-0.57447982 0.091056466 3.9961855 2039583
-0.53512585 0.09112072 3.9990056 2039583
-0.069219559 0.070875376 3.9784949 6447714
-0.058665946 -1.8052349 4.0459046 6447714
0.33999959 -1.805691 4.0494337 11711154
0.37383974 -1.8055162 4.046535 11711154
0.42161146 -1.8041124 4.0424504 11711154
0.4750824 -1.8033245 4.0378737 11711154
0.52223647 -1.8023579 4.0338392 11711154
0.57589358 -1.8011419 4.0292482 11711154
0.60391629 -1.8000712 4.0268536 11711154
-0.060050465 -1.7739979 4.0306692 6447714
0.34226307 -1.7753507 4.0494103 11711154
0.37385541 -1.7754139 4.0467038 11711154
0.42367342 -1.7747687 4.042439 11711154
0.4751009 -1.7749557 4.0380316 11711154
0.52638793 -1.7752507 4.0336356 11711154
0.5759148 -1.7744983 4.0293961 11711154
0.62533611 -1.7755221 4.025157 11711154
0.6745528 -1.7742127 4.020947 11711154
0.72387034 -1.7739094 4.0167232 11711154
0.77426219 -1.7723985 4.0124149 11711154
0.82525778 -1.7717398 4.0080495 11711154
0.8736738 -1.7706493 4.0039067 11711154
0.90893191 -1.7695354 4.0008926 9474192
-0.060117919 -1.7252185 4.031333 6447714
0.34392384 -1.7263305 4.0495448 11711154
0.37388116 -1.7252387 4.0469847 11711154
0.42371753 -1.7248695 4.0427165 11711154
0.47513375 -1.7248875 4.038311 11711154
0.52642447 -1.7252365 4.0339146 11711154
0.5759545 -1.7245378 4.0296745 11711154
0.62530625 -1.7255001 4.0254402 11711154
0.6748035 -1.7243638 4.0212069 11711154
0.72381759 -1.725652 4.0170007 11711154
0.77480513 -1.724527 4.0126381 11711154
0.82531083 -1.725356 4.008306 11711154
0.87429982 -1.7247725 4.0041122 11711154
0.91049194 -1.7248623 4.0010104 8618883
-0.060136653 -1.6756369 4.0325894 6447714
0.34530047 -1.6774285 4.0497026 11711154
0.37390727 -1.6750563 4.0472655 11711154
0.42376137 -1.6749636 4.0429935 11711154
0.4740864 -1.6752133 4.038681 11711154
0.52537292 -1.6749136 4.0342879 11711154
0.57599437 -1.6745702 4.029953 11711154
0.62542236 -1.6754761 4.025713 11711154
0.6747486 -1.6743864 4.021492 11711154
0.72388208 -1.6756207 4.0172768 11711154
0.77491295 -1.6743584 4.0129104 11711154
0.82536662 -1.6756535 4.0085821 11711154
0.87448943 -1.674464 4.0043802 11711154
0.91217476 -1.6752726 4.0011468 7895160
-0.06124289 -1.6285537 4.0210748 6447714
0.34690997 -1.6283547 4.0498405 11711154
0.37393302 -1.6248671 4.047545 11711154
0.42383522 -1.6251627 4.0432682 11711154
0.47354355 -1.6247871 4.039011 11711154
0.52484363 -1.6253165 4.0346136 11711154
0.57603413 -1.6245952 4.0302315 11711154
0.62540746 -1.6254413 4.0259962 11711154
0.67479491 -1.6245167 4.02177 11711154
0.72388917 -1.6254696 4.0175586 11711154
0.77477735 -1.624382 4.0132051 11711154
0.82523745 -1.6257168 4.0088739 11711154
0.87443626 -1.6243614 4.0046663 11711154
0.91369122 -1.6252999 4.001297 7434609
-0.061598483 -1.5749221 4.0185184 6447714
0.34731674 -1.5973215 4.0499811 11711154
0.37395898 -1.5746704 4.0478253 11711154
0.42386419 -1.5753536 4.0435457 11711154
0.47357625 -1.574697 4.0392909 11711154
0.52487987 -1.5752808 4.0348921 11711154
0.57607388 -1.5746136 4.0305099 11711154
0.6255089 -1.5754031 4.0262699 11711154
0.67484164 -1.5746398 4.022048 11711154
0.72402596 -1.575316 4.0178299 11711154
0.77483064 -1.5746117 4.0134797 11711154
0.82530993 -1.5754479 4.0091515 11711154
0.87439567 -1.5745836 4.00495 11711154
0.91533989 -1.5748298 4.0014415 7237230
-0.061618257 -1.5238016 4.0198078 6447714
0.37541384 -1.5246263 4.0479836 11711154
0.42398301 -1.5255411 4.0438166 11711154
0.47360897 -1.5245998 4.0395708 11711154
0.52496433 -1.5253435 4.0351663 11711154
0.57611364 -1.5246248 4.0307875 11711154
0.62550861 -1.5253541 4.0265517 11711154
0.67488796 -1.524757 4.0223246 11711154
0.72407639 -1.5251528 4.0181079 11711154
0.77488369 -1.5248349 4.0137568 11711154
0.8254953 -1.5251762 4.009418 11711154
0.87445611 -1.5249122 4.0052252 11711154
0.91722649 -1.5242743 4.001564 6710886
-0.061637398 -1.4742987 4.0210562 6447714
0.37710309 -1.4743817 4.0481224 11711154
0.42396718 -1.4757169 4.0440984 11711154
0.4736419 -1.4744953 4.0398488 11711154
0.52501428 -1.4755031 4.0354433 11711154
0.57615328 -1.4746299 4.0310655 11711154
0.62559539 -1.4753021 4.0268264 11711154
0.67493492 -1.474866 4.0226011 11711154
0.72416985 -1.4749836 4.018383 11711154
0.77493703 -1.4750503 4.0140324 11711154
0.82563907 -1.4748963 4.0096889 11711154
0.87451565 -1.4752339 4.0054994 11711154
0.91914588 -1.4738636 4.0016842 6381921
-0.061656546 -1.424765 4.022306 6447714
0.37857282 -1.4243631 4.0482783 11711154
0.42401117 -1.4257772 4.0443769 11711154
0.47367451 -1.4243845 4.0401301 11711154
0.52498823 -1.4255486 4.0357265 11711154
0.57619315 -1.4246275 4.0313449 11711154
0.62560952 -1.4252408 4.0271068 11711154
0.67498106 -1.424969 4.0228786 11711154
0.72426271 -1.4248078 4.0186572 11711154
0.77499032 -1.4252592 4.014308 11711154
0.82582539 -1.4245013 4.0099578 11711154
0.87457585 -1.4255486 4.0057745 11711154
0.92060608 -1.423782 4.0018406 6184542
-0.06167572 -1.3752005 4.0235562 6447714
0.38017571 -1.3747337 4.0484209 11711154
0.42393669 -1.3757136 4.0446653 11711154
0.47370729 -1.3742656 4.0404077 11711154
0.52510053 -1.3755919 4.0359983 11711154
0.57623297 -1.3746179 4.0316224 11711154
0.62568164 -1.3751742 4.0273838 11711154
0.67502755 -1.3750644 4.0231557 11711154
0.72431391 -1.3746239 4.0189362 11711154
0.77504367 -1.3754611 4.0145845 11711154
0.82589817 -1.3742057 4.0102339 11711154
0.87453461 -1.3757424 4.0060592 11711154
0.92229265 -1.374117 4.0019755 5921370
-0.061694894 -1.3256053 4.0248075 6447714
0.38204682 -1.3254025 4.0485358 11711154
0.42396596 -1.325536 4.0449452 11711154
0.47374001 -1.3241417 4.040688 11711154
0.52515048 -1.3257316 4.0362744 11711154
0.57627273 -1.324602 4.0319009 11711154
0.62572503 -1.3252109 4.0276608 11711154
0.6750741 -1.3251538 4.0234332 11711154
0.72444987 -1.3244359 4.0192075 11711154
0.77509689 -1.3256567 4.0148606 11711154
0.82576782 -1.3242253 4.0105267 11711154
0.8744818 -1.3255968 4.0063462 11711154
0.92386788 -1.3245052 4.002121 5789784
-0.06171409 -1.2759789 4.0260592 6447714
0.38395271 -1.2762818 4.0486507 11711154
0.42399558 -1.2753506 4.0452242 11711154
0.47366923 -1.2741159 4.0409765 11711154
0.52520066 -1.2758625 4.036551 11711154
0.5763126 -1.2745785 4.0321798 11711154
0.62575388 -1.2751286 4.0279403 11711154
0.67512041 -1.2752352 4.0237103 11711154
0.72455829 -1.27413 4.0194812 11711154
0.77515048 -1.2758454 4.0151372 11711154
0.82582468 -1.2744678 4.0108027 11711154
0.87467146 -1.2752336 4.0066133 11711154
0.92521417 -1.2750776 4.002284 5592405
0.95286983 -1.2544738 4.0000305 2894892
-0.061733287 -1.2263221 4.0273113 6447714
0.38530803 -1.2267563 4.0488133 11711154
0.42402491 -1.2251588 4.0455055 11711154
0.47371668 -1.2241999 4.0412536 11711154
0.52513289 -1.2258795 4.036839 11711154
0.57635236 -1.2245492 4.0324583 11711154
0.62581158 -1.2250406 4.0282173 11711154
0.67516702 -1.2253106 4.0239868 11711154
0.72442067 -1.2240278 4.0197744 11711154
0.77510166 -1.225919 4.0154223 11711154
0.8258813 -1.2247033 4.0110784 11711154
0.87486106 -1.2248634 4.0068812 11711154
0.92527783 -1.2254181 4.0025587 5592405
0.95345473 -1.221372 4.0001674 2894892
-0.061753139 -1.1749771 4.0286069 6447714
0.38687676 -1.1766453 4.0489607 11711154
0.42405421 -1.1749605 4.0457854 11711154
0.4737041 -1.1743861 4.0415349 11711154
0.52516937 -1.1757882 4.037118 11711154
0.57639241 -1.1745123 4.0327368 11711154
0.62585467 -1.1750568 4.0284948 11711154
0.67521363 -1.175379 4.0242639 11711154
0.72447056 -1.1741484 4.0200515 11711154
0.77509499 -1.1757797 4.0157051 11711154
0.82593822 -1.1749316 4.0113535 11711154
0.87513506 -1.1743793 4.0071416 11711154
0.92534095 -1.1757525 4.0028324 5592405
0.95504367 -1.1732018 4.0003023 2894892
-0.061773006 -1.1235996 4.0299029 6447714
0.38855973 -1.1264812 4.0491004 11711154
0.4240835 -1.1247543 4.0460672 11711154
0.47382623 -1.1245714 4.0418053 11711154
0.52390003 -1.125985 4.0375075 11711154
0.57509458 -1.1242468 4.0331306 11711154
0.62589788 -1.1250656 4.0287743 11711154
0.67525995 -1.1254405 4.0245419 11711154
0.72452062 -1.1242622 4.020328 11711154
0.77520287 -1.1255342 4.0159788 11711154
0.82599461 -1.1251538 4.0116286 11711154
0.87504065 -1.1240935 4.0074325 11711154
0.92514378 -1.125759 4.0031319 5789784
0.95669562 -1.1240863 4.0004373 2894892
-0.061792243 -1.0738477 4.031158 6447714
0.39023978 -1.0763586 4.0492387 11711154
0.42411295 -1.0745424 4.0463476 11711154
0.47385854 -1.0747466 4.0420837 11711154
0.52358818 -1.0756232 4.0378175 11711154
0.57482052 -1.0744555 4.0334349 11711154
0.62594098 -1.0750669 4.0290513 11711154
0.6753068 -1.0754951 4.0248199 11711154
0.72457051 -1.0743694 4.0206056 11711154
0.77531081 -1.075282 4.0162516 11711154
0.82605147 -1.0753683 4.0119052 11711154
0.87499988 -1.0742457 4.0077181 11711154
0.92530859 -1.075359 4.0034008 5789784
0.95824033 -1.0749528 4.0005817 2894892
-0.062143136 -1.0217346 4.0286112 6447714
0.39191478 -1.0263093 4.0493774 11711154
0.42414236 -1.0243223 4.046628 11711154
0.4739804 -1.0251412 4.0423527 11711154
0.52362448 -1.025509 4.0380974 11711154
0.57486004 -1.0243957 4.0337138 11711154
0.62598425 -1.0250626 4.0293293 11711154
0.67535353 -1.0255426 4.0250969 11711154
0.72462034 -1.0244688 4.0208826 11711154
0.77541882 -1.0250227 4.0165267 11711154
0.8261084 -1.0255761 4.0121808 11711154
0.87505984 -1.0245057 4.0079923 11711154
0.925587 -1.0248531 4.0036621 5723991
0.959921 -1.0254015 4.0007176 2894892
-0.063236274 -0.97525316 4.0172324 6447714
0.39358014 -0.97640139 4.0495152 11711154
0.42417175 -0.97409636 4.0469069 11711154
0.47414741 -0.9756431 4.0426183 11711154
0.52366072 -0.97538877 4.0383763 11711154
0.57489991 -0.97432929 4.0339928 11711154
0.62604231 -0.97516257 4.0296063 11711154
0.67539984 -0.97558337 4.0253754 11711154
0.72467005 -0.97456193 4.0211592 11711154
0.7743035 -0.97482723 4.0169053 11711154
0.82484162 -0.97555232 4.0125718 11711154
0.87511998 -0.97475857 4.0082679 11711154
0.92546219 -0.97460812 4.0039558 5789784
0.96100706 -0.97481447 4.0009093 2894892
-0.063301601 -0.92479974 4.0179706 6447714
0.39510471 -0.9269442 4.049664 11711154
0.4240973 -0.92396891 4.0471959 11711154
0.47419399 -0.92602128 4.0428925 11711154
0.52369684 -0.92526102 4.0386562 11711154
0.57493937 -0.92425644 4.0342708 11711154
0.62607062 -0.9252544 4.0298848 11711154
0.67544621 -0.9256174 4.0256519 11711154
0.72471994 -0.92464787 4.0214372 11711154
0.77404815 -0.92413121 4.0172133 11711154
0.82458764 -0.92600387 4.0128727 11711154
0.87518007 -0.92500502 4.008544 11711154
0.92403615 -0.92404032 4.0043621 5921370
0.96159101 -0.92483681 4.0011411 2894892
-0.063276209 -0.87428987 4.0197692 6447714
0.39595538 -0.89257747 4.0497842 11711154
0.42460099 -0.89217436 4.0473323 11711154
0.47402221 -0.89277804 4.0430946 11711154
0.52372098 -0.89183897 4.0388417 11711154
0.57349998 -0.89174479 4.0345778 11711154
0.62738836 -0.89263487 4.0299559 11711154
0.6754775 -0.89230317 4.0258374 11711154
0.72475344 -0.89136839 4.0216208 11711154
0.77292824 -0.89127368 4.0174942 11711154
0.82462537 -0.89279526 4.0130553 11711154
0.87522012 -0.89183199 4.0087266 11711154
0.92407835 -0.89090222 4.0045457 5921370
0.96370274 -0.89076835 4.0011516 2894892
-0.063295864 -0.82458562 4.021018 6447714
-0.063315541 -0.77485073 4.0222678 6447714
-0.063335218 -0.72508466 4.0235186 6447714
-0.063354924 -0.6752879 4.0247707 6447714
-0.063374631 -0.62545991 4.0260224 6447714
-0.063440152 -0.57477808 4.0267653 6447714
-0.063414745 -0.52405423 4.0285697 6447714
-0.063434474 -0.47413206 4.0298238 6447714
-0.063454218 -0.42417881 4.0310779 6447714
-0.06347397 -0.37419435 4.0323319 6447714
-0.064005367 -0.32856721 4.0274854 6447714
-0.06492538 -0.274683 4.0183473 6447714
-0.064945541 -0.2248102 4.0195951 6447714
-0.06496571 -0.1749064 4.020844 6447714
-0.064985901 -0.1249716 4.0220938 6447714
-0.065006107 -0.075005747 4.0233431 6447714
-0.065026313 -0.025008829 4.0245948 6447714
-0.065046534 0.025019189 4.0258465 6447714
-2.1186101 0.087861069 4.0014577 6513507
-2.0754981 0.087930933 4.0046396 6513507
-2.0259161 0.088011295 4.0082989 6513507
-1.97464 0.088094391 4.012084 6513507
-1.9248742 0.088175051 4.0157566 6513507
-1.8750161 0.088255838 4.0194364 6513507
-1.8250678 0.088336788 4.0231233 6513507
-1.7750267 0.088417888 4.0268168 6513507
-1.7248943 0.088499114 4.0305166 6513507
-1.674669 0.088580519 4.0342236 6513507
-1.6243522 0.088662058 4.0379376 6513507
-1.5755697 0.088741131 4.0415378 6513507
-1.5250691 0.088822953 4.0452647 6513507
-1.4793779 0.088897012 4.0486374 6513507
-0.51050073 0.091160953 4.000771 2039583
-0.47598484 0.091217302 4.0032449 2039583
-0.4249588 0.091300637 4.0069017 2039583
-0.37549132 0.091381416 4.010447 2039583
-0.063123398 0.076483786 4.028491 6447714
-0.04512468 0.091920912 4.0341239 6447714
-0.054105278 -1.8125511 4.0812492 6447714
-0.026004735 -1.8127383 4.0807528 9474192
0.02532733 -1.8120676 4.0763578 11711154
0.074947797 -1.8109038 4.0721126 11711154
0.1263859 -1.8099093 4.0677114 11711154
0.174171 -1.8092266 4.0636215 11711154
0.2236691 -1.8078876 4.0593886 11711154
0.2731311 -1.8074106 4.0551529 11711154
0.31555587 -1.8060646 4.0515261 11711154
-0.054055452 -1.7747515 4.0818787 6447714
-0.025456497 -1.7748643 4.0809193 9474192
0.025328623 -1.7750047 4.0765672 11711154
0.076005377 -1.7751441 4.0722241 11711154
0.12639204 -1.7746066 4.0679097 11711154
0.17530474 -1.7755572 4.0637145 11711154
0.22357474 -1.7744435 4.0595846 11711154
0.27403858 -1.7755949 4.055254 11711154
0.31723666 -1.774188 4.0515609 11711154
-0.054123469 -1.7251964 4.0825944 6447714
-0.025135668 -1.7252864 4.0811706 9605778
0.025330406 -1.7244583 4.0768514 11711154
0.076254658 -1.7255589 4.0724826 11711154
0.12620488 -1.7243863 4.0682087 11711154
0.17520234 -1.7256465 4.0640044 11711154
0.22352974 -1.724443 4.0598707 11711154
0.27386272 -1.7255315 4.055552 11711154
0.31873822 -1.7241613 4.0517149 11711154
-0.054192178 -1.6756455 4.0833621 6447714
-0.025170747 -1.6754669 4.0814538 9539985
0.024948496 -1.674456 4.0771646 11711154
0.075924434 -1.6754979 4.0727921 11711154
0.12619649 -1.6746125 4.0684905 11711154
0.17511019 -1.6753695 4.0642948 11711154
0.22357449 -1.6746598 4.0601468 11711154
0.27388179 -1.6752425 4.0558338 11711154
0.32031757 -1.6743745 4.0518599 11711154
-0.055531528 -1.6250168 4.0739722 6447714
-0.025369814 -1.6250718 4.0817547 9539985
0.02533376 -1.6250311 4.0774107 11711154
0.075929724 -1.6249919 4.0730762 11711154
0.12644847 -1.6250644 4.068748 11711154
0.17512245 -1.6249694 4.0645781 11711154
0.22372556 -1.6249863 4.0604143 11711154
0.27390078 -1.6249467 4.0561156 11711154
0.3220928 -1.624743 4.0519876 11711154
-0.055682924 -1.5756627 4.0735774 6447714
-0.025371583 -1.5744513 4.0820403 9474192
0.025719376 -1.5756016 4.0776558 11711154
0.075935058 -1.5744786 4.0733609 11711154
0.12670065 -1.5755103 4.0690045 11711154
0.17513455 -1.5745618 4.0648603 11711154
0.22395301 -1.5754209 4.0606737 11711154
0.27391985 -1.5746442 4.056396 11711154
0.32391626 -1.5751314 4.0521102 11711154
-0.05569157 -1.5252641 4.0741911 6447714
-0.025790559 -1.5244845 4.0823574 9408399
0.025337353 -1.5255771 4.077971 11711154
0.075604886 -1.5243956 4.0736709 11711154
0.12654065 -1.5255992 4.0693002 11711154
0.17504239 -1.524262 4.0651526 11711154
0.22395155 -1.5257293 4.0609541 11711154
0.27393886 -1.5243342 4.0566788 11711154
0.32417881 -1.5256351 4.0523672 11711154
0.35068429 -1.5218688 4.050117 11711154
-0.05570025 -1.4748507 4.0748053 6447714
-0.025236081 -1.4752191 4.0825872 9474192
0.025339127 -1.4749969 4.0782557 11711154
0.075868778 -1.4748884 4.0739274 11711154
0.12644428 -1.4752349 4.069593 11711154
0.17489804 -1.474435 4.0654454 11711154
0.22377172 -1.4755768 4.0612512 11711154
0.27376294 -1.4742341 4.0569749 11711154
0.32414085 -1.4757051 4.0526524 11711154
0.35225436 -1.4733799 4.0502553 11711154
-0.05578085 -1.4255691 4.0749497 6447714
-0.025102304 -1.4255958 4.0828562 9474192
0.025340892 -1.4244092 4.0785408 11711154
0.076257035 -1.4254913 4.074172 11711154
0.12645313 -1.4247544 4.0698757 11711154
0.1751706 -1.4249774 4.065701 11711154
0.22378734 -1.4251999 4.0615339 11711154
0.27379599 -1.4244701 4.0572538 11711154
0.3240591 -1.4255428 4.0529418 11711154
0.35382533 -1.4232125 4.0504036 11711154
-0.055717401 -1.3762301 4.0760198 6447714
-0.025378566 -1.375275 4.0831642 9474192
0.024958838 -1.3743619 4.0788546 11711154
0.076061271 -1.3756177 4.07447 11711154
0.12581699 -1.3747008 4.0702128 11711154
0.17482455 -1.3751503 4.0660105 11711154
0.22380289 -1.3748163 4.0618162 11711154
0.27396509 -1.3749276 4.0575185 11711154
0.32408148 -1.3752657 4.0532217 11711154
0.35549018 -1.3732969 4.0505424 11711154
-0.055726077 -1.3257712 4.0766339 6447714
-0.025380336 -1.32462 4.0834498 9474192
0.025452713 -1.3251287 4.0790906 11711154
0.07596121 -1.3251784 4.0747633 11711154
0.12446278 -1.3242863 4.0706124 11711154
0.17362061 -1.3257201 4.0663929 11711154
0.22381845 -1.3244255 4.0620995 11711154
0.27422577 -1.3254943 4.057775 11711154
0.32410401 -1.3249819 4.0535045 11711154
0.35716558 -1.3232203 4.0506806 11711154
-0.055734761 -1.2752969 4.07725 6447714
-0.025719082 -1.2743943 4.0837607 9342606
0.025620067 -1.2756517 4.0793548 11711154
0.075966507 -1.2746238 4.0750475 11711154
0.12479769 -1.2750005 4.0708618 11711154
0.17352776 -1.2753769 4.0666847 11711154
0.2236388 -1.2742441 4.0623975 11711154
0.27422777 -1.2758214 4.058054 11711154
0.32412642 -1.2746903 4.0537858 11711154
0.35884613 -1.273064 4.0508194 11711154
-0.055743452 -1.2248079 4.0778646 6447714
-0.025321547 -1.2250911 4.0840039 9342606
0.025347861 -1.2253623 4.0796623 11711154
0.075775281 -1.2242786 4.0753474 11711154
0.12513305 -1.2257082 4.0711112 11711154
0.17353983 -1.2249192 4.0669675 11711154
0.223637 -1.2245101 4.0626779 11711154
0.27405187 -1.2256869 4.058351 11711154
0.3241491 -1.2243925 4.0540671 11711154
0.36031318 -1.2238005 4.050972 11711154
-0.055825211 -1.1754498 4.0780878 6447714
-0.025110975 -1.1756624 4.0842671 9408399
0.025349632 -1.1747397 4.079947 11711154
0.075760342 -1.1747191 4.0756283 11711154
0.12481494 -1.1756581 4.0714197 11711154
0.17355189 -1.1744541 4.0672512 11711154
0.22394063 -1.1751192 4.0629296 11711154
0.27407092 -1.1753287 4.0586338 11711154
0.32417151 -1.1740879 4.0543489 11711154
0.36221525 -1.1751201 4.0510826 11711154
-0.055760648 -1.1260372 4.0790834 6447714
-0.025387328 -1.1253059 4.0845718 9342606
0.02524584 -1.1242177 4.0802407 11711154
0.076397859 -1.125632 4.0758505 11711154
0.12482358 -1.1251341 4.0717049 11711154
0.17336826 -1.1241978 4.0675497 11711154
0.22421356 -1.1257201 4.0631843 11711154
0.27408987 -1.1249636 4.0589156 11711154
0.32386175 -1.1242085 4.054656 11711154
0.36369035 -1.1255467 4.0512357 11711154
-0.055769354 -1.0755026 4.079699 6447714
