# .PCD v0.7 - Point Cloud Data file format
VERSION 0.7
FIELDS x y z rgb
SIZE 4 4 4 4
TYPE F F F U
COUNT 1 1 1 1
WIDTH 1152
HEIGHT 1
VIEWPOINT 0 0 0 1 0 0 0
POINTS 1152
DATA ascii
-0.7481252 -0.22498603 0.9454487 6513507
0.23981763 -0.22497915 0.92318577 2894892
-0.74814737 -0.17497237 0.94547415 6513507
0.23982552 -0.17542981 0.92404258 2894892
-0.74816895 -0.12499485 0.94551098 6513507
0.23982863 -0.12500402 0.92477977 2894892
-0.74818832 -0.07505399 0.94552028 6513507
0.23980112 -0.074999988 0.92462885 2894892
-0.74821019 -0.025070991 0.94556457 6513507
0.23977606 -0.025007201 0.92454314 2894892
-0.74823165 0.025071939 0.94559109 6513507
0.23975058 0.02500369 0.92444474 2894892
-0.7482515 0.075060531 0.94560009 9539985
0.23972481 0.074975275 0.92433274 2894892
-0.72871637 0.11187116 0.93465745 10197915
-0.67500579 0.11425037 0.92542821 10197915
-0.62498075 0.11426923 0.92556971 10197915
-0.57498688 0.11428793 0.92577279 10197915
-0.52502435 0.11430693 0.92582011 10197915
-0.47499743 0.11432568 0.92602563 10197915
-0.42495406 0.11434443 0.92619592 10197915
-0.37489367 0.11436314 0.9264124 10132122
-0.32491407 0.11438223 0.92642897 10132122
-0.27501255 0.11440084 0.92664659 10132122
-0.22424065 0.11442254 0.92532766 10132122
-0.17500381 0.11444378 0.92389464 10132122
-0.12501067 0.11446269 0.92401755 10132122
-0.075001389 0.1144814 0.92420912 8158332
-0.025018809 0.11450028 0.92434144 2039583
0.025024295 0.11451912 0.92449337 2039583
0.075039759 0.11453789 0.9246642 2039583
0.12502988 0.11455679 0.92478639 2039583
0.17429309 0.11457819 0.92324454 2697513
0.22760801 0.11172328 0.92305684 2894892
-0.7470873 -0.41854244 0.9768889 11711154
0.24166963 -0.41635355 0.97483563 2960685
-0.74718195 -0.37500447 0.97434652 11711154
0.24160963 -0.37499624 0.97361642 2960685
-0.7472049 -0.32500038 0.97440124 7829367
0.24158403 -0.32500771 0.97351253 2960685
-0.74722606 -0.27499336 0.97440457 6513507
0.24155757 -0.27499878 0.97338718 2960685
-0.74724418 -0.22500807 0.97443551 6513507
0.24153453 -0.22500154 0.97333801 2894892
-0.7472676 -0.17500381 0.97445959 6513507
0.24150673 -0.17498247 0.97316098 2894892
-0.74728674 -0.12499701 0.97449362 6513507
0.24148186 -0.12500569 0.97308123 2894892
-0.74730855 -0.075003497 0.97450238 6513507
0.2414567 -0.075038992 0.97298795 2894892
-0.74733013 -0.024999624 0.97456056 6513507
0.24146292 -0.024571467 0.97382438 2894892
-0.74735093 0.024992295 0.97459829 6513507
0.2414705 0.025006682 0.97468823 2894892
-0.74737149 0.075001635 0.97458678 9605778
0.24144457 0.075039886 0.97457033 2894892
-0.73976469 0.10936859 0.97422516 10197915
-0.67513579 0.11416528 0.97374773 10197915
-0.62498599 0.11418404 0.97393775 10197915
-0.57499164 0.11420289 0.97406739 10197915
-0.52498072 0.11422174 0.974213 10197915
-0.47495386 0.11424056 0.97435582 10197915
-0.42496791 0.11425923 0.97459537 10132122
-0.37485039 0.11427817 0.97467893 10132122
-0.32488799 0.11429687 0.97486734 10132122
-0.27502632 0.11431558 0.97506011 10132122
-0.22497433 0.11433443 0.97518927 10132122
-0.17496377 0.11435334 0.9752869 10132122
-0.1249945 0.11437198 0.97552526 10132122
-0.075008728 0.11439081 0.97566849 5855577
-0.025007106 0.11440959 0.97584563 2039583
0.025012579 0.11442838 0.97600597 2039583
0.074989311 0.11444718 0.976165 2039583
0.12498301 0.11446597 0.97631103 2039583
0.17581262 0.1144888 0.97435617 2565927
0.22854094 0.1117724 0.97379875 2894892
-0.745305 -0.45654202 1.0350462 11711154
-0.74564022 -0.42492402 1.0244422 11711154
0.24332702 -0.41737917 1.0232383 2960685
-0.74566269 -0.37499586 1.0243982 11711154
0.24330419 -0.37498975 1.0231156 2960685
-0.74568421 -0.32498294 1.0244337 8947848
0.24328041 -0.32497305 1.0230696 2960685
-0.74570596 -0.27499521 1.0244523 6513507
0.24325293 -0.27500233 1.0229137 2960685
-0.74572694 -0.22498624 1.0244739 6513507
0.24322569 -0.22500737 1.0227463 2894892
-0.74574697 -0.1749932 1.0245228 6513507
0.24320546 -0.17502384 1.0227795 2894892
-0.7457673 -0.12499724 1.0245355 6513507
0.24317802 -0.12501347 1.0226405 2894892
-0.74578851 -0.074998513 1.0245624 6513507
0.24315003 -0.074979082 1.0224583 2894892
-0.74580884 -0.025006989 1.0246086 6513507
0.24315776 -0.025542632 1.0233257 2894892
-0.74583119 0.025007941 1.0246396 6513507
0.24317116 0.025000034 1.0243678 2894892
-0.74585199 0.074995689 1.0246413 9803157
0.24321352 0.075044461 1.0262549 2894892
-0.73807591 0.10939621 1.0242109 10197915
-0.67489207 0.11407748 1.0236374 10197915
-0.62501407 0.11409628 1.0237681 10197915
-0.57499832 0.11411507 1.0239567 10197915
-0.52496642 0.11413378 1.0241426 10197915
-0.47497836 0.11415258 1.0243285 10197915
-0.42503452 0.11417133 1.0244975 10132122
-0.37495327 0.11419018 1.024613 10132122
-0.32491478 0.11420894 1.0247785 10132122
-0.2749829 0.11422757 1.0250386 10132122
-0.22497316 0.11424636 1.0251712 10132122
-0.17500761 0.11426532 1.0252485 10132122
-0.12502585 0.11428391 1.0255078 10132122
-0.075027563 0.11430276 1.0256565 3618615
-0.025013454 0.11432147 1.0258452 2039583
0.025018917 0.11434026 1.0260137 2039583
0.075005174 0.11435903 1.0261803 2039583
0.12500852 0.11437782 1.0263324 2039583
0.1750281 0.11439669 1.0264624 2368548
0.22950788 0.11176591 1.0266237 2894892
-0.74402124 -0.4659721 1.0771884 10921638
-0.74412811 -0.42498028 1.074257 7237230
0.24504602 -0.41740078 1.0734545 2960685
-0.74414897 -0.37498963 1.0742985 7237230
0.24502566 -0.3750371 1.0734036 2960685
-0.74416918 -0.32500687 1.0743182 6316128
0.24499978 -0.32503513 1.0732988 2960685
-0.74419057 -0.27501014 1.0743438 4671303
0.24497268 -0.27500391 1.0731472 2960685
-0.74421084 -0.22501019 1.0743715 4671303
0.24494874 -0.22502464 1.0730737 2960685
-0.74423265 -0.17500791 1.0744017 4671303
0.24492078 -0.17501354 1.0728951 2894892
-0.74425203 -0.12500276 1.0744518 4671303
0.24489541 -0.12501405 1.0728033 2894892
-0.7442745 -0.074983798 1.0744621 4671303
0.24487025 -0.074984647 1.0727122 2894892
-0.74429411 -0.024984648 1.0745044 4671303
0.24484472 -0.024966247 1.0726191 2894892
-0.74431503 0.024985585 1.0745348 4671303
0.24481872 0.025003135 1.0724977 2894892
-0.74433589 0.074990384 1.0745525 8355711
0.24486673 0.074935369 1.0745453 2894892
-0.73715216 0.10924842 1.0745198 10197915
-0.6749438 0.11398736 1.0747936 10197915
-0.62502897 0.11400622 1.0749208 10197915
-0.5749495 0.1140249 1.0751495 10197915
-0.5249272 0.11404369 1.0753111 10197915
-0.47503713 0.11406244 1.0755008 10197915
-0.42498133 0.11408133 1.0755683 10132122
-0.37491032 0.1140999 1.0758544 10132122
-0.32496971 0.11411873 1.0759937 10132122
-0.27501392 0.11413737 1.0762322 10132122
-0.22504173 0.11415619 1.0763476 10132122
-0.17505272 0.114175 1.076489 10132122
-0.12504731 0.11419374 1.076701 9408399
-0.075025879 0.11421242 1.0769398 2039583
-0.024987891 0.11423128 1.0770552 2039583
0.024993343 0.11425001 1.0772321 2039583
0.074989855 0.11426865 1.0774829 2039583
0.12500237 0.11428753 1.0775611 2039583
0.17503251 0.11430634 1.0777626 2236962
0.23027243 0.11185707 1.0768616 2894892
-0.7421121 -0.50492215 1.1394953 11711154
-0.74257505 -0.47446829 1.124657 8487297
-0.7426222 -0.42499906 1.1238559 2960685
0.24677272 -0.41746345 1.1238977 2960685
-0.74264306 -0.375002 1.123859 2960685
0.2467512 -0.37496704 1.1238178 2960685
-0.74266511 -0.32501513 1.1238956 2960685
0.24672313 -0.32497716 1.1236458 2960685
-0.74268389 -0.27501261 1.1239266 2960685
0.24669845 -0.27504465 1.1235657 2960685
-0.742706 -0.22499482 1.1239851 2960685
0.24666977 -0.22493696 1.1233561 2960685
-0.74272555 -0.17499961 1.123986 2960685
0.24664697 -0.1749332 1.1233318 2894892
-0.74274778 -0.12500133 1.1240442 2960685
0.24662136 -0.1250322 1.1232214 2894892
-0.74276686 -0.075013064 1.1240437 2960685
0.24659286 -0.075048618 1.1230365 2894892
-0.74278998 -0.025022453 1.1241044 2960685
0.24656768 -0.025030022 1.122942 2894892
-0.74280804 0.025023423 1.1241316 2960685
0.2465414 0.025026489 1.1228224 2894892
-0.74283218 0.075019456 1.124137 6579300
0.2465142 0.07502386 1.122679 2894892
-0.7357347 0.10924876 1.1249117 10197915
-0.67504978 0.11389586 1.1267506 10197915
-0.62549156 0.11392133 1.1230277 10197915
-0.57500792 0.11394132 1.1226122 10197915
-0.52505332 0.11396009 1.1227647 10197915
-0.47498819 0.11397897 1.1228827 10132122
-0.42500132 0.11399743 1.1231996 10132122
-0.37499723 0.11401632 1.1232847 10132122
-0.32497546 0.11403512 1.1234695 10132122
-0.27493864 0.11405371 1.1237538 10132122
-0.22488569 0.11407271 1.1238055 10132122
-0.17490788 0.11409128 1.1240901 10132122
-0.12491506 0.11411019 1.124174 7303023
-0.074998386 0.11412872 1.1244588 2039583
-0.025065776 0.11414756 1.1245775 2039583
0.025071269 0.11416635 1.1247623 2039583
0.075036742 0.11418498 1.1250135 2039583
0.12492569 0.11420376 1.1251631 2039583
0.174924 0.11422256 1.1253164 2105376
0.23208471 0.11153367 1.1245239 2894892
-0.74094117 -0.51351076 1.1779349 10066329
-0.74107671 -0.4748235 1.1740311 5263440
-0.74110484 -0.4250029 1.1738149 2960685
0.24774149 -0.41719878 1.1522031 2960685
-0.74112654 -0.37498319 1.1738052 2960685
0.24771942 -0.37515929 1.1521003 2960685
-0.74114692 -0.32497382 1.1738609 2960685
0.24769306 -0.32500815 1.1519777 2960685
-0.74116826 -0.27499118 1.1738834 2960685
0.24766673 -0.27486753 1.1518552 2960685
-0.74118727 -0.22500543 1.1739562 2960685
0.24764153 -0.22521576 1.1517379 2960685
-0.74121058 -0.17498852 1.1739361 2960685
0.24761549 -0.17509659 1.1516171 2960685
-0.74122947 -0.12499724 1.1740069 2960685
0.24758919 -0.12498763 1.1514945 2894892
-0.74125135 -0.074988924 1.174005 2960685
0.24756286 -0.074889399 1.1513717 2894892
-0.74127114 -0.024978731 1.1740762 2960685
0.2475365 -0.024801772 1.1512495 2894892
-0.74129164 0.024979619 1.1741064 2960685
0.2475104 0.024798296 1.1511283 2894892
-0.74131328 0.074981116 1.1741052 6184542
0.2474841 0.074864686 1.1510059 2894892
-0.7350924 0.10898393 1.175517 10197915
-0.67520213 0.11380377 1.1790105 10197915
-0.62451971 0.11383064 1.1747342 10197915
-0.57500756 0.11385003 1.1744336 10197915
-0.52497995 0.11386894 1.1745292 10197915
-0.47584054 0.11388956 1.1734387 10132122
-0.42492554 0.11391512 1.1699635 10132122
-0.37505984 0.1139335 1.1703079 10132122
-0.32498112 0.11395241 1.1704254 10132122
-0.27498481 0.11397102 1.170693 10132122
-0.22506849 0.1139898 1.1708455 10132122
-0.17503917 0.11400862 1.1710032 10132122
-0.12499287 0.11402725 1.1712697 5197647
-0.075026527 0.11404622 1.1713101 2039583
-0.025045911 0.11406468 1.1716547 2039583
0.024954287 0.11408343 1.1718473 2039583
0.074967749 0.11410242 1.1718874 2039583
0.12499976 0.11412089 1.172232 2039583
0.17495045 0.11413976 1.1723471 2039583
0.22590652 0.11377455 1.1715864 2763306
0.25220606 0.11414529 1.1859369 2894892
-0.73893768 -0.55314082 1.2433519 2960685
-0.73948789 -0.52317917 1.225669 2960685
-0.73954874 -0.47499341 1.2243484 2960685
-0.73956847 -0.42499539 1.2244128 2960685
-0.73959076 -0.37501028 1.2244133 2960685
-0.73961085 -0.32500601 1.22445 2960685
-0.73963153 -0.27498367 1.2244729 2960685
-0.7396515 -0.22499007 1.2245519 2960685
-0.73967302 -0.17500956 1.2245421 2960685
-0.7396937 -0.1250101 1.2245823 2960685
-0.73971379 -0.075008281 1.2246432 2960685
-0.73973495 -0.025004193 1.2246586 2960685
-0.73976815 0.024800381 1.2242674 2960685
-0.73980105 0.074995957 1.2239295 5789784
-0.73432326 0.10872622 1.2242914 10197915
-0.6749711 0.11372218 1.2253999 10197915
-0.62506574 0.11374075 1.2256571 10197915
-0.57501841 0.11375947 1.2258862 10197915
-0.52508038 0.1137783 1.2259771 10197915
-0.4738692 0.11380073 1.224316 10132122
-0.42504674 0.11382505 1.2210767 10132122
-0.37502655 0.11384378 1.2212739 10132122
-0.32508835 0.11386234 1.2215624 10132122
-0.27503532 0.1138814 1.2215912 10132122
-0.22506535 0.11389978 1.2219647 10132122
-0.17507924 0.11391864 1.2220774 10132122
-0.12507726 0.11393727 1.222324 2960685
-0.074957266 0.11395596 1.2225672 2039583
-0.024922533 0.11397488 1.2226802 2039583
0.024927972 0.11399353 1.2228805 2039583
0.074995585 0.11401217 1.2231697 2039583
0.12508017 0.11403108 1.2232405 2039583
0.17507924 0.11404956 1.2235718 2039583
0.22509614 0.11406853 1.2236409 2631720
0.25676444 0.11407296 1.2279924 2894892
-0.73783135 -0.56126398 1.2796768 2960685
-0.73798579 -0.52498555 1.2751092 2960685
-0.738006 -0.47499564 1.2751465 2960685
-0.73802537 -0.42500353 1.2752181 2960685
-0.73804814 -0.37500799 1.2752005 2960685
-0.73809183 -0.32508388 1.2744772 2960685
-0.73811477 -0.27500144 1.274428 2960685
-0.73813504 -0.22500102 1.2744815 2960685
-0.73815787 -0.17499706 1.274472 2960685
-0.7381767 -0.12497186 1.2745398 2960685
-0.7381981 -0.075000189 1.2745579 2960685
-0.73821843 -0.0250267 1.2746124 2960685
-0.73825324 0.02524329 1.2741762 2960685
-0.73828697 0.075009778 1.2737883 5329233
-0.73197418 0.10903749 1.2743387 10197915
-0.67482328 0.11363364 1.2757159 10197915
-0.62492794 0.11365205 1.2760743 10197915
-0.57501531 0.11367092 1.2761343 10197915
-0.52519244 0.11369926 1.2708097 10197915
-0.47487891 0.11371858 1.2707409 10197915
-0.42506611 0.11373705 1.2710415 10197915
-0.3752358 0.11375573 1.2712194 10132122
-0.32512486 0.11377443 1.2714593 10132122
-0.27486879 0.11379343 1.2715495 10132122
-0.22485663 0.11381195 1.2718785 10132122
-0.17496128 0.11383066 1.2720567 9408399
-0.12491698 0.11384952 1.2722039 2039583
-0.07498949 0.11386803 1.2725052 2039583
-0.025044434 0.11388675 1.2726835 2039583
0.025049923 0.1139055 1.2728928 2039583
0.075027794 0.11392416 1.2731324 2039583
0.12502103 0.11394301 1.2732488 2039583
0.17503199 0.11396158 1.2735505 2039583
0.22505866 0.11398033 1.2737292 2500134
0.26192972 0.11399157 1.2753199 2894892
-0.73645455 -0.56798214 1.3249168 3487029
-0.73647994 -0.52500552 1.3246851 3026478
-0.73650324 -0.47499418 1.3246793 2960685
-0.7365222 -0.42502216 1.3247328 2960685
-0.73654228 -0.37502608 1.324787 2960685
-0.73658872 -0.32490608 1.3239907 2960685
-0.73661292 -0.27501309 1.3238922 2960685
-0.73663187 -0.22502631 1.3239682 2960685
-0.7366544 -0.17501631 1.3239846 2960685
-0.73667324 -0.12502389 1.3240297 2960685
-0.73669529 -0.075008377 1.3240412 2960685
-0.7367155 -0.024990646 1.3241251 2960685
-0.73673463 0.02499157 1.3241593 2960685
-0.73675722 0.074994646 1.3241433 4934475
-0.73146522 0.10869941 1.3259137 10197915
-0.67488474 0.11353737 1.3303717 10197915
-0.6249702 0.11355592 1.3306242 10197915
-0.5763374 0.11358203 1.326292 10197915
-0.52465618 0.11361527 1.3186201 10197915
-0.47502321 0.11363408 1.3187002 10197915
-0.42510396 0.11365283 1.3188508 10197915
-0.37517029 0.1136714 1.3191333 10197915
-0.32521749 0.1136902 1.3192842 10197915
-0.27511442 0.11370861 1.3196709 10197915
-0.22499427 0.11372767 1.3197187 10197915
-0.17485702 0.11374623 1.3200366 8487297
-0.12497717 0.11376492 1.3202188 2039583
-0.074943036 0.11378375 1.3203697 2039583
-0.024894198 0.11380234 1.3206531 2039583
0.024899626 0.11382098 1.320869 2039583
0.074981302 0.11383979 1.32102 2039583
0.12508118 0.11385841 1.3213037 2039583
0.17492247 0.11387694 1.3215884 2039583
0.22477992 0.11389567 1.3217363 2368548
0.26683745 0.11390942 1.3230603 2894892
-0.73495847 -0.56826997 1.3741703 3355443
-0.73498195 -0.52501649 1.3742027 2960685
-0.73499441 -0.47499833 1.3742192 2960685
-0.73501915 -0.42497838 1.3742167 2960685
-0.73504263 -0.37497795 1.374347 2960685
-0.73505569 -0.32502013 1.3743252 2960685
-0.73508084 -0.27501434 1.3743501 2960685
-0.7351051 -0.22500572 1.3744252 2960685
-0.73511648 -0.17501688 1.3744698 2960685
-0.73514134 -0.12500244 1.3744851 2960685
-0.73516649 -0.074985154 1.3745571 2960685
-0.73517841 -0.024989408 1.3745579 2960685
-0.73520333 0.024990318 1.3745935 2960685
-0.73522741 0.074991629 1.3746722 4539717
-0.73102301 0.10832214 1.3749301 10197915
-0.67503631 0.11345646 1.3762661 10197915
-0.62496942 0.11347546 1.3762867 10197915
-0.57375807 0.11350384 1.3712641 10197915
-0.5250501 0.11352456 1.3700503 10197915
-0.4748942 0.11354312 1.3703541 10197915
-0.42472041 0.11356201 1.3705027 10197915
-0.37509939 0.11358042 1.3708011 10197915
-0.32517618 0.1135991 1.3710295 10197915
-0.27495492 0.11361797 1.3711776 10197915
-0.22499877 0.11363626 1.371632 10197915
-0.17502871 0.11365531 1.3716283 7500402
-0.12503964 0.11367409 1.3717774 2039583
-0.075037032 0.11369225 1.3723085 2039583
-0.025016893 0.11371133 1.3723048 2039583
0.025022371 0.11373002 1.37253 2039583
0.074932851 0.11374832 1.3729467 2039583
0.12485979 0.11376731 1.37298 2039583
0.17494653 0.11378591 1.373281 2039583
0.22504969 0.11380477 1.3734317 2171169
0.27257794 0.11382036 1.3748621 2894892
-0.73343682 -0.56832492 1.4242816 5066061
-0.73345506 -0.52500695 1.4242899 2960685
-0.73347664 -0.47504455 1.4243431 2960685
-0.73349577 -0.42500147 1.424404 2960685
-0.73351675 -0.3749817 1.4244072 2960685
-0.73353869 -0.32498482 1.4244307 2960685
-0.73355877 -0.27495912 1.4244797 2960685
-0.73357761 -0.22498216 1.4245523 2960685
-0.73360032 -0.17497677 1.4245787 2960685
-0.73361921 -0.12496852 1.4246209 2960685
-0.73364007 -0.07500907 1.4246469 2960685
-0.73366165 -0.025021635 1.4247012 2960685
-0.73368096 0.025022568 1.4247419 2960685
-0.73370159 0.07501559 1.4247661 4144959
-0.72863036 0.10870151 1.4247798 10197915
-0.67519999 0.11337002 1.4252762 10197915
-0.62511289 0.11338855 1.4255965 10197915
-0.57501096 0.11340742 1.4257462 10197915
-0.52503836 0.1134263 1.4258498 10197915
-0.47519743 0.11344458 1.4262575 10197915
-0.42519048 0.11346332 1.4264489 10197915
-0.37531838 0.11348208 1.4265945 10197915
-0.32527781 0.11350054 1.4269607 10197915
-0.27492908 0.11351942 1.4271543 10197915
-0.22500613 0.1135382 1.4272997 10197915
-0.17506593 0.11355671 1.4276227 6447714
-0.12676191 0.11358077 1.4244094 2039583
-0.074951679 0.11360684 1.420823 2039583
-0.024923176 0.11362553 1.4210564 2039583
0.024928614 0.1136441 1.4212888 2039583
0.074990019 0.11366282 1.421523 2039583
0.12507094 0.1136815 1.4217563 2039583
0.17496924 0.11369993 1.4221017 2039583
0.22488388 0.11371877 1.4222226 2039583
0.27501419 0.11373746 1.4224567 2894892
0.30335596 0.11373807 1.4282544 2894892
-0.73190659 -0.56839633 1.4746886 3223857
-0.73192465 -0.52500534 1.4747159 2960685
-0.73194516 -0.47497597 1.4747565 2960685
-0.73196495 -0.42502648 1.4748031 2960685
-0.73198724 -0.37504682 1.4748122 2960685
-0.73200631 -0.32500911 1.4748962 2960685
-0.73202729 -0.27499625 1.4749138 2960685
-0.73204815 -0.22498037 1.4749653 2960685
-0.73206854 -0.17498966 1.4749981 2960685
-0.73208851 -0.12499595 1.4750385 2960685
-0.73210955 -0.074971594 1.4750919 2960685
-0.73212993 -0.024974244 1.4751115 2960685
-0.73215055 0.024975173 1.4751503 2960685
-0.73217583 0.074839205 1.4750494 3684408
-0.72815144 0.10833259 1.4749255 10197915
-0.67517155 0.11327723 1.4779638 10197915
-0.62506652 0.11329594 1.4782052 10197915
-0.57514679 0.11331433 1.4785764 10197915
-0.52500749 0.11333346 1.4785664 10197915
-0.47485268 0.11335174 1.4790645 10197915
-0.42488286 0.1133706 1.4791791 10197915
-0.37489638 0.113389 1.4795508 10197915
-0.32489973 0.1134081 1.4795384 10197915
-0.27508464 0.11342646 1.4799078 10197915
-0.22504927 0.11344489 1.4802799 10197915
-0.17499882 0.11346378 1.4803947 5395026
-0.12329641 0.1134918 1.4756811 2039583
-0.075066261 0.11351439 1.4733193 2039583
-0.025026768 0.11353352 1.4732779 2039583
0.025032256 0.1135522 1.4735202 2039583
0.074951537 0.11357041 1.4739988 2039583
0.12488732 0.11358941 1.4740034 2039583
0.17499362 0.11360799 1.4743383 2039583
0.22511636 0.11362679 1.4744885 2039583
0.2751016 0.11364504 1.4749677 2763306
0.30869713 0.11365137 1.4786234 2894892
-0.73037785 -0.56847429 1.5250392 4934475
-0.73039508 -0.5249871 1.5251027 4934475
-0.73041487 -0.47499105 1.5251423 5000268
-0.73043686 -0.42499244 1.5251414 4144959
-0.73045546 -0.37499058 1.5252527 2960685
-0.73047584 -0.32501796 1.5252948 2960685
-0.73049724 -0.27504233 1.5253161 2960685
-0.73051882 -0.22503208 1.5253214 2960685
-0.73053688 -0.17501931 1.5254211 2960685
-0.73055899 -0.12500387 1.525416 2960685
-0.73057824 -0.074985445 1.5255107 2960685
-0.7306 -0.02499681 1.5255033 2960685
-0.73061967 0.024997745 1.5255458 2960685
-0.7306453 0.075147852 1.5254456 3289650
-0.72690284 0.10820667 1.5247203 10197915
-0.67514783 0.11319197 1.5263522 10197915
-0.62487316 0.11321096 1.5264677 10197915
-0.57479 0.11322942 1.5268561 10197915
-0.52490515 0.11324798 1.5271071 10197915
-0.47500035 0.11326659 1.5273573 10197915
-0.42508259 0.11328521 1.5276086 10197915
-0.37472722 0.11330367 1.5280025 10197915
-0.32477099 0.11332235 1.5282533 10197915
-0.27501473 0.11334115 1.5283629 10197915
-0.2250313 0.1133597 1.5286137 10197915
-0.17502789 0.11337836 1.5288651 4408131
-0.12501168 0.11339702 1.5291166 2039583
-0.074975401 0.1134157 1.5293682 2039583
-0.02492623 0.11343434 1.529619 2039583
0.024931673 0.11345289 1.5298696 2039583
0.075013697 0.11347152 1.5301214 2039583
0.12511577 0.11349029 1.5303731 2039583
0.17501986 0.11350854 1.5307641 2039583
0.22494017 0.11352742 1.530875 2039583
0.27487993 0.11354606 1.5311258 2565927
0.31439573 0.11355834 1.5326939 2894892
-0.72885978 -0.56840986 1.5750244 8684676
-0.7288779 -0.52497858 1.5750581 6513507
-0.72889829 -0.47498712 1.5750988 6513507
-0.7289167 -0.42499295 1.5752085 4342338
-0.72893995 -0.37499678 1.575155 2960685
-0.7289589 -0.32499665 1.5752456 2960685
-0.72898102 -0.27499443 1.5752418 2960685
-0.72899789 -0.22498931 1.575404 2960685
-0.72902125 -0.17498121 1.5753385 2960685
-0.72903991 -0.12500471 1.5754464 2960685
-0.72906137 -0.075025886 1.5754554 2960685
-0.72908199 -0.025010439 1.5755017 2960685
-0.72910231 0.025011377 1.5755441 2960685
-0.7291221 0.074998051 1.5756122 2960685
-0.72523171 0.10825686 1.5760549 9934743
-0.67468137 0.11310088 1.5781752 10197915
-0.62510067 0.11311985 1.57812 10197915
-0.57506263 0.11313827 1.5785385 10197915
-0.52479506 0.11315698 1.5787996 10197915
-0.47494477 0.11317524 1.5792128 10197915
-0.42507595 0.11319406 1.5793175 10197915
-0.37475851 0.11321279 1.5795792 10197915
-0.32485664 0.11323139 1.5798346 10197915
-0.27516016 0.11324988 1.5800962 10197915
-0.22500746 0.11326855 1.5803567 10197915
-0.17505965 0.11328689 1.580771 3355443
-0.12487702 0.11330587 1.5808775 2039583
-0.074893117 0.11332452 1.581133 2039583
-0.02511484 0.11334301 1.5813957 2039583
0.025120361 0.11336175 1.5816565 2039583
0.072588056 0.11338505 1.5786976 2039583
0.12482376 0.11341456 1.5732533 2039583
0.1750398 0.11343282 1.5737422 2039583
0.22527219 0.11345192 1.5737722 2039583
0.27520034 0.11347032 1.5741448 2434341
0.31898278 0.11348611 1.5746758 2894892
-0.72732443 -0.56842846 1.6255896 11645361
-0.72734344 -0.52500379 1.6255782 7697781
-0.72736365 -0.47499406 1.625651 6513507
-0.72741634 -0.42527056 1.6246169 3487029
-0.72744519 -0.37502468 1.6243762 2960685
-0.72746855 -0.32503873 1.6243418 2960685
-0.72748703 -0.27497026 1.6244413 2960685
-0.72750908 -0.2249781 1.6244233 2960685
-0.72752756 -0.17502345 1.6245505 2960685
-0.72754973 -0.12498598 1.6245241 2960685
-0.72756916 -0.07502538 1.6245862 2960685
-0.72758937 -0.025023839 1.6246681 2960685
-0.72760898 0.025024766 1.6247147 2960685
-0.72763062 0.075031921 1.6247236 2960685
-0.72480023 0.10783496 1.6244631 8750469
-0.67475748 0.11302032 1.6239018 10197915
-0.62474215 0.11303912 1.6240437 10197915
-0.57470882 0.11305754 1.6244369 10197915
-0.52499372 0.11307603 1.6247028 10197915
-0.47493204 0.11309487 1.6248443 10197915
-0.42484647 0.11311331 1.6252379 10197915
-0.37475052 0.11313216 1.62538 10197915
-0.32463327 0.11315054 1.625774 10197915
-0.27483642 0.11316913 1.6260402 10197915
-0.22502814 0.11318811 1.6260512 10197915
-0.17520148 0.11320619 1.6265727 2500134
-0.12535569 0.11322475 1.6268392 2039583
-0.075157188 0.11324365 1.626982 2039583
-0.024944806 0.11326209 1.6273757 2039583
0.024950258 0.11328065 1.627643 2039583
0.077591978 0.1133095 1.6226616 2039583
0.12518139 0.11333465 1.6187036 2039583
0.17506075 0.11335349 1.6187985 2039583
0.22473069 0.11337138 1.6193993 2039583
0.2748667 0.11339034 1.6194994 2302755
0.32375214 0.11340696 1.6206375 2894892
0.35101926 0.11338533 1.6388454 2894892
-0.72582638 -0.56852579 1.6749141 11711154
-0.72584403 -0.52499622 1.6749902 10790052
-0.72586411 -0.47500384 1.6750283 6250335
-0.72591704 -0.42470002 1.6739788 2960685
-0.72595197 -0.37498689 1.6735764 2960685
-0.72597146 -0.32499182 1.6736423 2960685
-0.72598934 -0.27503559 1.6737511 2960685
-0.72601295 -0.22499436 1.6737423 2960685
-0.72603124 -0.17499134 1.6738212 2960685
-0.72605038 -0.1250266 1.6738702 2960685
-0.72607577 -0.075017691 1.6738305 2960685
-0.72609031 -0.025049102 1.6740062 2960685
-0.72610915 0.02500934 1.6740878 2960685
-0.72613746 0.074983314 1.673938 2960685
-0.72264045 0.10815097 1.6734848 7697781
-0.67483521 0.11293459 1.6725516 10197915
-0.62505567 0.11295377 1.6724547 10197915
-0.57502294 0.11297205 1.6729181 10197915
-0.5249784 0.11299031 1.6733772 10197915
-0.47514465 0.1130095 1.6732801 10197915
-0.42506865 0.11302747 1.6739256 10197915
-0.37474123 0.1130465 1.6740211 10197915
-0.32485777 0.11306503 1.6742909 10197915
-0.2749621 0.1130836 1.6745709 10197915
-0.22481529 0.11310193 1.6750298 9671571
-0.17488529 0.11312112 1.6749339 2039583
-0.12493931 0.11313905 1.67558 2039583
-0.074972965 0.11315829 1.6754835 2039583
-0.024997735 0.11317621 1.6761302 2039583
0.025003208 0.11319479 1.6764046 2039583
0.075011291 0.11321405 1.676309 2039583
0.12504329 0.11323198 1.6769562 2039583
0.17508787 0.11325125 1.6768602 2039583
0.22514918 0.11326922 1.6775073 2039583
0.2749972 0.11328807 1.6775924 2171169
0.32508996 0.1133067 1.6778741 2894892
0.35588399 0.11330771 1.683961 2894892
-0.72432959 -0.56856054 1.7242161 11711154
-0.7243461 -0.52499974 1.7243044 11711154
-0.72436816 -0.47505301 1.7242701 7697781
-0.72438765 -0.42506 1.7243694 2960685
0.14715049 -0.41996035 1.7499352 2039583
0.17484802 -0.41834509 1.7490972 2039583
0.22515941 -0.41847071 1.7475691 2039583
0.26191893 -0.41820315 1.746454 2039583
-0.72440773 -0.37501776 1.7244269 2960685
0.14820893 -0.3821739 1.7499691 2039583
0.17446122 -0.37495765 1.7491848 2039583
0.22516923 -0.37504652 1.7476456 2039583
0.26193032 -0.37480715 1.7465295 2039583
-0.72442722 -0.32497454 1.724484 2960685
0.17539002 -0.32523566 1.7492435 2039583
0.22518036 -0.32510483 1.7477319 2039583
0.26148042 -0.32527149 1.7466304 2039583
-0.72445017 -0.27497211 1.7244576 2960685
0.17649919 -0.27519158 1.7492976 2039583
0.2251917 -0.27515799 1.7478192 2039583
0.26123601 -0.27498579 1.7467252 2039583
-0.72446752 -0.22501226 1.7246168 2960685
0.17824733 -0.22520164 1.7493318 2039583
0.22520283 -0.22520635 1.7479056 2039583
0.26124913 -0.22506531 1.7468123 2039583
-0.72448999 -0.17500407 1.7245626 2960685
0.17944777 -0.17516209 1.749383 2039583
0.22521383 -0.17524959 1.7479939 2039583
0.26126203 -0.17513992 1.7468992 2039583
-0.72450709 -0.12499397 1.7247307 2960685
0.18109378 -0.12517306 1.7494204 2039583
0.22522511 -0.12528794 1.7480801 2039583
0.26127496 -0.12520957 1.7469858 2039583
-0.72453403 -0.075025022 1.7245617 2960685
0.18236917 -0.075097606 1.7494695 2039583
0.22523648 -0.075321279 1.7481678 2039583
0.26128805 -0.075274073 1.7470733 2039583
-0.7245459 -0.025010813 1.7248811 2960685
0.1839274 -0.025091683 1.7495098 2039583
0.2252475 -0.025349626 1.7482554 2039583
0.26130107 -0.025333757 1.74716 2039583
-0.7245664 0.025011739 1.7249283 2960685
0.18530384 0.024252698 1.7495543 2039583
0.22527917 0.02533119 1.748342 2039583
0.26131427 0.025335465 1.7472479 2039583
-0.72459477 0.075031444 1.7247066 2960685
0.1867428 0.074211292 1.7495983 2039583
0.22524978 0.075311713 1.7484303 2039583
0.26132727 0.07528583 1.7473354 2039583
-0.72218966 0.10768847 1.7246455 6184542
-0.67492038 0.11284398 1.723994 10197915
-0.62502688 0.11286251 1.7242779 10197915
-0.57512236 0.11288159 1.724257 10197915
-0.52519965 0.11289959 1.724844 10197915
-0.47525701 0.11291816 1.7251277 10197915
-0.42529795 0.11293671 1.7254111 10197915
-0.37497029 0.11295566 1.7255467 10197915
-0.32462057 0.11297412 1.7259821 10197915
-0.2749728 0.11299282 1.7261101 10197915
-0.22530602 0.113011 1.7265462 8684676
-0.17490938 0.11302999 1.7266824 2039583
-0.12449618 0.11304845 1.727118 2039583
-0.074780166 0.11306721 1.7272463 2039583
-0.025050856 0.1130854 1.7276827 2039583
0.025056355 0.113104 1.7279673 2039583
0.074818254 0.11312277 1.7280954 2039583
0.12459942 0.11314099 1.7285322 2039583
0.18366081 0.10862663 1.7430929 2039583
0.22521335 0.10770065 1.7449054 2039583
0.26603881 0.10873184 1.7412422 2039583
0.32531568 0.11321557 1.7296714 2829099
0.36095369 0.11322686 1.7309766 2894892
-0.51312625 -0.61864978 1.769632 11711154
-0.47499558 -0.61863667 1.7684741 11711154
-0.42457724 -0.61855966 1.7669438 11711154
-0.3742542 -0.6185053 1.7654164 11711154
-0.32470518 -0.61863089 1.763912 11711154
-0.27453503 -0.61842585 1.7623892 11711154
-0.23552768 -0.61861938 1.7657994 11711154
-0.72279245 -0.56867528 1.7748464 11711154
-0.51322019 -0.57480484 1.7697114 11711154
-0.47461221 -0.5747093 1.7685394 11711154
-0.42463654 -0.57535118 1.7670212 11711154
-0.3744936 -0.57489985 1.7655002 11711154
-0.3242988 -0.57481754 1.7639765 11711154
-0.27463856 -0.57526332 1.762467 11711154
-0.23555313 -0.5750432 1.765998 11711154
-0.72281015 -0.52496243 1.7748852 11711154
-0.5132457 -0.52497572 1.7698001 11711154
-0.47480857 -0.52462983 1.7686332 11711154
-0.42475569 -0.52518672 1.7671127 11711154
-0.37451202 -0.52518934 1.7655876 11711154
-0.32449356 -0.52473789 1.7640691 11711154
-0.2744914 -0.52493268 1.7625514 11711154
-0.23556662 -0.52532184 1.7660983 11711154
-0.7228322 -0.47497505 1.7748674 6776679
-0.51327139 -0.47514138 1.7698874 9605778
-0.47483191 -0.47482798 1.7687206 10132122
-0.42445853 -0.47474578 1.7671922 10724259
-0.37465033 -0.47532016 1.7656785 11513775
-0.32450947 -0.47506472 1.7641573 11711154
-0.27455339 -0.47467858 1.7626411 11711154
-0.23564765 -0.47505006 1.7660444 11711154
-0.72284734 -0.42498365 1.7750888 2960685
-0.5132969 -0.42530194 1.7699748 2960685
-0.47485563 -0.42502189 1.7688085 2960685
-0.42465937 -0.42465568 1.7672861 2960685
-0.37445217 -0.4248946 1.7657607 2960685
-0.32452568 -0.42538688 1.7642448 3552822
-0.27458793 -0.42502132 1.7627288 11711154
-0.22640774 -0.42238021 1.7616156 9671571
-0.17497067 -0.41846266 1.7597166 2039583
-0.12545007 -0.41867876 1.7582129 2039583
-0.074964195 -0.41846877 1.7566804 2039583
-0.024496162 -0.41838837 1.7551483 2039583
0.024698067 -0.41847473 1.753655 2039583
0.074518442 -0.41852111 1.7521421 2039583
0.12263589 -0.41833562 1.7506819 2039583
-0.72287375 -0.37499154 1.7749405 2960685
-0.51332164 -0.37545764 1.7700632 2960685
-0.47487932 -0.3752102 1.7688971 2960685
-0.42468083 -0.37488714 1.767373 2960685
-0.37454724 -0.37458643 1.7658522 2960685
-0.32458141 -0.37501517 1.7643347 3026478
-0.27460146 -0.37538111 1.7628168 11711154
-0.22474752 -0.37505886 1.7613029 9342606
-0.17497826 -0.37473738 1.7597933 2039583
-0.1251779 -0.37499708 1.7582814 2039583
-0.075096957 -0.37498188 1.7567604 2039583
-0.024727339 -0.37522 1.7552314 2039583
0.02469915 -0.37489954 1.7537313 2039583
0.074945584 -0.37499329 1.7522057 2039583
0.12388828 -0.37471205 1.7507203 2039583
-0.72288984 -0.32504332 1.7751163 2960685
-0.51338619 -0.32552475 1.7701527 2960685
-0.47490284 -0.32539377 1.7689847 2960685
-0.42470157 -0.32511353 1.7674611 2960685
-0.37458694 -0.32483378 1.7659409 2960685
-0.32451758 -0.3245984 1.7644204 3026478
-0.27461526 -0.32500589 1.762905 11447982
-0.22487789 -0.32530329 1.7613943 9342606
-0.17498687 -0.32517722 1.7598805 2039583
-0.12530074 -0.32489875 1.7583725 2039583
-0.074839734 -0.32478571 1.7568402 2039583
-0.024728578 -0.32506165 1.755319 2039583
0.02461154 -0.32488856 1.7538209 2039583
0.074769877 -0.3252281 1.7522982 2039583
0.12475292 -0.32494643 1.7507815 2039583
0.1503464 -0.31382358 1.7500236 2039583
-0.72291231 -0.27504483 1.7751002 2960685
-0.5133363 -0.27494118 1.7702397 2960685
-0.47503319 -0.27544039 1.769076 2960685
-0.42472267 -0.27533498 1.767549 2960685
-0.37460548 -0.275098 1.7660277 2960685
-0.32457432 -0.27486166 1.7645096 2960685
-0.27462927 -0.27462548 1.7629933 2960685
-0.22465189 -0.27497178 1.761476 2894892
-0.17501608 -0.27490422 1.7599695 2039583
-0.12530702 -0.27537608 1.7584596 2039583
-0.074975081 -0.27513692 1.7569315 2039583
-0.024729805 -0.27489802 1.755407 2039583
0.024792362 -0.2747722 1.7539032 2039583
0.074773438 -0.2751509 1.752386 2039583
0.12475912 -0.27491269 1.7508687 2039583
0.15148644 -0.2715275 1.7500631 2039583
-0.72293049 -0.22499327 1.7752163 2960685
-0.51339906 -0.22442839 1.7703295 2960685
-0.47484538 -0.22488637 1.7691586 2960685
-0.42478442 -0.22550732 1.7676377 2894892
-0.37462395 -0.22535734 1.7661155 2960685
-0.32459041 -0.22516355 1.7645963 2894892
-0.27464256 -0.22497025 1.7630805 2960685
-0.22478081 -0.22477706 1.7615676 2697513
-0.17498359 -0.22460623 1.7600558 2039583
-0.12531336 -0.22512025 1.7585472 2039583
-0.074978672 -0.22492474 1.7570207 2039583
-0.024909547 -0.22506686 1.7554994 2039583
0.024702875 -0.22526394 1.7539932 2039583
0.074777365 -0.22506878 1.7524728 2039583
0.12476534 -0.2248738 1.7509559 2039583
0.15287761 -0.2230462 1.7501057 2039583
-0.72295409 -0.17498943 1.7751609 2960685
-0.51342493 -0.17456391 1.770418 2960685
-0.4749743 -0.17444892 1.7692512 2960685
-0.4247255 -0.17498879 1.7677246 2960685
-0.37482136 -0.17519821 1.7662092 2960685
-0.32460636 -0.1754608 1.7646842 2960685
-0.27465641 -0.17530997 1.7631683 2960685
-0.2247922 -0.17515959 1.7616546 2697513
-0.17501305 -0.17500931 1.7601438 2039583
-0.12531964 -0.17485946 1.7586352 2039583
-0.074982293 -0.17470744 1.7571074 2039583
-0.024553496 -0.17490272 1.7555765 2039583
0.024704065 -0.17513315 1.7540807 2039583
0.074780941 -0.17498143 1.7525606 2039583
0.12477157 -0.17482996 1.7510432 2039583
0.15432261 -0.1734069 1.7501487 2039583
-0.72297055 -0.12498152 1.7753273 2960685
-0.5134508 -0.12469462 1.770506 2960685
-0.47499788 -0.12461246 1.7693387 2960685
-0.42478663 -0.12450517 1.7678148 2960685
-0.37448218 -0.12472554 1.766287 2960685
-0.3246226 -0.12502196 1.7647728 2960685
-0.27466986 -0.12491453 1.763257 2960685
-0.22498122 -0.12521029 1.7617482 2697513
-0.17502178 -0.12542948 1.7602303 2039583
-0.12532575 -0.12532209 1.7587222 2039583
-0.074986346 -0.12521312 1.7571942 2039583
-0.024733502 -0.12510441 1.7556689 2039583
0.024705352 -0.12499747 1.7541683 2039583
0.074784629 -0.12488917 1.7526484 2039583
0.12477779 -0.12478109 1.7511309 2039583
0.15573655 -0.1237549 1.7501925 2039583
-0.72299695 -0.074971654 1.7751791 2960685
-0.51347625 -0.074820496 1.7705944 2960685
-0.47502142 -0.074771121 1.7694265 2960685
-0.4248077 -0.074706711 1.7679025 2960685
-0.37468013 -0.074642442 1.7663808 2960685
-0.32463911 -0.074578166 1.7648619 2960685
-0.27468386 -0.074514166 1.7633451 2960685
-0.22463657 -0.074862905 1.7618258 2697513
-0.17503045 -0.075115524 1.7603197 2039583
-0.1253321 -0.075051181 1.7588096 2039583
-0.074989691 -0.074985936 1.757283 2039583
-0.024734756 -0.07492087 1.755757 2039583
0.024706578 -0.074856848 1.7542565 2039583
0.074788533 -0.07479196 1.7527356 2039583
0.12478401 -0.074727163 1.7512182 2039583
0.15716888 -0.073877156 1.750236 2039583
-0.72300953 -0.025009112 1.7754935 2960685
-0.51350164 -0.024941269 1.7706821 2960685
-0.47504517 -0.024924796 1.7695149 2960685
-0.42482874 -0.024903342 1.7679901 2960685
-0.37469888 -0.024881914 1.766469 2960685
-0.32465512 -0.024860496 1.7649492 2960685
-0.27469763 -0.024839135 1.7634326 2960685
-0.22482617 -0.024817806 1.7619189 2697513
-0.17503928 -0.024796514 1.7604073 2039583
-0.12533839 -0.024775274 1.7588984 2039583
-0.074993774 -0.024753738 1.7573702 2039583
-0.024735969 -0.024732254 1.7558445 2039583
0.024707783 -0.024711099 1.7543436 2039583
0.074792117 -0.024689702 1.752823 2039583
0.12479021 -0.024668317 1.7513057 2039583
0.15860941 -0.024039647 1.75028 2039583
-0.72302926 0.025010057 1.7755439 2960685
-0.51352704 0.02494291 1.7707697 2960685
-0.47506866 0.024926456 1.7696028 2960685
-0.42484993 0.024904996 1.7680779 2960685
-0.37471738 0.024883578 1.7665558 2960685
-0.32467109 0.024862144 1.7650365 2960685
-0.27471122 0.02484077 1.7635198 3289650
-0.22483641 0.024819456 1.7620056 2960685
-0.17504802 0.02479817 1.7604941 2039583
-0.12534443 0.024776904 1.7589856 2039583
-0.074997358 0.024755385 1.7574568 2039583
-0.024737209 0.024733875 1.7559314 2039583
0.024709033 0.024712741 1.7544299 2039583
0.074795932 0.024691334 1.75291 2039583
0.12479632 0.024669928 1.7513913 2039583
0.16003971 0.025196819 1.7503225 2039583
-0.72305793 0.074978143 1.7753296 2960685
-0.51355261 0.074832052 1.7708583 2960685
-0.47509226 0.074782707 1.76969 2960685
-0.42487061 0.074718274 1.7681658 2960685
-0.3747358 0.074653983 1.7666434 2960685
-0.32468742 0.074589744 1.7651243 3223857
-0.2747249 0.07452561 1.7636076 10197915
-0.2246888 0.074702218 1.7620887 7895160
-0.17505668 0.075127229 1.7605828 2039583
-0.12535074 0.075062804 1.759074 2039583
-0.075000957 0.074997596 1.7575452 2039583
-0.024738453 0.074932456 1.7560194 2039583
0.024710231 0.074868403 1.7545178 2039583
0.074799642 0.074803554 1.7529973 2039583
0.12480263 0.074738726 1.7514796 2039583
0.16147764 0.075183742 1.7503662 2039583
-0.72082579 0.10761829 1.7739826 4868682
-0.67513758 0.11276715 1.7675729 10197915
-0.62508255 0.11278602 1.7677022 10197915
-0.57500875 0.11280432 1.7681551 10197915
-0.51717961 0.1078793 1.7692232 6513507
-0.4750711 0.10696673 1.7685277 6118749
-0.42492589 0.10688616 1.7671841 6447714
-0.37478516 0.10682357 1.7658203 6842472
-0.32471868 0.10672543 1.7645041 7303023
-0.27480167 0.10664521 1.763168 10197915
-0.22545104 0.10680392 1.7618325 8092539
-0.17504697 0.10721388 1.7604886 2039583
-0.12535422 0.1071312 1.7591238 2039583
-0.075003468 0.10703854 1.7576013 2039583
-0.024739232 0.10694559 1.7560745 2039583
0.024711041 0.10685417 1.7545737 2039583
0.074801967 0.10676154 1.7530529 2039583
0.12480651 0.10666908 1.7515347 2039583
0.16243632 0.1065995 1.7503924 2039583
0.28789321 0.11312589 1.7724764 2039583
0.32508874 0.11313877 1.7732308 2697513
0.36564136 0.11315209 1.7744492 2894892
-0.22489236 -0.61832982 1.8275788 11711154
-0.72127128 -0.56871158 1.8249315 11711154
-0.22490026 -0.57475388 1.827943 11711154
-0.72128671 -0.5249809 1.8250523 11711154
-0.22492139 -0.52496475 1.8279638 11711154
-0.72131109 -0.4749859 1.8249733 4671303
-0.22497003 -0.47716197 1.8270435 11711154
-0.72132921 -0.42498824 1.8250846 2960685
-0.72135007 -0.37498641 1.8251126 2960685
-0.72136939 -0.32498387 1.8252022 2960685
-0.72139025 -0.27492288 1.8252274 2960685
-0.72141021 -0.22496794 1.8252978 2960685
-0.7214306 -0.17500986 1.8253233 2960685
-0.7214486 -0.12499496 1.8254497 2960685
-0.72147483 -0.074977979 1.8253095 2960685
-0.72148758 -0.024958676 1.8256044 2960685
-0.72150797 0.02495959 1.8256568 2960685
-0.72153521 0.074984558 1.8254633 2960685
-0.71867585 0.10803199 1.825455 3092271
-0.67498446 0.11266582 1.8251404 4473924
-0.62492955 0.11268395 1.825678 5723991
-0.57659125 0.11270602 1.8236295 7237230
-0.54431951 0.11274087 1.8108333 10066329
0.29156062 0.11304693 1.8181115 2039583
0.32522804 0.11305784 1.8192087 2565927
0.37058809 0.11307319 1.8203237 2894892
-0.22334471 -0.61852485 1.8785597 4408131
-0.71977526 -0.56878418 1.874205 11711154
-0.22336578 -0.57467645 1.8784946 4210752
-0.71979207 -0.52501732 1.874284 11250603
-0.22338119 -0.52474797 1.8787005 3947580
-0.71981376 -0.47497734 1.8742741 3092271
-0.22344528 -0.48332894 1.8771834 4276545
-0.71983159 -0.42499453 1.8744063 2960685
-0.71985579 -0.37506995 1.8743241 2960685
-0.7198742 -0.32502118 1.8744321 2960685
-0.71989185 -0.2750307 1.8745642 2960685
-0.7199145 -0.22503614 1.8745463 2960685
-0.71993399 -0.17503975 1.8746152 2960685
-0.71995598 -0.12510091 1.8746132 2960685
-0.71997422 -0.075037971 1.8747295 2960685
-0.71999466 -0.024975471 1.8747733 2960685
-0.72001475 0.024976395 1.8748252 2960685
-0.72003436 0.074984975 1.874896 2960685
-0.71812457 0.10749734 1.87711 2960685
-0.67534184 0.11255708 1.8868104 2960685
-0.62541246 0.11257629 1.8867229 2960685
-0.57388723 0.11262609 1.8696057 2960685
0.2953653 0.11296481 1.8655707 2039583
0.32537472 0.11297263 1.867635 2434341
0.37497252 0.11299031 1.8683274 2894892
0.40204871 0.11297881 1.8807306 2894892
-0.22189015 -0.61877143 1.9264727 2039583
-0.71825671 -0.56881654 1.9242065 11711154
-0.22190508 -0.57510459 1.926605 2039583
-0.71827495 -0.52504569 1.9242353 9276813
-0.22191179 -0.524867 1.9271035 2039583
-0.71829313 -0.47502002 1.9243574 2960685
-0.22199342 -0.48914713 1.9249257 2039583
-0.71831661 -0.42493013 1.9243052 2960685
-0.71833473 -0.37489736 1.9244176 2960685
-0.718355 -0.3249858 1.9244711 2960685
-0.71837366 -0.27494881 1.9245729 2960685
-0.71839505 -0.22490858 1.9245681 2960685
-0.71841484 -0.1749271 1.9246426 2960685
-0.71843684 -0.12488109 1.9246484 2960685
-0.71845263 -0.07489343 1.9248356 2960685
-0.71847737 -0.024967628 1.9247363 2960685
-0.71849793 0.02496854 1.9247906 2960685
-0.71851349 0.074899942 1.9249982 2960685
-0.71762204 0.10679433 1.925059 2960685
-0.67493188 0.11248875 1.9256955 2960685
-0.62401843 0.11250905 1.9252006 2960685
-0.58427852 0.11254834 1.9115115 2960685
0.29842293 0.11289544 1.9056273 2039583
0.32552943 0.11288273 1.9187092 2302755
0.37527823 0.1129008 1.9192309 2894892
0.40625554 0.11290766 1.9220506 2894892
-0.22052164 -0.61869133 1.9715528 2039583
-0.71671665 -0.56869733 1.9749374 11711154
-0.22054076 -0.57524186 1.9715444 2039583
-0.7167365 -0.52500582 1.974902 7171437
-0.22055359 -0.52524841 1.9718388 2039583
-0.71675503 -0.47504154 1.9750085 2960685
-0.2207094 -0.49453747 1.9671451 2039583
-0.71677703 -0.4250741 1.9750118 2960685
-0.71679461 -0.37503541 1.9751374 2960685
-0.71681672 -0.32499453 1.9751347 2960685
-0.71683431 -0.27508733 1.9752686 2960685
-0.71685702 -0.2251085 1.9752282 2960685
-0.71687615 -0.17512707 1.975323 2960685
-0.71689594 -0.1251426 1.9753851 2960685
-0.71691364 -0.075087659 1.9755189 2960685
-0.71693921 -0.025032712 1.9753931 2960685
-0.71695936 0.025033655 1.9754472 2960685
-0.71697372 0.075094178 1.9756862 2960685
-0.71547055 0.10738074 1.9738425 2960685
-0.67531556 0.11241692 1.9664018 2960685
-0.62532121 0.11243582 1.9664991 2960685
-0.59224999 0.11245406 1.9633011 2960685
0.32891381 0.11278998 1.9721181 2171169
0.37520415 0.1128057 1.9732029 2894892
0.4118118 0.11281674 1.9748751 2894892
-0.21890822 -0.61899453 2.0246959 2039583
-0.71522552 -0.56879842 2.0240333 11711154
-0.21892819 -0.57525313 2.024667 2039583
-0.71525002 -0.52505815 2.0238659 5131854
-0.21898228 -0.52701426 2.0235753 2039583
-0.71526492 -0.47498944 2.0240827 2960685
-0.21968031 -0.49904737 2.0009806 2039583
-0.71528524 -0.42499399 2.0241382 2960685
-0.71530795 -0.37499699 2.0241044 2960685
-0.71532708 -0.32491985 2.0241861 2960685
-0.7153458 -0.27491587 2.0242829 2960685
-0.7153669 -0.22491002 2.0243123 2960685
-0.71538854 -0.17490111 2.0243161 2960685
-0.71540612 -0.12488975 2.0244536 2960685
-0.71542835 -0.075026967 2.0244427 2960685
-0.71544623 -0.025087751 2.0245659 2960685
-0.71546608 0.025088686 2.0246224 2960685
-0.71548843 0.075033553 2.0246119 2960685
-0.71417654 0.10720779 2.0242088 2960685
-0.67557538 0.11231662 2.0232999 2960685
-0.62651533 0.11233703 2.0223427 2960685
-0.59847927 0.11237094 2.0091753 2960685
0.33336869 0.11269157 2.0289459 2039583
0.37512568 0.11270513 2.0302987 2829099
0.41779271 0.11271909 2.0316076 2894892
-0.21721606 -0.61866915 2.0804424 2039583
-0.71373379 -0.56881607 2.0731664 11447982
-0.2174101 -0.57519722 2.0746734 2039583
-0.71375132 -0.524948 2.0732136 3289650
-0.21745901 -0.53274733 2.0736699 2039583
-0.71377176 -0.47498897 2.0732553 2960685
-0.71379238 -0.42494836 2.0733008 2960685
-0.71380842 -0.37490439 2.0734868 2960685
-0.71383297 -0.32501522 2.0733871 2960685
-0.71385318 -0.27504486 2.0734465 2960685
-0.71387011 -0.22499311 2.0736041 2960685
-0.71389282 -0.17493865 2.0735765 2960685
-0.71391177 -0.12503798 2.0736768 2960685
-0.71393383 -0.074979186 2.0736656 2960685
-0.71394819 -0.024916381 2.0738933 2960685
-0.71396786 0.024917299 2.073951 2960685
-0.71399379 0.074985638 2.0738382 2960685
-0.71278632 0.10724461 2.0755355 2960685
-0.67499489 0.1122116 2.0830595 2960685
-0.63459045 0.1122295 2.0816541 2960685
0.33697632 0.11261192 2.0749643 2039583
0.37570801 0.11262622 2.0752282 2697513
0.42305943 0.11264373 2.0755503 2894892
-0.21581504 -0.61898267 2.1265891 2039583
-0.71216518 -0.56899476 2.1248212 9079434
-0.21603695 -0.57479751 2.1199119 2039583
-0.71218079 -0.52507281 2.1249402 2960685
-0.21612675 -0.53807628 2.11748 2039583
-0.71220356 -0.47498754 2.1249075 2960685
-0.71222073 -0.42506066 2.1250405 2960685
-0.71224046 -0.37512869 2.125118 2960685
-0.71226102 -0.32503548 2.1251619 2960685
-0.71228093 -0.27501959 2.1252208 2960685
-0.71230203 -0.22508046 2.1252339 2960685
-0.71232074 -0.17505863 2.1253407 2960685
-0.71234345 -0.12495364 2.1253245 2960685
-0.71235722 -0.074925527 2.1255817 2960685
-0.71238464 -0.024979433 2.1253963 2960685
-0.71240437 0.024980368 2.1254551 2960685
-0.71243882 0.074432664 2.1250396 2960685
-0.71185064 0.10655858 2.1238785 2960685
-0.67452812 0.11212716 2.1311047 2960685
-0.6419307 0.11213921 2.1313334 2960685
0.34051365 0.11253381 2.120086 2039583
0.37543938 0.11254301 2.1224225 2565927
0.42518315 0.11256187 2.1224871 2894892
0.45405063 0.11255319 2.1336715 2894892
-0.21436816 -0.6187982 2.1742542 2039583
-0.71059066 -0.56892395 2.176676 6184542
-0.21438289 -0.5746997 2.1744027 2039583
-0.7106089 -0.52493042 2.1767142 2960685
-0.21460506 -0.54416287 2.1675198 2039583
-0.71062642 -0.47498462 2.1768274 2960685
-0.71064663 -0.42503536 2.1768892 2960685
-0.71066946 -0.37499583 2.1768682 2960685
-0.71069014 -0.3250404 2.1768923 2960685
-0.71075416 -0.27560407 2.1754892 2960685
-0.7108041 -0.22492284 2.1745749 2960685
-0.71082497 -0.174978 2.1745951 2960685
-0.71084392 -0.12493124 2.1746964 2960685
-0.71086603 -0.075080663 2.1746964 2960685
-0.71088487 -0.025129866 2.1747987 2960685
-0.71090424 0.025130795 2.1748593 2960685
-0.71095204 0.075670563 2.1740091 2960685
-0.710069 0.10698777 2.1737905 2960685
-0.67533749 0.11204056 2.1801188 2960685
-0.6464743 0.11207945 2.1642807 2960685
0.34453174 0.11244507 2.1713407 2039583
0.37515509 0.11245635 2.1715591 2368548
0.424705 0.11247467 2.171912 2894892
0.45804691 0.11248694 2.1721497 2894892
-0.21284392 -0.61889774 2.224463 2039583
-0.7090984 -0.56904173 2.2258189 3618615
-0.21289404 -0.57646549 2.2234192 2039583
-0.70911843 -0.52499861 2.2257926 2960685
-0.7091378 -0.47501236 2.2258773 2960685
-0.70915723 -0.42492107 2.2259402 2960685
-0.70917481 -0.37492776 2.2260873 2960685
-0.70919877 -0.32493347 2.2260213 2960685
-0.70927137 -0.27442172 2.2243383 2960685
-0.70931703 -0.22504625 2.2235484 2960685
-0.70933884 -0.17503153 2.2235401 2960685
-0.70935494 -0.12510455 2.2237396 2960685
-0.70937985 -0.074900419 2.2236397 2960685
-0.70939374 -0.024875982 2.2239039 2960685
-0.70941293 0.024876915 2.2239673 2960685
-0.70943928 0.07490702 2.2238271 2960685
-0.70905089 0.10639023 2.2247074 2960685
-0.68184453 0.11194469 2.233139 2960685
0.34776118 0.11237377 2.2125347 2039583
0.3753227 0.1123659 2.2229686 2236962
0.42466128 0.11238351 2.2236605 2894892
0.4636704 0.11239376 2.226294 2894892
-0.21126795 -0.61893761 2.2763774 2039583
-0.7076214 -0.56911469 2.2744544 2960685
-0.21133588 -0.58262736 2.2746606 2039583
-0.70764238 -0.52505147 2.2743967 2960685
-0.70766014 -0.47501925 2.2745292 2960685
-0.70768368 -0.42498663 2.2744768 2960685
-0.7076984 -0.37505275 2.2747021 2960685
-0.70772314 -0.32511795 2.274605 2960685
-0.70773965 -0.27507553 2.2747846 2960685
-0.70776123 -0.22503015 2.2747788 2960685
-0.70778179 -0.1749817 2.2748191 2960685
-0.70780212 -0.12503418 2.2748814 2960685
-0.70781302 -0.075084724 2.2752247 2960685
-0.70784396 -0.02503396 2.2749183 2960685
-0.70786417 0.025034895 2.2749827 2960685
-0.70787293 0.07509122 2.2754159 2960685
-0.70759565 0.1064691 2.274363 2960685
-0.68725586 0.11187888 2.2693357 2960685
0.37738216 0.11227101 2.2772901 2039583
0.42462075 0.11228843 2.2776427 2894892
0.46903801 0.11230477 2.2779746 2894892
-0.20959438 -0.61912823 2.3315043 2039583
-0.70608348 -0.56908262 2.325105 2960685
