# .PCD v0.7 - Point Cloud Data file format
VERSION 0.7
FIELDS x y z rgb
SIZE 4 4 4 4
TYPE F F F U
COUNT 1 1 1 1
WIDTH 1161
HEIGHT 1
VIEWPOINT 0 0 0 1 0 0 0
POINTS 1161
DATA ascii
-1.1203164 -0.040743049 1.732509 6447714
-1.090694 -0.041857254 1.7146053 6447714
-0.9548744 -0.0033283827 1.7112937 6447714
-0.94063586 -0.0026747114 1.7048346 6447714
-0.96091211 0.008578063 1.7360277 6447714
-0.92351282 0.014289479 1.7262733 6447714
-0.87504268 0.027850958 1.7247521 6447714
-0.82789081 0.039099976 1.7197632 6447714
-0.78562111 0.045141719 1.7079923 6447714
-0.81488067 0.055030201 1.7415413 6447714
-0.7720288 0.060956255 1.729249 6447714
-0.72509944 0.072373591 1.7246833 6447714
-0.6709981 0.081912488 1.7185425 6447714
-0.64198565 0.086895846 1.7287849 6447714
-1.3606514 0.11392168 1.7240734 6447714
-1.3250437 0.11392108 1.718693 6447714
-1.2750739 0.11390968 1.718214 6447714
-1.2251126 0.11389738 1.7183356 6447714
-1.1751579 0.11388552 1.7181567 6447714
-1.1235061 0.11386581 1.7229879 6447714
-1.0910002 0.1138727 1.7130829 6447714
-0.96166062 0.11380439 1.7378334 6447714
-0.92503959 0.11381088 1.7275273 6447714
-0.87508178 0.11379874 1.7275474 6447714
-0.82513499 0.11378659 1.7275727 6447714
-0.77519596 0.11377503 1.7271882 6447714
-0.72503281 0.11376316 1.7270126 6447714
-0.67050004 0.11049848 1.732167 6447714
-0.63147867 0.10954035 1.7348866 6447714
-0.57483774 0.11372785 1.7262673 6447714
-0.52495217 0.1137154 1.7264936 6447714
-0.4753176 0.11370392 1.7261077 6447714
-0.42521235 0.11369205 1.7259333 6447714
-0.37512225 0.11368015 1.7257478 6447714
-0.32503802 0.11366828 1.7255732 6447714
-0.27496868 0.11365642 1.7253869 6447714
-0.22514454 0.11364429 1.7254122 6447714
-0.17509471 0.11363301 1.7248282 6447714
-0.12505567 0.11362056 1.7250521 6447714
-0.075022936 0.11360931 1.7244675 6447714
-0.025008606 0.11359683 1.7246921 6447714
0.016432336 0.11358698 1.7245426 5197647
-1.1231412 -0.51056361 1.7601224 6447714
-1.1227342 -0.45424092 1.7738396 6447714
-1.1232054 -0.43269941 1.7587371 6447714
-1.1234511 -0.026354168 1.7601676 6447714
-1.0031747 0.028844221 1.7952887 6447714
-0.97182971 0.027940314 1.7768406 6447714
-0.92705548 0.038078386 1.7711209 6447714
-0.88318413 0.04453535 1.7592402 6447714
-0.91240495 0.05421076 1.7923844 6447714
-0.87160915 0.059991378 1.7809335 6447714
-0.82504189 0.070373967 1.7746937 6447714
-0.77609611 0.084144473 1.7732935 6447714
-0.72989941 0.092487596 1.7635704 6447714
-0.69306594 0.098231554 1.7541784 6447714
-0.62881112 0.096593864 1.7530437 6447714
-1.411854 0.11383614 1.7896769 6447714
-1.3739358 0.11384989 1.774325 6447714
-1.3249563 0.11384065 1.7725579 6447714
-1.2748778 0.11382812 1.7728114 6447714
-1.2248127 0.11381692 1.7721882 6447714
-1.1747594 0.11380438 1.7724421 6447714
-1.1367551 0.11380009 1.7691483 6447714
-1.0027574 0.1137301 1.7942442 6447714
-0.97325003 0.11373866 1.7837198 6447714
-0.92496604 0.11372879 1.7824739 6447714
-0.87503177 0.11371672 1.7824574 6447714
-0.82473063 0.1137048 1.7822704 6447714
-0.77007401 0.11047006 1.7855216 6447714
-0.723427 0.10802829 1.7832223 6447714
-0.67868233 0.10843296 1.7641243 6447714
-0.62574452 0.11153063 1.7722855 6447714
-0.57487029 0.11364559 1.781342 6447714
-0.52500349 0.11363403 1.7809885 6447714
-0.47514758 0.11362196 1.7809716 6447714
-0.42493036 0.11361006 1.7807853 6447714
-0.37509817 0.1135985 1.7804315 6447714
-0.32527003 0.11358643 1.7804151 6447714
-0.27508411 0.11357454 1.7802286 6447714
-0.22491482 0.11356316 1.7797099 6447714
-0.17475317 0.11355076 1.7798558 6447714
-0.12459876 0.11353888 1.7796698 6447714
-0.074824251 0.11352734 1.7793162 6447714
-0.025063289 0.1135153 1.7792997 6447714
0.016952593 0.11350532 1.7791438 5197647
-1.0131611 0.042583127 1.8254495 6447714
-0.9815653 0.043697566 1.8105099 6447714
-0.94577932 0.048992474 1.8008695 6447714
-1.0104043 0.053608008 1.8438736 6447714
-0.9709115 0.059098594 1.8325989 6447714
-0.92478973 0.068534613 1.8248881 6447714
-0.87563556 0.082526594 1.8237765 6447714
-0.8293913 0.09158124 1.8153126 6447714
-0.79128093 0.097418331 1.8054035 6447714
-1.4583642 0.11376768 1.843021 6447714
-1.424531 0.11377694 1.8313441 6447714
-1.3750499 0.11376578 1.8307828 6447714
-1.3252367 0.11375427 1.83041 6447714
-1.2754303 0.11374218 1.8304027 6447714
-1.2252537 0.11373028 1.8302118 6447714
-1.1776128 0.11372206 1.8279763 6447714
-1.1485972 0.11372996 1.818007 6447714
-1.01302 0.11367518 1.832651 6447714
-0.97492045 0.11367126 1.8290744 6447714
-0.92518717 0.11365923 1.8290683 6447714
-0.87193519 0.11161657 1.8318783 6447714
-0.82207787 0.10806377 1.8337086 6447714
-0.77712953 0.10834334 1.8160235 6447714
-0.74267793 0.11146506 1.8046865 6447714
-0.65475428 0.1135845 1.8351778 6447714
-0.62511557 0.11358842 1.8277411 6447714
-0.57545447 0.11357638 1.8277353 6447714
-0.52504712 0.11356471 1.8273652 6447714
-0.47465083 0.1135525 1.8273511 6447714
-0.42502078 0.11354104 1.8269788 6447714
-0.37540454 0.11352903 1.8269727 6447714
-0.32541564 0.11351717 1.8267823 6447714
-0.27506262 0.11350551 1.8264124 6447714
-0.22471705 0.11349331 1.8263983 6447714
-0.17475973 0.11348147 1.8262081 6447714
-0.12519833 0.11347002 1.8258361 6447714
-0.075259998 0.11345821 1.8256513 6447714
-0.024959639 0.11344601 1.8256367 6447714
0.017394062 0.11343599 1.8254755 5197647
-1.0358545 0.049837556 1.8507211 6447714
-1.0542674 0.066530317 1.8907354 6447714
-1.0235658 0.067443326 1.8759128 6447714
-0.97514492 0.081114583 1.8746152 6447714
-0.92806995 0.090654947 1.8665823 6447714
-0.88847256 0.096721537 1.8562901 6447714
-1.5024607 0.11370397 1.8928022 6447714
-1.4718519 0.11371273 1.8819766 6447714
-1.4252032 0.1137045 1.8799322 6447714
-1.3752148 0.11369264 1.8797368 6447714
-1.3248501 0.11368102 1.8793463 6447714
-1.2744935 0.11366881 1.8793426 6447714
-1.224929 0.11365737 1.878949 6447714
-1.1910748 0.11365949 1.8720385 6447714
-1.0545026 0.11359797 1.8910376 6447714
-1.02371 0.11360852 1.8789785 6447714
-0.97422004 0.11323083 1.8787987 6447714
-0.92151761 0.10815151 1.8847017 6447714
-0.8764087 0.10820056 1.8683403 6447714
-0.84015101 0.11096054 1.8560572 6447714
-0.66213697 0.11352011 1.8794551 6447714
-0.62472337 0.11351529 1.8766067 6447714
-0.57451314 0.11350312 1.8766031 6447714
-0.5247016 0.11349133 1.8764082 6447714
-0.47490352 0.11348011 1.8758217 6447714
-0.42511985 0.11346776 1.8760185 6447714
-0.37533924 0.113456 1.8758239 6447714
-0.32517931 0.11344439 1.8754345 6447714
-0.27503699 0.11343224 1.8754312 6447714
-0.22528768 0.11342046 1.8752365 6447714
-0.17516249 0.11340889 1.8748475 6447714
-0.12504804 0.11339674 1.8748443 6447714
-0.074942298 0.11338517 1.8744555 6447714
-0.024850447 0.11337301 1.8744521 6447714
0.017859139 0.1133629 1.8742849 5197647
-1.053576 0.0758598 1.9072069 6447714
-1.0257574 0.089071661 1.9161333 6447714
-0.98644108 0.095883898 1.9073383 6447714
-1.520214 0.11364409 1.9357971 6447714
-1.4753097 0.11363948 1.9315727 6447714
-1.4251465 0.11362732 1.9315813 6447714
-1.3749869 0.11361577 1.9311692 6447714
-1.324846 0.1136036 1.9311782 6447714
-1.2751099 0.11359183 1.9309784 6447714
-1.2334831 0.11358757 1.9270704 6447714
-1.0663453 0.1135379 1.933198 6447714
-1.0194744 0.10868356 1.9357224 6447714
-0.97551 0.10797074 1.9206401 6447714
-0.93801618 0.11019981 1.9071082 6447714
-0.6705879 0.11344647 1.9301369 6447714
-0.62510985 0.1134384 1.9281543 6447714
-0.57511979 0.11342627 1.9281634 6447714
-0.52514184 0.11341475 1.9277525 6447714
-0.4751744 0.11340263 1.9277617 6447714
-0.42521533 0.11339112 1.9273508 6447714
-0.37527063 0.11337899 1.9273599 6447714
-0.32533062 0.11336751 1.9269491 6447714
-0.27540842 0.11335535 1.9269583 6447714
-0.22509089 0.11334347 1.926756 6447714
-0.17478392 0.11333156 1.926554 6447714
-0.12489481 0.11332008 1.9261433 6447714
-0.075005248 0.11330798 1.9261526 6447714
-0.025135105 0.11329648 1.9257424 6447714
0.018349772 0.11328588 1.9257771 5197647
-1.5593233 0.11359849 1.9726744 6447714
-1.5248895 0.11359036 1.9725331 6447714
-1.474887 0.11357854 1.9723279 6447714
-1.4248949 0.11356672 1.9721224 6447714
-1.3718514 0.11353774 1.9829041 6447714
-1.3252527 0.1135222 1.9857361 6447714
-1.2777731 0.1135141 1.9834632 6447714
-1.2471384 0.11352471 1.971393 6447714
-1.1086007 0.11345605 1.9948522 6447714
-1.0754299 0.11346386 1.984236 6447714
-1.0296623 0.11173978 1.9597752 6447714
-0.705603 0.11336319 1.9915774 6447714
-0.67487007 0.11336882 1.9828179 6447714
-0.62510812 0.11335672 1.9828416 6447714
-0.57493865 0.11334487 1.9826339 6447714
-0.52477926 0.113333 1.9824265 6447714
-0.47505006 0.11332159 1.9819916 6447714
-0.42491007 0.11330974 1.9817841 6447714
-0.37519804 0.11329763 1.9818081 6447714
-0.32508069 0.11328578 1.9816009 6447714
-0.27456784 0.11327422 1.9811628 6447714
-0.22488314 0.11326212 1.9811866 6447714
-0.17521043 0.11325071 1.980752 6447714
-0.12513296 0.11323888 1.9805453 6447714
-0.075077586 0.11322636 1.9807969 6447714
-0.025024775 0.11321522 1.9801314 6447714
0.018868133 0.11320451 1.9801788 5197647
-1.6108406 -0.4586699 2.0361204 6447714
-1.5965422 -0.45396268 2.038276 6447714
-1.603246 -0.42520335 2.0260382 6447714
-1.5959027 -0.43465137 2.0394399 6447714
-1.6048855 -0.39466968 2.0225945 6447714
-1.6058317 -0.02696299 2.0295587 6447714
-1.5951365 -0.020976739 2.0405118 6447714
-1.6070049 0.11352468 2.029804 6447714
-1.5730096 0.11353663 2.016295 6447714
-1.5251031 0.1135269 2.0150247 6447714
-1.4748611 0.11351503 2.0148137 6447714
-1.4250547 0.11350363 2.0143604 6447714
-1.3793237 0.11348168 2.0216279 6447714
-1.3245169 0.11345796 2.0286109 6447714
-1.2899661 0.11344979 2.028465 6447714
-1.1181309 0.1134092 2.0277393 6447714
-1.084452 0.11340123 2.0275972 6447714
-0.71093428 0.11331301 2.0260193 6447714
-0.67479146 0.11330446 2.0258665 6447714
-0.62436831 0.11329257 2.0256534 6447714
-0.57479578 0.11328084 2.0254443 6447714
-0.52523363 0.11326913 2.0252349 6447714
-0.47484186 0.11325722 2.025022 6447714
-0.42446071 0.11324532 2.0248094 6447714
-0.37492949 0.11323361 2.0246 6447714
-0.32540864 0.11322193 2.0243907 6447714
-0.2750589 0.11321003 2.0241783 6447714
-0.22471972 0.11319815 2.0239656 6447714
-0.17439111 0.11318624 2.0237529 6447714
-0.12491161 0.11317457 2.0235443 6447714
-0.075442359 0.11316288 2.0233352 6447714
-0.025145104 0.113151 2.023123 6447714
0.019275531 0.11314052 2.0229349 5197647
-1.6343251 -0.473557 2.0585306 6447714
-1.5892485 -0.4450517 2.0518875 6447714
-1.6559706 -0.0024453902 2.0860133 6447714
-1.6261189 -0.005657318 2.0643134 6447714
-1.5837688 -0.0086969305 2.0620091 6447714
-1.6576974 0.0023889032 2.0956151 6447714
-1.6207424 0.0077790362 2.0855689 6447714
-1.5758467 0.01289922 2.083245 6447714
-1.6566617 0.11344624 2.0903378 6447714
-1.6228361 0.113458 2.0769901 6447714
-1.5749785 0.11345022 2.0744236 6447714
-1.5245403 0.11343794 2.0744655 6447714
-1.474972 0.11342663 2.0739839 6447714
-1.4254185 0.11341454 2.0740376 6447714
-1.3754389 0.11340274 2.0738213 6447714
-1.3286487 0.11339739 2.0697973 6447714
-1.159402 0.11333269 2.0856273 6447714
-1.1264801 0.11334559 2.0716555 6447714
-1.0935309 0.11335902 2.0573208 6447714
-0.71989822 0.11324441 2.0733671 6447714
-0.67513531 0.11323739 2.0707982 6447714
-0.62488723 0.11322591 2.070322 6447714
-0.57464606 0.11321367 2.0703645 6447714
-0.52484328 0.11320191 2.0701485 6447714
-0.47463104 0.11319045 2.069674 6447714
-0.42484701 0.11317871 2.0694497 6447714
-0.37550992 0.11316665 2.0695045 6447714
-0.32531852 0.11315519 2.0690293 6447714
-0.27514628 0.11314297 2.0690715 6447714
-0.22540574 0.11313121 2.0688572 6447714
-0.17525001 0.11311976 2.0683806 6447714
-0.12510487 0.11310753 2.0684242 6447714
-0.074968107 0.11309607 2.0679483 6447714
-0.024845999 0.11308385 2.0679913 6447714
0.019703005 0.11307334 2.0677984 5197647
-0.0018496891 -0.9558987 2.1494284 6447714
0.013564081 -0.95371091 2.1399741 5789784
-0.0015955805 -0.92798448 2.1493185 6447714
0.020372083 -0.92502499 2.1358454 4737096
-0.00089029421 -0.87426889 2.1489742 6447714
0.020373074 -0.8750447 2.1359267 4737096
-0.00089032814 -0.82444376 2.149056 6447714
0.0203088 -0.82502174 2.1360464 4802889
-0.00089036219 -0.77461487 2.1491377 6447714
0.020371791 -0.77499497 2.1360912 4802889
-0.00089039607 -0.72478211 2.1492198 6447714
0.020348141 -0.72492677 2.1361885 4802889
-0.00089042989 -0.67494571 2.1493015 6447714
0.020354541 -0.67493087 2.1362653 4802889
-0.00089046388 -0.62510538 2.1493833 6447714
0.020363273 -0.62496966 2.1363423 4868682
-0.00089049787 -0.57526147 2.1494651 6447714
0.020372139 -0.57492822 2.1364195 4868682
-0.00089053169 -0.52541345 2.1495469 6447714
0.020332538 -0.52495927 2.1365259 4934475
-0.00089056563 -0.47556189 2.1496291 6447714
0.0203846 -0.47498667 2.1365762 4934475
-0.00089059951 -0.42570642 2.1497109 6447714
0.020344853 -0.42501074 2.1366827 4934475
-0.00089063414 -0.37495676 2.1497946 6447714
0.020378172 -0.37502986 2.1367431 4934475
-0.00089066866 -0.32420325 2.149878 6447714
0.020370478 -0.32500798 2.1368306 5000268
-0.00089070253 -0.27433625 2.1499596 6447714
0.020322867 -0.27501991 2.1369433 5066061
0.020372085 -0.22498982 2.1369948 5000268
0.020332282 -0.17495681 2.1371012 5066061
0.020301014 -0.12495575 2.1372032 5066061
0.020500764 -0.074764855 2.1371622 5066061
0.020326648 -0.02479326 2.1373506 5131854
-1.703324 0.016893759 2.1460116 6447714
-1.6705327 0.016802303 2.1283455 6447714
-1.6249225 0.028296366 2.1246407 6447714
-1.5667566 0.03361563 2.1154006 6447714
-1.5448261 0.041550323 2.1340878 6447714
0.020327412 0.024794508 2.1374331 5197647
-1.5664192 0.054644737 2.1407237 6447714
-1.5415809 0.056824535 2.1412592 6447714
0.020503102 0.074773751 2.1374054 5131854
-1.6693853 0.11340214 2.1219203 6447714
-1.625282 0.11339173 2.1217263 6447714
-1.5750138 0.11337987 2.1215038 6447714
-1.5247562 0.11336802 2.1212821 6447714
-1.4745092 0.11335616 2.1210601 6447714
-1.4251541 0.11334451 2.1208422 6447714
-1.3749275 0.11333266 2.1206203 6447714
-1.3440919 0.11332539 2.1204846 6447714
-1.1688455 0.11328403 2.1197107 6447714
-1.1380365 0.11327676 2.1195748 6447714
-0.7536965 0.11318608 2.117878 6447714
-0.7246986 0.11317924 2.1177499 6447714
-0.67165232 0.11314753 2.1303508 6447714
-0.62487853 0.11313148 2.1335204 6447714
-0.57532114 0.11311978 2.1333003 6447714
-0.52533466 0.11310841 2.1327932 6447714
-0.4753592 0.11309619 2.1328557 6447714
-0.42539144 0.11308482 2.1323481 6447714
-0.37543911 0.11307262 2.1324108 6447714
-0.32548988 0.11306125 2.1319051 6447714
-0.27511314 0.11304852 2.1322486 6447714
-0.22475527 0.11303751 2.1314561 6447714
-0.17483339 0.1130253 2.1315188 6447714
-0.12493727 0.11301395 2.1310124 6447714
-0.075038396 0.11300176 2.1310747 6447714
-0.025160896 0.11299042 2.130568 6447714
0.019726815 0.10738467 2.1352015 5263440
-0.067985326 -0.96493095 2.189992 6447714
-0.029568296 -0.95964772 2.16643 6447714
-0.067110077 -0.92493641 2.1895216 6447714
-0.02659592 -0.92480761 2.1646645 6447714
-0.067155361 -0.8749274 2.1896315 6447714
-0.026021404 -0.87502366 2.1643896 6447714
-0.067120709 -0.82496691 2.189692 6447714
-0.026034473 -0.82500809 2.1644838 6447714
-0.06711185 -0.77500081 2.1897695 6447714
-0.026008952 -0.7750203 2.1645508 6447714
-0.067140944 -0.72493118 2.1898696 6447714
-0.025986113 -0.72496361 2.1646159 6447714
-0.06713368 -0.67490762 2.1899467 6447714
-0.026025366 -0.67496896 2.1647222 6447714
-0.067155212 -0.62503195 2.1900411 6447714
-0.026026387 -0.62500346 2.1648078 6447714
-0.067111224 -0.57500082 2.1900971 6447714
-0.025945591 -0.57500148 2.164839 6447714
-0.067186341 -0.52496523 2.1902256 6447714
-0.02604527 -0.52499574 2.1649818 6447714
-0.06698484 -0.47523504 2.1901839 6447714
-0.026017342 -0.47495213 2.1650496 6447714
-0.066170298 -0.42505306 2.1897657 6447714
-0.025977543 -0.42497173 2.1651039 6447714
-0.066287145 -0.3749575 2.1899202 6447714
-0.026026506 -0.37495476 2.1652167 6447714
-0.066206627 -0.32496601 2.1899529 6447714
-0.026029957 -0.32493275 2.1653032 6447714
-0.066245221 -0.27496853 2.1900594 6447714
-0.026006768 -0.27497408 2.1653686 6447714
-0.066223457 -0.22491507 2.1901278 6447714
-0.025117693 -0.22499254 2.1649041 6447714
-0.066297837 -0.1750171 2.1902552 6447714
-0.025164183 -0.17499648 2.1650198 6447714
-0.066146486 -0.12495904 2.1902444 6447714
-0.025091894 -0.1250616 2.1650536 6447714
-0.066386633 -0.075046599 2.1904736 6447714
-0.025042485 -0.075189546 2.1651034 6447714
-0.066151485 -0.025147835 2.1904109 6447714
-0.025177235 -0.025117129 2.1652725 6447714
-1.717182 0.031854719 2.1802716 6447714
-1.6773591 0.038314033 2.1706138 6447714
-1.6332381 0.045019206 2.1591048 6447714
-1.5347276 0.048462261 2.1529431 6447714
-0.06615404 0.025149114 2.1904957 6447714
-0.025178211 0.025118422 2.1653564 6447714
-1.6654668 0.054279633 2.1929331 6447714
-1.6217903 0.060562018 2.1809011 6447714
-1.5749869 0.071036354 2.1747279 6447714
-1.5258207 0.077015162 2.1757436 6447714
-0.06639424 0.07505551 2.1907244 6447714
-0.025025439 0.075166628 2.165339 6447714
-1.7168787 0.11332814 2.1791999 6447714
-1.6747694 0.11332987 2.171191 6447714
-1.624674 0.1133185 2.1706605 6447714
-1.5750519 0.11330592 2.1710451 6447714
-1.5236001 0.11166098 2.174089 6447714
-1.4753749 0.11328284 2.1702907 6447714
-1.4253328 0.11327151 2.1697598 6447714
-1.3833765 0.11326998 2.1639657 6447714
-1.2107404 0.11320484 2.1795559 6447714
-1.1785387 0.11321761 2.1657448 6447714
-1.1483552 0.11323068 2.1520779 6447714
-0.76613218 0.11311032 2.1706338 6447714
-0.7253179 0.113106 2.1669023 6447714
-0.6790058 0.11308227 2.1752777 6447714
-0.62498176 0.1130574 2.1831656 6447714
-0.57517678 0.11304568 2.1829383 6447714
-0.52447689 0.1130337 2.1827078 6447714
-0.47469273 0.11302198 2.1824811 6447714
-0.42491904 0.11301025 2.1822543 6447714
-0.37515557 0.11299852 2.1820278 6447714
-0.32540244 0.1129868 2.1818016 6447714
-0.27475527 0.11297483 2.1815708 6447714
-0.22502296 0.11296312 2.1813445 6447714
-0.175301 0.11295141 2.1811182 6447714
-0.12468563 0.11293947 2.1808877 6447714
-0.067886524 0.1074337 2.1888468 6447714
-0.02577184 0.10656278 2.1658514 6447714
-0.15931198 -1.0025153 2.2459669 6447714
-0.14746803 -1.0007377 2.2387028 6447714
-0.15813875 -0.97507787 2.2452917 6447714
-0.12652554 -0.97282183 2.2258992 6447714
-0.09245307 -0.96828437 2.2050006 6447714
-0.15814039 -0.92499948 2.2453752 6447714
-0.12538145 -0.92495388 2.2252743 6447714
-0.092238098 -0.9250561 2.2049391 6447714
-0.15815094 -0.87491614 2.2454646 6447714
-0.1253996 -0.87499136 2.2253695 6447714
-0.092287324 -0.87495053 2.2050512 6447714
-0.15816604 -0.82494617 2.2455552 6447714
-0.12536134 -0.82502508 2.2254267 6447714
-0.092275657 -0.8249408 2.2051275 6447714
-0.15814038 -0.77508801 2.2456217 6447714
-0.1253905 -0.7749849 2.2255273 6447714
-0.092233658 -0.7750293 2.2051826 6447714
-0.15816902 -0.72499377 2.2457211 6447714
-0.12541002 -0.72490525 2.2256193 6447714
-0.092313118 -0.72491068 2.2053142 6447714
-0.15782186 -0.67575067 2.2455895 6447714
-0.12538762 -0.67492718 2.2256906 6447714
-0.092248164 -0.67489076 2.2053566 6447714
-0.15720759 -0.62509269 2.2452958 6447714
-0.12538053 -0.62498146 2.2257674 6447714
-0.09229739 -0.6250698 2.2054684 6447714
-0.1572136 -0.57501692 2.2453811 6447714
-0.12544464 -0.57499653 2.2258892 6447714
-0.092300884 -0.57503968 2.2055528 6447714
-0.15720931 -0.52493697 2.2454607 6447714
-0.1254307 -0.52500725 2.2259612 6447714
-0.092289239 -0.5249086 2.2056279 6447714
-0.157205 -0.47498715 2.2455406 6447714
-0.12540968 -0.47497934 2.2260313 6447714
-0.092091441 -0.4745706 2.2055893 6447714
-0.15720063 -0.42503354 2.24562 6447714
-0.12540077 -0.4249832 2.2261088 6447714
-0.091326773 -0.42500457 2.2052019 6447714
-0.15723765 -0.37494189 2.2457261 6447714
-0.12545708 -0.37498239 2.2262244 6447714
-0.091426037 -0.3749547 2.2053449 6447714
-0.1572437 -0.32471389 2.2458112 6447714
-0.12541008 -0.32504931 2.2262766 6447714
-0.091319978 -0.32490015 2.2053618 6447714
-0.15728076 -0.2746129 2.2459166 6447714
-0.12541023 -0.27504167 2.2263618 6447714
-0.091378339 -0.27502418 2.2054796 6447714
-0.157287 -0.22477514 2.2460024 6447714
-0.12549709 -0.22499414 2.2264955 6447714
-0.091432787 -0.22505108 2.2055948 6447714
-0.15723038 -0.17520541 2.2460477 6447714
-0.12547889 -0.17501323 2.226568 6447714
-0.09130314 -0.17489953 2.2055974 6447714
-0.15723658 -0.12549475 2.2461345 6447714
-0.12541081 -0.12492366 2.2266092 6447714
-0.091388725 -0.12519161 2.2057331 6447714
-0.15727369 -0.075377628 2.2462392 6447714
-0.12542401 -0.07483115 2.2266977 6447714
-0.091392219 -0.074934997 2.205817 6447714
-0.15727969 -0.025126722 2.246325 6447714
-0.12552194 -0.024908775 2.22684 6447714
-0.091395721 -0.024674574 2.2059014 6447714
-1.7639939 0.044435412 2.2278452 6447714
-1.7322012 0.04387942 2.2098777 6447714
-0.15688972 0.024177339 2.2461669 6447714
-0.12552668 0.024910055 2.2269249 6447714
-0.091399156 0.024675794 2.2059853 6447714
-1.7614659 0.053754535 2.2432292 6447714
-1.7214651 0.059358299 2.2319407 6447714
-1.6749099 0.069174327 2.2247183 6447714
-1.625461 0.083441973 2.2239428 6447714
-1.5794351 0.091799073 2.2143824 6447714
-1.5118248 0.094199881 2.2070777 6447714
-1.4991497 0.096541405 2.2193298 6447714
-0.15631847 0.075366579 2.2459011 6447714
-0.12546653 0.074804232 2.226969 6447714
-0.09140268 0.074943908 2.2060697 6447714
-1.7589557 0.11327306 2.2228961 6447714
-1.7247595 0.11326502 2.2227378 6447714
-1.6748592 0.11325326 2.2225072 6447714
-1.6207583 0.11103734 2.2273762 6447714
-1.5723386 0.1074582 2.2321908 6447714
-1.520312 0.10725128 2.2139595 6447714
-1.47622 0.11274181 2.2214906 6447714
-1.426438 0.11319472 2.2213585 6447714
-1.221614 0.11314645 2.2204113 6447714
-1.1939483 0.11313993 2.2202835 6447714
-0.80052149 0.11304724 2.2184644 6447714
-0.774746 0.11304115 2.2183447 6447714
-0.72504288 0.11302944 2.2181151 6447714
-0.67535031 0.11301774 2.2178853 6447714
-0.62566799 0.11300603 2.2176557 6447714
-0.57507616 0.1129941 2.2174213 6447714
-0.52449501 0.11298219 2.2171876 6447714
-0.4748438 0.11297049 2.2169583 6447714
-0.42520306 0.1129588 2.2167287 6447714
-0.37557247 0.11294711 2.2164993 6447714
-0.32503343 0.11293519 2.2162652 6447714
-0.27450499 0.11292329 2.2160318 6447714
-0.22490561 0.1129116 2.2158024 6447714
-0.16375479 0.10931131 2.234067 6447714
-0.12578069 0.10704754 2.2256467 6447714
-0.09140493 0.10693455 2.2061234 6447714
-0.22579819 -1.0115895 2.2867465 6447714
-0.1847858 -1.0059875 2.2615917 6447714
-0.22345212 -0.97504443 2.2853668 6447714
-0.18261781 -0.97502899 2.2603123 6447714
-0.22343063 -0.92501771 2.2854366 6447714
-0.18264209 -0.92499328 2.2604089 6447714
-0.22346607 -0.87498683 2.2855387 6447714
-0.18260552 -0.87506509 2.2604678 6447714
-0.22349995 -0.82499248 2.2856402 6447714
-0.1825911 -0.82507676 2.2605433 6447714
-0.22274631 -0.77519739 2.2852616 6447714
-0.1826196 -0.77503061 2.2606409 6447714
-0.22250797 -0.72490126 2.2851999 6447714
-0.18266143 -0.72492468 2.2607493 6447714
-0.22247669 -0.67491567 2.2852607 6447714
-0.18224823 -0.67454767 2.2605782 6447714
-0.22252835 -0.62500823 2.2853754 6447714
-0.18166225 -0.62495393 2.2603014 6447714
-0.22248694 -0.57501513 2.2854316 6447714
-0.18170014 -0.57498097 2.2604063 6447714
-0.22249563 -0.52497578 2.2855179 6447714
-0.18164343 -0.52500588 2.2604518 6447714
-0.22256722 -0.47497514 2.285646 6447714
-0.18168324 -0.47497311 2.26056 6447714
-0.22246999 -0.42497033 2.2856679 6447714
-0.18167143 -0.42498937 2.2606339 6447714
-0.22256392 -0.37496141 2.2858074 6447714
-0.18174008 -0.37495008 2.2607591 6447714
-0.22251317 -0.32498974 2.2858574 6447714
-0.18168932 -0.32501075 2.2608101 6447714
-0.22262768 -0.27497274 2.2860115 6447714
-0.18173763 -0.27506837 2.2609212 6447714
-0.22255333 -0.22495429 2.2860477 6447714
-0.18171825 -0.22496395 2.2609918 6447714
-0.22253147 -0.17496969 2.2861173 6447714
-0.18162231 -0.17491083 2.2610164 6447714
-0.2225402 -0.12514929 2.2862022 6447714
-0.1818956 -0.12484853 2.2612658 6447714
-0.222286 -0.075227216 2.2861295 6447714
-0.1816342 -0.075208902 2.2611864 6447714
-0.22151022 -0.024797337 2.2857382 6447714
-0.18177627 -0.025294859 2.2613559 6447714
-1.7887955 0.049403939 2.2500041 6447714
-0.22151864 0.024798591 2.2858229 6447714
-0.18133385 0.025630018 2.2611675 6447714
-1.8096101 0.064041138 2.287395 6447714
-1.7740576 0.067882925 2.2753172 6447714
-1.7251277 0.08187189 2.2743201 6447714
-1.678924 0.091087349 2.2662051 6447714
-1.6387562 0.096822955 2.255065 6447714
-0.22173935 0.074943826 2.2860417 6447714
-0.18067038 0.075183854 2.2608421 6447714
-1.8127397 0.11317734 2.2956736 6447714
-1.773894 0.11319517 2.2774274 6447714
-1.7242717 0.11276513 2.2776196 6447714
-1.6727984 0.10863252 2.2823133 6447714
-1.626819 0.1083408 2.2650437 6447714
-1.5851803 0.11161177 2.2609837 6447714
-1.5212032 0.11313048 2.2797236 6447714
-1.4748734 0.11312585 2.2753024 6447714
-1.4380716 0.11314024 2.2596967 6447714
-1.2644646 0.11306368 2.2827504 6447714
-1.2341464 0.11307964 2.2671494 6447714
-0.8135429 0.11296176 2.2777705 6447714
-0.77471989 0.11296047 2.2723336 6447714
-0.72523004 0.11294933 2.2717524 6447714
-0.67526811 0.11293754 2.2715158 6447714
-0.62485707 0.11292516 2.2716238 6447714
-0.57491863 0.11291342 2.2713873 6447714
-0.52546495 0.11290229 2.2708063 6447714
-0.47508046 0.11288992 2.2709143 6447714
-0.42470339 0.11287858 2.2703292 6447714
-0.37528369 0.11286642 2.2704418 6447714
-0.32539716 0.11285467 2.2702053 6447714
-0.27505666 0.11284333 2.2696199 6447714
-0.22272983 0.10794017 2.2808375 6447714
-0.18129325 0.10699512 2.259932 6447714
-0.32801142 -1.0502205 2.3493984 6447714
-0.31458569 -1.0237143 2.3412049 6447714
-0.27600273 -1.0184963 2.3175395 6447714
-0.24878868 -1.0151722 2.3008471 6447714
-0.31426808 -0.97507375 2.341089 6447714
-0.27450541 -0.97501266 2.3166912 6447714
-0.2487963 -0.9751671 2.3009174 6447714
-0.3142454 -0.92509103 2.3411579 6447714
-0.27455252 -0.92497873 2.3168044 6447714
-0.24880593 -0.92468077 2.3010061 6447714
-0.31423965 -0.87510484 2.3412361 6447714
-0.27451512 -0.87498218 2.3168621 6447714
-0.24881537 -0.87514335 2.3010936 6447714
-0.31430733 -0.82504553 2.3413603 6447714
-0.27448729 -0.82498163 2.3169272 6447714
-0.24882478 -0.82560229 2.3011808 6447714
-0.31431082 -0.7749815 2.341444 6447714
-0.2745524 -0.77497703 2.3170493 6447714
-0.24801846 -0.77226961 2.3007734 6447714
-0.31397259 -0.7253238 2.3413181 6447714
-0.27455813 -0.72488868 2.317136 6447714
-0.24780405 -0.72488737 2.3007193 6447714
-0.31325969 -0.67492849 2.3409636 6447714
-0.27452514 -0.67491657 2.3171964 6447714
-0.24783275 -0.6748668 2.3008196 6447714
-0.31327158 -0.62489367 2.3410535 6447714
-0.27452904 -0.62502086 2.3172803 6447714
-0.24784218 -0.62532413 2.3009069 6447714
-0.31323275 -0.57493007 2.3411114 6447714
-0.27461264 -0.57504129 2.3174131 6447714
-0.24787089 -0.57529473 2.3010063 6447714
-0.31333977 -0.52496326 2.3412595 6447714
-0.27461809 -0.52501744 2.3174996 6447714
-0.24784194 -0.52480376 2.3010709 6447714
-0.31332004 -0.47491688 2.3413301 6447714
-0.27460527 -0.47502977 2.3175755 6447714
-0.2478707 -0.47476709 2.3011713 6447714
-0.31331939 -0.42501688 2.3414116 6447714
-0.27459466 -0.4249987 2.3176503 6447714
-0.24788009 -0.42520908 2.3012583 6447714
-0.31331879 -0.37503868 2.3414922 6447714
-0.27462965 -0.37488449 2.317754 6447714
-0.24790885 -0.37516356 2.3013587 6447714
-0.31335598 -0.32498023 2.3415976 6447714
-0.27466151 -0.32492524 2.3178554 6447714
-0.24787989 -0.32465917 2.3014235 6447714
-0.31331125 -0.27499384 2.3416526 6447714
-0.27464229 -0.27500221 2.3179259 6447714
-0.24790862 -0.27460602 2.3015237 6447714
-0.31331068 -0.2249305 2.3417344 6447714
-0.27462268 -0.22507612 2.3179934 6447714
-0.24791799 -0.2250329 2.3016107 6447714
-0.31346112 -0.1747843 2.3419092 6447714
-0.27460521 -0.1751062 2.3180676 6447714
-0.2479274 -0.17545599 2.3016977 6447714
-0.31346142 -0.124934 2.3419909 6447714
-0.27462497 -0.12497348 2.3181615 6447714
-0.24793692 -0.12492178 2.3017864 6447714
-0.31328866 -0.075314216 2.3419664 6447714
-0.27473897 -0.074914902 2.3183119 6447714
-0.24737301 -0.071871236 2.301528 6447714
-0.31342778 -0.025228111 2.3421338 6447714
-0.27474949 -0.0249725 2.3184023 6447714
-0.2469355 -0.024788672 2.3013361 6447714
-0.31264025 0.024856722 2.3417327 6447714
-0.27476001 0.024973754 2.31849 6447714
-0.24694484 0.024789916 2.3014238 6447714
-1.8558484 0.080527514 2.3416762 6447714
-1.8227482 0.081738502 2.326184 6447714
-1.7782581 0.090390451 2.3179717 6447714
-1.7384616 0.095904879 2.3066335 6447714
-0.31227195 0.075271606 2.3415897 6447714
-0.27477041 0.074923769 2.3185794 6447714
-0.24695423 0.074372277 2.3015103 6447714
-1.8535924 0.11313006 2.3339403 6447714
-1.8246238 0.11264613 2.3343668 6447714
-1.7710378 0.10774404 2.3380165 6447714
-1.7265857 0.10712542 2.3199587 6447714
-1.6901268 0.1098616 2.3058949 6447714
-1.5654777 0.11306228 2.3325417 6447714
-1.5247624 0.11305268 2.3323443 6447714
-1.4859916 0.11304357 2.3321564 6447714
-1.3028859 0.11300048 2.3312671 6447714
-1.2786764 0.1129948 2.3311496 6447714
-0.82495153 0.11288804 2.3289473 6447714
-0.77566421 0.11287643 2.3287079 6447714
-0.72542095 0.11286463 2.3284643 6447714
-0.67518818 0.1128528 2.3282201 6447714
-0.62496579 0.11284097 2.3279765 6447714
-0.57475418 0.11282917 2.3277328 6447714
-0.52455288 0.11281735 2.3274889 6447714
-0.47436225 0.11280555 2.3272455 6447714
-0.42418206 0.11279374 2.327002 6447714
-0.37497696 0.11278217 2.3267632 6447714
-0.31613714 0.10792414 2.338104 6447714
-0.27490807 0.10665461 2.3185489 6447714
-0.24696013 0.10583979 2.3015666 6447714
-0.40518624 -1.0611856 2.3967328 6447714
-0.37948087 -1.0575916 2.3809669 6447714
-0.34204835 -1.0524539 2.3580074 6447714
-0.40513459 -1.0249689 2.3967612 6447714
-0.37543541 -1.0249878 2.3785369 6447714
-0.33975679 -1.0249532 2.3566468 6447714
-0.40512815 -0.97486192 2.3968396 6447714
-0.37544262 -0.97502732 2.3786259 6447714
-0.33977821 -0.97500211 2.356741 6447714
-0.40515453 -0.92500013 2.3969371 6447714
-0.37543058 -0.92497575 2.3786974 6447714
-0.33980769 -0.92504811 2.3568418 6447714
-0.40513721 -0.87513411 2.3970091 6447714
-0.37547809 -0.87500715 2.3788104 6447714
-0.33979166 -0.87499177 2.3569138 6447714
-0.40521857 -0.8250156 2.3971407 6447714
-0.37552309 -0.824992 2.3789203 6447714
-0.33979607 -0.82502872 2.3569992 6447714
-0.40521201 -0.77489364 2.3972194 6447714
-0.37553331 -0.7749722 2.3790083 6447714
-0.33987588 -0.77506316 2.3571305 6447714
-0.40520567 -0.72476876 2.3972976 6447714
-0.37551066 -0.72490674 2.3790779 6447714
-0.33946019 -0.72435141 2.3569577 6447714
-0.40519917 -0.67464101 2.3973763 6447714
-0.37553552 -0.67492223 2.3791726 6447714
-0.3388032 -0.67490464 2.356636 6447714
-0.40524757 -0.62475437 2.3974874 6447714
-0.37557289 -0.62502062 2.3792784 6447714
-0.33879316 -0.62504661 2.3567114 6447714
-0.40526292 -0.57511365 2.3975787 6447714
-0.37556082 -0.57502854 2.3793547 6447714
-0.33879119 -0.57492018 2.3567922 6447714
-0.40531129 -0.52521789 2.3976908 6447714
-0.37558663 -0.52499127 2.3794527 6447714
-0.33885708 -0.524876 2.356916 6447714
-0.40530485 -0.47507465 2.3977687 6447714
-0.37559691 -0.47494832 2.3795407 6447714
-0.33882439 -0.47500986 2.3569782 6447714
-0.40526611 -0.42468414 2.3978279 6447714
-0.37557384 -0.42503151 2.3796098 6447714
-0.33883765 -0.42495763 2.3570681 6447714
-0.40499577 -0.37606832 2.397742 6447714
-0.37562981 -0.37510884 2.379724 6447714
-0.33885011 -0.37490425 2.3571575 6447714
-0.40423176 -0.32477504 2.3973577 6447714
-0.3756777 -0.32505634 2.3798385 6447714
-0.33892426 -0.32502422 2.3572845 6447714
-0.40424702 -0.27512562 2.3974483 6447714
-0.37562132 -0.27491271 2.3798845 6447714
-0.33879256 -0.27505293 2.3572872 6447714
-0.40426227 -0.22547249 2.3975387 6447714
-0.3756986 -0.22493777 2.3800168 6447714
-0.33901829 -0.22498359 2.3575082 6447714
-0.40430692 -0.17547698 2.3976486 6447714
-0.37553367 -0.17500015 2.3799949 6447714
-0.33881736 -0.17518713 2.3574672 6447714
-0.40426466 -0.12483806 2.3977056 6447714
-0.37585208 -0.12510309 2.3802714 6447714
-0.33893788 -0.12502185 2.3576229 6447714
-0.404309 -0.074503809 2.3978155 6447714
-0.3756645 -0.074817888 2.380239 6447714
-0.33895087 -0.075211316 2.3577118 6447714
-0.40432435 -0.024835443 2.3979063 6447714
-0.37573734 -0.02469803 2.3803663 6447714
-0.33896369 -0.025396883 2.357801 6447714
-0.40433964 0.024836697 2.3979979 6447714
-0.37575138 0.024699254 2.3804574 6447714
-0.33813861 0.025774455 2.3573809 6447714
-1.9032921 0.096969046 2.3965204 6447714
-1.8720808 0.092703715 2.3722036 6447714
-1.8359289 0.09542162 2.3577878 6447714
-0.40435502 0.074512601 2.3980885 6447714
-0.37568155 0.074784294 2.3804972 6447714
-0.33792087 0.075199306 2.3573272 6447714
-1.8682746 0.10728246 2.3862967 6447714
-1.8258451 0.10772391 2.3719325 6447714
-1.787985 0.10955222 2.3575702 6447714
-1.6028086 0.11301225 2.3720582 6447714
-1.5752029 0.11300578 2.371922 6447714
-1.5249276 0.11299396 2.3716738 6447714
-1.4983155 0.11298773 2.3715432 6447714
-1.3140832 0.11294436 2.3706334 6447714
-1.2904488 0.11293882 2.3705168 6447714
-0.85854423 0.11283723 2.3683844 6447714
-0.82512659 0.11282937 2.3682196 6447714
-0.77500826 0.1128176 2.3679724 6447714
-0.72490036 0.11280581 2.3677249 6447714
-0.67480308 0.11279405 2.3674779 6447714
-0.62471592 0.11278224 2.3672304 6447714
-0.57463956 0.11277048 2.3669832 6447714
-0.5245735 0.11275871 2.3667359 6447714
-0.4754993 0.11274719 2.3664939 6447714
-0.41603118 0.10986315 2.3804998 6447714
-0.37634373 0.10725004 2.3788128 6447714
-0.33792901 0.10645331 2.3573833 6447714
-0.47142509 -1.0702158 2.4373617 6447714
-0.43092734 -1.0646528 2.4125216 6447714
-0.47043303 -1.024977 2.4368253 6447714
-0.42964947 -1.0249923 2.4118032 6447714
-0.47049466 -0.97504038 2.4369476 6447714
-0.42965874 -0.97501504 2.41189 6447714
-0.47043303 -0.9251014 2.4369898 6447714
-0.4296926 -0.92492312 2.4119937 6447714
-0.47055155 -0.87515831 2.4371455 6447714
-0.42968923 -0.87488329 2.4120746 6447714
-0.47051296 -0.8250429 2.4372032 6447714
-0.42971036 -0.82494926 2.4121695 6447714
-0.47051257 -0.77497971 2.4372854 6447714
-0.429737 -0.7750122 2.4122663 6447714
-0.47056693 -0.72508097 2.4374018 6447714
-0.42968079 -0.72501558 2.4123147 6447714
-0.47057205 -0.67501026 2.4374881 6447714
-0.42979729 -0.67507178 2.4124675 6447714
-0.4705973 -0.62493563 2.4375842 6447714
-0.42977604 -0.62506741 2.4125381 6447714
-0.47062868 -0.57496977 2.437685 6447714
-0.42978761 -0.57500422 2.4126258 6447714
-0.4706465 -0.52494311 2.4377782 6447714
-0.42983386 -0.52493703 2.4127369 6447714
-0.4706257 -0.4749704 2.4378493 6447714
-0.42984039 -0.47497657 2.4128237 6447714
-0.47059157 -0.42514125 2.4379091 6447714
-0.42986169 -0.42501277 2.412919 6447714
-0.46945661 -0.37509808 2.4372952 6447714
-0.42945132 -0.37472853 2.4127491 6447714
-0.46959516 -0.32509708 2.4374616 6447714
-0.42877528 -0.32507712 2.4124155 6447714
-0.46957532 -0.27491334 2.4375324 6447714
-0.42872536 -0.27501121 2.4124677 6447714
-0.4694618 -0.224906 2.4375463 6447714
-0.42871296 -0.22504728 2.4125428 6447714
-0.4697572 -0.17489369 2.4378071 6447714
-0.42876339 -0.17502674 2.4126542 6447714
-0.46974367 -0.12493474 2.4378827 6447714
-0.42885947 -0.12494893 2.4127958 6447714
-0.4694815 -0.075280048 2.4378018 6447714
-0.42887571 -0.074972138 2.4128888 6447714
-0.46969715 -0.025250863 2.4380183 6447714
-0.42889234 -0.02499157 2.4129808 6447714
-0.46971539 0.025252158 2.4381106 6447714
-0.42890874 0.02499284 2.4130731 6447714
-1.908884 0.098529443 2.4023066 6447714
-0.46953493 0.0752296 2.4380827 6447714
-0.42892453 0.074981064 2.4131646 6447714
-1.9069357 0.10865808 2.4123795 6447714
-1.8851776 0.10954611 2.4085031 6447714
-1.6163511 0.11295465 2.4128106 6447714
-1.5742303 0.11294477 2.4125991 6447714
-1.5361269 0.1129358 2.4124084 6447714
-1.3286706 0.11288702 2.4113665 6447714
-0.86729753 0.1127786 2.40905 6447714
-0.82530779 0.11276872 2.4088392 6447714
-0.77532935 0.11275699 2.4085886 6447714
-0.72536135 0.11274524 2.4083374 6447714
-0.67364275 0.11272845 2.4111903 6447714
-0.62533408 0.11269096 2.4284158 6447714
-0.57546705 0.11267859 2.428592 6447714
-0.52510518 0.11266673 2.4283373 6447714
-0.47224587 0.10783022 2.4334779 6447714
-0.42904389 0.10701229 2.4121144 6447714
-0.56272024 -1.1076934 2.4933159 6447714
-0.53510433 -1.1040149 2.4763777 6447714
-0.56178367 -1.0748782 2.4927962 6447714
-0.52504611 -1.0749432 2.470253 6447714
-0.49582767 -1.0736181 2.4523282 6447714
-0.56182528 -1.0249324 2.4929028 6447714
-0.52498841 -1.0249817 2.4703016 6447714
-0.49580854 -1.0251421 2.4523962 6447714
-0.56186616 -0.97498298 2.4930103 6447714
-0.52509111 -0.97501779 2.4704461 6447714
-0.49583939 -0.97514105 2.452497 6447714
-0.56186318 -0.92513287 2.4930902 6447714
-0.52501482 -0.92495286 2.47048 6447714
-0.49583492 -0.92488247 2.4525774 6447714
-0.56192416 -0.87517512 2.4932098 6447714
-0.52507144 -0.87493122 2.4705977 6447714
-0.49586573 -0.87487453 2.452678 6447714
-0.56191593 -0.82500941 2.4932864 6447714
-0.52513289 -0.82495606 2.4707172 6447714
-0.4958846 -0.82511616 2.4527712 6447714
-0.56109434 -0.77545696 2.4928644 6447714
-0.52508897 -0.77492726 2.4707723 6447714
-0.4958683 -0.77510148 2.4528427 6447714
-0.56075096 -0.72507977 2.4927356 6447714
-0.52516353 -0.7250424 2.4709017 6447714
-0.49596974 -0.725079 2.4529874 6447714
-0.56073976 -0.67507648 2.4928095 6447714
-0.52510166 -0.67510349 2.4709454 6447714
-0.4958939 -0.67531335 2.4530225 6447714
-0.5608269 -0.62495512 2.4929473 6447714
-0.52524579 -0.62501484 2.4711146 6447714
-0.49596038 -0.62502992 2.4531465 6447714
-0.5608263 -0.57505745 2.4930289 6447714
-0.52516913 -0.57502067 2.471149 6447714
-0.49602684 -0.57474089 2.4532695 6447714
-0.560848 -0.52504164 2.4931247 6447714
-0.5251984 -0.52497262 2.4712515 6447714
-0.49595094 -0.52496755 2.453305 6447714
-0.56086963 -0.4749102 2.4932203 6447714
-0.52527338 -0.47497025 2.4713788 6447714
-0.49605241 -0.47492111 2.4534492 6447714
-0.56092381 -0.42500174 2.4933352 6447714
-0.52520216 -0.42496377 2.471417 6447714
-0.49582759 -0.42447448 2.4533944 6447714
-0.56093395 -0.37508953 2.4934227 6447714
-0.5253455 -0.37500301 2.4715872 6447714
-0.49489602 -0.37498099 2.452903 6447714
-0.56087893 -0.32494599 2.4934711 6447714
-0.52520984 -0.32503781 2.471586 6447714
-0.49495319 -0.324992 2.4530208 6447714
-0.56092185 -0.27491266 2.4935803 6447714
-0.52539504 -0.27496925 2.4717824 6447714
-0.49489629 -0.27521393 2.4530671 6447714
-0.56098729 -0.22521804 2.4937017 6447714
-0.5253464 -0.22495049 2.4718332 6447714
-0.49499017 -0.22480634 2.453208 6447714
-0.56108564 -0.17540127 2.4938433 6447714
-0.52532411 -0.17492329 2.4719028 6447714
-0.49493325 -0.17502256 2.4532545 6447714
-0.56099761 -0.12490246 2.4938724 6447714
-0.52527046 -0.12514064 2.4719512 6447714
-0.49499065 -0.12501739 2.453373 6447714
-0.56100774 -0.074510373 2.4939632 6447714
-0.52560163 -0.074955538 2.4722366 6447714
-0.49500945 -0.075216547 2.4534652 6447714
-0.56079865 -0.025329271 2.4939141 6447714
-0.5253107 -0.024780754 2.4721408 6447714
-0.49502829 -0.025411839 2.4535589 6447714
-0.55989414 0.02479223 2.4934423 6447714
-0.52533054 0.024782004 2.4722331 6447714
-0.49504751 0.025413154 2.4536548 6447714
-0.55991536 0.074379228 2.493536 6447714
-0.52566141 0.074964501 2.4725196 6447714
-0.49506626 0.07522548 2.4537477 6447714
-1.9520503 0.11297058 2.4566314 6447714
-1.9397876 0.11296769 2.4565685 6447714
-1.6657504 0.11285243 2.4892979 6447714
-1.6252066 0.11286128 2.4767644 6447714
-1.5794001 0.1128632 2.4680505 6447714
-1.3725361 0.11279463 2.4803829 6447714
-1.3417289 0.1128272 2.4535136 6447714
-0.90923661 0.11267066 2.4881461 6447714
-0.87484425 0.11268506 2.4728973 6447714
-0.82508385 0.11267405 2.4721961 6447714
-0.77480477 0.11266225 2.4719377 6447714
-0.72506016 0.11264986 2.4721251 6447714
-0.67632371 0.11263774 2.472337 6447714
-0.62494844 0.11259395 2.4933665 6447714
-0.56488067 0.10770231 2.4933064 6447714
-0.52552062 0.10652941 2.4724851 6447714
-0.49507782 0.10572457 2.453805 6447714
-0.65245563 -1.1201537 2.5483546 6447714
-0.62678081 -1.1165683 2.5326083 6447714
-0.58788139 -1.1113236 2.5087478 6447714
-0.65247828 -1.0747935 2.5484433 6447714
-0.62506926 -1.074946 2.5316262 6447714
-0.58710527 -1.0750778 2.5083325 6447714
-0.65252995 -1.0246779 2.5485573 6447714
-0.62515038 -1.0249565 2.5317571 6447714
-0.58717328 -1.0250484 2.5084553 6447714
-0.65250134 -0.97510064 2.5486209 6447714
-0.62514555 -0.97501427 2.531837 6447714
-0.58714992 -0.97510827 2.5085232 6447714
-0.65255296 -0.92497748 2.5487349 6447714
-0.62513828 -0.9250173 2.5319138 6447714
-0.58721828 -0.92497635 2.5086467 6447714
-0.65260476 -0.87484944 2.5488493 6447714
-0.62520897 -0.8750152 2.5320392 6447714
-0.5872407 -0.87493414 2.5087426 6447714
-0.65257615 -0.82526267 2.5489132 6447714
-0.62526178 -0.82495826 2.5321536 6447714
-0.58726311 -0.82507712 2.5088398 6447714
-0.65262777 -0.77512711 2.5490272 6447714
-0.62523645 -0.77489626 2.5322218 6447714
-0.58633596 -0.77470201 2.5083523 6447714
-0.65267938 -0.72498643 2.5491412 6447714
-0.62528801 -0.72504121 2.5323336 6447714
-0.58609724 -0.72515309 2.5082874 6447714
-0.65234601 -0.6789698 2.5490119 6447714
-0.62530994 -0.67507607 2.5324304 6447714
-0.5861032 -0.6751259 2.5083733 6447714
-0.65144968 -0.62505358 2.5485506 6447714
-0.6253264 -0.6250028 2.5325215 6447714
-0.58610421 -0.62500936 2.5084569 6447714
-0.65147483 -0.57439578 2.5486493 6447714
-0.62527978 -0.57503128 2.5325754 6447714
-0.58611828 -0.57497525 2.5085471 6447714
-0.65149957 -0.52478957 2.5487459 6447714
-0.62540507 -0.5249508 2.5327351 6447714
-0.58619118 -0.52493793 2.5086744 6447714
-0.65152425 -0.47517964 2.5488429 6447714
-0.62542868 -0.4749181 2.5328307 6447714
-0.58620948 -0.47498193 2.5087674 6447714
-0.65154952 -0.42451012 2.5489416 6447714
-0.62532997 -0.42503992 2.5328543 6447714
-0.58622742 -0.42502251 2.5088606 6447714
-0.65157419 -0.37489262 2.5490382 6447714
-0.62550533 -0.37510553 2.5330424 6447714
-0.58625424 -0.37505981 2.5089586 6447714
-0.65159881 -0.32527125 2.5491345 6447714
-0.62546962 -0.32500845 2.533102 6447714
-0.58626407 -0.32509273 2.5090475 6447714
-0.65162414 -0.27459022 2.5492334 6447714
-0.6254673 -0.27496111 2.5331841 6447714
-0.58624917 -0.27494934 2.50912 6447714
-0.65164888 -0.2249613 2.54933 6447714
-0.62551671 -0.22501643 2.5332949 6447714
-0.58628356 -0.22480257 2.5092242 6447714
-0.6516735 -0.17532857 2.549427 6447714
-0.62562191 -0.17501186 2.5334437 6447714
-0.58629787 -0.17473881 2.509315 6447714
-0.65169889 -0.12463593 2.5495255 6447714
-0.62554443 -0.12511079 2.5334761 6447714
-0.58636636 -0.12475549 2.5094397 6447714
-0.65172362 -0.074995585 2.5496225 6447714
-0.62543452 -0.075315379 2.5334907 6447714
-0.58638883 -0.074856102 2.5095351 6447714
-0.65174824 -0.025351467 2.5497191 6447714
-0.6256541 -0.025192272 2.533709 6447714
-0.58609021 -0.024570465 2.5094333 6447714
-0.65177345 0.025352778 2.5498176 6447714
-0.625678 0.025193574 2.533807 6447714
-0.5852232 0.024946759 2.5089827 6447714
-0.65179819 0.075004481 2.5499146 6447714
-0.6255064 0.075324371 2.533783 6447714
-0.58524519 0.074842855 2.5090795 6447714
-2.0165896 0.11285308 2.5458174 6447714
-1.978545 0.11291172 2.5004039 6447714
-1.7085767 0.11278081 2.5441871 6447714
-1.6747304 0.11277287 2.5440083 6447714
-1.6281987 0.11276194 2.5437617 6447714
-1.4125791 0.11271136 2.5426204 6447714
-1.394619 0.11270714 2.5425251 6447714
-0.92076159 0.11259596 2.5400171 6447714
-0.87543041 0.11258534 2.539777 6447714
-0.82483786 0.11257345 2.5395098 6447714
-0.77425593 0.11256159 2.5392418 6447714
-0.72473806 0.11254999 2.5389795 6447714
-0.67054719 0.11115916 2.5409691 6447714
-0.62656456 0.10683508 2.5341578 6447714
-0.58525938 0.10602966 2.5091388 6447714
-0.72222149 -1.1546859 2.5911047 6447714
-0.6967454 -1.1512822 2.5754786 6447714
-0.71864671 -1.1251239 2.5889592 6447714
-0.67854303 -1.1234504 2.5643554 6447714
-0.71859127 -1.0751367 2.5890076 6447714
-0.67764455 -1.074942 2.5638845 6447714
-0.71870583 -1.0250715 2.5891597 6447714
-0.67773312 -1.0249995 2.5640211 6447714
-0.71870911 -0.97499937 2.5892453 6447714
-0.67771167 -0.97499275 2.5640895 6447714
-0.71871698 -0.92500287 2.5893316 6447714
-0.67780608 -0.92492342 2.56423 6447714
-0.71872842 -0.87507594 2.5894213 6447714
-0.67777884 -0.87491167 2.564296 6447714
-0.71879977 -0.8250711 2.5895479 6447714
-0.67775333 -0.82495159 2.5643625 6447714
-0.71830302 -0.77544266 2.5893233 6447714
-0.67788374 -0.77499104 2.5645239 6447714
-0.71757025 -0.72505605 2.5889571 6447714
-0.67784369 -0.72508401 2.5645809 6447714
-0.71758091 -0.67508405 2.5890458 6447714
-0.67739862 -0.67474788 2.5643911 6447714
-0.71758217 -0.62510669 2.5891271 6447714
-0.67662966 -0.62498879 2.5639999 6447714
-0.71761847 -0.57512707 2.5892334 6447714
-0.67666686 -0.57502806 2.5641079 6447714
-0.71770543 -0.52497834 2.5893679 6447714
-0.67670411 -0.52495384 2.5642114 6447714
-0.7176733 -0.4749085 2.5894306 6447714
-0.67670691 -0.47498742 2.5642953 6447714
-0.71769202 -0.42500031 2.5895233 6447714
-0.67676198 -0.42501613 2.56441 6447714
-0.71771055 -0.37516797 2.589617 6447714
-0.67678159 -0.37498584 2.5645041 6447714
-0.71779013 -0.32508743 2.5897477 6447714
-0.67683059 -0.32506311 2.5646169 6447714
-0.71786851 -0.27500141 2.5898781 6447714
-0.67680568 -0.27497086 2.5646844 6447714
-0.71771711 -0.22491373 2.5898678 6447714
-0.67678457 -0.2249828 2.5647535 6447714
-0.71782035 -0.17498623 2.5900135 6447714
-0.67703879 -0.17504929 2.5649908 6447714
-0.71802789 -0.12529567 2.5902216 6447714
-0.67670149 -0.12494791 2.5648668 6447714
-0.71780139 -0.074874729 2.5901656 6447714
-0.6772278 -0.074995875 2.5652711 6447714
-0.7179544 -0.024682244 2.5903435 6447714
-0.67675352 -0.025066096 2.5650618 6447714
-0.71755379 0.024236795 2.5901773 6447714
-0.67677927 0.025067374 2.5651593 6447714
-0.71662247 0.07492847 2.5896885 6447714
-0.67730498 0.075004764 2.5655649 6447714
-2.056042 0.11279228 2.5929112 6447714
-1.7239941 0.11271442 2.5911217 6447714
-1.6755192 0.11270304 2.5908599 6447714
-1.6432073 0.11269546 2.5906863 6447714
-1.4332895 0.11264625 2.5895543 6447714
-0.95600587 0.11253432 2.5869815 6447714
-0.92486548 0.11252702 2.5868134 6447714
-0.87547767 0.11251545 2.5865471 6447714
-0.82502699 0.11250362 2.5862753 6447714
-0.7745868 0.11249179 2.5860035 6447714
-0.71951687 0.10770882 2.5888262 6447714
-0.67707062 0.10628443 2.5654731 6447714
-0.80995399 -1.1666318 2.6449158 6447714
-0.77741724 -1.1621753 2.624958 6447714
-0.74361038 -1.157596 2.6042233 6447714
-0.80977005 -1.1250045 2.644871 6447714
-0.77495146 -1.1249846 2.6235068 6447714
-0.74330783 -1.124809 2.6040921 6447714
-0.8097502 -1.0751101 2.6449409 6447714
-0.77495092 -1.0750871 2.6235869 6447714
-0.74335879 -1.0747902 2.6042054 6447714
-0.80867618 -1.025633 2.6443634 6447714
-0.775029 -1.0250704 2.6237185 6447714
-0.74338669 -1.0249846 2.6043036 6447714
-2.097702 -0.95150733 2.6475255 6447714
-0.80849516 -0.97500867 2.644335 6447714
-0.77497995 -0.97504956 2.6237707 6447714
-0.74339283 -0.97495806 2.6043904 6447714
-2.1008184 -0.92396587 2.6424768 6447714
-2.0984242 -0.92505217 2.646378 6447714
-0.80851638 -0.92483222 2.6444309 6447714
-0.77507025 -0.9249686 2.6239092 6447714
-0.74344361 -0.92514676 2.6045022 6447714
-2.100837 -0.87471014 2.6425002 6447714
-2.098454 -0.87517595 2.646384 6447714
-0.80857676 -0.87501705 2.6445494 6447714
-0.77514821 -0.87488335 2.6240387 6447714
-0.74347252 -0.87511349 2.6046026 6447714
-2.1008565 -0.82435888 2.6425245 6447714
-2.0984831 -0.8253001 2.6463907 6447714
-0.80853844 -0.8251999 2.6446078 6447714
-0.77514142 -0.82496506 2.6241176 6447714
-0.74352312 -0.82486188 2.6047175 6447714
-2.1008725 -0.78166914 2.6425445 6447714
-2.0984447 -0.78061616 2.646503 6447714
-0.80864835 -0.77519709 2.644757 6447714
-0.77516544 -0.77498579 2.6242132 6447714
-0.74290764 -0.77368188 2.604423 6447714
-0.80865961 -0.72518706 2.6448462 6447714
-0.77518219 -0.72506088 2.6243067 6447714
-0.74225086 -0.72498447 2.6041002 6447714
-0.80868065 -0.67499155 2.644942 6447714
-0.77520031 -0.6750744 2.6243997 6447714
-0.74226975 -0.67520308 2.6041934 6447714
-0.80867177 -0.62497544 2.6450188 6447714
-0.77519351 -0.62496996 2.6244769 6447714
