# .PCD v0.7 - Point Cloud Data file format
VERSION 0.7
FIELDS x y z rgb
SIZE 4 4 4 4
TYPE F F F U
COUNT 1 1 1 1
WIDTH 1185
HEIGHT 1
VIEWPOINT 0 0 0 1 0 0 0
POINTS 1185
DATA ascii
0.22501653 0.11323421 1.0236604 10197915
0.2750268 0.1132953 1.0242513 10197915
0.32496911 0.11335653 1.0247843 10197915
0.37496707 0.11341786 1.0253017 10197915
0.42501739 0.11347888 1.0259477 10197915
0.4749999 0.11354035 1.0264082 10197915
0.5240435 0.11360501 1.0253824 10197915
0.57501554 0.11367381 1.0237852 10197915
0.62505013 0.11373491 1.0243908 10197915
0.67499357 0.11379611 1.0249296 10197915
0.7259025 0.1138649 1.0232975 10197915
0.77471626 0.11392833 1.0225903 10197915
0.81145477 0.11394018 1.0342747 10197915
-0.015099708 0.11279 1.0720402 8684676
0.024954939 0.11283946 1.072347 10197915
0.074972883 0.11290094 1.0728194 10197915
0.12504633 0.11296189 1.0735104 10197915
0.17502475 0.11302304 1.0740778 10197915
0.22498344 0.11308421 1.0746349 10197915
0.27499583 0.11314526 1.0752407 10197915
0.32498738 0.11320637 1.0758331 10197915
0.37503463 0.1132677 1.0763785 10197915
0.42498508 0.1133289 1.07692 10197915
0.47491542 0.11338972 1.0775758 10197915
0.52596033 0.11345834 1.0760719 10197915
0.57465833 0.11352512 1.0741786 10197915
0.62501037 0.11359756 1.0710654 10197915
0.67492318 0.1136585 1.0716895 10197915
0.72496605 0.11371978 1.0722305 10197915
0.77498704 0.11378092 1.0728312 10197915
0.82371432 0.11383726 1.0745006 10197915
0.85797006 0.11383907 1.0885209 10197915
-0.015827216 0.11263716 1.1236937 8684676
0.024993008 0.11268758 1.1239959 10197915
0.075012624 0.11274878 1.1245745 10197915
0.12500972 0.1128097 1.1252279 10197915
0.17498308 0.11287098 1.125751 10197915
0.22501062 0.11293184 1.1264435 10197915
0.27399525 0.1130004 1.124072 10197915
0.32496524 0.11306711 1.1231681 10197915
0.37495589 0.11312818 1.1237745 10197915
0.42499772 0.11318969 1.1242476 10197915
0.47509584 0.11325048 1.1249896 10197915
0.52505952 0.11331162 1.125561 10197915
0.57555884 0.1133749 1.1256275 10197915
0.62504548 0.11344726 1.122179 10197915
0.67492372 0.1135078 1.1229067 10197915
0.72485775 0.11356882 1.1234963 10197915
0.77492183 0.11363003 1.1240752 10197915
0.82504022 0.11369125 1.1247066 10197915
0.87192041 0.11373989 1.1281961 10197915
0.90558845 0.11373144 1.1454524 10197915
-0.01655747 0.11248374 1.175543 8684676
0.024945701 0.11253492 1.1758788 10197915
0.074969068 0.11259558 1.1766324 10197915
0.1249484 0.11265698 1.1771137 10197915
0.17488575 0.11271776 1.1777893 10197915
0.22497357 0.11277851 1.1785448 10197915
0.2760129 0.11285176 1.1754612 10197915
0.32410237 0.11291818 1.173438 10197915
0.37495723 0.11299071 1.1705056 10197915
0.42494091 0.11305133 1.1712524 10197915
0.47497797 0.11311273 1.1717695 10197915
0.52497274 0.11317362 1.1724408 10197915
0.57492232 0.11323455 1.1730711 10197915
0.6249274 0.11329565 1.1736647 10197915
0.67488641 0.1133566 1.1742953 10197915
0.72490156 0.11341762 1.1749282 10197915
0.77496845 0.11347868 1.1755601 10197915
0.82489377 0.11353926 1.1763058 10197915
0.87487161 0.11360055 1.1768227 10197915
0.91947663 0.11364327 1.1813629 10197915
0.95125848 0.11363494 1.1977717 10197915
-0.017283386 0.11233119 1.2270851 8684676
0.025022252 0.11238336 1.2274289 10197915
0.073582388 0.11245052 1.225342 10197915
0.1249413 0.1125207 1.2234333 10197915
0.17508745 0.11258171 1.2241243 10197915
0.22503415 0.11264279 1.2247033 10197915
0.2750344 0.1127033 1.2255018 10197915
0.32636973 0.11277202 1.224072 10197915
0.3750605 0.11284119 1.221374 10197915
0.42497927 0.11290175 1.22212 10197915
0.47495222 0.1129629 1.2226918 10197915
0.52497977 0.11302371 1.2233942 10197915
0.57495946 0.11308487 1.2239666 10197915
0.62499195 0.11314555 1.224713 10197915
0.67487353 0.11320621 1.225413 10197915
0.72491407 0.11326741 1.2259878 10197915
0.7751075 0.11332858 1.2266488 10197915
0.8250494 0.11338917 1.2273932 10197915
0.8746621 0.1134508 1.227644 10197915
0.9250676 0.11352672 1.2233748 10197915
0.96373183 0.11356004 1.2285708 10197915
-0.017992262 0.11218223 1.2774168 8684676
0.02501798 0.11223483 1.2779208 10197915
0.076491565 0.1123086 1.2748383 10197915
0.12514414 0.11237352 1.2735673 10197915
0.1750408 0.11243465 1.2741061 10197915
0.22499336 0.11249552 1.274745 10197915
0.27499816 0.11255579 1.2756332 10197915
0.32406232 0.11261965 1.2748938 10197915
0.37508246 0.11269481 1.2711636 10197915
0.42507446 0.11275598 1.2717271 10197915
0.47512418 0.11281648 1.2725366 10197915
0.52509314 0.11287741 1.2731897 10197915
0.57511598 0.11293817 1.273909 10197915
0.62519425 0.11299936 1.2745034 10197915
0.67492586 0.11305969 1.2752452 10197915
0.72484607 0.11312035 1.2759638 10197915
0.77508414 0.11318153 1.2766204 10197915
0.82511061 0.11324269 1.2772151 10197915
0.87553835 0.11330542 1.2774371 10197915
0.92498022 0.11338116 1.2728274 10197915
0.97446775 0.11343965 1.2740912 10197915
1.0119722 0.11344787 1.287318 10197915
-0.018674063 0.11203897 1.3258272 8684676
0.025003897 0.11209245 1.3263167 10197915
0.074909069 0.11215296 1.3270694 10197915
0.1248672 0.11221395 1.3276826 10197915
0.17501871 0.11227466 1.3284736 10197915
0.22508581 0.11233538 1.3292278 10197915
0.27493218 0.11239625 1.3298383 10197915
0.32512239 0.11246599 1.3275796 10197915
0.37509358 0.11255448 1.3188531 10197915
0.4250437 0.11261499 1.3196313 10197915
0.4750461 0.11267595 1.3202766 10197915
0.524966 0.11273693 1.3208832 10197915
0.5748018 0.11279707 1.3217311 10197915
0.6248309 0.11285797 1.3224092 10197915
0.67477256 0.11291885 1.3230498 10197915
0.7247715 0.11297943 1.3238316 10197915
0.77482158 0.11304045 1.3244733 10197915
0.82492739 0.11310114 1.3252583 10197915
0.87494713 0.11316182 1.326002 10197915
0.92488199 0.1132225 1.3267152 10197915
0.97501087 0.11328372 1.3273244 10197915
1.0239146 0.11334074 1.328844 10197915
1.0584382 0.11334607 1.3417834 10197915
-0.019409597 0.11188442 1.3780522 8684676
0.024989847 0.11193863 1.3785987 10197915
0.073301457 0.11200559 1.3764845 10197915
0.124979 0.11208002 1.3732657 10197915
0.17494921 0.11214033 1.3741119 10197915
0.22497505 0.11220164 1.3746504 10197915
0.27505285 0.1122618 1.3756 10197915
0.32655939 0.11233013 1.374387 10197915
0.37496346 0.11240301 1.3702928 10197915
0.42486438 0.11246378 1.3709568 10197915
0.47496369 0.11252425 1.3718106 10197915
0.52497315 0.1125854 1.3723989 10197915
0.57503659 0.11264569 1.3732913 10197915
0.62501067 0.11270646 1.3739921 10197915
0.67475086 0.11276671 1.3747666 10197915
0.72483546 0.1128278 1.3753943 10197915
0.77511275 0.11288861 1.3762125 10197915
0.82501668 0.11294909 1.3769898 10197915
0.87497228 0.11300982 1.3776898 10197915
0.92512667 0.11307091 1.3783536 10197915
0.97518867 0.1131313 1.3792115 10197915
1.0253574 0.11321207 1.3731946 10197915
1.0718637 0.11326277 1.3758326 10197915
1.1021837 0.11326563 1.3878084 10197915
-0.020101205 0.11173908 1.4271586 8684676
0.025043389 0.1117942 1.427743 10197915
0.076776519 0.11186802 1.4247315 10197915
0.12489929 0.11193663 1.4219781 10197915
0.17492378 0.1119969 1.4228776 10197915
0.22500181 0.11205767 1.423606 10197915
0.27498746 0.11211848 1.4242872 10197915
0.32502523 0.11217888 1.4251456 10197915
0.37512001 0.11223982 1.4258287 10197915
0.42511791 0.11229981 1.4268132 10197915
0.47502112 0.11236101 1.4273229 10197915
0.52395707 0.1124373 1.4222912 10197915
0.57488555 0.11250263 1.421862 10197915
0.6248973 0.11256354 1.4225155 10197915
0.67476231 0.11262399 1.4232768 10197915
0.72468406 0.11268452 1.4240441 10197915
0.77485645 0.11274501 1.4249253 10197915
0.82488245 0.11280629 1.4254633 10197915
0.8749643 0.11286628 1.4264588 10197915
0.92489982 0.11292721 1.4271082 10197915
0.97489315 0.1129881 1.427761 10197915
1.0251369 0.11306959 1.4215399 10197915
1.075184 0.11313024 1.4222993 10197915
1.1186237 0.11316425 1.4293061 10197915
-0.020735538 0.11160582 1.4721991 8684676
0.025021169 0.1116612 1.47293 10197915
0.075092502 0.11172251 1.4734766 10197915
0.12502055 0.11178258 1.4743986 10197915
0.17499888 0.11184266 1.475324 10197915
0.22503309 0.11190397 1.4758685 10197915
0.27511883 0.11196382 1.4769222 10197915
0.32526103 0.11202487 1.4775945 10197915
0.37504917 0.11208513 1.4783893 10197915
0.42488763 0.11214545 1.4791845 10197915
0.47498843 0.11220608 1.4799844 10197915
0.52581114 0.11228814 1.473802 10197915
0.57503235 0.1123497 1.4739059 10197915
0.62497908 0.1124103 1.4746515 10197915
0.67467064 0.11247032 1.4754884 10197915
0.72371322 0.11253364 1.4749154 10197915
0.77511519 0.11261474 1.4693156 10197915
0.82506967 0.1126752 1.4701043 10197915
0.87507457 0.11273538 1.4710212 10197915
0.92513406 0.11279634 1.4716852 10197915
0.97504437 0.11285677 1.4724734 10197915
1.0250047 0.11291725 1.4732624 10197915
1.0750219 0.11297781 1.4740527 10197915
1.1250898 0.11303843 1.4748434 10197915
1.1641746 0.11306949 1.4809781 10197915
-0.021411233 0.11146381 1.5201757 8684676
0.024995487 0.11152034 1.5208013 10197915
0.074808747 0.11158052 1.5216222 10197915
0.12488953 0.11164065 1.5225873 10197915
0.17502296 0.11170165 1.5232739 10197915
0.2249984 0.11176204 1.5240978 10197915
0.27503145 0.11182253 1.5249225 10197915
0.3251152 0.11188305 1.5257483 10197915
0.37525666 0.11194364 1.5265744 10197915
0.42502722 0.11200339 1.5275348 10197915
0.47484866 0.11206443 1.5280734 10197915
0.52493864 0.11212455 1.5290412 10197915
0.57486963 0.11218449 1.5300044 10197915
0.624856 0.11224534 1.5306879 10197915
0.67467982 0.11230554 1.5315057 10197915
0.72601849 0.11237361 1.5303034 10197915
0.77318621 0.11246008 1.5210668 10197915
0.82505286 0.11253577 1.5175005 10197915
0.87519282 0.11259638 1.5183182 10197915
0.92517334 0.11265723 1.5189935 10197915
0.97499192 0.11271665 1.5200834 10197915
1.0248677 0.11277736 1.5207584 10197915
1.0750105 0.11283799 1.5215759 10197915
1.124992 0.11289801 1.522529 10197915
1.1748158 0.11295867 1.5232004 10197915
1.2106032 0.11296827 1.5352247 10197915
-0.022132432 0.11131229 1.5713851 8684676
0.024969123 0.11136957 1.5720341 10197915
0.075157076 0.11143015 1.5728894 10197915
0.12518527 0.11149009 1.5738949 10197915
0.1750482 0.11155071 1.5745918 10197915
0.22496533 0.11161142 1.5752846 10197915
0.27493408 0.11167081 1.5764452 10197915
0.32517797 0.1117319 1.5771493 10197915
0.37504044 0.1117921 1.5779943 10197915
0.42495298 0.1118523 1.5788491 10197915
0.4751417 0.11191247 1.5798576 10197915
0.52516305 0.11197376 1.580399 10197915
0.57523876 0.11203328 1.5815636 10197915
0.62329769 0.11211003 1.5760113 10197915
0.6747098 0.11217992 1.5742176 10197915
0.72466999 0.11224023 1.575067 10197915
0.77754736 0.11232032 1.5704448 10197915
0.82504004 0.11238661 1.5682064 10197915
0.87488025 0.11244772 1.5687407 10197915
0.92477298 0.11250702 1.5698872 10197915
0.97494161 0.11256807 1.5705816 10197915
1.0249411 0.11262847 1.5714191 10197915
1.0749984 0.11268888 1.5722667 10197915
1.1251054 0.11274938 1.5731071 10197915
1.1750485 0.11280923 1.5741038 10197915
1.2235757 0.11286441 1.5760819 10197915
1.2576846 0.1128643 1.5906987 10197915
-0.022903927 0.11115016 1.6261646 8684676
0.025165671 0.1112086 1.6268443 10197915
0.075079635 0.11126874 1.6277195 10197915
0.12482606 0.1113282 1.6287695 10197915
0.174849 0.1113895 1.6293099 10197915
0.22492641 0.11144885 1.6305344 10197915
0.27481499 0.11153696 1.6218976 10197915
0.32504591 0.11159787 1.622653 10197915
0.37533635 0.11165813 1.6236596 10197915
0.4250015 0.1117184 1.6244017 10197915
0.47472283 0.11177795 1.6254019 10197915
0.52483672 0.11183836 1.6262803 10197915
0.57465982 0.11189882 1.6270249 10197915
0.62645435 0.1119839 1.6202223 10197915
0.67541772 0.11204764 1.6194868 10197915
0.72523463 0.11210772 1.6203504 10197915
0.77487725 0.11216708 1.6213856 10197915
0.82502252 0.11222853 1.6219238 10197915
0.87499797 0.1122883 1.6229606 10197915
0.92502677 0.11234815 1.6240029 10197915
0.97511125 0.11240904 1.6247052 10197915
1.0247922 0.11246893 1.6255711 10197915
1.0747579 0.11252868 1.6266129 10197915
1.1250005 0.11258976 1.6273177 10197915
1.1748412 0.11264986 1.6281865 10197915
1.2247394 0.11271005 1.629056 10197915
1.2719724 0.11275947 1.6324351 10197915
1.3058734 0.11275201 1.6494455 10197915
-0.023587754 0.11100648 1.6747198 8684676
0.024992801 0.11106494 1.675602 10197915
0.075014554 0.11112518 1.6765105 10197915
0.12508488 0.11118627 1.6771408 10197915
0.17521259 0.11124575 1.6783301 10197915
0.22539738 0.11130618 1.6792414 10197915
0.27514797 0.11139569 1.6700612 10197915
0.32513842 0.11145587 1.6709683 10197915
0.3751868 0.11151616 1.671867 10197915
0.42505583 0.11157565 1.6729536 10197915
0.47497502 0.11163683 1.6734844 10197915
0.52495229 0.11169594 1.6747571 10197915
0.57498056 0.1117567 1.6754732 10197915
0.62483364 0.11181672 1.6763734 10197915
0.67520279 0.11187737 1.6772873 10197915
0.72539693 0.11193783 1.6781882 10197915
0.77517366 0.11199773 1.6790868 10197915
0.82312137 0.11207584 1.6730279 10197915
0.87502462 0.11214694 1.6710365 10197915
0.92536956 0.11220758 1.6719402 10197915
0.97541833 0.11226828 1.6726985 10197915
1.0248165 0.11232735 1.6737244 10197915
1.0746217 0.11238731 1.6746179 10197915
1.1248282 0.1124482 1.6753795 10197915
1.175091 0.11250833 1.6764208 10197915
1.2254072 0.11256933 1.6771841 10197915
1.275072 0.11262874 1.6782151 10197915
1.3186268 0.11267486 1.6811388 10197915
-0.024316657 0.11085331 1.7264763 8684676
0.024809767 0.11091295 1.7271901 10197915
0.073361024 0.11097649 1.7263398 10197915
0.12530653 0.11106467 1.718565 10197915
0.1748807 0.11112472 1.7193345 10197915
0.2245083 0.11118393 1.7204106 10197915
0.27490589 0.11124497 1.7211999 10197915
0.32535553 0.1113052 1.7222869 10197915
0.37514767 0.1113655 1.7230599 10197915
0.42498779 0.11142498 1.7241405 10197915
0.47524565 0.11148541 1.7250754 10197915
0.52519643 0.11154593 1.7258514 10197915
0.57520097 0.11160561 1.7269351 10197915
0.62526095 0.11166624 1.7277132 10197915
0.675372 0.11172603 1.7287989 10197915
0.72517955 0.11178593 1.7297256 10197915
0.77467579 0.11184587 1.7304925 10197915
0.82650334 0.1119334 1.722887 10197915
0.87505662 0.11199747 1.7218592 10197915
0.92476934 0.11205727 1.7227784 10197915
0.97478312 0.11211799 1.7235061 10197915
1.0253212 0.11217759 1.724841 10197915
1.0754426 0.11223847 1.7255644 10197915
1.1251303 0.11229764 1.7266847 10197915
1.1748686 0.11235802 1.7274028 10197915
1.2236398 0.11242055 1.7269969 10197915
1.2749856 0.11250941 1.7187248 10197915
1.3248284 0.11256939 1.7196404 10197915
1.3610432 0.11259838 1.7252673 10197915
-0.025088759 0.11069103 1.7813005 8684676
0.025106965 0.11075128 1.7822702 10197915
0.077039443 0.11082456 1.7795491 10197915
0.12486248 0.11090387 1.7730292 10197915
0.17489989 0.11096524 1.7735497 10197915
0.22499184 0.11102411 1.7749511 10197915
0.27489454 0.11108468 1.7756857 10197915
0.32509354 0.11114493 1.7766552 10197915
0.37439591 0.11123428 1.7673467 10197915
0.42468762 0.11129708 1.7674849 10197915
0.47473678 0.11135719 1.7684397 10197915
0.52483988 0.11141737 1.7693955 10197915
0.57499427 0.11147857 1.7700244 10197915
0.62519968 0.11153788 1.7713094 10197915
0.67546564 0.11159827 1.7722681 10197915
0.72541672 0.11165874 1.7730547 10197915
0.77541542 0.1117183 1.7741746 10197915
0.82510173 0.11177798 1.7751222 10197915
0.87484211 0.11183771 1.7760707 10197915
0.92500001 0.11189844 1.7768605 10197915
0.97484815 0.11195832 1.7778113 10197915
1.0251169 0.11201819 1.7789367 10197915
1.0750705 0.11207818 1.7798898 10197915
1.1247015 0.11213828 1.780669 10197915
1.1751347 0.11219835 1.781798 10197915
1.2269459 0.11226869 1.7800306 10197915
1.2750289 0.1123514 1.7724564 10197915
1.3249376 0.11241136 1.7734016 10197915
1.3739738 0.11246761 1.7752333 10197915
1.4124091 0.11246914 1.7911355 10197915
-0.050721925 0.11052343 1.8273365 2894892
-0.024987161 0.11055428 1.827847 8882055
0.025005218 0.11061421 1.8288373 10197915
0.075051829 0.1106742 1.829829 10197915
0.12514599 0.11073531 1.8304597 10197915
0.17529817 0.11079437 1.831816 10197915
0.22550793 0.11085456 1.8328106 10197915
0.27539027 0.11091491 1.8336148 10197915
0.32532358 0.11097421 1.8347899 10197915
0.37575734 0.11106866 1.8242465 10197915
0.42511714 0.11112851 1.8249764 10197915
0.47335845 0.11119414 1.8232849 10197915
0.5248363 0.11128315 1.8150316 10197915
0.57477397 0.11134305 1.8160092 10197915
0.6247654 0.11140302 1.816987 10197915
0.67518443 0.11146402 1.8177983 10197915
0.72528577 0.11152413 1.8187729 10197915
0.77505344 0.1115833 1.8199272 10197915
0.825261 0.11164353 1.8209096 10197915
0.87513936 0.11170388 1.8217044 10197915
0.92507094 0.11176324 1.822862 10197915
0.97505832 0.11182374 1.8236591 10197915
1.0250952 0.11188323 1.8248188 10197915
1.0751919 0.11194386 1.8256178 10197915
1.1249549 0.11200247 1.8269539 10197915
1.174767 0.1120633 1.8275656 10197915
1.2246408 0.11212312 1.8285414 10197915
1.2749479 0.11218293 1.8297067 10197915
1.3253123 0.1122439 1.8305103 10197915
1.3749552 0.11230288 1.8316631 10197915
1.4246653 0.11236198 1.8328178 10197915
1.4592723 0.11236928 1.8451337 10197915
-0.0513051 0.1103785 1.8763518 2894892
-0.024880093 0.11041012 1.8768895 9079434
0.024898004 0.11046971 1.8779023 10197915
0.07511507 0.11053041 1.8787307 10197915
0.12539023 0.11059005 1.8799475 10197915
0.17493759 0.11064995 1.880756 10197915
0.22453843 0.11070875 1.8819652 10197915
0.27497646 0.1107697 1.8827977 10197915
0.32546622 0.11082955 1.8840197 10197915
0.37523207 0.11088973 1.8848319 10197915
0.42504454 0.11094878 1.8860462 10197915
0.47521707 0.11102724 1.880821 10197915
0.52522767 0.1111428 1.862902 10197915
0.57532036 0.11120226 1.8640981 10197915
0.6250807 0.11126186 1.8650975 10197915
0.67527801 0.11132257 1.8659149 10197915
0.72514749 0.11138235 1.8669106 10197915
0.77467233 0.11144108 1.8681012 10197915
0.82464671 0.11150098 1.8691051 10197915
0.87506378 0.11156191 1.8699268 10197915
0.92553461 0.11162182 1.8711309 10197915
0.97527915 0.11168198 1.8719332 10197915
1.0250723 0.11174106 1.8731298 10197915
1.0753163 0.11180124 1.8741388 10197915
1.1252173 0.11186162 1.8749442 10197915
1.1751741 0.11192092 1.8761443 10197915
1.225184 0.11198135 1.8769512 10197915
1.2752464 0.11204083 1.8781542 10197915
1.3253653 0.11210137 1.8789631 10197915
1.3751423 0.11215983 1.8803579 10197915
1.424963 0.1122207 1.8809632 10197915
1.472103 0.11227193 1.883693 10197915
1.5035789 0.11227769 1.8952 10197915
-0.052309074 0.11021729 1.9307184 2894892
-0.025167288 0.11025814 1.9284173 9211020
0.024784876 0.11031727 1.9296728 10197915
0.074785873 0.11037765 1.9305075 10197915
0.12484466 0.11043691 1.9317654 10197915
0.17495598 0.11049747 1.932602 10197915
0.22512169 0.1105568 1.9338624 10197915
0.27494264 0.11061636 1.9349047 10197915
0.32521331 0.11067708 1.9357444 10197915
0.37248555 0.11076137 1.9273028 10197915
0.4250029 0.11083506 1.9246869 10197915
0.47872818 0.11091501 1.9204667 10197915
0.52483773 0.11099276 1.9137498 10197915
0.57509845 0.11105286 1.9147866 10197915
0.6254133 0.11111305 1.9158247 10197915
0.67537671 0.11117344 1.9166483 10197915
0.72540092 0.11123268 1.9178872 10197915
0.77507758 0.11129212 1.9189122 10197915
0.82519859 0.11135273 1.9197389 10197915
0.87498391 0.11141226 1.9207588 10197915
0.92441505 0.11147079 1.9219924 10197915
0.97470671 0.11153158 1.9228226 10197915
1.0250479 0.11159123 1.9240686 10197915
1.0750453 0.11165099 1.9251 10197915
1.1250961 0.11171086 1.9261323 10197915
1.1747869 0.11177095 1.9269428 10197915
1.2249472 0.11183098 1.9279841 10197915
1.2755606 0.11189089 1.9292361 10197915
1.3254216 0.11195116 1.9300494 10197915
1.3753297 0.11201026 1.9312941 10197915
1.4252995 0.11207067 1.9321094 10197915
1.4753118 0.11212988 1.9333566 10197915
1.5211595 0.11217401 1.9379402 10197915
-0.052973185 0.11005765 1.9847177 2894892
-0.025059331 0.11009754 1.9830803 9408399
0.02507749 0.1101574 1.9841584 10197915
0.074058101 0.11021661 1.9849569 10197915
0.12502874 0.11031744 1.9724591 10197915
0.17497028 0.11037708 1.9735253 10197915
0.22496614 0.11043678 1.9745929 10197915
0.27501589 0.11049657 1.9756618 10197915
0.32512006 0.11055639 1.9767317 10197915
0.37695733 0.11065499 1.96536 10197915
0.42454731 0.11071619 1.964897 10197915
0.4748731 0.11077565 1.966189 10197915
0.52525127 0.11083649 1.9670316 10197915
0.57486379 0.11089511 1.9683098 10197915
0.62453163 0.1109551 1.9691368 10197915
0.67507088 0.11101481 1.9704338 10197915
0.72525799 0.11107479 1.9714985 10197915
0.77508318 0.11113497 1.9723291 10197915
0.82496518 0.11119391 1.9736125 10197915
0.87489915 0.11125422 1.9744455 10197915
0.92488617 0.11131327 1.9757315 10197915
0.97492975 0.11137374 1.9765662 10197915
1.0250221 0.11143291 1.977855 10197915
1.0747591 0.11149233 1.9789099 10197915
1.1249603 0.11155297 1.9797475 10197915
1.1752174 0.11161234 1.9810399 10197915
1.2251147 0.11167195 1.982098 10197915
1.2746412 0.11173181 1.9829135 10197915
1.3246471 0.11179154 1.9839815 10197915
1.3751155 0.11185116 1.9852788 10197915
1.4211019 0.11192808 1.9787787 10197915
1.4749534 0.11201128 1.9735073 10197915
1.5248204 0.1120709 1.9745575 10197915
1.5605891 0.11211362 1.9753108 7631988
-0.053709265 0.10993623 2.0256629 2894892
-0.025181741 0.10997024 2.0262899 9474192
0.025200073 0.11003032 2.0273967 10197915
0.076278165 0.11009672 2.02665 10197915
0.12438557 0.11019123 2.0150898 10197915
0.17498544 0.11025231 2.0159559 10197915
0.22522675 0.11031226 2.0170436 10197915
0.27509066 0.11037102 2.0183773 10197915
0.32543901 0.11043108 2.0194757 10197915
0.37542278 0.11049141 2.0203197 10197915
0.4254528 0.1105504 2.0216579 10197915
0.47512257 0.11060963 2.0227411 10197915
0.52484596 0.11066895 2.0238259 10197915
0.57503521 0.11072955 2.0246739 10197915
0.6248678 0.11078901 2.0257609 10197915
0.67516977 0.11084827 2.0271053 10197915
0.72510761 0.11090786 2.0281947 10197915
0.77467054 0.1109677 2.0290287 10197915
0.82513863 0.11102717 2.0303769 10197915
0.87523794 0.11108693 2.0314696 10197915
0.92495722 0.11114698 2.0323064 10197915
0.9751662 0.11120687 2.0334017 10197915
1.0249956 0.11126559 2.0347364 10197915
1.0736831 0.11136136 2.0229928 10197915
1.1251755 0.1114282 2.022279 10197915
1.1752361 0.11148795 2.0233629 10197915
1.2253499 0.11154774 2.0244486 10197915
1.274667 0.11160661 2.0255167 10197915
1.3248879 0.11166652 2.0266044 10197915
1.3751624 0.11172652 2.0276933 10197915
1.428102 0.11182496 2.0168459 10197915
1.4750035 0.11188696 2.0158129 10197915
1.5250778 0.11194817 2.0164056 10197915
1.5736096 0.1120031 2.018471 7763574
1.6084926 0.11200497 2.0327466 2039583
-0.054046821 0.1098032 2.0707505 2894892
-0.024884351 0.10983792 2.0714052 9737364
0.024902264 0.10989722 2.0725231 10197915
0.075167298 0.10995784 2.0733917 10197915
0.12549131 0.11001702 2.0747828 10197915
0.17500629 0.11007677 2.0756261 10197915
0.2245747 0.11013502 2.0770082 10197915
0.27463105 0.11019465 2.0781324 10197915
0.32516646 0.1102556 2.0790069 10197915
0.37533385 0.11031538 2.0801244 10197915
0.42511311 0.11037386 2.0815129 10197915
0.47538695 0.11043375 2.0826416 10197915
0.52527791 0.11049397 2.083492 10197915
0.57151514 0.110576 2.0753698 10197915
0.6253475 0.11065779 2.07057 10197915
0.67546499 0.11071753 2.0716875 10197915
0.72563636 0.1107773 2.0728056 10197915
0.77499568 0.1108361 2.0739067 10197915
0.82440752 0.11089499 2.0750082 10197915
0.87474018 0.11095496 2.0761302 10197915
0.92512709 0.11101498 2.0772536 10197915
0.97556871 0.11107509 2.0783782 10197915
1.0251937 0.11113421 2.0794845 10197915
1.0755657 0.11123694 2.0660791 10197915
1.1249691 0.11129744 2.0666347 10197915
1.1748155 0.1113576 2.0674739 10197915
1.224731 0.11141633 2.0688429 10197915
1.2746867 0.11147664 2.0696833 10197915
1.3247063 0.1115355 2.0710559 10197915
1.3747711 0.11159596 2.0718985 10197915
1.4248954 0.11165492 2.0732729 10197915
1.4750702 0.11171551 2.0741177 10197915
1.5252995 0.11177461 2.0754952 10197915
1.5751482 0.11183403 2.0765986 10197915
1.6226196 0.11188715 2.0788155 3750201
1.6574979 0.1118876 2.0935812 2039583
-0.054393645 0.1096648 2.1176531 2894892
-0.024570679 0.10970028 2.1183379 10000536
0.024588142 0.10975875 2.1194673 10197915
0.074678801 0.10981833 2.1206176 10197915
0.12482356 0.10987797 2.1217697 10197915
0.17502314 0.10993768 2.1229227 10197915
0.22527699 0.10999747 2.1240768 10197915
0.27470258 0.11005626 2.1252122 10197915
0.32506526 0.11011616 2.1263688 10197915
0.3754825 0.11017613 2.127527 10197915
0.4250688 0.11023512 2.1286662 10197915
0.47470829 0.11029416 2.1298065 10197915
0.52440101 0.11035328 2.1309478 10197915
0.57773364 0.11045706 2.1184545 10197915
0.62541044 0.11052019 2.1173596 10197915
0.67532742 0.11058043 2.1182182 10197915
0.72530657 0.11063908 2.119637 10197915
0.77533299 0.11069944 2.1204984 10197915
0.82541764 0.11075821 2.1219194 10197915
0.87511331 0.11081734 2.1230526 10197915
0.92529726 0.11087789 2.1239166 10197915
0.97510195 0.11093721 2.125042 10197915
1.0245063 0.11099515 2.1264584 10197915
1.074863 0.11105587 2.127326 10197915
1.1252632 0.11111504 2.1287556 10197915
1.1752799 0.11117458 2.1298957 10197915
1.2249005 0.11123446 2.1307359 10197915
1.2745717 0.11129273 2.1321595 10197915
1.3247484 0.11135241 2.1333032 10197915
1.3728807 0.11145056 2.1205018 10197915
1.4242716 0.11151805 2.1195271 10197915
1.4742309 0.11157752 2.1206574 10197915
1.5242436 0.11163705 2.1217892 10197915
1.5743093 0.11169665 2.1229217 10197915
1.6244287 0.11175634 2.1240561 6974058
1.6701187 0.11181069 2.1250899 2039583
-0.05566017 0.10951811 2.1669619 2894892
-0.025142938 0.10955435 2.1676791 10000536
0.02516122 0.10961413 2.1688616 10197915
0.075064436 0.1096743 2.1697288 10197915
0.12502666 0.10973275 2.1712091 10197915
0.17504023 0.10979304 2.1720784 10197915
0.22510847 0.10985164 2.1735613 10197915
0.27523288 0.1099121 2.174433 10197915
0.32540736 0.10997077 2.1759191 10197915
0.3751891 0.11002991 2.1770887 10197915
0.42456535 0.1100895 2.1779425 10197915
0.47490653 0.11014841 2.1794324 10197915
0.52529997 0.11020915 2.1803102 10197915
0.57483876 0.1102671 2.1817818 10197915
0.62099785 0.11033411 2.1787326 10197915
0.6751886 0.11043607 2.1672218 10197915
0.72495848 0.11049523 2.1683829 10197915
0.77478188 0.1105544 2.1695447 10197915
0.82465857 0.11061368 2.1707079 10197915
0.87458932 0.11067302 2.1718724 10197915
0.92457312 0.11073244 2.1730382 10197915
0.97461081 0.11079192 2.1742053 10197915
1.024702 0.11085144 2.1753733 10197915
1.0748476 0.11091103 2.176543 10197915
1.1250467 0.1109707 2.1777136 10197915
1.1753 0.11103042 2.1788859 10197915
1.225607 0.11109023 2.1800592 10197915
1.2750525 0.11114896 2.1812122 10197915
1.3245504 0.11120781 2.1823671 10197915
1.3757159 0.11131452 2.1679668 10197915
1.4249835 0.11137675 2.167871 10197915
1.4751799 0.11143642 2.1690326 10197915
1.5249672 0.11149474 2.1704865 10197915
1.5748103 0.11155494 2.1713395 10197915
1.6247007 0.11161336 2.1727955 9737364
1.674652 0.11167365 2.1736498 2763306
1.7179884 0.11170211 2.1824968 2039583
-0.056061652 0.10936645 2.218374 3158064
-0.024820423 0.1094035 2.2191255 10197915
0.024838237 0.10946242 2.2203205 10197915
0.07455039 0.10952138 2.2215166 10197915
0.12431616 0.10958043 2.2227139 10197915
0.17505884 0.10964061 2.2239354 10197915
0.22585699 0.10970089 2.2251575 10197915
0.27578604 0.10976011 2.2263591 10197915
0.32576904 0.10981941 2.2275617 10197915
0.37580612 0.10987877 2.2287657 10197915
0.42496893 0.10993709 2.2299485 10197915
0.47418442 0.10999548 2.231133 10197915
0.52438211 0.11005501 2.2323408 10197915
0.57463419 0.11011464 2.2335501 10197915
0.6295343 0.11020945 2.2247689 10197915
0.67550254 0.11028562 2.2185218 10197915
0.72506267 0.11034542 2.2193754 10197915
0.77466553 0.11040329 2.2208893 10197915
0.82479477 0.1104628 2.2220862 10197915
0.87497765 0.11052234 2.2232845 10197915
0.92473882 0.1105824 2.2241418 10197915
0.97456706 0.11064056 2.225662 10197915
1.0244374 0.11070073 2.2265222 10197915
1.0743698 0.110759 2.2280447 10197915
1.1248224 0.11081889 2.229249 10197915
1.1748489 0.11087925 2.2301128 10197915
1.2249469 0.11093774 2.2316401 10197915
1.2721665 0.11103208 2.2197325 10197915
1.3250364 0.1111082 2.2164519 10197915
1.3753613 0.11116795 2.217644 10197915
1.4248065 0.11122665 2.2188151 10197915
1.4743041 0.11128544 2.2199876 10197915
1.5247899 0.11134537 2.221184 10197915
1.5753297 0.11140538 2.2223804 10197915
1.6249868 0.11146434 2.2235568 10197915
1.6746963 0.11152339 2.2247341 7303023
1.7253983 0.11158358 2.2259357 2039583
1.7611079 0.11162598 2.2267809 2039583
-0.05695596 0.10920226 2.2737947 3618615
-0.024957288 0.10924479 2.2730038 10197915
0.0249753 0.10930395 2.2742343 10197915
0.07495705 0.10936109 2.2761643 10197915
0.12498256 0.10942242 2.2766995 10197915
0.17507769 0.10948174 2.2779334 10197915
0.22474757 0.10953956 2.2795081 10197915
0.2744734 0.10959947 2.2803833 10197915
0.32305723 0.10969964 2.2670999 10197915
0.37529248 0.10977244 2.2646704 10197915
0.42524791 0.10983165 2.2658918 10197915
0.47525677 0.10989091 2.2671149 10197915
0.52532017 0.10995024 2.2683384 10197915
0.57543713 0.11000963 2.2695642 10197915
0.62466133 0.11006796 2.2707677 10197915
0.67488623 0.11012749 2.2719958 10197915
0.72516507 0.11018707 2.2732251 10197915
0.77454829 0.11024562 2.2744327 10197915
0.8249352 0.11030532 2.2756643 10197915
0.8753767 0.11036511 2.2768979 10197915
0.92491978 0.11042383 2.2781088 10197915
0.97451526 0.1104826 2.2793219 10197915
1.0251195 0.11054257 2.2805591 10197915
1.0757779 0.11060261 2.2817976 10197915
1.1255347 0.11066158 2.2830145 10197915
1.175344 0.1107206 2.2842321 10197915
1.2252067 0.11077973 2.2854517 10197915
1.2769893 0.11089001 2.2700946 10197915
1.3248414 0.11095122 2.2697444 10197915
1.374938 0.11101161 2.2706172 10197915
1.4250939 0.11107007 2.2721763 10197915
1.4753004 0.11113063 2.2730515 10197915
1.5255611 0.11118919 2.2746127 10197915
1.5754 0.11124829 2.2758222 10197915
1.6248024 0.11130791 2.2766631 10197915
1.6747504 0.11136712 2.2778885 10197915
1.7252192 0.11142593 2.2794566 5789784
1.7752705 0.11148529 2.2806706 2039583
1.8102468 0.11147306 2.2997556 2039583
-0.057896174 0.10903818 2.3291519 4013373
-0.025095085 0.10907698 2.3299804 10197915
0.025113294 0.10913637 2.3312488 10197915
0.075376362 0.10919581 2.3325183 10197915
0.12569425 0.10925531 2.3337896 10197915
0.1750976 0.10931375 2.3350382 10197915
0.22455417 0.10937225 2.3362877 10197915
0.27503479 0.10943194 2.337563 10197915
0.32667458 0.10954717 2.3204789 10197915
0.37545925 0.10960824 2.3205595 10197915
0.42519757 0.10966599 2.3221817 10197915
0.47548214 0.10972551 2.3234417 10197915
0.52533275 0.10978562 2.3243146 10197915
0.57523751 0.10984357 2.3259416 10197915
0.62519842 0.10990381 2.3268166 10197915
0.67520773 0.10996187 2.3284464 10197915
0.72527927 0.11002222 2.3293238 10197915
0.77127647 0.11010307 2.3215044 10197915
0.82503349 0.11019584 2.3129432 10197915
0.8743664 0.11025424 2.3141694 10197915
0.92472023 0.11031388 2.3154206 10197915
0.97512853 0.11037355 2.316673 10197915
1.0255915 0.1104333 2.3179274 10197915
1.0751369 0.11049195 2.3191581 10197915
1.1247354 0.11055068 2.3203912 10197915
1.1753603 0.11061061 2.3216491 10197915
1.2250651 0.11066948 2.3228848 10197915
1.2748227 0.11072838 2.324121 10197915
1.3246336 0.11078736 2.3253591 10197915
1.3744973 0.11084641 2.3265979 10197915
1.4253939 0.11090665 2.327863 10197915
1.475365 0.11096583 2.3291047 10197915
1.52539 0.11102506 2.3303478 10197915
1.5754679 0.11108433 2.3315923 10197915
1.6246161 0.11114253 2.3328135 10197915
1.6748004 0.11120193 2.3340607 10197915
1.7250381 0.11126144 2.3353093 10197915
1.7743428 0.11131981 2.3365345 4802889
1.8247088 0.11139731 2.3317091 2039583
1.8553131 0.11141567 2.3385465 2039583
-0.05789531 0.10892221 2.3685961 4671303
-0.024538731 0.1089616 2.3694532 10197915
0.024556143 0.10901961 2.3707147 10197915
0.074686974 0.10907885 2.3720026 10197915
0.12487194 0.10913815 2.373292 10197915
0.17511185 0.1091975 2.3745828 10197915
0.22540611 0.10925692 2.375875 10197915
0.27476752 0.10931523 2.3771429 10197915
0.32517067 0.10937478 2.3784387 10197915
0.37562838 0.1094344 2.3797343 10197915
0.42515045 0.10949293 2.381007 10197915
0.47472528 0.10955149 2.3822806 10197915
0.52435338 0.10961012 2.3835557 10197915
0.5750289 0.10967 2.3848577 10197915
0.62575942 0.10972994 2.3861609 10197915
0.67554933 0.10978878 2.3874404 10197915
0.72539252 0.10984765 2.3887208 10197915
0.77876246 0.1099581 2.3739803 10197915
0.82518715 0.1100241 2.3713739 10197915
0.87526697 0.11008447 2.3722589 10197915
0.92539978 0.11014257 2.3739269 10197915
0.97509414 0.11020134 2.3751931 10197915
1.0253303 0.11026184 2.3760817 10197915
1.0756299 0.11032017 2.3777547 10197915
1.1249797 0.1103797 2.3786042 10197915
1.1702354 0.11046226 2.3698685 10197915
1.2249175 0.11055544 2.3615615 10197915
1.2755039 0.11061526 2.3628395 10197915
1.3251519 0.11067399 2.3640938 10197915
1.3748523 0.11073276 2.3653493 10197915
1.424606 0.11079162 2.3666067 10197915
1.4744124 0.11085054 2.3678651 10197915
1.5242718 0.1109095 2.3691249 10197915
1.5741843 0.11096853 2.3703856 10197915
1.6241498 0.11102765 2.3716481 10197915
1.6741686 0.11108678 2.3729115 10197915
1.7242408 0.11114601 2.374177 10197915
1.7743665 0.11120529 2.3754432 9671571
1.8245454 0.11126466 2.3767111 2039583
1.8707567 0.1113193 2.3778782 2039583
-0.058891959 0.10880093 2.4093714 4671303
-0.024961278 0.10884095 2.4102581 10197915
0.024979293 0.10889989 2.4115632 10197915
0.074973986 0.1089589 2.4128695 10197915
0.12502287 0.10901796 2.4141772 10197915
0.17512606 0.10907709 2.4154868 10197915
0.22528367 0.10913631 2.4167981 10197915
0.27549562 0.10919557 2.4181101 10197915
0.32576224 0.10925487 2.4194241 10197915
0.37507638 0.1093131 2.4207127 10197915
0.42444339 0.10937139 2.4220033 10197915
0.47487202 0.10943085 2.4233208 10197915
0.52535558 0.10949045 2.4246407 10197915
0.57488257 0.10954889 2.4259346 10197915
0.6244629 0.10960745 2.4272308 10197915
0.67510951 0.1096672 2.4285541 10197915
0.72479653 0.10972583 2.429853 10197915
0.77453727 0.10978454 2.4311533 10197915
0.82534784 0.10984451 2.4324811 10197915
0.87519556 0.10990334 2.4337838 10197915
0.92509729 0.10996222 2.4350882 10197915
0.97505236 0.11002117 2.4363935 10197915
1.0250611 0.1100802 2.4377005 10197915
1.0751232 0.11013927 2.4390085 10197915
1.1252395 0.11019845 2.4403191 10197915
1.1783252 0.11031155 2.424561 10197915
1.2246883 0.11037797 2.4218113 10197915
1.2750427 0.11043618 2.4235384 10197915
1.3254572 0.11049698 2.424422 10197915
1.3748964 0.11055408 2.4261262 10197915
1.4249078 0.11061313 2.4274218 10197915
1.4745126 0.1106756 2.4273832 10197915
1.525147 0.1107926 2.4092691 10197915
1.5748901 0.11085135 2.4105473 10197915
1.6246864 0.11091018 2.4118264 10197915
1.6745355 0.11096909 2.4131074 10197915
1.7254564 0.11102922 2.4144154 10197915
1.7754127 0.11108825 2.4156988 10197915
1.825422 0.11114734 2.4169836 6381921
1.8754846 0.11120648 2.4182699 2039583
1.9122972 0.11124998 2.4192154 2039583
-0.059942137 0.10860782 2.4745982 5000268
-0.025114233 0.10865355 2.4739351 10197915
0.025132474 0.10871274 2.4752827 10197915
0.07490705 0.10877007 2.4770648 10197915
0.12113076 0.10886078 2.4659774 10197915
0.17514098 0.10895262 2.4578283 10197915
0.22515711 0.10901158 2.4591584 10197915
0.2752271 0.10907063 2.46049 10197915
0.32535169 0.1091297 2.4618227 10197915
0.37553015 0.10918886 2.4631574 10197915
0.42473769 0.10924687 2.4644661 10197915
0.47502437 0.10930616 2.4658034 10197915
0.52536541 0.10936549 2.4671421 10197915
0.57473212 0.10942369 2.4684548 10197915
0.62518191 0.10948315 2.4697967 10197915
0.67568606 0.10954269 2.4711397 10197915
0.72521305 0.10960109 2.4724567 10197915
0.77479297 0.10965952 2.4737751 10197915
0.8244257 0.10971805 2.475095 10197915
0.87411118 0.10977662 2.4764163 10197915
0.92488706 0.10983647 2.4777668 10197915
0.97571784 0.10989638 2.4791183 10197915
1.0255653 0.10995515 2.4804442 10197915
1.0754659 0.11001398 2.4817708 10197915
1.1254202 0.11007287 2.4830995 10197915
1.1754279 0.11013183 2.4844294 10197915
1.2254891 0.11019084 2.4857607 10197915
1.2756041 0.11024993 2.4870934 10197915
1.3257729 0.11030907 2.4884274 10197915
1.3749484 0.11036702 2.4897351 10197915
1.4241761 0.11042506 2.4910448 10197915
1.4763262 0.11049627 2.4891279 10197915
1.5249525 0.11060703 2.472245 10197915
1.5749544 0.110666 2.4735634 10197915
1.6244775 0.11072576 2.4744112 10197915
1.6745894 0.11078481 2.4757507 10197915
1.7252625 0.11084329 2.4775259 10197915
1.772005 0.11093993 2.4646471 10197915
1.8252878 0.11102465 2.4586143 10197915
1.8751736 0.11108351 2.4599183 3552822
1.9251118 0.11114243 2.4612234 2039583
1.9542646 0.11117685 2.4619853 2039583
-0.061047245 0.10841218 2.5406127 5263440
-0.025268592 0.10845425 2.5415988 10197915
0.025287053 0.10851371 2.5429919 10197915
0.074843004 0.108572 2.5443575 10197915
0.12740119 0.10868924 2.5269735 10197915
0.17464538 0.10875624 2.5243876 10197915
0.22496076 0.10881826 2.5248146 10197915
0.27159649 0.10888795 2.5210488 10197915
0.32596803 0.1090013 2.5057626 10197915
0.37600029 0.10906018 2.5071168 10197915
0.42504245 0.10911794 2.5084448 10197915
0.47413692 0.10917574 2.509773 10197915
0.52432954 0.10923485 2.5111318 10197915
0.57457656 0.109294 2.5124919 10197915
0.62487787 0.10935324 2.5138533 10197915
0.67523384 0.10941254 2.5152164 10197915
0.72564459 0.10947189 2.5165813 10197915
0.77505767 0.10953007 2.5179183 10197915
0.82452387 0.10958832 2.5192575 10197915
0.87509674 0.10964786 2.5206263 10197915
0.92466885 0.10970624 2.5219686 10197915
0.97429442 0.10976467 2.5233111 10197915
1.02503 0.10982441 2.5246847 10197915
1.0747622 0.10988297 2.526031 10197915
1.1245476 0.10994157 2.5273783 10197915
1.1754471 0.11000151 2.5287557 10197915
1.2253398 0.11006026 2.5301068 10197915
1.2752858 0.11011905 2.5314586 10197915
1.3252852 0.11017793 2.5328119 10197915
1.3753386 0.11023689 2.5341671 10197915
1.4254452 0.11029588 2.5355232 10197915
1.4745377 0.1103537 2.5368521 10197915
1.5247507 0.11041281 2.5382113 10197915
1.575017 0.11047201 2.5395718 10197915
1.6253381 0.11053125 2.5409338 10197915
1.6757125 0.11059055 2.5422974 10197915
1.7250676 0.11064868 2.5436337 10197915
1.7773272 0.11076953 2.5248654 10197915
1.8250792 0.11083065 2.5244977 10197915
1.8752183 0.11089252 2.5248935 9539985
1.9248857 0.11094963 2.526701 4210752
1.9681808 0.11104108 2.5141068 2039583
-0.061104581 0.10827389 2.5876172 5658198
-0.024663983 0.10831669 2.58864 10197915
0.024681574 0.10837464 2.5900249 10197915
0.075154625 0.10843393 2.5914414 10197915
0.12568252 0.10849328 2.5928597 10197915
0.17518914 0.10855143 2.5942497 10197915
0.22474888 0.10860962 2.5956409 10197915
0.27894744 0.10871532 2.5828638 10197915
0.32532713 0.10879716 2.5748627 10197915
0.37169474 0.10887095 2.569592 10197915
0.42535809 0.1089842 2.5540178 10197915
0.47534487 0.10904299 2.5553951 10197915
0.52538598 0.10910183 2.5567744 10197915
0.57548064 0.10916074 2.5581551 10197915
0.62456214 0.10921846 2.5595076 10197915
0.67476434 0.10927749 2.5608914 10197915
0.72502059 0.10933661 2.5622764 10197915
0.77533174 0.10939577 2.5636632 10197915
0.82569659 0.10945501 2.5650506 10197915
0.87504321 0.10951304 2.5664108 10197915
0.92444205 0.10957112 2.5677724 10197915
0.97496915 0.10963055 2.569165 10197915
1.0255507 0.10969003 2.5705588 10197915
1.0751094 0.1097483 2.5719247 10197915
1.1247208 0.10980665 2.5732915 10197915
1.1743851 0.10986508 2.5746605 10197915
1.2241019 0.10992353 2.5760305 10197915
1.2749549 0.10998333 2.5774324 10197915
1.3258624 0.11004318 2.5788352 10197915
1.375741 0.11010188 2.5802102 10197915
1.4256728 0.11016059 2.5815866 10197915
1.4756575 0.11021937 2.5829637 10197915
1.5256959 0.11027821 2.584343 10197915
1.5757875 0.11033712 2.5857232 10197915
1.6259333 0.11039609 2.5871055 10197915
1.6750398 0.11045384 2.5884585 10197915
1.7241987 0.11051165 2.589813 10197915
1.7745026 0.11057083 2.5911999 10197915
1.8248606 0.11063001 2.5925872 10197915
1.8752729 0.11068932 2.593977 10197915
1.9257385 0.11074866 2.5953674 10197915
1.9774177 0.11087079 2.5759435 3158064
2.0208855 0.11091217 2.5804529 2039583
2.058743 0.11090507 2.5990329 2039583
-0.062255565 0.10812899 2.636359 5658198
-0.025128717 0.10817252 2.6374207 10197915
0.025146974 0.1082315 2.6388586 10197915
0.075477503 0.10829055 2.6402979 10197915
0.12586297 0.10834964 2.6417387 10197915
0.17520617 0.10840753 2.6431501 10197915
0.22460245 0.10846546 2.6445625 10197915
0.2751509 0.10852475 2.6460083 10197915
0.32575461 0.10858409 2.6474552 10197915
0.37989244 0.10869268 2.6336873 10197915
0.42138973 0.10880692 2.6125987 10197915
0.4755145 0.10890417 2.6026795 10197915
0.52539688 0.10896274 2.6040797 10197915
0.575333 0.1090214 2.6054811 10197915
0.62532282 0.10908012 2.6068842 10197915
0.6753667 0.10913891 2.608289 10197915
0.72546434 0.10919772 2.6096954 10197915
0.77561617 0.10925664 2.6111031 10197915
0.82582194 0.1093156 2.6125126 10197915
0.87498891 0.10937335 2.613893 10197915
0.92420787 0.10943116 2.615274 10197915
0.97457457 0.10949033 2.6166883 10197915
1.0249954 0.10954952 2.618103 10197915
1.0754708 0.10960883 2.6195202 10197915
1.1249019 0.10966688 2.6209078 10197915
1.1743854 0.10972499 2.6222966 10197915
1.225023 0.10978447 2.623718 10197915
1.2757152 0.10984402 2.6251409 10197915
1.3253589 0.10990231 2.6265342 10197915
1.3750552 0.10996069 2.6279297 10197915
1.4248043 0.11001912 2.6293261 10197915
1.4746064 0.11007761 2.6307235 10197915
1.5255699 0.11013749 2.6321547 10197915
1.5754788 0.11019609 2.6335554 10197915
1.6254417 0.11025476 2.6349578 10197915
1.6754569 0.11031351 2.6363616 10197915
1.7244128 0.110371 2.6377354 10197915
1.7745339 0.1104299 2.6391425 10197915
1.8247086 0.1104888 2.6405506 10197915
1.8749368 0.11054779 2.6419604 10197915
1.9252191 0.11060686 2.6433721 10197915
1.9744347 0.11066464 2.6447532 10197915
2.0248234 0.11072383 2.6461678 2171169
2.0752654 0.11078308 2.6475837 2039583
2.1033099 0.11081601 2.6483705 2039583
-0.062338307 0.10797995 2.6870081 6052956
-0.024498187 0.10802428 2.6881115 10197915
0.024515539 0.10808168 2.6895399 10197915
0.074697331 0.10814046 2.6910026 10197915
0.12493333 0.10819929 2.6924667 10197915
0.17522442 0.10825823 2.6939328 10197915
0.22556996 0.1083172 2.6953998 10197915
0.27484986 0.10837492 2.6968367 10197915
0.32530442 0.10843399 2.6983073 10197915
0.36682883 0.10848267 2.6995177 10197915
0.43264288 0.10870947 2.6505122 10197915
0.47568989 0.10875998 2.6517437 10197915
0.52540755 0.10881826 2.6531649 10197915
0.57517904 0.10887668 2.6545887 10197915
0.62500346 0.1089351 2.6560135 10197915
0.67488199 0.1089936 2.6574399 10197915
0.72481352 0.10905218 2.6588676 10197915
0.77479935 0.10911082 2.6602979 10197915
0.82483828 0.10916951 2.6617286 10197915
0.87493175 0.10922828 2.6631613 10197915
0.92507863 0.10928709 2.6645951 10197915
0.97528011 0.10934597 2.6660309 10197915
1.025535 0.10940491 2.6674681 10197915
1.0747261 0.10946262 2.668875 10197915
1.1250886 0.10952167 2.6703153 10197915
1.1755055 0.10958081 2.671757 10197915
1.2248549 0.1096387 2.6731682 10197915
1.274256 0.10969663 2.6745813 10197915
1.3248346 0.10975599 2.6760278 10197915
1.3754674 0.10981539 2.6774759 10197915
1.4250282 0.10987351 2.6788931 10197915
1.4746417 0.10993173 2.6803122 10197915
1.5243074 0.10998995 2.6817324 10197915
1.5740262 0.11004829 2.6831548 10197915
1.6249292 0.11010797 2.6846104 10197915
1.6758873 0.11016775 2.6860676 10197915
1.7257668 0.11022627 2.687494 10197915
1.7756991 0.11028481 2.6889215 10197915
1.8256848 0.11034346 2.6903517 10197915
1.8757234 0.11040215 2.6917825 10197915
1.9258151 0.11046091 2.6932147 10197915
1.9759609 0.11051974 2.694649 10197915
2.0250177 0.11057723 2.6960514 8421504
2.0741267 0.11063487 2.6974561 2039583
2.1232855 0.11069252 2.6988621 2039583
-0.063558608 0.10782377 2.739608 6052956
-0.024977909 0.10786887 2.7407546 10197915
0.024995951 0.10792733 2.7422392 10197915
0.075023994 0.10798585 2.7437265 10197915
0.12510633 0.10804442 2.7452147 10197915
0.17524303 0.10810307 2.7467048 10197915
0.22543412 0.10816176 2.7481964 10197915
0.26882392 0.10821253 2.749486 10197915
0.39153698 0.1085116 2.7002378 10197915
0.42525384 0.10855107 2.7012205 10197915
0.47474697 0.10860906 2.7026632 10197915
0.52429289 0.10866708 2.704107 10197915
0.57502002 0.10872652 2.7055862 10197915
0.62580198 0.10878599 2.7070658 10197915
0.67550957 0.10884423 2.7085149 10197915
0.72527033 0.10890251 2.7099652 10197915
0.77508456 0.10896086 2.711417 10197915
0.82495213 0.10901927 2.7128706 10197915
0.87487316 0.10907774 2.7143261 10197915
0.92484784 0.10913628 2.7157824 10197915
0.97487605 0.10919488 2.717241 10197915
1.0249583 0.10925353 2.7187009 10197915
1.075094 0.10931227 2.7201624 10197915
1.125284 0.10937107 2.7216251 10197915
1.1755276 0.1094299 2.7230892 10197915
1.2258258 0.10948884 2.7245557 10197915
1.2750326 0.10954646 2.7259896 10197915
1.3242917 0.10960417 2.7274263 10197915
1.3747503 0.10966328 2.7288969 10197915
1.4252629 0.10972245 2.7303691 10197915
1.4758302 0.10978169 2.731843 10197915
1.5253007 0.10983962 2.733285 10197915
1.5748241 0.10989764 2.7347288 10197915
1.6255528 0.10995705 2.7362072 10197915
1.6751816 0.11001517 2.737653 10197915
1.7248635 0.11007338 2.7391019 10197915
1.7745972 0.11013164 2.7405515 10197915
1.8243842 0.11018994 2.7420027 10197915
1.8753835 0.11024967 2.743489 10197915
1.9252768 0.11030813 2.7449429 10197915
1.9752235 0.11036664 2.7463992 10197915
2.0252228 0.11042521 2.7478564 10197915
2.0741105 0.11048244 2.7492809 6842472
2.0856569 -1.2509313 2.7983985 2039583
2.0909946 -1.225081 2.7961617 2039583
2.1244302 -1.2224392 2.7817688 2039583
2.1693602 -1.2178048 2.7624304 2039583
2.0918703 -1.1749868 2.7959049 2039583
2.125016 -1.1749499 2.7816312 2039583
2.1697664 -1.1750672 2.7623608 2039583
2.0919755 -1.124866 2.7959802 2039583
2.1251237 -1.1250222 2.7817051 2039583
2.1698458 -1.1250352 2.7624459 2039583
2.0920312 -1.0749764 2.7960761 2039583
2.125109 -1.0750089 2.7818317 2039583
2.1699572 -1.075049 2.7625144 2039583
2.0919375 -1.0254743 2.7962346 2039583
2.1250832 -1.0247734 2.7819607 2039583
2.1700659 -1.0250592 2.7625868 2039583
2.0913813 -0.97503567 2.7965956 2039583
2.12445 -0.97502542 2.7823524 2039583
2.1700656 -0.9750185 2.7627103 2039583
2.0912783 -0.92498803 2.7967598 2039583
2.1244433 -0.92509234 2.7824776 2039583
2.1701169 -0.92497271 2.7628069 2039583
2.0914452 -0.87493724 2.7968082 2039583
2.1245623 -0.87499547 2.782546 2039583
2.1702311 -0.87492549 2.7628739 2039583
2.0915222 -0.82488364 2.7968953 2039583
2.1246891 -0.8250168 2.7826111 2039583
2.1702836 -0.82492208 2.7629755 2039583
2.0921459 -0.77558744 2.7967451 2039583
2.1246943 -0.77495295 2.7827294 2039583
2.1703737 -0.77501231 2.7630548 2039583
2.0925674 -0.72502434 2.7966847 2039583
2.1247745 -0.72492689 2.7828159 2039583
2.1703894 -0.72505063 2.7631721 2039583
2.0924938 -0.67492646 2.7968371 2039583
2.1248055 -0.67501855 2.782922 2039583
2.1704781 -0.67499 2.7632523 2039583
2.0927246 -0.62513405 2.7968569 2039583
2.1248879 -0.62498456 2.7830052 2039583
2.1705637 -0.62502104 2.7633333 2039583
2.0926766 -0.57488525 2.7969987 2039583
2.1250839 -0.57498962 2.7830417 2039583
2.1706939 -0.5750975 2.763401 2039583
2.0928154 -0.52508134 2.7970586 2039583
2.1249492 -0.52498841 2.7832203 2039583
2.1706903 -0.52512419 2.7635188 2039583
2.0928471 -0.47512084 2.7971647 2039583
2.1251194 -0.47498661 2.7832651 2039583
2.1707525 -0.47504896 2.7636139 2039583
2.0928528 -0.42500883 2.797282 2039583
2.1251864 -0.42502278 2.7833576 2039583
2.1708555 -0.42497173 2.7636888 2039583
2.0933409 -0.37595391 2.7971897 2039583
2.1252756 -0.37497124 2.7834392 2039583
2.1709769 -0.3749873 2.763757 2039583
2.0938697 -0.3247835 2.7970843 2039583
2.1254492 -0.32495949 2.7834847 2039583
2.1711035 -0.32500115 2.7638233 2039583
2.0940542 -0.27498108 2.7971246 2039583
2.1251607 -0.27498338 2.7837284 2039583
2.1710403 -0.27481893 2.7639673 2039583
2.0940642 -0.22481945 2.7972407 2039583
2.1255114 -0.22508496 2.7836964 2039583
2.1709585 -0.22467743 2.7641263 2039583
2.0941317 -0.17499396 2.797332 2039583
2.1256866 -0.17506631 2.783742 2039583
2.1711001 -0.17487058 2.7641852 2039583
2.0941997 -0.12516525 2.7974219 2039583
2.1254928 -0.12463825 2.783946 2039583
2.1714921 -0.12540592 2.7641327 2039583
