# .PCD v0.7 - Point Cloud Data file format
VERSION 0.7
FIELDS x y z rgb
SIZE 4 4 4 4
TYPE F F F U
COUNT 1 1 1 1
WIDTH 1174
HEIGHT 1
VIEWPOINT 0 0 0 1 0 0 0
POINTS 1174
DATA ascii
0.47815615 -0.22484723 3.0780988 2894892
0.47817972 -0.17511941 3.0776904 2894892
0.47818795 -0.12496839 3.0780246 2894892
0.47820109 -0.075238131 3.0781105 2894892
0.47821435 -0.025505066 3.078196 2894892
0.478228 0.025506036 3.0782828 2894892
0.47824109 0.075244643 3.0783682 5460819
-0.8079567 0.11324116 3.0712273 10000536
-0.77481371 0.11323215 3.0709827 10000536
-0.72510862 0.11321863 3.0706162 10000536
-0.67541528 0.11320512 3.0702498 10000536
-0.62573385 0.11319162 3.0698829 10000536
-0.57479084 0.11317775 3.0695074 10000536
-0.52513349 0.11316425 3.0691411 10000536
-0.47548789 0.11315076 3.0687749 10000536
-0.42458162 0.1131369 3.0683999 10132122
-0.37496009 0.11312342 3.0680335 10066329
-0.32535034 0.11310991 3.0676675 10000536
-0.27448088 0.11309608 3.067292 10000536
-0.22489507 0.1130826 3.0669265 9934743
-0.17532116 0.11306913 3.066561 9934743
-0.12448837 0.11305527 3.0661857 9934743
-0.074938305 0.11304182 3.0658205 9934743
-0.025400143 0.11302835 3.0654552 9934743
0.025396008 0.11301453 3.0650804 9934743
0.074910343 0.11300106 3.0647149 9934743
0.1244128 0.1129876 3.0643501 9934743
0.1751723 0.11297379 3.0639756 9934743
0.22465098 0.11296034 3.0636108 9934743
0.27411777 0.11294688 3.0632455 9934743
0.32484072 0.11293308 3.0628715 9934743
0.37555125 0.11291929 3.0624974 9934743
0.42498216 0.11290584 3.0621326 9934743
0.47203422 0.10898358 3.0710528 10000536
0.4763537 -1.4035125 3.1467371 2894892
0.47674292 -1.373175 3.1286979 2894892
0.47678849 -1.3247672 3.1272266 2894892
0.47683066 -1.2762008 3.1259196 2894892
0.47697401 -1.2249579 3.1198487 2894892
0.47698203 -1.1750083 3.1201875 2894892
0.47699553 -1.1246262 3.1202767 2894892
0.477009 -1.0742416 3.1203637 2894892
0.47702205 -1.0251462 3.1204491 2894892
0.47704065 -0.97518265 3.1202831 2894892
0.47704354 -0.92479718 3.1208818 2894892
0.47706759 -0.87483257 3.1204565 2894892
0.47707555 -0.82486403 3.1207981 2894892
0.47709414 -0.77489096 3.1206305 2894892
0.47709674 -0.72492164 3.1212304 2894892
0.47711533 -0.67494291 3.1210592 2894892
0.47713402 -0.62497371 3.1208906 2894892
0.47714174 -0.57541651 3.1212332 2894892
0.47715515 -0.52500081 3.1213205 2894892
0.47716865 -0.47458223 3.1214085 2894892
0.4771871 -0.42501953 3.1212385 2894892
0.47719499 -0.3750335 3.1215804 2894892
0.47720277 -0.3250325 3.1219244 2894892
0.47722694 -0.27504385 3.1214983 2894892
0.47723481 -0.2250372 3.121841 2894892
0.4772535 -0.17503542 3.1216726 2894892
0.477256 -0.12502317 3.1222715 2894892
0.47728011 -0.074595384 3.1218505 2894892
0.47728816 -0.024576122 3.1221898 2894892
0.47730115 0.024577018 3.1222751 2894892
0.47731966 0.074601822 3.1221097 5460819
-0.81821549 0.11317127 3.1398909 10000536
-0.77520865 0.11315958 3.1395669 10000536
-0.72439361 0.11314577 3.1391833 10000536
-0.6748932 0.11313234 3.1388102 10000536
-0.62540489 0.11311887 3.138437 10000536
-0.57592809 0.11310544 3.1380641 10000536
-0.52516162 0.11309163 3.137681 10000536
-0.47440749 0.11307783 3.1372983 10000536
-0.4249666 0.11306439 3.1369257 10197915
-0.37553763 0.11305096 3.136553 10197915
-0.32482001 0.11303719 3.1361704 10197915
-0.2741147 0.11302339 3.1357877 10197915
-0.22472146 0.11300997 3.1354156 10197915
-0.17533998 0.11299656 3.1350434 10197915
-0.12597017 0.11298313 3.134671 10197915
-0.075313449 0.11296935 3.134289 10197915
-0.024668949 0.11295559 3.1339071 10197915
0.024665048 0.11294218 3.1335349 10197915
0.075285085 0.11292843 3.1331534 10197915
0.12589288 0.11291467 3.132772 10197915
0.17519118 0.11290127 3.1323998 10197915
0.22447769 0.11288787 3.1320281 10132122
0.27504906 0.11287413 3.1316466 10066329
0.32560822 0.1128604 3.1312656 10066329
0.37485909 0.112847 3.1308942 10000536
0.42409825 0.11283363 3.1305227 10000536
0.47124767 0.10917552 3.1257226 10066329
0.4755801 -1.4122474 3.1833491 2894892
0.47565252 -1.3751354 3.1804457 2894892
0.47566578 -1.3251026 3.1805341 2894892
0.47573146 -1.2735878 3.178154 2894892
0.47585362 -1.2251284 3.1730499 2894892
0.47586906 -1.1748822 3.173038 2894892
0.47588664 -1.1243128 3.1729307 2894892
0.47589383 -1.0740515 3.1733181 2894892
0.47591355 -1.0244464 3.1730974 2894892
0.47592023 -0.97485304 3.1734939 2894892
0.47593346 -0.92491871 3.1735833 2894892
0.47594678 -0.8749817 3.173671 2894892
0.47596642 -0.82471865 3.1734614 2894892
0.47597545 -0.77477276 3.1737463 2894892
0.47598642 -0.72515959 3.1739357 2894892
0.47599959 -0.67521119 3.1740246 2894892
0.47601295 -0.62526017 3.1741123 2894892
0.47603261 -0.57564723 3.1738913 2894892
0.47604549 -0.52567434 3.17399 2894892
0.47605264 -0.47539982 3.1743774 2894892
0.47606799 -0.42510903 3.174365 2894892
0.47607929 -0.37481666 3.1745551 2894892
0.47609249 -0.32484883 3.1746438 2894892
0.47610584 -0.27487823 3.1747315 2894892
0.47611898 -0.22490497 3.1748197 2894892
0.47614509 -0.17493467 3.1743014 2894892
0.47614551 -0.12495937 3.1749961 2894892
0.47615874 -0.074977666 3.1750841 2894892
0.476172 -0.02499317 3.175173 2894892
0.47618529 0.024994092 3.1752613 2894892
0.47619858 0.074984148 3.1753488 5592405
0.47620684 0.10655813 3.175405 10197915
0.4746154 -1.4225506 3.2290051 2894892
0.47466215 -1.3749639 3.2274673 2894892
0.47467542 -1.3250819 3.2275565 2894892
0.47468859 -1.2751975 3.2276468 2894892
0.47470173 -1.2248651 3.2277381 2894892
0.47472113 -1.1749853 3.2275429 2894892
0.47472841 -1.1246415 3.2279181 2894892
0.47474158 -1.0751916 3.2280078 2894892
0.47475478 -1.025739 3.2280958 2894892
0.47476834 -0.97494721 3.228189 2894892
0.47478777 -0.92459816 3.2279966 2894892
0.47479492 -0.87469542 3.2283721 2894892
0.47480795 -0.82523167 3.2284579 2894892
0.47482118 -0.7753194 3.2285488 2894892
0.47483453 -0.7249586 3.2286401 2894892
0.47485372 -0.6750474 3.2284448 2894892
0.47486094 -0.62467903 3.2288203 2894892
0.47487417 -0.57520139 3.2289081 2894892
0.47488725 -0.52572107 3.2289972 2894892
0.47490054 -0.47490039 3.2290888 2894892
0.47491995 -0.42451954 3.2288947 2894892
0.47492704 -0.37459296 3.2292705 2894892
0.47494012 -0.32510144 3.2293572 2894892
0.47495335 -0.27516136 3.2294478 2894892
0.4749667 -0.22477266 3.2295392 2894892
0.4749859 -0.17482974 3.2293432 2894892
0.47498718 -0.1248759 3.2300019 2894892
0.47501233 -0.075385094 3.2295179 2894892
0.47501948 -0.02542392 3.229897 2894892
0.47503287 0.025424883 3.2299876 2894892
0.47505209 0.075391643 3.2297888 5723991
-0.85160923 0.11310434 3.2118702 10000536
-0.82494396 0.11309711 3.2116644 10000536
-0.77562159 0.1130837 3.2112834 10000536
-0.72497845 0.11306996 3.2108936 10000536
-0.67434752 0.11305621 3.2105026 10000536
-0.62506068 0.11304282 3.2101228 10000536
-0.57578564 0.11302943 3.2097421 10000536
-0.52519107 0.11301567 3.2093523 10000536
-0.47460866 0.11300195 3.2089624 10066329
-0.42403865 0.11298822 3.2085719 10197915
-0.37481108 0.11297484 3.2081928 10197915
-0.32559532 0.11296147 3.2078128 10197915
-0.27506152 0.11294775 3.2074225 10197915
-0.22453991 0.11293402 3.2070332 10197915
-0.17403063 0.1129203 3.2066441 10197915
-0.12486226 0.11290696 3.206265 10197915
-0.075705625 0.1128936 3.2058849 10197915
-0.025232485 0.1128799 3.2054958 10197915
0.025228404 0.11286618 3.2051067 10197915
0.075677052 0.11285248 3.2047179 10197915
0.12478638 0.11283915 3.2043395 10197915
0.17388396 0.11282582 3.2039609 10197915
0.22429653 0.11281212 3.203572 10197915
0.27469683 0.11279844 3.2031832 10197915
0.32508492 0.11278475 3.2027946 10197915
0.37546074 0.11277107 3.2024059 10197915
0.4258244 0.11275737 3.2020173 10197915
0.47029421 0.10872295 3.2197104 10197915
0.47351831 -1.4591031 3.2805643 2894892
0.47362876 -1.4249622 3.27581 2894892
0.47364199 -1.374787 3.2758999 2894892
0.47366151 -1.325058 3.2756939 2894892
0.4736622 -1.2748827 3.2763748 2894892
0.47368804 -1.2247025 3.2758775 2894892
0.47369492 -1.175419 3.2762659 2894892
0.47370812 -1.1252297 3.2763572 2894892
0.47372144 -1.0750376 3.2764494 2894892
0.47374079 -1.0252866 3.2762465 2894892
0.47374183 -0.97510654 3.2769325 2894892
0.47376749 -0.92489785 3.2764318 2894892
0.47376823 -0.87469327 3.2771146 2894892
0.47379392 -0.82494962 3.2766101 2894892
0.4738009 -0.77518797 3.2769973 2894892
0.47382012 -0.72543079 3.2767913 2894892
0.47382095 -0.6752122 3.277473 2894892
0.47384661 -0.62500799 3.2769744 2894892
0.47385335 -0.57568622 3.2773623 2894892
0.47386664 -0.52546328 3.2774541 2894892
0.47387987 -0.47523767 3.2775452 2894892
0.47389916 -0.42545816 3.2773438 2894892
0.47389993 -0.37523383 3.2780263 2894892
0.47392565 -0.32500181 3.2775264 2894892
0.47393265 -0.27521649 3.2779102 2894892
0.47394568 -0.22542945 3.2780018 2894892
0.47395906 -0.17518699 3.2780919 2894892
0.47397849 -0.12540169 3.2778862 2894892
0.47398549 -0.07469815 3.278276 2894892
0.47399879 -0.024447279 3.2783675 2894892
0.47401163 0.024448169 3.2784574 2894892
0.47402492 0.074704625 3.2785485 5789784
-0.86200577 0.1130276 3.2870326 10000536
-0.82516533 0.11301761 3.286742 10000536
-0.77468997 0.11300391 3.2863438 10000536
-0.72422683 0.11299021 3.2859454 10000536
-0.67513949 0.11297689 3.2855577 10000536
-0.62470061 0.11296318 3.2851593 10000536
-0.57427382 0.11294951 3.2847614 10000536
-0.52522188 0.11293618 3.2843747 10000536
-0.47481927 0.1129225 3.2839768 10066329
-0.42442888 0.11290884 3.2835789 10197915
-0.37541211 0.11289554 3.2831922 10197915
-0.32504588 0.11288186 3.2827942 10197915
-0.27469173 0.1128682 3.282397 10197915
-0.22571029 0.11285489 3.2820106 10197915
-0.17538032 0.11284123 3.2816131 10197915
-0.12506239 0.11282761 3.2812157 10197915
-0.074756764 0.11281393 3.2808189 10197915
-0.024463188 0.11280028 3.2804215 10197915
0.024459355 0.11278701 3.2800357 10197915
0.074728802 0.11277336 3.2796392 10197915
0.1249862 0.11275971 3.2792423 10197915
0.17523134 0.11274609 3.2788455 10197915
0.2254644 0.11273244 3.2784493 10197915
0.27432814 0.11271918 3.2780635 10197915
0.32453713 0.11270553 3.277667 10197915
0.37473416 0.11269192 3.2772708 10197915
0.42491883 0.1126783 3.2768743 10197915
0.46948984 0.10897928 3.2770309 10197915
0.47252268 -1.4696352 3.3276937 2894892
0.47257131 -1.425082 3.3260248 2894892
0.47259742 -1.3746095 3.3255043 2894892
0.47260424 -1.3245804 3.3259034 2894892
0.4726173 -1.275012 3.325995 2894892
0.47263053 -1.2249821 3.326087 2894892
0.47265032 -1.1745005 3.3258762 2894892
0.47265708 -1.1244588 3.3262756 2894892
0.47267014 -1.0748792 3.3263681 2894892
0.47268331 -1.025297 3.3264601 2894892
0.47270304 -0.97524863 3.3262458 2894892
0.47270966 -0.92521054 3.3266459 2894892
0.47272286 -0.87516063 3.3267372 2894892
0.47273612 -0.82510805 3.3268309 2894892
0.47275567 -0.77504998 3.3266168 2894892
0.47276244 -0.72499895 3.3270171 2894892
0.47277549 -0.6753974 3.3271086 2894892
0.47278842 -0.62579298 3.3271997 2894892
0.47279546 -0.57525128 3.3275945 2894892
0.47282162 -0.52429497 3.3270819 2894892
0.47282845 -0.47420678 3.3274808 2894892
0.47284141 -0.42459127 3.3275728 2894892
0.4728545 -0.37497291 3.3276651 2894892
0.47287408 -0.32489815 3.3274517 2894892
0.47288081 -0.27481377 3.3278508 2894892
0.47289386 -0.22518724 3.3279419 2894892
0.4729071 -0.1750984 3.3280339 2894892
0.47292686 -0.12455469 3.3278215 2894892
0.47293359 -0.074457362 3.3282211 2894892
0.47294667 -0.024819735 3.3283124 2894892
0.47295967 0.024820648 3.3284047 2894892
0.47297275 0.074463762 3.3284972 5789784
0.4729811 0.10618153 3.3285558 10197915
0.47128907 -1.5071534 3.3857219 2894892
0.47148788 -1.475069 3.3767459 2894892
0.47149405 -1.4252133 3.3771684 2894892
0.47150725 -1.3748838 3.3772633 2894892
0.47152022 -1.325017 3.3773577 2894892
0.47153345 -1.2751478 3.3774512 2894892
0.47155359 -1.2252821 3.3772163 2894892
0.47155979 -1.1754057 3.3776395 2894892
0.47157305 -1.125062 3.3777342 2894892
0.47158629 -1.0747156 3.3778296 2894892
0.47159985 -1.0243669 3.3779266 2894892
0.47161984 -0.9744761 3.3776915 2894892
0.47162595 -0.92506301 3.3781147 2894892
0.47163895 -0.87517142 3.3782065 2894892
0.47165221 -0.82481056 3.3783023 2894892
0.47167236 -0.77491069 3.3780658 2894892
0.47167841 -0.72501808 3.3784895 2894892
0.47169164 -0.67464894 3.3785839 2894892
0.4717049 -0.62427717 3.3786783 2894892
0.47171807 -0.57390237 3.3787739 2894892
0.47173095 -0.52492416 3.3788655 2894892
0.47174376 -0.47594336 3.3789577 2894892
0.47175711 -0.42556027 3.3790524 2894892
0.47177032 -0.37517425 3.3791471 2894892
0.47179031 -0.32525808 3.3789127 2894892
0.47179657 -0.27533194 3.3793356 2894892
0.47180963 -0.22493762 3.3794301 2894892
0.4718228 -0.17500708 3.3795254 2894892
0.47184274 -0.12554833 3.3792875 2894892
0.47184893 -0.075609259 3.3797104 2894892
0.47186217 -0.02520372 3.3798056 2894892
0.4718754 0.025204662 3.3799 2894892
0.4718886 0.075615853 3.3799953 5987163
-0.87290084 0.11294717 3.3657973 9934743
-0.82539684 0.11293428 3.3654139 10000536
-0.77511013 0.11292066 3.3650072 10000536
-0.72483587 0.11290704 3.3646011 10000536
-0.67457336 0.11289341 3.3641946 10000536
-0.62432313 0.11287977 3.3637884 10000536
-0.57408506 0.11286613 3.3633826 10000536
-0.52385908 0.11285251 3.3629768 10000536
-0.47503987 0.1128393 3.3625824 10066329
-0.42623222 0.11282604 3.3621876 10197915
-0.37604195 0.11281241 3.3617823 10197915
-0.32586375 0.11279882 3.3613765 10197915
-0.27569768 0.11278521 3.360971 10197915
-0.22554374 0.11277163 3.3605654 10197915
-0.17540187 0.11275803 3.3601604 10197915
-0.12527208 0.11274442 3.3597553 10197915
-0.075154386 0.11273083 3.35935 10197915
-0.025048777 0.11271722 3.3589449 10197915
0.02504475 0.11270364 3.3585403 10197915
0.075126216 0.11269006 3.3581352 10197915
0.12519559 0.11267647 3.3577309 10197915
0.17525291 0.11266291 3.357326 10197915
0.2252982 0.11264935 3.3569219 10197915
0.27533138 0.11263576 3.3565173 10197915
0.32535249 0.11262218 3.356113 10197915
0.37536159 0.11260864 3.3557086 10197915
0.42535865 0.11259508 3.3553047 10197915
0.46772227 0.10888851 3.3700366 10197915
0.47028887 -1.5182621 3.4330535 2894892
0.47037023 -1.4755104 3.4298017 2894892
0.47037616 -1.4253447 3.430238 2894892
0.47038949 -1.3746971 3.4303343 2894892
0.47040278 -1.3245207 3.430429 2894892
0.47041583 -1.2748147 3.4305267 2894892
0.47043616 -1.2246391 3.4302824 2894892
0.47043481 -1.174914 3.4310637 2894892
0.47046229 -1.1252226 3.4304729 2894892
0.47046855 -1.0745473 3.4309103 2894892
0.47048172 -1.0248274 3.4310064 2894892
0.47049466 -0.97510445 3.4311008 2894892
0.47051507 -0.92490584 3.4308527 2894892
0.47051376 -0.87517631 3.4316306 2894892
0.47054118 -0.8249824 3.4310482 2894892
0.47054714 -0.77476948 3.4314852 2894892
0.47056755 -0.72456115 3.4312398 2894892
0.47056597 -0.67481703 3.4320211 2894892
0.47059354 -0.62508947 3.4314289 2894892
0.47059962 -0.57438964 3.4318664 2894892
0.47063613 -0.52589804 3.4308336 2894892
0.47081539 -0.47506952 3.4230525 2894892
0.47083393 -0.42472833 3.4228928 2894892
0.47083616 -0.37512195 3.4234979 2894892
0.47085476 -0.32477507 3.4233389 2894892
0.47087327 -0.27443653 3.4231789 2894892
0.47087556 -0.22479941 3.4237845 2894892
0.47089931 -0.17517349 3.4233682 2894892
0.47090709 -0.12481962 3.4237196 2894892
0.47092012 -0.075177491 3.4238138 2894892
0.47093311 -0.025532598 3.4239087 2894892
0.47094652 0.025533566 3.424006 2894892
0.47095948 0.075184003 3.4241009 6052956
-0.90867019 0.1128694 3.4486313 10000536
-0.87574065 0.11286049 3.4483588 10000536
-0.82564002 0.1128469 3.4479437 10000536
-0.77555126 0.11283334 3.4475293 10000536
-0.72547442 0.11281978 3.4471145 10000536
-0.67540979 0.11280621 3.4467001 10000536
-0.62535709 0.11279264 3.4462852 10000536
-0.57531643 0.11277908 3.4458714 10000536
-0.52528793 0.11276552 3.4454565 10000536
-0.47527146 0.11275198 3.4450428 10132122
-0.42526698 0.11273841 3.4446285 10197915
-0.37527442 0.11272486 3.4442148 10197915
-0.32529396 0.11271133 3.4438009 10197915
-0.27532539 0.11269777 3.443387 10197915
-0.22536901 0.11268423 3.4429736 10197915
-0.17542446 0.1126707 3.44256 10197915
-0.12549207 0.11265716 3.4421468 10197915
-0.075571522 0.11264364 3.4417331 10197915
-0.025663085 0.11263011 3.4413197 10197915
0.025658861 0.1126162 3.4408948 10197915
0.075543098 0.11260268 3.4404812 10197915
0.12541527 0.11258917 3.4400687 10197915
0.17527556 0.11257566 3.439656 10197915
0.22512378 0.11256216 3.4392428 10197915
0.27496016 0.11254864 3.4388304 10197915
0.32478443 0.11253515 3.4384177 10197915
0.37459689 0.11252163 3.4380054 10197915
0.42439726 0.11250814 3.4375932 10197915
0.46643597 0.1089077 3.4295697 10197915
0.46919048 -1.5548249 3.484684 2894892
0.46939251 -1.5248065 3.4755187 2894892
0.46940571 -1.4744524 3.4756165 2894892
0.46942422 -1.424812 3.4754488 2894892
0.46943158 -1.3751787 3.4758089 2894892
0.46943921 -1.325532 3.4761691 2894892
0.46946347 -1.2751756 3.4757397 2894892
0.46947092 -1.2255231 3.4761002 2894892
0.46948418 -1.1751523 3.4761975 2894892
0.46949741 -1.124779 3.4762959 2894892
0.46951604 -1.0751047 3.4761291 2894892
0.46951813 -1.0247612 3.476754 2894892
0.46953666 -0.97508097 3.4765866 2894892
0.46955523 -0.9254095 3.4764192 2894892
0.46955729 -0.87503469 3.4770441 2894892
0.46958154 -0.82463878 3.4766145 2894892
0.46958894 -0.77496827 3.4769738 2894892
0.46959648 -0.72528338 3.4773335 2894892
0.46962073 -0.67490196 3.4769034 2894892
0.46962813 -0.62521166 3.4772635 2894892
0.46964142 -0.57480717 3.4773617 2894892
0.46970186 -0.5227896 3.4752333 2894892
0.46986777 -0.47512001 3.4680388 2894892
0.46986628 -0.42485768 3.4688337 2894892
0.46989414 -0.37456724 3.4682317 2894892
0.46989977 -0.32476431 3.4686797 2894892
0.4699201 -0.27494776 3.4684255 2894892
0.46991831 -0.22514948 3.4692271 2894892
0.46994624 -0.17485158 3.4686229 2894892
0.46995193 -0.12503567 3.4690671 2894892
0.46996504 -0.074736007 3.4691639 2894892
0.46997821 -0.024433533 3.4692607 2894892
0.46999097 0.024434419 3.4693549 2894892
0.4700042 0.074742444 3.4694524 6052956
0.47001243 0.10636596 3.4695132 10197915
0.46830848 -1.5636973 3.5264301 2894892
0.46840721 -1.5248798 3.5222964 2894892
0.46842796 -1.4748199 3.5220313 2894892
0.46843338 -1.424763 3.5224936 2894892
0.46844634 -1.3751842 3.5225899 2894892
0.46845955 -1.325116 3.5226882 2894892
0.4684726 -1.2750454 3.5227871 2894892
0.46849334 -1.2249788 3.5225224 2894892
0.4684988 -1.1749009 3.5229852 2894892
0.46851176 -1.1253083 3.5230834 2894892
0.46852493 -1.0757132 3.5231819 2894892
0.46854573 -1.0256184 3.5229161 2894892
0.46855131 -0.97505951 3.5233769 2894892
0.46856427 -0.92496938 3.5234783 2894892
0.46857721 -0.87536258 3.5235746 2894892
0.46859795 -0.82525849 3.523309 2894892
0.46859592 -0.77468938 3.524137 2894892
0.46861658 -0.72457981 3.5238714 2894892
0.46862951 -0.67496216 3.5239673 2894892
0.46864256 -0.62485504 3.5240653 2894892
0.46866351 -0.57427657 3.5238013 2894892
0.46866888 -0.52415103 3.5242639 2894892
0.46868181 -0.47452223 3.5243609 2894892
0.46869469 -0.42489049 3.5244584 2894892
0.46871549 -0.3747707 3.5241923 2894892
0.46872097 -0.32465073 3.5246544 2894892
0.46873385 -0.27501073 3.5247521 2894892
0.46874702 -0.2248814 3.5248499 2894892
0.46875995 -0.17474918 3.5249484 2894892
0.46878079 -0.12462258 3.5246828 2894892
0.46878621 -0.074481569 3.5251453 2894892
0.46879905 -0.024827808 3.5252435 2894892
0.46881205 0.024828725 3.5253403 2894892
0.46882498 0.074487999 3.5254383 6052956
-0.91982096 0.11278056 3.5354211 10000536
-0.87432051 0.11276824 3.5350351 10000536
-0.82442802 0.11275474 3.5346115 10000536
-0.7745474 0.11274123 3.534188 10000536
-0.7246787 0.11272772 3.5337648 10000536
-0.67482203 0.11271422 3.5333416 10000536
-0.62497735 0.11270072 3.5329185 10000536
-0.57514435 0.11268724 3.5324955 10000536
-0.52532351 0.11267375 3.5320723 10000536
-0.47551459 0.11266026 3.5316498 10066329
-0.42571759 0.11264677 3.5312266 10197915
-0.37593237 0.11263328 3.5308039 10197915
-0.32615918 0.11261981 3.5303817 10197915
-0.2749345 0.11260594 3.5299466 10197915
-0.22372243 0.11259208 3.5295124 10197915
-0.1739856 0.1125786 3.5290902 10197915
-0.12426071 0.11256514 3.5286679 10197915
-0.074547708 0.11255168 3.5282457 10197915
-0.024846595 0.11253821 3.5278242 10197915
0.024842635 0.11252476 3.5274019 10197915
0.074519984 0.11251131 3.5269806 10197915
0.12418547 0.11249787 3.5265594 10197915
0.17383906 0.11248443 3.5261371 10197915
0.22494061 0.11247059 3.5257034 10197915
0.27602971 0.11245674 3.52527 10197915
0.325647 0.11244331 3.5248489 10197915
0.37525246 0.11242988 3.5244277 10197915
0.42484608 0.11241643 3.5240066 10197915
0.46570772 0.10803215 3.5239263 10197915
0.46683988 -1.603706 3.5955803 2894892
0.46716896 -1.5736424 3.580385 2894892
0.46719041 -1.5251746 3.5800655 2894892
0.46720356 -1.4747878 3.5801663 2894892
0.46720836 -1.4248874 3.5806568 2894892
0.46727395 -1.3770838 3.5782309 2894892
0.4674491 -1.3254246 3.5706611 2894892
0.46746224 -1.2751647 3.5707612 2894892
0.46747535 -1.2249022 3.5708613 2894892
0.46749452 -1.175393 3.5706654 2894892
0.4675014 -1.1258512 3.5710597 2894892
0.4675146 -1.0755805 3.5711608 2894892
0.46752763 -1.0253067 3.5712602 2894892
0.46754068 -0.97502977 3.5713603 2894892
0.46755379 -0.92475021 3.5714602 2894892
0.46756688 -0.87446755 3.5715606 2894892
0.46758601 -0.82492322 3.5713642 2894892
0.46759263 -0.77537775 3.571758 2894892
0.4676058 -0.72508705 3.5718572 2894892
0.46761888 -0.67479354 3.5719576 2894892
0.46763197 -0.62449712 3.5720577 2894892
0.46764505 -0.57419789 3.5721574 2894892
0.4676581 -0.52389586 3.5722575 2894892
0.46767724 -0.47431609 3.5720611 2894892
0.46767756 -0.42551768 3.5727479 2894892
0.46769661 -0.37593243 3.5725517 2894892
0.46770975 -0.32561943 3.5726519 2894892
0.46772277 -0.27530342 3.572752 2894892
0.46773595 -0.22498471 3.5728517 2894892
0.46775505 -0.17541315 3.572655 2894892
0.46776175 -0.12582293 3.5730495 2894892
0.46777481 -0.075495839 3.5731492 2894892
0.46778798 -0.025165906 3.5732493 2894892
0.46780103 0.025166843 3.5733492 2894892
0.46781409 0.075502418 3.5734494 6316128
0.46782225 0.10659333 3.5735111 10197915
0.46608126 -1.6130884 3.6314628 2894892
0.46613336 -1.5758327 3.6295261 2894892
0.46614662 -1.5247513 3.6296296 2894892
0.46616611 -1.4744107 3.6294267 2894892
0.46616617 -1.424842 3.6301377 2894892
0.46626005 -1.3732983 3.6264274 2894892
0.46640897 -1.3252451 3.620048 2894892
0.4664222 -1.2747897 3.6201525 2894892
0.46644363 -1.2248384 3.6198504 2894892
0.46644831 -1.1743754 3.6203547 2894892
0.46646139 -1.1249114 3.6204555 2894892
0.46647415 -1.0754439 3.6205552 2894892
0.46648747 -1.0244744 3.6206579 2894892
0.46650898 -0.97449666 3.6203511 2894892
0.46650487 -0.92503089 3.6212571 2894892
0.46653461 -0.87505376 3.6205568 2894892
0.46653923 -0.82507217 3.6210608 2894892
0.46656072 -0.77508551 3.6207595 2894892
0.46655667 -0.72510469 3.6216612 2894892
0.46657807 -0.67511237 3.6213636 2894892
0.46659961 -0.62513393 3.6210611 2894892
0.46660426 -0.57463092 3.6215641 2894892
0.4666172 -0.52513301 3.6216643 2894892
0.46663004 -0.47563261 3.6217637 2894892
0.46665153 -0.425125 3.6214647 2894892
0.46665609 -0.37512866 3.6219683 2894892
0.46666065 -0.32511303 3.6224673 2894892
0.46669045 -0.27511504 3.6217663 2894892
0.46669501 -0.22509375 3.6222701 2894892
0.4667165 -0.17508 3.6219683 2894892
0.46671259 -0.12505317 3.62287 2894892
0.46674249 -0.075548626 3.6221628 2894892
0.46674687 -0.025513981 3.6226711 2894892
0.46676016 0.025514942 3.6227741 2894892
0.46677294 0.075045779 3.6228735 6316128
-0.95714819 0.11269405 3.6269145 10000536
-0.92552406 0.11268549 3.6266391 10000536
-0.87583792 0.11267205 3.6262069 10000536
-0.82465863 0.1126582 3.6257608 10000536
-0.77499646 0.11264478 3.625329 10000536
-0.72534633 0.11263134 3.624896 10000536
-0.67420393 0.1126175 3.6244512 10000536
-0.62457776 0.11260409 3.6240189 10000536
-0.57496345 0.11259065 3.6235867 10000536
-0.52536082 0.11257723 3.6231549 10000536
-0.47577026 0.11256382 3.6227233 10132122
-0.42468917 0.11254999 3.6222782 10197915
-0.37512243 0.11253659 3.6218467 10197915
-0.32556757 0.11252318 3.6214154 10197915
-0.27452335 0.11250937 3.620971 10197915
-0.22499238 0.11249597 3.6205394 10197915
-0.17547333 0.11248257 3.6201081 10197915
-0.12446596 0.11246878 3.6196642 10197915
-0.074970707 0.11245537 3.6192334 10197915
-0.025487373 0.11244199 3.6188023 10197915
0.025483206 0.1124282 3.6183584 10197915
0.074942753 0.11241481 3.6179276 10197915
0.12439042 0.11240144 3.6174974 10197915
0.17532426 0.11238766 3.617054 10197915
0.2247481 0.11237428 3.6166236 10197915
0.27416012 0.11236092 3.6161933 10197915
0.32505724 0.11234714 3.6157501 10197915
0.37594187 0.11233336 3.6153069 10197915
0.42531803 0.11232002 3.6148767 10197915
0.4641026 0.10771605 3.6192482 10197915
0.46524054 -1.6218442 3.6712625 2894892
0.46527675 -1.5752519 3.6702149 2894892
0.46528971 -1.5251173 3.6703176 2894892
0.46530271 -1.4749799 3.6704197 2894892
0.4653157 -1.4248393 3.6705222 2894892
0.4653351 -1.3754566 3.6703117 2894892
0.46533504 -1.32531 3.6710382 2894892
0.46536118 -1.2751707 3.6705179 2894892
0.46536112 -1.2250015 3.6712446 2894892
0.46538734 -1.1748738 3.6707237 2894892
0.46539369 -1.1254635 3.6711371 2894892
0.46540675 -1.0753034 3.6712403 2894892
0.46541968 -1.0251408 3.6713419 2894892
0.46543264 -0.97497523 3.6714449 2894892
0.46544567 -0.92480689 3.6715472 2894892
0.46546507 -0.87539285 3.6713369 2894892
0.46546489 -0.82522506 3.6720631 2894892
0.46549106 -0.77505076 3.6715419 2894892
0.46549088 -0.72486019 3.6722679 2894892
0.46551707 -0.67469752 3.671747 2894892
0.4655233 -0.62526304 3.6721599 2894892
0.46553633 -0.57507515 3.672262 2894892
0.46554929 -0.52488452 3.6723652 2894892
0.46556231 -0.47469088 3.6724675 2894892
0.46557531 -0.42449465 3.6725707 2894892
0.46559471 -0.3750495 3.6723595 2894892
0.46559456 -0.32486093 3.6730857 2894892
0.4656207 -0.27465147 3.6725647 2894892
0.46562693 -0.22520714 3.6729774 2894892
0.46564004 -0.17499688 3.6730797 2894892
0.46565291 -0.12478384 3.6731825 2894892
0.46566594 -0.074567974 3.673285 2894892
0.46567902 -0.024349339 3.6733878 2894892
0.4656916 0.02435022 3.6734877 2894892
0.46570468 0.074574418 3.6735897 6381921
0.4657129 0.10653662 3.6736555 10197915
0.46397695 -1.6596402 3.7307115 2894892
0.46416411 -1.6253513 3.7223189 2894892
0.4641861 -1.5755213 3.7219918 2894892
0.46419004 -1.5252047 3.7225251 2894892
0.46419394 -1.4748682 3.7230639 2894892
0.46422526 -1.4245275 3.722306 2894892
0.46422902 -1.3746988 3.7228396 2894892
0.46424207 -1.3248674 3.7229421 2894892
0.46425495 -1.2750329 3.723048 2894892
0.46427691 -1.2252035 3.7227204 2894892
0.46428096 -1.1753621 3.7232561 2894892
0.46429381 -1.1260329 3.7233589 2894892
0.46430692 -1.0751593 3.7234643 2894892
0.46432006 -1.0242831 3.7235696 2894892
0.46433282 -0.9749456 3.7236712 2894892
0.46435484 -0.92509234 3.7233446 2894892
0.46435869 -0.87472677 3.7238781 2894892
0.46437159 -0.82486707 3.7239835 2894892
0.46439365 -0.77500153 3.7236559 2894892
0.4643974 -0.72514534 3.7241905 2894892
0.46440113 -0.67526865 3.7247264 2894892
0.46442336 -0.62488669 3.724396 2894892
0.46444538 -0.57451916 3.7240705 2894892
0.46444914 -0.52462846 3.7246046 2894892
0.46446201 -0.4752636 3.7247078 2894892
0.46448398 -0.42537731 3.7243795 2894892
0.46448788 -0.3749887 3.7249129 2894892
0.46450076 -0.32510135 3.7250192 2894892
0.46452278 -0.27520317 3.7246914 2894892
0.46451759 -0.22481188 3.7256594 2894892
0.46453956 -0.17490815 3.7253311 2894892
0.46455258 -0.1250097 3.7254324 2894892
0.46457466 -0.074609153 3.7251065 2894892
0.46457842 -0.024695707 3.725641 2894892
0.46459123 0.024696613 3.725744 2894892
0.46461308 0.074615583 3.7254162 6381921
-0.97017539 0.11259584 3.7230351 10000536
-0.92534614 0.11258371 3.7226346 10000536
-0.87589037 0.11257035 3.7221923 10000536
-0.82490152 0.11255658 3.7217369 10000536
-0.77392501 0.1125428 3.7212811 10000536
-0.72450501 0.11252943 3.720839 10000536
-0.67509693 0.11251608 3.7203975 10000536
-0.62570053 0.11250274 3.7199562 10000536
-0.57477283 0.11248896 3.7195003 10000536
-0.52385759 0.11247521 3.7190456 10000536
-0.47449708 0.11246186 3.7186046 10132122
-0.42514831 0.11244851 3.7181633 10197915
-0.37581125 0.11243519 3.7177222 10197915
-0.32494467 0.11242143 3.7172678 10197915
-0.27409044 0.11240768 3.7168131 10197915
-0.22478917 0.11239436 3.7163725 10197915
-0.17549963 0.11238103 3.7159321 10197915
-0.12468208 0.11236729 3.7154777 10197915
-0.073876798 0.11235356 3.7150238 10197915
-0.024623007 0.11234025 3.7145832 10197915
0.024619121 0.11232693 3.7141433 10197915
0.075387776 0.11231321 3.7136898 10197915
0.12614416 0.11229949 3.7132361 10197915
0.17535056 0.1122862 3.7127964 10197915
0.2245453 0.1122729 3.7123563 10197915
0.27526513 0.11225919 3.7119033 10197915
0.32597268 0.11224548 3.7114499 10197915
0.37513173 0.11223218 3.7110105 10197915
0.42427921 0.11221892 3.7105715 10197915
0.46223399 0.10781813 3.7213154 10197915
0.46299589 -1.6701617 3.7771418 2894892
0.46303493 -1.6253175 3.7759295 2894892
0.46304786 -1.5753031 3.7760348 2894892
0.46306074 -1.525286 3.7761402 2894892
0.46307385 -1.4752665 3.7762468 2894892
0.46308681 -1.4252436 3.7763524 2894892
0.46309972 -1.3752182 3.776458 2894892
0.46311271 -1.3251899 3.7765636 2894892
0.46312565 -1.2751591 3.7766697 2894892
0.4631387 -1.2251254 3.7767754 2894892
0.46315175 -1.1750886 3.7768815 2894892
0.4631646 -1.1250491 3.7769868 2894892
0.46319181 -1.0750132 3.7764118 2894892
0.46319038 -1.0249705 3.7771971 2894892
0.46320328 -0.9749226 3.7773025 2894892
0.46321622 -0.92487186 3.7774079 2894892
0.46322909 -0.87481833 3.7775128 2894892
0.46324202 -0.82476193 3.7776177 2894892
0.4632549 -0.77470291 3.7777233 2894892
0.46326783 -0.72464103 3.7778289 2894892
0.46328074 -0.67457634 3.7779341 2894892
0.46329367 -0.6245088 3.7780392 2894892
0.46330661 -0.57443851 3.7781446 2894892
0.46331951 -0.52436531 3.7782497 2894892
0.46333238 -0.47428957 3.7783546 2894892
0.46334526 -0.42421088 3.7784603 2894892
0.46335822 -0.37412944 3.7785656 2894892
0.46337834 -0.32482511 3.7783177 2894892
0.46338362 -0.27552798 3.7787735 2894892
0.46339655 -0.22543825 3.7788785 2894892
0.46340945 -0.17534572 3.7789838 2894892
0.46342239 -0.12525038 3.779089 2894892
0.46343529 -0.075152285 3.7791946 2894892
0.46344823 -0.02505138 3.7792997 2894892
0.46346116 0.025052311 3.7794051 2894892
0.46347412 0.075158805 3.7795105 6579300
0.46348217 0.10647667 3.7795763 10197915
0.46194524 -1.7066991 3.8264966 2894892
0.46209401 -1.6758847 3.8198771 2894892
0.46210703 -1.6252898 3.8199844 2894892
0.46212003 -1.5746917 3.8200922 2894892
0.46214059 -1.5248682 3.8198407 2894892
0.46214598 -1.4750737 3.8203065 2894892
0.46215123 -1.4252625 3.8207719 2894892
0.46217167 -1.3754352 3.8205187 2894892
0.46218473 -1.3248234 3.8206275 2894892
0.4622052 -1.2750094 3.8203738 2894892
0.46221069 -1.2251775 3.8208418 2894892
0.46222365 -1.1745571 3.8209493 2894892
0.46223661 -1.1239336 3.8210568 2894892
0.46224931 -1.0748893 3.8211617 2894892
0.46226189 -1.0258424 3.8212659 2894892
0.46227491 -0.97521055 3.8213735 2894892
0.46228799 -0.92457587 3.8214808 2894892
0.46230835 -0.87472612 3.8212273 2894892
0.46231362 -0.82488495 3.8216927 2894892
0.46231893 -0.77502716 3.8221583 2894892
0.46233931 -0.72517383 3.8219051 2894892
0.46235967 -0.67533189 3.8216512 2894892
0.46236491 -0.62546098 3.8221171 2894892
0.462378 -0.57480651 3.8222249 2894892
0.46239102 -0.52414918 3.8223329 2894892
0.46241143 -0.47426391 3.8220789 2894892
0.4624089 -0.42521772 3.8229032 2894892
0.46242929 -0.37532696 3.8226497 2894892
0.46244237 -0.32465839 3.8227568 2894892
0.46246266 -0.27478072 3.8225031 2894892
0.462468 -0.22490099 3.8229694 2894892
0.46248111 -0.17422393 3.823077 2894892
0.46248633 -0.12431981 3.8235431 2894892
0.46251416 -0.0752533 3.822928 2894892
0.46251944 -0.025343664 3.8233941 2894892
0.46253243 0.025344618 3.8235023 2894892
0.46255285 0.075259849 3.8232477 6645093
-1.0093232 0.11249914 3.8246217 10000536
-0.97597134 0.11249014 3.8243153 10000536
-0.9251588 0.11247641 3.8238487 10000536
-0.87435848 0.11246269 3.8233826 10000536
-0.82515746 0.11244942 3.8229311 10000536
-0.77596813 0.11243612 3.8224792 10000536
-0.72520423 0.11242242 3.8220127 10000536
-0.67445278 0.11240871 3.8215473 10000536
-0.62529904 0.11239544 3.8210955 10000536
-0.57615697 0.11238217 3.8206446 10000536
-0.52544183 0.11236848 3.8201792 10000536
-0.47473899 0.11235479 3.8197138 10132122
-0.4240486 0.1123411 3.8192482 10197915
-0.37495387 0.11232782 3.8187973 10197915
-0.32587099 0.11231457 3.818347 10197915
-0.27521676 0.11230089 3.8178818 10197915
-0.22457497 0.11228723 3.8174169 10197915
-0.17394544 0.11227355 3.8169522 10197915
-0.12490979 0.11226031 3.8165019 10197915
-0.075885862 0.11224706 3.8160517 10197915
-0.025292546 0.11223341 3.8155878 10197915
0.025288444 0.11221975 3.8151228 10197915
0.075857125 0.1122061 3.8146586 10197915
0.12483387 0.11219286 3.8142087 10197915
0.17379892 0.11217964 3.8137596 10197915
0.22433148 0.112166 3.8132956 10197915
0.27485171 0.11215235 3.8128316 10197915
0.32535967 0.1121387 3.8123679 10197915
0.37585533 0.11212506 3.811904 10197915
0.42633879 0.11211145 3.8114409 10197915
0.46083429 0.10775547 3.820133 10197915
0.46080354 -1.7177002 3.8805523 2894892
0.46090239 -1.6749946 3.8764715 2894892
0.46091512 -1.6252543 3.876579 2894892
0.46093842 -1.5749635 3.8761895 2894892
0.46093065 -1.525244 3.8772819 2894892
0.4609642 -1.4749473 3.8764153 2894892
0.46108094 -1.427249 3.8715637 2894892
0.4612141 -1.3748614 3.8659904 2894892
0.46124244 -1.3252535 3.8653615 2894892
0.46124768 -1.2748408 3.8658392 2894892
0.46126059 -1.2252265 3.865947 2894892
0.46127328 -1.1756085 3.8660541 2894892
0.46128649 -1.1243879 3.8661642 2894892
0.46129924 -1.0747646 3.8662713 2894892
0.46131197 -1.0251386 3.8663776 2894892
0.46133265 -0.9746967 3.866118 2894892
0.46132988 -0.92509091 3.8669605 2894892
0.46135819 -0.87544024 3.8663318 2894892
0.4613634 -0.82501107 3.8668089 2894892
0.4613685 -0.77456439 3.8672848 2894892
0.46139681 -0.72493422 3.8666558 2894892
0.461402 -0.67448199 3.8671322 2894892
0.46141475 -0.62483406 3.8672388 2894892
0.46142742 -0.57518327 3.8673463 2894892
0.46144828 -0.52470702 3.8670864 2894892
0.46144548 -0.4750942 3.8679295 2894892
0.46146616 -0.42461243 3.8676698 2894892
0.46147889 -0.37495068 3.8677771 2894892
0.46149167 -0.32528603 3.8678842 2894892
0.46151239 -0.27481964 3.867624 2894892
0.46150964 -0.22514538 3.8684678 2894892
0.46153793 -0.17548607 3.8678379 2894892
0.46154308 -0.12500243 3.8683152 2894892
0.4615559 -0.075324021 3.8684223 2894892
0.46156862 -0.025642844 3.8685288 2894892
0.46158177 0.025643818 3.8686395 2894892
0.46159458 0.075330548 3.8687456 6776679
0.46160239 0.10578497 3.8688118 10197915
0.45954967 -1.7559041 3.9395375 2894892
0.45966437 -1.72456 3.93454 2894892
0.45967692 -1.6757047 3.9346473 2894892
0.45968983 -1.6252179 3.9347582 2894892
0.45970297 -1.5747293 3.9348702 2894892
0.45972371 -1.5250373 3.9345982 2894892
0.45972067 -1.4745703 3.935472 2894892
0.4599131 -1.4223109 3.9270844 2894892
0.46000111 -1.3751335 3.9235773 2894892
0.46001419 -1.3247807 3.9236917 2894892
0.46002737 -1.2744254 3.9237993 2894892
0.4600507 -1.2246166 3.9234009 2894892
0.46005276 -1.175336 3.9240177 2894892
0.46006551 -1.1249717 3.9241283 2894892
0.46007839 -1.0746045 3.9242384 2894892
0.46010184 -1.0253052 3.923835 2894892
0.46009356 -0.97495735 3.9249554 2894892
0.46012765 -0.92457008 3.9240561 2894892
0.46012974 -0.87473917 3.9246726 2894892
0.46015319 -0.82488978 3.924274 2894892
0.46014443 -0.77506763 3.9254043 2894892
0.460168 -0.72521269 3.924999 2894892
0.46019149 -0.67537433 3.9245994 2894892
0.46018311 -0.62496316 3.9257202 2894892
0.4602173 -0.57459986 3.9248199 2894892
0.46021914 -0.52526957 3.9254384 2894892
0.46024254 -0.47539943 3.9250455 2894892
0.46023411 -0.42501864 3.9261694 2894892
0.46026826 -0.37514421 3.9252558 2894892
0.46027049 -0.32528201 3.925873 2894892
0.46028325 -0.27486998 3.925987 2894892
0.4602963 -0.22445513 3.9260926 2894892
0.46031985 -0.17458366 3.9256942 2894892
0.46032155 -0.12524992 3.9263127 2894892
0.4604187 -0.077264421 3.9223926 2894892
0.46059573 -0.024327384 3.9147475 2894892
0.46060812 0.024328262 3.9148529 2894892
0.46062109 0.074608542 3.9149623 6710886
-1.0229101 0.11238973 3.9316528 10000536
-0.97556281 0.11237698 3.9312062 10000536
-0.9249624 0.11236331 3.9307287 10000536
-0.87437409 0.11234967 3.9302516 10000536
-0.82542926 0.11233649 3.9297895 10000536
-0.77486533 0.11232284 3.9293125 10000536
-0.72431332 0.11230918 3.9288352 10000536
-0.67540389 0.112296 3.9283738 10000536
-0.62487632 0.11228237 3.9278965 10000536
-0.57436079 0.11226874 3.9274201 10000536
-0.52548665 0.11225554 3.9269588 10000536
-0.4749954 0.11224192 3.9264822 10132122
-0.42451626 0.1122283 3.9260058 10197915
-0.37567723 0.11221514 3.9255447 10197915
-0.32522237 0.11220153 3.9250686 10197915
-0.27477953 0.11218791 3.9245925 10197915
-0.22597571 0.11217476 3.9241321 10197915
-0.17555712 0.11216116 3.9236565 10197915
-0.12515064 0.11214755 3.9231806 10197915
-0.074756511 0.11213396 3.9227047 10197915
-0.024374463 0.11212035 3.9222295 10197915
0.024370657 0.11210719 3.9217694 10197915
0.074728549 0.11209361 3.921294 10197915
0.12507436 0.11208005 3.920819 10197915
0.17540786 0.11206647 3.9203439 10197915
0.22572926 0.11205289 3.9198689 10197915
0.2744157 0.11203973 3.9194093 10197915
0.32471302 0.11202618 3.9189343 10197915
0.37499827 0.11201261 3.9184599 10197915
0.42527121 0.11199904 3.9179859 10197915
0.45928851 0.10801134 3.9146614 10197915
0.45860532 -1.7665843 3.9842193 2894892
0.45865598 -1.7257385 3.9823978 2894892
0.45866868 -1.6762886 3.9825079 2894892
0.45868182 -1.6251882 3.9826212 2894892
0.45869496 -1.5740848 3.9827363 2894892
0.45870763 -1.5246271 3.9828463 2894892
0.45872036 -1.4751664 3.9829566 2894892
0.45874152 -1.4248745 3.9826772 2894892
0.45874617 -1.3745933 3.9831805 2894892
0.45875895 -1.3251246 3.9832907 2894892
0.45877171 -1.2756531 3.983402 2894892
0.45877632 -1.2253385 3.9839046 2894892
0.45880586 -1.1742429 3.9832363 2894892
0.45881042 -1.1239226 3.9837387 2894892
0.45882314 -1.0744399 3.9838486 2894892
0.45883569 -1.0249542 3.9839578 2894892
0.4588483 -0.97546589 3.9840682 2894892
0.45886943 -0.92514157 3.9837887 2894892
0.45887411 -0.87483627 3.9842908 2894892
0.45888674 -0.8253395 3.9844007 2894892
0.4588913 -0.7750091 3.9849036 2894892
0.45891246 -0.72468305 3.9846237 2894892
0.45893347 -0.67436951 3.984345 2894892
0.45893812 -0.62402546 3.9848473 2894892
0.45895079 -0.5745151 3.9849575 2894892
0.45896339 -0.52500188 3.9850664 2894892
0.458976 -0.47548598 3.9851766 2894892
0.4589887 -0.42596748 3.9852865 2894892
0.45900986 -0.375613 3.9850073 2894892
0.45901442 -0.32527623 3.9855094 2894892
0.45901906 -0.27492172 3.9860127 2894892
0.45904016 -0.22456375 3.985733 2894892
0.45905289 -0.17503129 3.9858434 2894892
0.45907387 -0.12468744 3.985564 2894892
0.45922288 -0.071708068 3.9792476 2894892
0.45934448 -0.02469654 3.9741516 2894892
0.45935711 0.024697443 3.974261 2894892
0.45938089 0.074653663 3.9738483 6776679
0.45933181 0.10588438 3.9766273 10197915
0.4573417 -1.8042382 4.0436707 2894892
0.45760161 -1.7744825 4.0317559 2894892
0.45763189 -1.7244573 4.0310402 2894892
0.45763645 -1.6735498 4.0315547 2894892
0.45764935 -1.6234883 4.0316687 2894892
0.45767105 -1.5742383 4.031352 2894892
0.45767459 -1.5250317 4.0318894 2894892
0.45768738 -1.4749625 4.032002 2894892
0.45770016 -1.4248897 4.0321159 2894892
0.45771304 -1.3748146 4.0322285 2894892
0.45772597 -1.324737 4.0323434 2894892
0.45773879 -1.2746562 4.0324559 2894892
0.45775145 -1.2245723 4.0325689 2894892
0.45776427 -1.1744856 4.032681 2894892
0.45777708 -1.1243964 4.0327926 2894892
0.45778981 -1.0743041 4.0329056 2894892
0.45780262 -1.0242093 4.0330172 2894892
0.45781538 -0.97411132 4.0331306 2894892
0.45782813 -0.92401099 4.0332441 2894892
0.45784971 -0.87473857 4.0329256 2894892
0.45785323 -0.82547677 4.033464 2894892
0.45786598 -0.77536774 4.0335765 2894892
0.45787877 -0.72525609 4.0336885 2894892
0.45789152 -0.67514169 4.033802 2894892
0.45790434 -0.62502456 4.033915 2894892
0.45791706 -0.57490438 4.0340266 2894892
0.45792991 -0.52478158 4.0341396 2894892
0.45794263 -0.47465608 4.0342517 2894892
0.45795548 -0.4245275 4.0343637 2894892
0.45796824 -0.37439632 4.0344772 2894892
0.45798096 -0.32426229 4.0345902 2894892
0.4580026 -0.27496329 4.0342717 2894892
0.45800611 -0.22566237 4.034812 2894892
0.45801893 -0.17552005 4.0349226 2894892
0.45803165 -0.12537493 4.0350356 2894892
0.45804444 -0.075227007 4.0351486 2894892
0.45805725 -0.025076289 4.0352616 2894892
0.45807007 0.025077222 4.0353742 2894892
0.4580828 0.075233541 4.0354872 6974058
-1.0624764 0.11228062 4.0450845 10000536
-1.0238377 0.1122702 4.0447092 10000536
-0.97512913 0.11225707 4.0442362 10000536
-0.92643195 0.11224397 4.0437636 10000536
-0.87606746 0.11223039 4.0432749 10000536
-0.82571536 0.11221682 4.0427861 10000536
-0.77537513 0.11220325 4.0422964 10000536
-0.72504729 0.11218968 4.0418081 10000536
-0.67473155 0.11217611 4.0413198 10000536
-0.62442791 0.11216256 4.0408311 10000536
-0.57413656 0.11214902 4.0403433 10000536
-0.5238573 0.11213546 4.039855 10000536
-0.47359011 0.11212192 4.0393672 10197915
-0.42501003 0.11210883 4.0388956 10197915
-0.37644136 0.11209574 4.0384235 10197915
-0.3262099 0.1120822 4.0379357 10197915
-0.27599049 0.11206865 4.0374484 10197915
-0.22578326 0.11205515 4.0369611 10197915
-0.17558812 0.11204161 4.0364733 10197915
-0.12540507 0.11202809 4.0359864 10197915
-0.075234167 0.11201456 4.0354996 10197915
-0.025075359 0.11200105 4.0350122 10197915
0.025071332 0.11198752 4.0345259 10197915
0.075205915 0.11197402 4.0340385 10197915
0.12532844 0.11196052 4.0335522 10197915
0.17543885 0.11194701 4.0330653 10197915
0.22553715 0.11193351 4.0325794 10197915
0.27562338 0.11192001 4.0320926 10197915
0.32569754 0.11190651 4.0316067 10197915
0.3757596 0.11189303 4.0311208 10197915
0.42580965 0.11187954 4.0306344 10197915
0.45724767 0.10748741 4.033021 10197915
0.45648849 -1.8141228 4.084043 2894892
0.45655194 -1.7754841 4.0815859 2894892
0.45656478 -1.7248045 4.0817008 2894892
0.45657772 -1.6741216 4.0818167 2894892
0.45659027 -1.625126 4.0819306 2894892
0.45660272 -1.5761274 4.0820417 2894892
0.45661572 -1.5254363 4.0821567 2894892
0.45662862 -1.4747424 4.0822735 2894892
0.45665064 -1.4248861 4.0819483 2894892
0.45665419 -1.3750418 4.0825009 2894892
0.45666721 -1.3243395 4.0826168 2894892
0.45667067 -1.2744678 4.0831695 2894892
0.45670164 -1.2254728 4.0824032 2894892
0.456705 -1.1755955 4.0829549 2894892
0.45671794 -1.1248816 4.0830698 2894892
0.45673075 -1.074165 4.0831857 2894892
0.45675278 -1.0242708 4.0828609 2894892
0.45674673 -0.97527909 4.0838499 2894892
0.4567686 -0.92537951 4.0835238 2894892
0.45678157 -0.87465167 4.0836387 2894892
0.4568035 -0.82476771 4.0833139 2894892
0.45680696 -0.77488345 4.0838666 2894892
0.45681036 -0.72498047 4.0844183 2894892
0.45683232 -0.67509377 4.0840921 2894892
0.45685425 -0.62522036 4.0837674 2894892
0.45685762 -0.57530344 4.0843201 2894892
0.45687062 -0.52455574 4.0844359 2894892
0.45689252 -0.47463188 4.0841107 2894892
0.45688647 -0.42560872 4.0850997 2894892
0.45690855 -0.37567919 4.084774 2894892
0.45692131 -0.32492018 4.0848899 2894892
0.4569433 -0.27500665 4.0845647 2894892
0.4569467 -0.22509107 4.0851164 2894892
0.45695966 -0.17432356 4.0852313 2894892
0.45696309 -0.12438089 4.0857844 2894892
0.45699409 -0.075337082 4.0850186 2894892
0.45699751 -0.025388924 4.0855708 2894892
0.45701045 0.025389878 4.0856857 2894892
0.45703232 0.075343616 4.0853596 7105644
0.45699248 0.10571896 4.0876875 10197915
0.45517218 -1.8533237 4.1459823 2894892
0.45543477 -1.8237073 4.1339369 2894892
0.45545736 -1.7747681 4.1335692 2894892
0.45548889 -1.7251917 4.1327829 2894892
0.45549247 -1.6747087 4.1333518 2894892
0.4555051 -1.6250943 4.1334658 2894892
0.45551768 -1.5754771 4.1335802 2894892
0.45554006 -1.5249859 4.1332469 2894892
0.45553365 -1.4753947 4.1342616 2894892
0.45555604 -1.4248978 4.1339288 2894892
0.45557851 -1.3744148 4.133595 2894892
0.4555721 -1.3247818 4.1346102 2894892
0.45560369 -1.2751604 4.1338243 2894892
0.45560697 -1.2246615 4.1343904 2894892
0.45561957 -1.1750219 4.1345053 2894892
0.45563215 -1.1253796 4.1346188 2894892
0.45565441 -1.0748531 4.1342864 2894892
0.45564806 -1.0252566 4.1352987 2894892
0.45567042 -0.97472405 4.1349659 2894892
0.45568293 -0.9250707 4.1350803 2894892
0.45569563 -0.87541467 4.1351938 2894892
0.45571783 -0.8249011 4.1348615 2894892
0.45571154 -0.77523631 4.1358752 2894892
0.45574307 -0.72558588 4.1350889 2894892
0.45574644 -0.67505544 4.1356559 2894892
0.45575905 -0.62538558 4.1357694 2894892
0.4557716 -0.57571286 4.1358843 2894892
0.45578468 -0.52432436 4.1360025 2894892
0.45579723 -0.47464615 4.136117 2894892
0.45580992 -0.42496505 4.1362319 2894892
0.45583212 -0.37441617 4.1358972 2894892
0.45582572 -0.32474664 4.1369123 2894892
0.45585737 -0.27505112 4.136126 2894892
0.45585099 -0.2253544 4.1371412 2894892
0.45588261 -0.17567508 4.1363554 2894892
0.45594001 -0.12847228 4.1343021 2894892
0.45617345 -0.075174555 4.1239781 2894892
0.45618609 -0.025628308 4.1240921 2894892
0.45619908 0.025629284 4.1242099 2894892
0.45621163 0.075181052 4.1243234 7171437
0.43668512 0.11175016 4.1498504 10197915
0.45543256 0.10787425 4.132822 10197915
0.45426655 -1.8623328 4.1888499 2894892
0.45433122 -1.8251621 4.1863103 2894892
0.45436341 -1.7749431 4.1855044 2894892
0.45436639 -1.7255558 4.1860819 2894892
0.45437911 -1.6753099 4.1862006 2894892
0.4543919 -1.6250612 4.1863179 2894892
0.45440465 -1.5748094 4.1864347 2894892
0.45441744 -1.524555 4.186553 2894892
0.45467633 -1.476248 4.1749558 2894892
0.45472479 -1.4246889 4.1734042 2894892
0.4547376 -1.3745872 4.1735225 2894892
0.4547503 -1.3244818 4.1736388 2894892
0.454763 -1.2743738 4.1737552 2894892
0.45477566 -1.224263 4.1738715 2894892
0.45478794 -1.1758775 4.1739841 2894892
0.45480061 -1.125761 4.1741009 2894892
0.45481333 -1.075642 4.1742167 2894892
0.454826 -1.0255201 4.1743336 2894892
0.45483869 -0.97539538 4.1744494 2894892
0.45485136 -0.92526793 4.1745663 2894892
0.45486405 -0.87513751 4.1746831 2894892
0.45487678 -0.82500452 4.174799 2894892
0.45488948 -0.77486861 4.1749158 2894892
0.45490214 -0.72472996 4.1750321 2894892
0.45491484 -0.6745885 4.175149 2894892
0.45492753 -0.62444419 4.1752653 2894892
0.45494017 -0.57429707 4.1753817 2894892
0.45495251 -0.52587658 4.1754947 2894892
0.4549652 -0.47572395 4.1756115 2894892
0.45497793 -0.42556858 4.1757274 2894892
0.45499057 -0.37541038 4.1758442 2894892
0.45500329 -0.3252494 4.1759605 2894892
0.45501602 -0.27508557 4.1760769 2894892
0.45502868 -0.22491901 4.1761942 2894892
0.45504138 -0.17474963 4.1763101 2894892
0.4552018 -0.12029813 4.1694775 2894892
0.45533556 -0.075004995 4.1637754 2894892
0.45536751 -0.025034629 4.1629786 2894892
0.45538011 0.025035562 4.163095 2894892
0.45537356 0.075011492 4.1641221 7171437
-1.104394 0.11216501 4.1652555 10000536
-1.0749831 0.11215709 4.1649613 10000536
-1.0248203 0.11214359 4.1644602 10000536
-0.97466975 0.11213009 4.163959 10000536
-0.92453128 0.1121166 4.1634579 10000536
-0.87440473 0.1121031 4.1629567 10000536
-0.82429028 0.11208962 4.1624556 10000536
-0.77418798 0.11207614 4.1619549 10000536
-0.72409743 0.11206263 4.1614537 10000536
-0.6757459 0.11204962 4.1609702 10000536
-0.62567931 0.11203615 4.16047 10000536
-0.57562476 0.11202268 4.1599698 10000536
-0.52558213 0.1120092 4.1594696 10066329
-0.47555158 0.11199573 4.1589694 10197915
-0.42553318 0.11198227 4.1584692 10197915
-0.37552661 0.11196881 4.1579695 10197915
-0.32553223 0.11195535 4.1574697 10197915
-0.27554974 0.11194189 4.15697 10197915
-0.2255794 0.11192844 4.1564708 10197915
-0.17562091 0.11191499 4.1559706 10197915
-0.12567458 0.11190156 4.1554718 10197915
-0.075740106 0.11188811 4.154973 10197915
-0.025817761 0.11187466 4.1544733 10197915
0.02581349 0.11186077 4.1539574 10197915
0.075711586 0.11184734 4.1534586 10197915
0.12559755 0.11183392 4.1529603 10197915
0.17547169 0.11182048 4.1524615 10197915
0.22533371 0.11180707 4.1519632 10197915
0.27518389 0.11179364 4.1514645 10197915
0.32502192 0.11178021 4.1509662 10197915
