# .PCD v0.7 - Point Cloud Data file format
VERSION 0.7
FIELDS x y z rgb
SIZE 4 4 4 4
TYPE F F F U
COUNT 1 1 1 1
WIDTH 1161
HEIGHT 1
VIEWPOINT 0 0 0 1 0 0 0
POINTS 1161
DATA ascii
-0.53900576 -0.47497845 1.3900185 6447714
-0.56663561 -0.4250012 1.3649862 6447714
-0.53924841 -0.42520422 1.3900349 6447714
-0.56680685 -0.37485898 1.365069 6447714
-0.53956801 -0.3750169 1.3899813 6447714
-0.56718969 -0.32500303 1.3649575 6447714
-0.53964496 -0.32502776 1.3901501 6447714
-0.56727749 -0.27499902 1.3651142 6447714
-0.53972334 -0.2750034 1.3903168 6447714
-0.56730944 -0.22499612 1.3653257 6447714
-0.53976303 -0.22501218 1.390519 6447714
-0.56728452 -0.17488161 1.3655852 6447714
-0.54013729 -0.17529538 1.3904134 6447714
-0.56748974 -0.12498285 1.365635 6447714
-0.53991497 -0.12501328 1.3908559 6447714
-0.56754535 -0.07499367 1.3658226 6447714
-0.53996128 -0.074916594 1.3910524 6447714
-0.56760567 -0.025006182 1.3660065 6447714
-0.5400731 -0.024934845 1.3911878 6447714
-0.56767738 0.025010398 1.3661791 6447714
-0.54034442 0.024663879 1.3911771 6447714
-0.56805396 0.075113043 1.3660778 6447714
-0.54059374 0.074925028 1.3911889 6447714
-0.56771523 0.10584341 1.3658758 8618883
-0.53442168 0.10757911 1.3846431 9145227
-0.47524694 0.11111927 1.375567 10197915
-0.42336267 0.11123331 1.3729435 10197915
-0.37477002 0.11133811 1.3712053 10197915
-0.32478377 0.11143713 1.3724227 10197915
-0.27499461 0.11153581 1.3736409 10197915
-0.22497584 0.11163551 1.3746676 10197915
-0.17500795 0.1117343 1.3759642 10197915
-0.12495406 0.11183285 1.377417 10197915
-0.074950114 0.1119327 1.3783668 10197915
-0.026179476 0.11204382 1.3745481 10197915
0.024863331 0.1121498 1.374121 10197915
0.075025909 0.11224923 1.3753414 10197915
0.1268052 0.11236463 1.3721856 10197915
0.17495231 0.11246688 1.3709944 10197915
0.22513522 0.1125657 1.3724355 10197915
0.27512386 0.11266525 1.37349 10132122
0.32519734 0.11276472 1.3746257 10000536
0.37521985 0.11286363 1.3759482 9934743
0.42489484 0.11296258 1.3769923 10000536
0.47480419 0.11306116 1.3783165 10000536
0.5231685 0.11316536 1.3766088 10000536
0.57512838 0.11327951 1.3740125 10000536
0.62520188 0.11337879 1.3752166 9211020
0.67661566 0.11349428 1.3717563 2894892
0.71468943 0.11356356 1.3748374 2894892
-0.51383507 -0.56951255 1.4125892 11711154
-0.48657256 -0.56953233 1.4375234 11645361
-0.51388156 -0.52500349 1.4127589 6447714
-0.48661622 -0.52498591 1.4376968 6447714
-0.51393366 -0.47500291 1.4129505 6447714
-0.48668113 -0.47501391 1.4378743 6447714
-0.51420915 -0.42482436 1.4129361 6447714
-0.48674917 -0.42500886 1.438051 6447714
-0.51451403 -0.37499267 1.412895 6447714
-0.48697782 -0.37521005 1.4380789 6447714
-0.51457113 -0.32497784 1.4130812 6447714
-0.48733032 -0.3250224 1.4379951 6447714
-0.51467168 -0.27500358 1.4132286 6447714
-0.48738876 -0.27499324 1.4381809 6447714
-0.5146991 -0.22499903 1.4134415 6447714
-0.48743591 -0.22499378 1.4383767 6447714
-0.51519048 -0.17493814 1.413231 6447714
-0.48750141 -0.17502439 1.4385551 6447714
-0.51529276 -0.12501419 1.4133742 6447714
-0.48795161 -0.12512162 1.4383811 6447714
-0.51531798 -0.075062111 1.4135907 6447714
-0.48810798 -0.075002097 1.4384768 6447714
-0.51543283 -0.025030622 1.4137243 6447714
-0.48811522 -0.025033165 1.4387083 6447714
-0.51571983 0.025198497 1.4137008 6447714
-0.48817679 0.025037384 1.4388919 6447714
-0.51565325 0.075194001 1.4140011 6447714
-0.48807561 0.074639842 1.4392203 6447714
-0.51524442 0.10602451 1.4134564 8684676
-0.48223245 0.10762332 1.4324667 9211020
-0.4250977 0.111076 1.4261484 10197915
-0.37627187 0.11117772 1.4256282 10197915
-0.32485265 0.11129554 1.4213754 10197915
-0.27504399 0.11139411 1.4226345 10197915
-0.22494809 0.11149328 1.4239006 10197915
-0.17496224 0.11159223 1.4251647 10197915
-0.12508105 0.11169097 1.426424 10197915
-0.075115487 0.11178953 1.4278011 10197915
-0.024031613 0.11190875 1.4228053 10197915
0.025059057 0.11200899 1.4229875 10197915
0.074938409 0.11210798 1.424154 10197915
0.12490803 0.11220662 1.4254984 10197915
0.17511263 0.11230593 1.4268045 10197915
0.22318454 0.1124118 1.4243112 10197915
0.27473605 0.1125242 1.4220181 10197915
0.32509881 0.11262394 1.423278 10132122
0.37515771 0.11272307 1.4245293 10000536
0.42510366 0.11282198 1.425781 9934743
0.47513998 0.112921 1.4270307 10000536
0.52686733 0.11303534 1.4242213 10000536
0.57498276 0.1131398 1.4222443 10000536
0.6250267 0.11323819 1.4237455 10000536
0.67530936 0.11333837 1.4247849 5460819
0.72467977 0.11343444 1.4266211 2894892
0.75724888 0.11345836 1.4414489 2894892
-0.46161699 -0.56952608 1.4603492 11645361
-0.43425316 -0.56969744 1.4853743 11579568
-0.46165782 -0.52498448 1.4605212 6447714
-0.43444455 -0.52503639 1.4854112 6447714
-0.461739 -0.4749687 1.4606906 6447714
-0.43451902 -0.47501951 1.4855818 6447714
-0.4617767 -0.42496467 1.4608902 6447714
-0.43456817 -0.42500937 1.4857761 6447714
-0.4620637 -0.37472358 1.460868 6447714
-0.43463224 -0.37502512 1.4859545 6447714
-0.46236303 -0.32496902 1.4608277 6447714
-0.43506157 -0.32519975 1.4857998 6447714
-0.46243003 -0.27498198 1.4610114 6447714
-0.43519732 -0.27504811 1.4859152 6447714
-0.46250263 -0.22498174 1.4611783 6447714
-0.43528429 -0.22501555 1.4860748 6447714
-0.46253881 -0.17496882 1.4613878 6447714
-0.43533364 -0.17502964 1.486267 6447714
-0.46299055 -0.12481932 1.4612105 6447714
-0.43540591 -0.12509061 1.4864392 6447714
-0.46313164 -0.074912608 1.4613216 6447714
-0.43587446 -0.075075299 1.4862486 6447714
-0.46320695 -0.024937676 1.4614879 6447714
-0.43602148 -0.025022864 1.4863534 6447714
-0.46303511 0.025147136 1.4618884 6447714
-0.43585637 0.024814246 1.486742 6447714
-0.46293879 0.075063549 1.4622107 6447714
-0.435559 0.075062312 1.4872534 6447714
-0.46302921 0.10565261 1.4620494 8684676
-0.43173864 0.10701732 1.4841833 9079434
-0.37337843 0.11103261 1.4778674 10197915
-0.32487524 0.11114352 1.4739615 10197915
-0.27504438 0.11124118 1.4755535 10197915
-0.22612213 0.11135712 1.4701791 10197915
-0.17500632 0.11146203 1.4701738 10197915
-0.1249696 0.11156059 1.4716028 10197915
-0.075044565 0.11166004 1.4726527 10197915
-0.02503694 0.11175816 1.4742086 10197915
0.024861662 0.11185715 1.4753821 10197915
0.075048439 0.11195636 1.4766935 10197915
0.12512292 0.11205532 1.4779962 10197915
0.17487301 0.11215369 1.4792937 10197915
0.22682343 0.1122705 1.4757733 10197915
0.27513823 0.11237427 1.4741788 10197915
0.32519692 0.11247355 1.4753858 10197915
0.37370732 0.11258461 1.4713994 10132122
0.42478254 0.11269253 1.4703305 10000536
0.47494867 0.11279141 1.4717516 10000536
0.52499658 0.11289076 1.4729168 10132122
0.5749253 0.11298949 1.474205 10066329
0.62494493 0.11308843 1.4754956 10000536
0.67504877 0.11318751 1.476789 8947848
0.72503746 0.11328601 1.478205 2894892
0.76789522 0.11336441 1.481514 2894892
-0.40912926 -0.56929612 1.5083537 11513775
-0.38179287 -0.5695492 1.5333551 11447982
-0.40931368 -0.52498955 1.5083959 6447714
-0.38183486 -0.52499485 1.5335277 6447714
-0.40935203 -0.47502384 1.5085993 6447714
-0.38210344 -0.4751938 1.5335195 6447714
-0.40943035 -0.42501271 1.5087667 6447714
-0.38245213 -0.4250266 1.5334408 6447714
-0.40947986 -0.37498945 1.5089598 6447714
-0.38247955 -0.37501672 1.5336537 6447714
-0.40991238 -0.32474375 1.5088022 6447714
-0.38255975 -0.32501346 1.533819 6447714
-0.4100658 -0.27498797 1.5089009 6447714
-0.38257772 -0.27501583 1.5340416 6447714
-0.4101201 -0.22500698 1.5090889 6447714
-0.38288647 -0.22518499 1.5339967 6447714
-0.41018376 -0.17498216 1.5092698 6447714
-0.38321105 -0.17501122 1.5339385 6447714
-0.41027507 -0.12494541 1.509425 6447714
-0.38326791 -0.12497669 1.5341241 6447714
-0.41077372 -0.074999794 1.5092055 6447714
-0.38326046 -0.074929468 1.5343697 6447714
-0.41081384 -0.025012666 1.5094094 6447714
-0.38337708 -0.02496806 1.534502 6447714
-0.41086608 0.025016868 1.5095993 6447714
-0.38374132 0.024789153 1.534405 6447714
-0.41094047 0.074999467 1.5097697 6447714
-0.38392588 0.074933305 1.5344757 6447714
-0.41086808 0.10561663 1.509823 8684676
-0.38074926 0.10674311 1.5322179 9013641
-0.32490042 0.11097936 1.5307223 10197915
-0.27504662 0.11107777 1.5320787 10197915
-0.22498366 0.11121714 1.5194104 10197915
-0.17484353 0.11132415 1.5179851 10197915
-0.12484682 0.11142249 1.5194671 10197915
-0.074975006 0.11152055 1.5209506 10197915
-0.025011802 0.11161958 1.5221553 10197915
0.025041319 0.11171839 1.5235027 10197915
0.074968696 0.11181697 1.524847 10197915
0.12498792 0.11191575 1.5261937 10197915
0.17509194 0.11201468 1.5275429 10197915
0.22486214 0.11211254 1.5290233 10197915
0.27493387 0.11221182 1.5302316 10197915
0.32530329 0.11231127 1.5315878 10197915
0.37504309 0.11243555 1.5239209 10197915
0.42528576 0.11255644 1.5177803 10132122
0.47516879 0.11265457 1.5192463 10132122
0.52492601 0.11275324 1.5204339 10197915
0.57519311 0.11285255 1.521773 10197915
0.62512666 0.1129512 1.5230994 10066329
0.67493159 0.1130496 1.5244293 10000536
0.72504038 0.11314817 1.5259029 5066061
0.77501833 0.11324771 1.5269533 2894892
0.80770773 0.11328378 1.537692 2894892
-0.35657838 -0.56956124 1.5564147 11447982
-0.32949635 -0.56960553 1.5811838 11382189
-0.35661653 -0.52497935 1.5565941 6447714
-0.32952899 -0.52501351 1.5813671 6447714
-0.3569347 -0.47450724 1.5565425 6447714
-0.32958555 -0.4749831 1.5815519 6447714
-0.35722974 -0.42494851 1.5565069 6447714
-0.33013618 -0.4250108 1.5812891 6447714
-0.35728788 -0.37492853 1.5566932 6447714
-0.33020002 -0.3749989 1.5814683 6447714
-0.35734308 -0.3249425 1.5568817 6447714
-0.33027548 -0.32499155 1.5816381 6447714
-0.3573567 -0.27494347 1.5571079 6447714
-0.33029366 -0.27500802 1.5818591 6447714
-0.35770431 -0.22455837 1.5570292 6447714
-0.33033276 -0.22501169 1.5820621 6447714
-0.358004 -0.17502207 1.5569929 6447714
-0.33084014 -0.17506529 1.5818372 6447714
-0.35802177 -0.12498153 1.5572174 6447714
-0.33099425 -0.12502849 1.5819327 6447714
-0.35812932 -0.075146385 1.5573546 6447714
-0.33103245 -0.075003937 1.5821369 6447714
-0.35812324 -0.025165953 1.5575967 6447714
-0.33102149 -0.024967838 1.5823866 6447714
-0.35850433 0.02554488 1.5574917 6447714
-0.33105126 0.02495325 1.5825974 6447714
-0.35880095 0.075173832 1.5574576 6447714
-0.33159962 0.074861452 1.5823332 6447714
-0.35852128 0.10550304 1.5578516 8750469
-0.32976523 0.10643336 1.5805225 9013641
-0.27509177 0.11095204 1.5755477 10197915
-0.22401547 0.11107615 1.5688806 10197915
-0.17510213 0.11117536 1.5692931 10197915
-0.12515345 0.11127384 1.5706832 10197915
-0.075112194 0.1113725 1.5720762 10197915
-0.024986006 0.11147133 1.5734711 10197915
0.02501547 0.1115699 1.5748619 10197915
0.075103886 0.11166822 1.5764089 10197915
0.12505989 0.11176763 1.5774896 10197915
0.17510691 0.11186586 1.5790401 10197915
0.22524184 0.11196428 1.5805894 10197915
0.2728571 0.11206599 1.5792105 10197915
0.3251496 0.1121874 1.5743259 10197915
0.37768024 0.1123017 1.5720919 10197915
0.42494872 0.11240999 1.5682144 10197915
0.474967 0.11250821 1.569746 10197915
0.52506876 0.11260661 1.5712763 10197915
0.5748201 0.11270522 1.5724905 10197915
0.62488157 0.11280394 1.5738723 10197915
0.67502683 0.11290287 1.5752488 10132122
0.72482252 0.11300112 1.5766199 8553090
0.77492398 0.11309951 1.5781542 2894892
0.8197034 0.11318007 1.5820731 2894892
-0.30437499 -0.56954736 1.6041608 11316396
-0.27733696 -0.56958574 1.6288899 11250603
-0.30441502 -0.52499586 1.604336 6447714
-0.27738723 -0.52500236 1.629056 6447714
-0.30445361 -0.47504127 1.6045388 6447714
-0.27742869 -0.4749985 1.6292548 6447714
-0.30503517 -0.42491108 1.6042457 6447714
-0.27782026 -0.42514011 1.6291361 6447714
-0.30509731 -0.37503591 1.6044277 6447714
-0.27807409 -0.37499636 1.6291424 6447714
-0.30512586 -0.32500336 1.6046392 6447714
-0.27812928 -0.32502162 1.6293305 6447714
-0.30520132 -0.274957 1.6048087 6447714
-0.27813464 -0.27501622 1.6295644 6447714
-0.30517635 -0.22497381 1.6050704 6447714
-0.27815008 -0.22499764 1.6297888 6447714
-0.30576441 -0.17475134 1.6047729 6447714
-0.27847373 -0.17515405 1.6297301 6447714
-0.30586234 -0.1249354 1.6049186 6447714
-0.27879718 -0.12499136 1.6296737 6447714
-0.30587387 -0.075075395 1.6051483 6447714
-0.27897793 -0.07498657 1.6297469 6447714
-0.30593944 -0.025206896 1.6053269 6447714
-0.27881643 -0.024987221 1.6301324 6447714
-0.30598888 0.025145587 1.6055199 6447714
-0.2788516 0.024991417 1.6303383 6447714
-0.30643067 0.075411588 1.6053559 6447714
-0.27917159 0.074919477 1.6302847 6447714
-0.30658534 0.10566574 1.6049557 8816262
-0.27755401 0.10660203 1.6269108 9079434
-0.22496974 0.11091889 1.6226063 10197915
-0.17493282 0.11101695 1.6242145 10197915
-0.12480669 0.11111613 1.6254917 10197915
-0.075037003 0.11121415 1.6269212 10197915
-0.025183121 0.11131229 1.6283616 10197915
0.024989007 0.11141054 1.629975 10197915
0.073421463 0.11152768 1.6238458 10197915
0.12508933 0.11163519 1.6233258 10197915
0.17501016 0.11173351 1.6247563 10197915
0.22501636 0.11183275 1.6259338 10197915
0.27753776 0.11194827 1.6232686 10197915
0.3252129 0.11205665 1.6196177 10197915
0.37519801 0.11215515 1.6210363 10197915
0.42504412 0.11225292 1.6226267 10197915
0.47497457 0.11235225 1.6237105 10197915
0.52499574 0.11244982 1.6254729 10197915
0.57510275 0.11254902 1.6267295 10197915
0.62507379 0.11264748 1.6281524 10197915
0.67490053 0.11274564 1.6295711 10197915
0.72242594 0.11285 1.6272066 10132122
0.77498847 0.11296988 1.6230439 4473924
0.8251344 0.11306833 1.6245909 2894892
0.85729247 0.11312065 1.6293273 2894892
-0.25189012 -0.56965178 1.6521621 11184810
-0.22505562 -0.56961888 1.676706 11119017
-0.2519134 -0.52504921 1.652353 6447714
-0.22509022 -0.52501231 1.6768845 6447714
-0.25194517 -0.47513717 1.652562 6447714
-0.22511971 -0.47501883 1.6770973 6447714
-0.25239447 -0.42386115 1.6523951 6447714
-0.22514099 -0.42501172 1.6773174 6447714
-0.2526027 -0.37501356 1.6524378 6447714
-0.22519435 -0.37504363 1.6775057 6447714
-0.25266105 -0.32494447 1.6526241 6447714
-0.22582918 -0.32500258 1.6771632 6447714
-0.25265351 -0.2749958 1.6528692 6447714
-0.22585545 -0.27501026 1.6773787 6447714
-0.25272498 -0.22504064 1.6530422 6447714
-0.22585091 -0.22502147 1.6776208 6447714
-0.25297546 -0.17386402 1.6530577 6447714
-0.22594458 -0.17502129 1.6777737 6447714
-0.25339398 -0.12497609 1.6529071 6447714
-0.22587375 -0.12502527 1.6780763 6447714
-0.25337663 -0.074989334 1.653162 6447714
-0.22648524 -0.075176477 1.6777549 6447714
-0.25345796 -0.025004603 1.6533251 6447714
-0.22651039 -0.02502537 1.6779703 6447714
-0.25349006 0.025008813 1.6535355 6447714
-0.22653899 0.025029575 1.6781834 6447714
-0.2535674 0.075495772 1.6537038 6447714
-0.22680078 0.075020261 1.6781815 6447714
-0.25411683 0.105484 1.6533449 8816262
-0.22544289 0.10616741 1.6770697 9013641
-0.17532122 0.11087587 1.6727496 10197915
-0.1251864 0.11097487 1.6740996 10197915
-0.074973539 0.11107323 1.6757267 10197915
-0.025010832 0.11117148 1.6772094 10197915
0.025040351 0.11126982 1.6786933 10197915
0.076163977 0.11139619 1.6712841 10197915
0.12488907 0.11149539 1.6715605 10197915
0.17490244 0.11159378 1.6730307 10197915
0.22477399 0.11169136 1.6746887 10197915
0.27496889 0.11179117 1.6757997 10197915
0.32524523 0.11188898 1.6776522 10197915
0.3751516 0.1119877 1.6789364 10197915
0.42459786 0.11211232 1.6709508 10197915
0.47517836 0.11221305 1.672021 10197915
0.52516419 0.11231179 1.673347 10197915
0.57523763 0.11240991 1.6749544 10197915
0.62540048 0.11250901 1.6762854 10197915
0.67494494 0.11260609 1.677878 10197915
0.72735471 0.11272621 1.673543 10197915
0.77505964 0.1128319 1.670836 7829367
0.82492191 0.11293007 1.6722891 2894892
0.86975694 0.1130079 1.6771858 2894892
-0.17550254 -0.56964362 1.7220274 11053224
-0.14766702 -0.56957155 1.7474847 10987431
-0.17551306 -0.52502 1.7222296 6447714
-0.14770223 -0.52492553 1.7476649 6447714
-0.17553891 -0.47498518 1.7224449 6447714
-0.14772086 -0.47502723 1.7478857 6447714
-0.17557213 -0.42499384 1.7226515 6447714
-0.14791116 -0.42629093 1.7479439 6447714
-0.20072293 -0.35073692 1.7000031 6447714
-0.17558601 -0.37500936 1.7228799 6447714
-0.14843091 -0.37506089 1.7477136 6447714
-0.20073618 -0.3246991 1.7001153 6447714
-0.17559351 -0.32499245 1.7231084 6447714
-0.14844972 -0.32514203 1.747934 6447714
-0.20076159 -0.27472588 1.7003304 6447714
-0.17564465 -0.2749826 1.7233001 6447714
-0.14845552 -0.27496645 1.7481679 6447714
-0.20078699 -0.22473998 1.7005453 6447714
-0.17563692 -0.22499654 1.7235457 6447714
-0.14850028 -0.22502814 1.7483655 6447714
-0.2008124 -0.17474143 1.7007605 6447714
-0.17570314 -0.17499889 1.7237235 6447714
-0.14849305 -0.17506479 1.7486098 6447714
-0.20083778 -0.1247303 1.7009758 6447714
-0.17563887 -0.1249875 1.7240227 6447714
-0.1489667 -0.12729314 1.7484047 6447714
-0.2013606 -0.071118027 1.7007533 6447714
-0.17586772 -0.07500235 1.7240486 6447714
-0.14920649 -0.074964881 1.748435 6447714
-0.20152433 -0.024661588 1.700825 6447714
-0.17563343 -0.025004931 1.7245026 6447714
-0.14924482 -0.024997771 1.7486379 6447714
-0.20154952 0.024665691 1.7010373 6447714
-0.17565559 0.025009118 1.7247208 6447714
-0.14926369 0.025001982 1.7488592 6447714
-0.20157503 0.074710242 1.7012525 6447714
-0.17592433 0.075013034 1.7247133 6447714
-0.14926311 0.074994378 1.7490978 6447714
-0.20159081 0.10572961 1.7013857 8947848
-0.17467192 0.10624488 1.7229916 9079434
-0.12796524 0.11014888 1.7287617 10000536
-0.074898824 0.11092409 1.7273697 10197915
-0.026296953 0.1110438 1.7204808 10197915
0.02494226 0.11115053 1.7198938 10197915
0.075239003 0.11124975 1.7212739 10197915
0.12527239 0.11134808 1.7227901 10197915
0.17502815 0.11144537 1.724456 10197915
0.22523685 0.11154401 1.7259821 10197915
0.27517408 0.11164255 1.7273468 10197915
0.32519644 0.11174039 1.7290207 10197915
0.3753112 0.11183926 1.7303902 10197915
0.4252893 0.11196671 1.7218124 10197915
0.47491118 0.1120654 1.7229041 10197915
0.52486271 0.11216356 1.724413 10197915
0.57465601 0.11226143 1.725917 10197915
0.62454122 0.11235942 1.7274244 10197915
0.67231983 0.11247209 1.722371 10197915
0.7246905 0.11258629 1.7200558 10197915
0.77489144 0.11268532 1.7214121 10197915
0.82518238 0.11278378 1.7230736 4079166
0.87520021 0.11288211 1.7245754 2894892
0.90853244 0.11293753 1.7290633 2894892
-0.12249447 -0.56961781 1.7705078 10921638
-0.094906963 -0.57038331 1.7957351 10921638
-0.12251581 -0.5249998 1.7707 6447714
-0.095211983 -0.52495944 1.7956724 6447714
-0.12251434 -0.47499913 1.7709394 6447714
-0.095234565 -0.47505456 1.7958894 6447714
-0.12274881 -0.42483065 1.7709646 6447714
-0.095246561 -0.42501006 1.7961173 6447714
0.89731145 -0.41864622 1.7974405 2894892
0.91683936 -0.41857782 1.7760903 2894892
-0.12325896 -0.37497696 1.770736 6447714
-0.095265776 -0.37495422 1.796338 6447714
0.89733768 -0.3750146 1.7974403 2894892
0.9168433 -0.3750051 1.7761123 2894892
-0.12321939 -0.32498181 1.7710098 6447714
-0.095253155 -0.32500961 1.7965879 6447714
0.89731389 -0.32497364 1.7974979 2894892
0.91683763 -0.32499292 1.7761521 2894892
-0.12330851 -0.27499634 1.7711674 6447714
-0.09579695 -0.27594629 1.7963245 6447714
0.89735836 -0.27508804 1.7974823 2894892
0.91686749 -0.27498016 1.7761494 2894892
-0.12329021 -0.22499819 1.7714221 6447714
-0.095985323 -0.2249006 1.7963961 6447714
0.8973515 -0.2248968 1.7975218 2894892
0.91688818 -0.225007 1.7761616 2894892
-0.1232977 -0.17498723 1.7716551 6447714
-0.096031293 -0.17506371 1.7965913 6447714
0.89736199 -0.17500447 1.7975417 2894892
0.91684508 -0.17501174 1.7762412 2894892
-0.12381502 -0.12486143 1.771419 6447714
-0.096026354 -0.12505981 1.7968345 6447714
0.89737219 -0.12511109 1.7975631 2894892
0.91689706 -0.12497404 1.7762167 2894892
-0.12414372 -0.074983351 1.7713583 6447714
-0.096038438 -0.075194076 1.7970608 6447714
0.89738297 -0.07521642 1.7975833 2894892
0.91693008 -0.075056702 1.7762107 2894892
-0.12394385 -0.02495639 1.771778 6447714
-0.096050598 -0.025315683 1.797287 6447714
0.89739329 -0.02532064 1.7976053 2894892
0.91638666 -0.025028117 1.7768399 2894892
-0.12395956 0.024960568 1.7720008 6447714
-0.096773379 0.025310848 1.7968676 6447714
0.89740366 0.025321046 1.7976265 2894892
0.91639692 0.025028523 1.7768586 2894892
-0.12419704 0.074970946 1.772023 6447714
-0.096785583 0.07519649 1.7970951 6447714
0.89741445 0.075219139 1.7976474 2894892
0.91652346 0.075001046 1.776754 2894892
-0.12305917 0.10575998 1.7723831 9079434
-0.081385359 0.10906138 1.7867117 9803157
-0.023901654 0.1108938 1.7740729 10197915
0.024998268 0.11099301 1.7744547 10197915
0.075043373 0.1110924 1.7755815 10197915
0.1226372 0.11120149 1.7716558 10197915
0.17504233 0.11132002 1.7678487 10197915
0.22504056 0.11141902 1.7690796 10197915
0.27512392 0.11151636 1.7709678 10197915
0.32530186 0.11161486 1.7725313 10197915
0.37519932 0.11171325 1.7739197 10197915
0.42517835 0.11181087 1.7756437 10197915
0.47525305 0.11190962 1.7770386 10197915
0.52503633 0.11200635 1.7789243 10197915
0.57490736 0.11210519 1.780144 10197915
0.62487185 0.11220323 1.7817001 10197915
0.67671382 0.11232933 1.7748755 10197915
0.72480369 0.11243142 1.7737184 10197915
0.77496338 0.11252983 1.7752719 10197915
0.82424808 0.11262863 1.7761008 7960953
0.88391536 0.11026542 1.7794646 2894892
0.91616255 0.1069373 1.7756883 2894892
-0.070520334 -0.56948727 1.8180428 10790052
-0.042767167 -0.56965041 1.8434247 10724259
-0.070802592 -0.52501678 1.8179954 6447714
-0.042767916 -0.52487952 1.8436372 6447714
-0.070785739 -0.47501764 1.8182536 6447714
-0.043271728 -0.47552556 1.8434117 6447714
-0.070818856 -0.42500603 1.8184569 6447714
-0.043528847 -0.42495897 1.843418 6447714
0.84972864 -0.41911763 1.8494654 4737096
0.87282032 -0.41870824 1.8242174 3289650
-0.070806026 -0.37500814 1.818709 6447714
-0.043539491 -0.37494108 1.8436464 6447714
0.84973729 -0.37468117 1.8494848 2894892
0.87289774 -0.37498024 1.8241603 2894892
-0.070848748 -0.32502517 1.8189083 6447714
-0.043544967 -0.32499647 1.8438803 6447714
0.84974712 -0.32488078 1.8495064 2894892
0.87287003 -0.32498792 1.8242234 2894892
-0.071380265 -0.27483773 1.8186609 6447714
-0.043535221 -0.2749528 1.8441291 6447714
0.84975702 -0.2750791 1.8495275 2894892
0.87291253 -0.27497706 1.8242117 2894892
-0.071579598 -0.22500205 1.8187163 6447714
-0.043576363 -0.22498213 1.8443296 6447714
0.84976679 -0.22527625 1.8495487 2894892
0.87290978 -0.22499974 1.8242487 2894892
-0.071634062 -0.17503491 1.8189051 6447714
-0.044150773 -0.17537294 1.8440397 6447714
0.84977651 -0.17547229 1.84957 2894892
0.87291342 -0.17498642 1.8242736 2894892
-0.071553849 -0.12505603 1.8192166 6447714
-0.044263363 -0.12481534 1.8441778 6447714
0.84978646 -0.12490094 1.8495916 2894892
0.87290174 -0.12498916 1.8243214 2894892
-0.07166031 -0.074933916 1.8193581 6447714
-0.044355158 -0.075171255 1.8443298 6447714
0.84979641 -0.07509467 1.8496133 2894892
0.87304837 -0.07497485 1.824193 2894892
-0.071562722 -0.02490381 1.8196863 6447714
-0.04431748 -0.025217956 1.8446031 6447714
0.84980637 -0.025287241 1.8496348 2894892
0.87286395 -0.024959657 1.824425 2894892
-0.072294079 0.024898058 1.8192536 6447714
-0.044323131 0.025222236 1.8448387 6447714
0.84981638 0.025287639 1.8496567 2894892
0.87287182 0.024960048 1.8244485 2894892
-0.072412811 0.07492552 1.8193845 6447714
-0.044363484 0.075104646 1.845039 6447714
0.84982622 0.075097404 1.8496783 2894892
0.87307352 0.074977629 1.8242573 2894892
-0.071599543 0.10577833 1.819453 9145227
-0.033450123 0.10813573 1.8368545 9605778
0.025054485 0.11082581 1.8323359 10197915
0.07483802 0.11092383 1.8337634 10197915
0.12719949 0.11105055 1.8271016 10197915
0.17492563 0.11115418 1.8251415 10197915
0.2248309 0.1112857 1.8150735 10197915
0.27507898 0.1113847 1.8165047 10197915
0.32541257 0.11148284 1.8182887 10197915
0.37508157 0.11158072 1.8196958 10197915
0.42483082 0.11167774 1.8214673 10197915
0.47505373 0.11177617 1.8230731 10197915
0.5249812 0.11187456 1.8244883 10197915
0.57499605 0.11197206 1.826268 10197915
0.62510061 0.11207078 1.8276886 10197915
0.67528921 0.11216865 1.8294743 10197915
0.72518611 0.11226644 1.8310692 10197915
0.77478236 0.11236416 1.8324726 10197915
0.82839435 0.11176151 1.8343749 9803157
0.87229377 0.1069955 1.8229768 4473924
-0.017779674 -0.56969529 1.8662783 10724259
0.0093795387 -0.56971699 1.8911188 10658466
-0.017800169 -0.52504486 1.866473 6447714
0.0094170561 -0.52498865 1.8913651 6447714
-0.01831116 -0.47479701 1.8662441 6447714
0.0094079869 -0.47496516 1.8915954 6447714
-0.018528454 -0.42504856 1.8662822 6447714
0.0094194449 -0.42492938 1.8918453 6447714
0.82643366 -0.41880956 1.8749356 4737096
-0.018587034 -0.37506586 1.8664685 6447714
0.0089269718 -0.37541217 1.8916305 6447714
0.82647699 -0.3750155 1.8749173 2894892
-0.018554816 -0.3250058 1.8667351 6447714
0.0086142616 -0.32500648 1.8915854 6447714
0.82649273 -0.32502431 1.8749272 2894892
-0.018536625 -0.27499753 1.8669909 6447714
0.0086333668 -0.27502868 1.8918408 6447714
0.82646316 -0.27501446 1.8749939 2894892
-0.018590037 -0.22500893 1.8671806 6447714
0.0086344909 -0.22496752 1.8920799 6447714
0.82652491 -0.2249676 1.8749632 2894892
-0.019160755 -0.17481865 1.8668982 6447714
0.0086221108 -0.17503618 1.8923069 6447714
0.82648629 -0.17499034 1.8750346 2894892
-0.019337241 -0.12496103 1.8669752 6447714
0.0085824216 -0.12523691 1.892508 6447714
0.82692403 -0.12517644 1.8745887 2894892
-0.019327085 -0.074879862 1.8672214 6447714
0.0082123587 -0.075857453 1.8924056 6447714
0.82704252 -0.075002454 1.8744925 2894892
-0.019376537 -0.024913568 1.8674154 6447714
0.00784948 -0.025086308 1.8923162 6447714
0.82704669 -0.024960866 1.8745198 2894892
-0.019378984 0.024917779 1.8676518 6447714
0.00785047 0.025090549 1.8925546 6447714
0.82705563 0.024961267 1.8745421 2894892
-0.019334435 0.074909277 1.8679296 6447714
0.0078514721 0.07528013 1.8927971 6447714
0.82707047 0.075005159 1.8745567 2894892
-0.019095693 0.10572293 1.8676872 9145227
0.016675305 0.10796518 1.8868872 9671571
0.074901477 0.1107811 1.8831958 10197915
0.12493662 0.11088014 1.8844644 10197915
0.17506383 0.11097704 1.8865272 10197915
0.22499678 0.11114756 1.8629818 10197915
0.27502826 0.11124492 1.8648133 10197915
0.32513961 0.11134358 1.8662677 10197915
0.375346 0.1114413 1.8681052 10197915
0.42485586 0.11153886 1.869534 10197915
0.47445542 0.11163542 1.8713591 10197915
0.52492297 0.11173476 1.8728242 10197915
0.57547939 0.11183316 1.874674 10197915
0.62534165 0.11193135 1.8761127 10197915
0.67528683 0.11202855 1.8779489 10197915
0.72532576 0.11212708 1.8793936 10197915
0.77505273 0.11222327 1.8814205 10197915
0.82624114 0.10663545 1.8744531 9671571
0.77473986 -0.61895394 1.9360055 10987431
0.80458879 -0.61873418 1.9459449 11711154
0.03408118 -0.56966954 1.9137106 10592673
0.061859854 -0.56968331 1.9391172 10526880
0.77486521 -0.57501376 1.9360619 5131854
0.80466789 -0.57509822 1.9462254 6710886
0.034084514 -0.52499628 1.9139276 6447714
0.061481319 -0.52541983 1.9389818 6447714
0.7748788 -0.52502811 1.9361612 4934475
0.80355972 -0.52522653 1.9454494 6447714
0.034115545 -0.47497752 1.914194 6447714
0.061039981 -0.4750531 1.9388171 6447714
0.77490491 -0.4750084 1.9363077 4934475
0.80369103 -0.47508094 1.9458081 6447714
0.034122631 -0.42502898 1.9144382 6447714
0.061049663 -0.4250201 1.9390649 6447714
0.77807349 -0.42345753 1.9284573 4276545
0.80172807 -0.42238745 1.9070996 4934475
0.03358509 -0.37471187 1.9141858 6447714
0.061068695 -0.37503114 1.9393198 6447714
0.77905208 -0.37502059 1.9267726 2894892
0.80147672 -0.375126 1.9022511 2894892
0.033314683 -0.32497767 1.9141756 6447714
0.061057527 -0.32502943 1.9395486 6447714
0.77907842 -0.32503018 1.9267761 2894892
0.80148584 -0.3246927 1.9022732 2894892
0.033313766 -0.27505228 1.9144123 6447714
0.061074737 -0.27495903 1.939804 6447714
0.77910739 -0.27499658 1.9267769 2894892
0.80149537 -0.27504629 1.9022952 2894892
0.03331824 -0.22503549 1.9146553 6447714
0.060900982 -0.22532959 1.9398818 6447714
0.77908945 -0.22498184 1.9268241 2894892
0.80150431 -0.22539864 1.902317 2894892
0.033310831 -0.17496641 1.9148862 6447714
0.060270339 -0.17498264 1.9395448 6447714
0.77908814 -0.17500949 1.9268588 2894892
0.80151367 -0.17496179 1.9023386 2894892
0.033236898 -0.12496249 1.9150585 6447714
0.060241435 -0.12487188 1.939757 6447714
0.77913535 -0.12497225 1.926842 2894892
0.80192536 -0.12332102 1.9019227 2894892
0.033025797 -0.074695334 1.9151049 6447714
0.060273431 -0.074809648 1.9400256 6447714
0.77907664 -0.074911945 1.926939 2894892
0.80208445 -0.075050518 1.9017806 2894892
0.032437406 -0.025011364 1.9148014 6447714
0.060305558 -0.024918506 1.9402924 6447714
0.77918154 -0.02495957 1.9268529 2894892
0.80208093 -0.025212746 1.9018162 2894892
0.032441508 0.025015589 1.9150466 6447714
0.060313161 0.024922695 1.9405373 6447714
0.77919114 0.024959967 1.926872 2894892
0.80209041 0.025213139 1.9018388 2894892
0.032713745 0.075005092 1.9155321 6447714
0.060271047 0.074657843 1.9407349 6447714
0.77910441 0.074914515 1.9269986 2894892
0.8021127 0.075053245 1.901847 2894892
0.032576282 0.10553373 1.9153112 9211020
0.066691861 0.10731802 1.9370389 9474192
0.12090605 0.11073914 1.9303676 10197915
0.17467488 0.11086444 1.9251966 10197915
0.22517698 0.11100081 1.9138892 10197915
0.2753728 0.11109894 1.9155812 10197915
0.325252 0.11119703 1.9170554 10197915
0.37522581 0.11129414 1.9189466 10197915
0.42528263 0.11139262 1.9204268 10197915
0.47543055 0.11149009 1.9223251 10197915
0.52526581 0.11158749 1.9240056 10197915
0.57477695 0.11168493 1.9254591 10197915
0.62478834 0.11178268 1.927152 10197915
0.67528427 0.11188079 1.9290617 10197915
0.72506589 0.11197872 1.9305243 10197915
0.77792323 0.10659648 1.9267472 9671571
0.80205309 0.10576273 1.9019314 9474192
0.73127609 -0.61911291 1.9788485 10263708
0.75377387 -0.61913431 1.9542497 10197915
0.82949942 -0.61910266 1.9687262 11711154
0.85635453 -0.6188491 1.9932898 11711154
0.086997516 -0.56971335 1.9621068 10461087
0.11404528 -0.56999528 1.9868436 10461087
0.73128015 -0.57500315 1.9788724 2894892
0.75376791 -0.57495701 1.9542856 2894892
0.82957888 -0.57499677 1.96901 6645093
0.85648459 -0.5750156 1.9936169 6579300
0.086537726 -0.52452952 1.9619018 6447714
0.11357643 -0.52499461 1.9866282 6447714
0.73127413 -0.52497452 1.9789107 2894892
0.7537818 -0.52488083 1.9543016 2894892
0.82846475 -0.52497107 1.9682288 6447714
0.85665309 -0.52506787 1.99401 6447714
0.086170755 -0.47489578 1.9618031 6447714
0.11358377 -0.47505534 1.9868741 6447714
0.73131865 -0.47496992 1.9788938 2894892
0.7537961 -0.47491965 1.9543192 2894892
0.82775748 -0.47657838 1.9678122 6447714
0.85667932 -0.48084313 1.9942447 6447714
0.086136661 -0.42496598 1.9620098 6447714
0.11360203 -0.42499995 1.9871285 6447714
0.73132461 -0.42499024 1.9789197 2894892
0.75380981 -0.42495796 1.9543366 2894892
0.81095284 -0.4485516 1.9525768 6447714
0.086219944 -0.37502307 1.9623234 6447714
0.11363392 -0.37493238 1.9873976 6447714
0.73129481 -0.37498361 1.9789855 2894892
0.75378722 -0.3749949 1.9543936 2894892
0.08615686 -0.32501701 1.9625043 6447714
0.11364483 -0.32495564 1.9876448 6447714
0.73130661 -0.32497609 1.9790071 2894892
0.75381172 -0.32491416 1.954399 2894892
0.086212508 -0.2750496 1.9627937 6447714
0.11361773 -0.27501425 1.9878591 6447714
0.73134339 -0.274993 1.9789996 2894892
0.75380987 -0.27483201 1.9544326 2894892
0.085969515 -0.22472668 1.9628119 6447714
0.11278448 -0.22498982 1.9873345 6447714
0.73134822 -0.22500874 1.9790218 2894892
0.753824 -0.22498049 1.9544505 2894892
0.085362159 -0.17504269 1.9624928 6447714
0.11277949 -0.17506167 1.9875691 6447714
0.73138726 -0.17502242 1.9790138 2894892
0.75385368 -0.17524573 1.9544497 2894892
0.085431613 -0.12503155 1.9627947 6447714
0.11287057 -0.12512299 1.98789 6447714
0.73132628 -0.1250096 1.9791098 2894892
0.7538625 -0.125393 1.9544718 2894892
0.085305132 -0.075203098 1.9629171 6447714
0.11282371 -0.07484249 1.9880873 6447714
0.73126876 -0.074996322 1.9792085 2894892
0.75385547 -0.075304955 1.9545122 2894892
0.08543361 -0.025213644 1.9632723 6447714
0.11285295 -0.024768319 1.9883524 6447714
0.73146445 -0.025011117 1.979026 2894892
0.75386435 -0.025101911 1.9545356 2894892
0.08544454 0.025217934 1.9635228 6447714
0.11286703 0.024772458 1.9886022 6447714
0.73147267 0.024985885 1.9790491 2894892
0.75387299 0.025102282 1.9545578 2894892
0.085279725 0.075322449 1.9636111 6447714
0.11229362 0.07445161 1.9883136 6447714
0.73129559 0.07497333 1.9792778 2894892
0.75388157 0.075307667 1.9545807 2894892
0.085204855 0.10531963 1.9636856 9211020
0.1182172 0.10722054 1.9806139 9539985
0.1750813 0.11074824 1.9657029 10197915
0.22495505 0.1108456 1.9674307 10197915
0.27491707 0.11094314 1.9691622 10197915
0.32537061 0.11104231 1.9706844 10197915
0.37509885 0.11113872 1.9726338 10197915
0.42490873 0.11123662 1.9741331 10197915
0.47480923 0.11133339 1.9760889 10197915
0.52479589 0.11143161 1.9775941 10197915
0.57486939 0.11152871 1.9795558 10197915
0.62503374 0.1116273 1.9810667 10197915
0.67528141 0.11172473 1.9830348 10197915
0.7296623 0.10666056 1.9789528 9803157
0.75388718 0.10607921 1.9545943 10000536
0.6833303 -0.61912781 2.0312743 10329501
0.70640731 -0.61915082 2.0060382 10329501
0.88118857 -0.61892974 2.0160034 11711154
0.90930825 -0.61916494 2.0417204 9803157
0.13948321 -0.56933838 2.0101116 10329501
0.16693626 -0.56970245 2.035219 10329501
0.68333793 -0.57498354 2.0312905 2894892
0.70642447 -0.57502663 2.0060499 2894892
0.88121957 -0.57502145 2.0162396 6513507
0.90901846 -0.57580906 2.041661 6447714
0.13905254 -0.52497983 2.0099297 6447714
0.16698459 -0.52502662 2.0354748 6447714
0.68331581 -0.52503818 2.0313439 2894892
0.70643669 -0.52500111 2.0060678 2894892
0.88144374 -0.52500552 2.0166838 6447714
0.90822303 -0.52499276 2.0411768 6447714
0.13905643 -0.47495043 2.0101712 6447714
0.16655542 -0.47540286 2.0353189 6447714
0.68334168 -0.47503132 2.0313485 2894892
0.70642507 -0.47497517 2.0061123 2894892
0.88045168 -0.48453879 2.0159698 6447714
0.90792882 -0.48891371 2.0410793 6447714
0.13910581 -0.42497274 2.0104549 6447714
0.16609342 -0.42503861 2.0351374 6447714
0.68338376 -0.42502353 2.0313394 2894892
0.7064572 -0.42494822 2.0061097 2894892
0.13913268 -0.37498137 2.0107176 6447714
0.16614723 -0.37504292 2.0354252 6447714
0.68333012 -0.37501472 2.0314314 2894892
0.70644528 -0.37491938 2.006155 2894892
0.13913646 -0.32497764 2.0109591 6447714
0.16610651 -0.32503614 2.0356262 6447714
0.68340123 -0.32500452 2.0313845 2894892
0.70645607 -0.32497245 2.0061762 2894892
0.13909973 -0.27490032 2.0111647 6447714
0.16617854 -0.27501515 2.0359304 6447714
0.6833567 -0.27499273 2.0314627 2894892
0.70646524 -0.27502429 2.0061977 2894892
0.13825706 -0.225025 2.0106325 6447714
0.16615234 -0.22498281 2.0361447 6447714
0.68340367 -0.22498073 2.0314419 2894892
0.70647836 -0.22499214 2.0062156 2894892
0.13823876 -0.1750091 2.0108538 6447714
0.16618451 -0.17493583 2.0364132 6447714
0.68337971 -0.17499658 2.031502 2894892
0.70650345 -0.17487696 2.0062199 2894892
0.13833436 -0.12498059 2.0111792 6447714
0.16539723 -0.12492999 2.0359313 6447714
0.68338811 -0.12501276 2.0315304 2894892
0.70650679 -0.12476008 2.0062506 2894892
0.13835189 -0.074997641 2.0114338 6447714
0.1653439 -0.075127035 2.0361197 6447714
0.6834293 -0.075146265 2.0315161 2894892
0.70649648 -0.074806444 2.0062933 2894892
0.13836937 -0.025002034 2.0116882 6447714
0.16533214 -0.025205547 2.0363474 6447714
0.68343717 -0.02513149 2.0315354 2894892
0.70650506 -0.024935732 2.0063169 2894892
0.13838693 0.025006242 2.0119429 6447714
0.16533194 0.025157828 2.036587 6447714
0.68344486 0.025131868 2.0315573 2894892
0.70651281 0.024936127 2.0063391 2894892
0.13703392 0.075170234 2.0109453 6447714
0.16461964 0.075295664 2.0361753 6447714
0.68345374 0.075148925 2.0315826 2894892
0.70652133 0.074809097 2.0063632 2894892
0.13670637 0.10580008 2.0099285 9342606
0.16861685 0.10695255 2.0307913 9539985
0.22472079 0.11068145 2.0240543 10197915
0.27485535 0.11077987 2.0255938 10197915
0.3250747 0.11087706 2.0276313 10197915
0.37496448 0.1109743 2.0294106 10197915
0.42451337 0.11107162 2.0309284 10197915
0.47500178 0.11116938 2.0329773 10197915
0.52317572 0.11126727 2.033313 10197915
0.57462394 0.11140595 2.0218754 10197915
0.6245901 0.11150339 2.0236437 10197915
0.68179601 0.10647652 2.0310283 9868950
0.70652634 0.10556468 2.006377 9671571
0.63534784 -0.61942852 2.0837345 10461087
0.65772825 -0.61916572 2.0592623 10395294
0.93468302 -0.61935294 2.0649273 2894892
0.96124417 -0.61826551 2.0892258 2960685
0.19185451 -0.56982046 2.0580082 10263708
0.21921366 -0.56973052 2.0830314 10197915
0.63535696 -0.57501537 2.0837502 2894892
0.65776473 -0.57494092 2.0592523 2894892
0.93352795 -0.57450831 2.0640843 6381921
0.96057034 -0.57492685 2.0888155 6447714
0.19185324 -0.5249778 2.0582204 6447714
0.21880551 -0.5253216 2.0828695 6447714
0.63541758 -0.52499115 2.0837166 2894892
0.65777534 -0.52494115 2.0592728 2894892
0.93268484 -0.52507126 2.0635483 6447714
0.96076572 -0.52494711 2.0892327 6447714
0.19140366 -0.47426826 2.0580511 6447714
0.21833964 -0.47504583 2.0826826 6447714
0.63536787 -0.47496668 2.0838056 2894892
0.65777993 -0.47500491 2.059299 2894892
0.93089318 -0.4925375 2.0620654 6447714
0.95794439 -0.49675849 2.0867872 6447714
0.19094828 -0.42491561 2.0578706 6447714
0.21831886 -0.4250564 2.082902 6447714
0.6353668 -0.42493954 2.083838 2894892
0.65778387 -0.42500237 2.0593283 2894892
0.19102632 -0.37491733 2.0581796 6447714
0.21832561 -0.37500906 2.083148 6447714
0.63540673 -0.37498996 2.0838261 2894892
0.65777194 -0.37499863 2.0593722 2894892
0.19101875 -0.32499209 2.0584116 6447714
0.2183945 -0.32499421 2.0834475 6447714
0.63540787 -0.32507914 2.0838573 2894892
0.65780264 -0.32499391 2.0593717 2894892
0.19105875 -0.27497035 2.0586867 6447714
0.21839435 -0.2750583 2.0836873 6447714
0.63539332 -0.27508792 2.0839055 2894892
0.65780407 -0.27498874 2.0594029 2894892
0.1910543 -0.22493316 2.0589201 6447714
0.21842256 -0.22501773 2.0839517 6447714
0.63542271 -0.22497801 2.0839074 2894892
0.65782112 -0.22504611 2.0594144 2894892
0.1910561 -0.17505664 2.0591607 6447714
0.21777788 -0.1751972 2.0835991 6447714
0.63545048 -0.17486742 2.0839071 2894892
0.65785915 -0.17510483 2.0594068 2894892
0.19030078 -0.12506153 2.0587091 6447714
0.21743891 -0.12502296 2.083528 6447714
0.63546252 -0.12495223 2.0839283 2894892
0.65775663 -0.12515785 2.059551 2894892
0.1901577 -0.074830778 2.0588169 6447714
0.21760081 -0.075110137 2.0839136 6447714
0.6354264 -0.075075485 2.0839987 2894892
0.6578837 -0.074824691 2.0594449 2894892
0.19025029 -0.024738716 2.0591395 6447714
0.2176283 -0.025039522 2.0841775 6447714
0.63541263 -0.025038425 2.0840464 2894892
0.65783203 -0.024743926 2.0595343 2894892
0.1902741 0.024742842 2.0593967 6447714
0.21765602 0.02504375 2.0844424 6447714
0.63541919 0.025038814 2.0840714 2894892
0.65784001 0.024744293 2.0595572 2894892
0.19021805 0.074783042 2.0595841 6447714
0.21765226 0.075091951 2.084677 6447714
0.63544762 0.075078204 2.0840712 2894892
0.65790641 0.074827373 2.0595174 2894892
0.19068511 0.10549104 2.060149 9342606
0.21968128 0.10648319 2.0818241 9539985
0.27534497 0.1106512 2.070446 10197915
0.32538134 0.1107486 2.0722694 10197915
0.37550598 0.11084621 2.0740952 10197915
0.42571893 0.11094397 2.0759249 10197915
0.47515273 0.11104032 2.077728 10197915
0.52782893 0.11115571 2.0752125 10197915
0.57523024 0.11127875 2.0662887 10197915
0.63239998 0.10716429 2.0789464 10000536
0.65767801 0.10617275 2.0592239 9934743
0.58891624 -0.61944407 2.1345005 10724259
0.61040908 -0.61939961 2.1110029 10526880
0.98608744 -0.6190694 2.1119435 2960685
1.0139062 -0.61895216 2.137388 2894892
0.24426238 -0.56987357 2.1059394 10197915
0.27091709 -0.56976736 2.1303184 10066329
0.58895463 -0.57501429 2.1344852 4473924
0.61045897 -0.57496828 2.1109748 2894892
0.98617566 -0.57493591 2.1122348 5526612
1.0140085 -0.5749746 2.1376908 2894892
0.24388984 -0.52415246 2.1058171 6447714
0.27097782 -0.52498305 2.1305876 6447714
0.58894598 -0.52500314 2.1345296 4539717
0.61046076 -0.52501428 2.1110024 2894892
0.98607022 -0.52636784 2.11237 5658198
1.0137199 -0.53050691 2.1376386 2894892
0.24340263 -0.47491321 2.1056066 6447714
0.27102563 -0.47502491 2.1308689 6447714
0.58894753 -0.47498909 2.1345577 3750201
0.61044234 -0.47500566 2.1110587 2894892
0.97436923 -0.49893975 2.1017985 6447714
0.24338466 -0.42499721 2.1058276 6447714
0.27100649 -0.42505327 2.1310897 6447714
0.58897746 -0.42497563 2.1345592 3552822
0.61045748 -0.42499554 2.1110709 2894892
0.24345453 -0.37506643 2.1061294 6447714
0.27116472 -0.37502789 2.1314726 6447714
0.58895695 -0.37501478 2.134613 3552822
0.61047101 -0.37498495 2.1110916 2894892
0.24344642 -0.32499838 2.1063604 6447714
0.27014804 -0.32514951 2.1307817 6447714
0.58899426 -0.3250533 2.1346042 3552822
0.6105153 -0.32497215 2.1110742 2894892
0.24350649 -0.27491897 2.1066539 6447714
0.27017483 -0.27505365 2.1310449 6447714
0.58899069 -0.27503598 2.1346416 3552822
0.61044765 -0.2749579 2.1111796 2894892
0.24356659 -0.22494932 2.1069481 6447714
0.27019837 -0.22502489 2.1313052 6447714
0.58897889 -0.22507116 2.134686 3618615
0.61049587 -0.22499938 2.1111619 2894892
0.24277519 -0.17441508 2.1064653 6447714
0.27023265 -0.17498165 2.1315758 6447714
0.58899963 -0.17505257 2.1346955 3618615
0.61049646 -0.17503685 2.1111894 2894892
0.24262524 -0.12479907 2.1065643 6447714
0.27030748 -0.12497195 2.1318812 6447714
0.58894771 -0.12502933 2.1347849 3552822
0.61055601 -0.1248579 2.1111596 2894892
0.24265566 -0.075063229 2.1068299 6447714
0.27024296 -0.074816108 2.132062 6447714
0.58908522 -0.074790686 2.1346674 3552822
0.61042333 -0.07499887 2.1113367 2894892
0.24268623 -0.025314843 2.1070948 6447714
0.27025083 -0.024907896 2.1323056 6447714
0.58845425 -0.024520732 2.1353893 3750201
0.61057007 -0.025150904 2.1112068 2894892
0.24271731 0.02531917 2.1073647 6447714
0.26937842 0.024776602 2.1317458 6447714
0.58832246 0.02477275 2.1355667 3815994
0.61057746 0.025151294 2.1112337 2894892
0.24274789 0.075092733 2.1076295 6447714
0.26932433 0.074800231 2.1319361 6447714
0.58842957 0.074789986 2.1354799 4079166
0.61044401 0.075001583 2.1114082 2894892
0.24298635 0.10551505 2.1068239 9342606
0.27217096 0.10676794 2.1268194 9605778
0.32525694 0.11061376 2.1188569 10197915
0.37519023 0.11071005 2.1209972 10197915
0.42520496 0.11080813 2.1225803 10197915
0.47531179 0.11090482 2.1247284 10197915
0.52506346 0.11100159 2.1265819 10197915
0.58316952 0.10724916 2.1323023 10066329
0.6106512 0.10572734 2.1110299 9803157
1.0391914 -0.6190027 2.1605136 2894892
1.0665864 -0.61916739 2.1855679 2894892
0.29618177 -0.5698548 2.1534245 10066329
0.32305354 -0.56976736 2.1780016 10000536
1.0393225 -0.57511556 2.1608407 2894892
1.0668266 -0.57498938 2.1859977 2894892
0.29622671 -0.52508432 2.1536798 6447714
0.32308275 -0.52495772 2.1782427 6447714
1.0391674 -0.53448182 2.1608937 2894892
1.0658784 -0.53875208 2.1853034 2894892
0.29623735 -0.4749566 2.1539283 6447714
0.32307917 -0.47497487 2.1784773 6447714
0.29630202 -0.42481533 2.1542265 6447714
0.32312667 -0.42497918 2.1787593 6447714
0.29633948 -0.37488434 2.1544986 6447714
0.32320225 -0.37497142 2.1790667 6447714
0.29541695 -0.32447299 2.1538949 6447714
0.32322681 -0.32499141 2.179328 6447714
0.29539499 -0.27486563 2.1541121 6447714
0.32327381 -0.27499908 2.1796083 6447714
0.29543224 -0.22491847 2.1543844 6447714
0.32228166 -0.22498773 2.1789403 6447714
0.29546976 -0.17495856 2.1546569 6447714
0.32232961 -0.17501621 2.1792219 6447714
0.2955071 -0.12498609 2.1549299 6447714
0.32235953 -0.12503447 2.1794872 6447714
0.29554448 -0.075000897 2.1552012 6447714
0.3223646 -0.075167201 2.1797299 6447714
0.29549602 -0.024676047 2.1553972 6447714
0.32239804 -0.025161553 2.1799994 6447714
0.29460016 0.024996515 2.1548142 6447714
0.32243928 0.025165834 2.1802766 6447714
0.29463738 0.074997969 2.1550872 6447714
0.32249773 0.07515379 2.1805689 6447714
0.29465997 0.10536169 2.1552527 9474192
0.32308236 0.10611057 2.1780977 9539985
0.37485671 0.11056822 2.1698153 10197915
0.42466924 0.11066497 2.1717141 10197915
0.47456893 0.11076195 2.1736176 10197915
0.52455652 0.11085908 2.1755235 10197915
0.5673402 0.11094218 2.1771538 10197915
1.0914545 -0.619003 2.2083127 2894892
1.1185051 -0.61889738 2.2330546 2894892
0.34837294 -0.56947953 2.2011611 9934743
0.37530419 -0.56982797 2.2257907 9868950
0.40174392 -0.5779146 2.2499335 11711154
1.091594 -0.57500505 2.2086506 2894892
1.1185616 -0.57501274 2.2333159 2894892
0.34836814 -0.52486402 2.2013686 6447714
0.37534663 -0.52502412 2.2260425 6447714
1.0912809 -0.54275578 2.2085176 2894892
1.1127547 -0.54595649 2.2281425 2894892
0.34843135 -0.47521549 2.201663 6447714
0.37535521 -0.47500435 2.2262886 6447714
0.34847549 -0.4251025 2.2019427 6447714
0.37548673 -0.42501083 2.2266474 6447714
0.34851971 -0.37497708 2.2022216 6447714
0.37549257 -0.37504476 2.226891 6447714
0.34856397 -0.32483879 2.2025013 6447714
0.37552255 -0.3250269 2.2271552 6447714
0.3486082 -0.2746878 2.2027805 6447714
0.37561518 -0.27499518 2.2274806 6447714
0.34758586 -0.22533661 2.2020817 6447714
0.37538323 -0.22511993 2.2275057 6447714
0.34763002 -0.17518251 2.2023611 6447714
0.37457609 -0.17504717 2.2270067 6447714
0.34767413 -0.12501577 2.2026408 6447714
0.37463897 -0.1250727 2.2273035 6447714
0.3477183 -0.074836217 2.2029204 6447714
0.37462893 -0.074921027 2.2275312 6447714
0.34776244 -0.024643993 2.2031996 6447714
0.37480709 -0.024920655 2.2279344 6447714
0.34780574 0.024648087 2.2034752 6447714
0.37485439 0.024924839 2.2282143 6447714
0.34771359 0.073530972 2.2036238 6447714
0.37456566 0.075124621 2.2281888 6447714
0.34593257 0.10606004 2.2019498 9671571
0.3749581 0.10630918 2.2241893 9671571
0.42503375 0.11051797 2.222847 10197915
0.47472179 0.11061343 2.225117 10197915
0.52496332 0.11071094 2.2270777 10197915
0.57350504 0.11080303 2.2296741 10197915
0.60153252 0.11080862 2.2476268 10197915
1.1443834 -0.6193791 2.256721 2894892
1.1707243 -0.61910033 2.2808135 2894892
0.42602047 -0.56957102 2.2721765 9737364
0.45370194 -0.57162213 2.2974842 10197915
1.144436 -0.5759995 2.2569761 2894892
1.1700132 -0.58005017 2.2803497 2894892
0.42539737 -0.5249728 2.2718184 6447714
0.45298019 -0.52530372 2.2970438 6447714
0.42547849 -0.47497883 2.272131 6447714
0.45303789 -0.47492731 2.2973373 6447714
0.42550543 -0.4249711 2.2723942 6447714
0.45309573 -0.4245384 2.2976305 6447714
0.42562115 -0.37495211 2.2727382 6447714
0.45315239 -0.37508747 2.2979181 6447714
0.425661 -0.32496229 2.2730145 6447714
0.4532316 -0.32514215 2.2982287 6447714
0.42568213 -0.27504557 2.2732711 6447714
0.45324564 -0.27472755 2.2984815 6447714
0.39989603 -0.20414269 2.2500253 6447714
0.42575189 -0.2250735 2.2735739 6447714
0.45332485 -0.22475697 2.2987926 6447714
0.39992622 -0.17432629 2.250195 6447714
0.4257513 -0.17500357 2.2738104 6447714
0.45221978 -0.17517516 2.2980185 6447714
0.39997619 -0.1249338 2.2504764 6447714
0.42578459 -0.12500486 2.2740803 6447714
0.45227638 -0.12568472 2.2983065 6447714
0.42414409 -0.075280152 2.2728164 6447714
0.45134994 -0.072366834 2.297713 6447714
0.42354345 -0.025040369 2.2725072 6447714
0.45123145 -0.024750557 2.2978318 6447714
0.42359692 0.025044587 2.272795 6447714
0.45128778 0.02475469 2.2981191 6447714
0.42399541 0.075083107 2.2733996 6447714
0.45132309 0.07475666 2.2983897 6447714
0.42463034 0.10565993 2.273313 9671571
0.46810853 0.10893268 2.2845728 10000536
0.52538258 0.11055638 2.2808433 10197915
0.57501835 0.11065252 2.2828267 10197915
0.60655934 0.1107136 2.2840874 10197915
1.1959599 -0.61913532 2.3038945 2894892
1.2235955 -0.61899418 2.3291702 2894892
0.47824511 -0.56959993 2.3199403 9605778
0.5056631 -0.57103276 2.3450103 9868950
1.1959796 -0.58418572 2.3040786 2894892
1.2213466 -0.58813137 2.3272603 2894892
0.47760049 -0.52499151 2.3195627 6447714
0.5051294 -0.52503955 2.3447409 6447714
0.47766545 -0.47497967 2.3198602 6447714
0.50520539 -0.4748297 2.3450496 6447714
0.47770694 -0.42500594 2.3201385 6447714
0.50520968 -0.42509487 2.3452911 6447714
0.47779596 -0.3750205 2.3204577 6447714
0.50532115 -0.37510142 2.3456311 6447714
0.47780848 -0.32502243 2.3207076 6447714
0.50542063 -0.32485092 2.3459611 6447714
0.47793105 -0.27501002 2.3210571 6447714
0.50544906 -0.27507845 2.3462253 6447714
0.47800615 -0.22498554 2.3213651 6447714
