# .PCD v0.7 - Point Cloud Data file format
VERSION 0.7
FIELDS x y z rgb
SIZE 4 4 4 4
TYPE F F F U
COUNT 1 1 1 1
WIDTH 1189
HEIGHT 1
VIEWPOINT 0 0 0 1 0 0 0
POINTS 1189
DATA ascii
-0.7609126 -0.52418655 2.8022344 2039583
-0.73749679 -0.52501088 2.8072293 2039583
-0.76159912 -0.47493055 2.8021648 2039583
-0.73721743 -0.47499916 2.8073673 2039583
-0.76157206 -0.42490339 2.8022492 2039583
-0.73753566 -0.42501527 2.8073769 2039583
-0.76159257 -0.37499288 2.8023233 2039583
-0.73726976 -0.3748996 2.8075128 2039583
-0.76161265 -0.32507983 2.8023973 2039583
-0.73756212 -0.32491142 2.8075287 2039583
-0.76163262 -0.27516419 2.8024714 2039583
-0.73730874 -0.27488601 2.8076613 2039583
-0.76181519 -0.22494647 2.8025103 2039583
-0.73760134 -0.22489452 2.8076766 2039583
-0.7627697 -0.17531008 2.8023856 2039583
-0.7373479 -0.17486164 2.8078096 2039583
-0.76278955 -0.12539062 2.8024588 2039583
-0.73764044 -0.12486707 2.8078249 2039583
-0.76280957 -0.075468525 2.8025327 2039583
-0.7374081 -0.074731767 2.8079534 2039583
-0.7628302 -0.025543792 2.802608 2039583
-0.73765844 -0.024730314 2.8079779 2039583
-0.7628504 0.025544705 2.8026824 2039583
-0.73767728 0.024731172 2.8080509 2039583
-0.76287049 0.075474747 2.8027563 2039583
-0.73746651 0.074737869 2.8081746 2039583
-2.2199914 0.11082464 2.815855 10197915
-2.1750214 0.11085147 2.8165374 10197915
-2.1242602 0.11088175 2.8173063 10197915
-2.0746255 0.11091138 2.8180592 10197915
-2.0249641 0.110941 2.8188119 10197915
-1.9752764 0.11097065 2.8195653 10197915
-1.9255623 0.11100031 2.8203187 10197915
-1.8746642 0.11103069 2.8210905 10197915
-1.8248963 0.11106037 2.8218448 10197915
-1.7751012 0.11109009 2.8225996 10197915
-1.7252802 0.11111983 2.8233547 10197915
-1.6754318 0.11114955 2.8241105 10197915
-1.6243973 0.11118001 2.8248844 10197915
-1.5744951 0.11120978 2.8256407 10197915
-1.5245663 0.11123957 2.8263977 10197915
-1.4746108 0.11126936 2.8271549 10197915
-1.4246285 0.1112992 2.8279126 10197915
-1.3746191 0.11132901 2.8286705 10197915
-1.3245834 0.11135889 2.8294294 10197915
-1.2745206 0.11138874 2.830188 10197915
-1.2255964 0.11141794 2.83093 10197915
-1.1754802 0.11144784 2.8316896 10197915
-1.1265042 0.11147708 2.8324323 10197915
-0.76288265 0.1056662 2.8028011 2039583
-0.73759258 0.10586964 2.8081965 2039583
-0.51508933 -1.2633046 2.8535228 2039583
-0.47356996 -1.2653077 2.8623812 2039583
-0.42433655 -1.2676982 2.8728776 2039583
-0.3745403 -1.2700971 2.8834977 2039583
-0.3244862 -1.2724775 2.8941729 2039583
-0.2991145 -1.2733388 2.8995843 2039583
1.4364331 -1.2684997 2.8762624 6710886
-0.51540661 -1.2249024 2.853514 2039583
-0.47433472 -1.2249938 2.8622777 2039583
-0.42487869 -1.2250311 2.8728261 2039583
-0.37512434 -1.2250398 2.8834434 2039583
-0.32500854 -1.2250478 2.8941348 2039583
-0.29912227 -1.2241188 2.8996594 2039583
1.4369678 -1.2249762 2.8736854 6710886
-0.51545113 -1.1749438 2.8535829 2039583
-0.47432491 -1.1750594 2.8623564 2039583
-0.42488995 -1.1750762 2.8729072 2039583
-0.37512672 -1.1750627 2.8835199 2039583
-0.32492074 -1.1750062 2.894232 2039583
-0.29913002 -1.1748962 2.899735 2039583
1.4369541 -1.1749635 2.8736596 6710886
-0.51641947 -1.1247406 2.8534555 2039583
-0.47438902 -1.1250142 2.862421 2039583
-0.42492723 -1.1250597 2.8729739 2039583
-0.37514699 -1.1251353 2.8835943 2039583
-0.32495052 -1.1249043 2.8943043 2039583
-0.2991378 -1.1256711 2.8998103 2039583
1.4369289 -1.1250302 2.8736973 6710886
-0.51666445 -1.0750623 2.8534803 2039583
-0.47442648 -1.0749127 2.8624923 2039583
-0.42491236 -1.0750414 2.8730574 2039583
-0.37511113 -1.0750976 2.8836818 2039583
-0.32487911 -1.0749129 2.8943977 2039583
-0.29914579 -1.0752429 2.8998876 2039583
1.4369153 -1.0750182 2.8736722 6710886
-0.51665658 -1.0250455 2.8535612 2039583
-0.47433788 -1.0248628 2.8625879 2039583
-0.42495504 -1.0250207 2.8731246 2039583
-0.37511852 -1.0250025 2.8837559 2039583
-0.32496783 -1.0249777 2.8944576 2039583
-0.29915363 -1.0260124 2.8999629 2039583
1.4369752 -1.0250099 2.873307 6710886
-0.5165484 -0.97502553 2.8536639 2039583
-0.4743678 -0.97491741 2.8626692 2039583
-0.42493495 -0.97499692 2.8732061 2039583
-0.37513357 -0.97495931 2.8838322 2039583
-0.32497123 -0.97504038 2.8945355 2039583
1.4368905 -0.97500241 2.8736219 6710886
-0.5164535 -0.94028449 2.8537369 2039583
-0.47443685 -0.94032425 2.8627026 2039583
-0.42508927 -0.94021297 2.8732297 2039583
-0.37515777 -0.94022018 2.883882 2039583
-0.32504761 -0.94022393 2.8945732 2039583
1.4368764 -0.92499304 2.8735945 6710886
1.4368925 -0.87498409 2.8734441 6710886
1.4371637 -0.82744998 2.8720837 6710886
1.4418077 -0.79942983 2.8502915 6710886
-2.2678168 0.11071233 2.8734965 10197915
-2.2254674 0.11073758 2.8741522 10197915
-2.1748586 0.11076777 2.8749352 10197915
-2.1242218 0.11079795 2.8757188 10197915
-2.0747364 0.11082747 2.8764844 10197915
-2.0252249 0.11085697 2.8772507 10197915
-1.9756868 0.11088651 2.8780169 10197915
-1.9249412 0.11091676 2.8788018 10197915
-1.874169 0.11094704 2.8795881 10197915
-1.8245499 0.11097661 2.8803556 10197915
-1.7749047 0.11100622 2.881124 10197915
-1.725233 0.11103582 2.8818924 10197915
-1.675535 0.11106547 2.8826618 10197915
-1.6258098 0.11109509 2.883431 10197915
-1.5760587 0.11112479 2.8842013 10197915
-1.525095 0.11115515 2.8849895 10197915
-1.4741042 0.11118555 2.8857787 10197915
-1.4242716 0.11121525 2.8865495 10197915
-1.3744128 0.11124498 2.8873212 10197915
-1.3245271 0.11127473 2.8880932 10197915
-1.2746147 0.11130448 2.8888652 10197915
-1.2246759 0.11133426 2.8896384 10197915
-1.17471 0.11136404 2.8904111 10197915
-1.1378143 0.11138606 2.8909824 10197915
-0.25429833 -1.300418 2.9091034 2039583
-0.22107606 -1.3023127 2.9161882 2039583
-0.17335194 -1.3046352 2.9263663 2039583
-0.1238679 -1.3070314 2.9369199 2039583
-0.081155539 -1.3089912 2.9460299 2039583
1.4237869 -1.3067384 2.9355531 6710886
-0.27418861 -1.2746977 2.9049008 2039583
-0.22594662 -1.274969 2.9151919 2039583
-0.17588647 -1.2749668 2.9258721 2039583
-0.12529682 -1.2750216 2.9366643 2039583
-0.081787519 -1.2749845 2.9459469 2039583
1.4260993 -1.274894 2.9246728 6710886
-0.27442506 -1.2250222 2.9049273 2039583
-0.22576687 -1.2249653 2.915309 2039583
-0.17564267 -1.2249529 2.9260025 2039583
-0.1252944 -1.2249984 2.9367445 2039583
-0.081749983 -1.2250636 2.9460349 2039583
1.426075 -1.224961 2.9246919 6710886
-0.27435601 -1.1749266 2.9050207 2039583
-0.22581115 -1.1749604 2.9153771 2039583
-0.17582422 -1.1749964 2.9260428 2039583
-0.12540379 -1.1749743 2.9367986 2039583
-0.081839472 -1.1751316 2.9460928 2039583
1.4260947 -1.1749505 2.9245195 6710886
-0.27438009 -1.1248904 2.9050934 2039583
-0.22595961 -1.1250699 2.9154234 2039583
-0.17581752 -1.1249201 2.9261217 2039583
-0.12519486 -1.1250013 2.9369211 2039583
-0.081699349 -1.1251218 2.9462008 2039583
1.4260443 -1.1249419 2.9246759 6710886
-0.27443576 -1.0750332 2.90516 2039583
-0.22585556 -1.0749997 2.9155254 2039583
-0.17568387 -1.0749562 2.926229 2039583
-0.12541614 -1.0750318 2.9369524 2039583
-0.081883103 -1.0750232 2.9462407 2039583
1.4260733 -1.0749334 2.9244459 6710886
-0.27447939 -1.0250548 2.9052286 2039583
-0.22582315 -1.0249276 2.9156096 2039583
-0.17584349 -1.0250514 2.9262724 2039583
-0.12529105 -1.0249361 2.9370575 2039583
-0.081774473 -1.0251576 2.9463425 2039583
1.4260266 -1.0250052 2.9245903 6710886
-0.27561045 -0.97497666 2.9050663 2039583
-0.22593367 -0.97514552 2.9156647 2039583
-0.17582577 -0.97490656 2.9263546 2039583
-0.12535608 -0.97496194 2.9371223 2039583
-0.083079919 -0.97496486 2.9461422 2039583
1.4260472 -0.97507858 2.9243929 6710886
-0.27555799 -0.94015044 2.9051323 2039583
-0.22585778 -0.9404161 2.9157352 2039583
-0.17572305 -0.94005716 2.9264314 2039583
-0.12536179 -0.9402681 2.9371758 2039583
-0.083110631 -0.94010979 2.9461896 2039583
1.4260105 -0.92499214 2.9244909 6710886
1.4260008 -0.87498808 2.9244435 6710886
1.4265417 -0.83554667 2.9218457 6710886
-2.3164401 0.11059606 2.9335659 10197915
-2.2744174 0.11062109 2.9342306 10197915
-2.2251675 0.11065044 2.9350085 10197915
-2.1758907 0.11067981 2.935787 10197915
-2.1253853 0.11070989 2.9365854 10197915
-2.0748525 0.11073998 2.9373837 10197915
-2.024292 0.1107701 2.9381826 10197915
-1.9749091 0.11079953 2.9389625 10197915
-1.9255 0.11082897 2.9397435 10197915
-1.8748581 0.11085913 2.9405439 10197915
-1.8241893 0.11088933 2.941345 10197915
-1.7746994 0.1109188 2.9421268 10197915
-1.7251837 0.1109483 2.942909 10197915
-1.6744329 0.11097852 2.9437106 10197915
-1.624864 0.11100806 2.9444942 10197915
-1.5752685 0.1110376 2.9452782 10197915
-1.5244359 0.1110679 2.9460812 10197915
-1.4747874 0.11109747 2.9468656 10197915
-1.4251115 0.11112705 2.9476502 10197915
-1.37541 0.11115668 2.9484363 10197915
-1.3256814 0.11118627 2.9492216 10197915
-1.2880653 0.11120871 2.9498165 10197915
-0.056048341 -1.3103186 2.9513836 2039583
-0.023743935 -1.311814 2.9582739 2039583
0.025147138 -1.3141178 2.9687009 2039583
0.074602209 -1.3164998 2.9792466 2039583
0.12439708 -1.3188379 2.9898672 2039583
0.16036761 -1.3206136 2.9975388 2039583
1.4146048 -1.3162898 2.9785705 6710886
-0.056322843 -1.2749038 2.9513814 2039583
-0.024433533 -1.2749832 2.9581842 2039583
0.024672665 -1.2750094 2.9686604 2039583
0.074020199 -1.2750996 2.9791882 2039583
0.12379307 -1.274941 2.9898074 2039583
0.16016145 -1.2749759 2.9975669 2039583
1.4152113 -1.2749463 2.9756572 6710886
-0.056195412 -1.2249984 2.9514856 2039583
-0.024616867 -1.2249538 2.9582245 2039583
0.024612671 -1.2249874 2.9687264 2039583
0.074153669 -1.2250814 2.979296 2039583
0.12388273 -1.2250551 2.9899051 2039583
0.16011049 -1.224784 2.9976346 2039583
1.4151939 -1.2250074 2.9756598 6710886
-0.056295969 -1.1749043 2.9515414 2039583
-0.024434533 -1.1750405 2.9583399 2039583
0.024552582 -1.1749617 2.9687922 2039583
0.074055001 -1.17494 2.9793532 2039583
0.12395103 -1.1751045 2.9899974 2039583
0.16021135 -1.1748614 2.9977338 2039583
1.4151989 -1.1749837 2.9755476 6710886
-0.056248728 -1.1249995 2.9516311 2039583
-0.024584461 -1.1249459 2.9583871 2039583
0.024674606 -1.1250532 2.9688959 2039583
0.074010916 -1.1249199 2.9794226 2039583
0.1239142 -1.1250287 2.9900684 2039583
0.16021554 -1.125214 2.9978123 2039583
1.4151776 -1.1250468 2.975564 6710886
-0.056201503 -1.0750912 2.9517207 2039583
-0.024483964 -1.0749685 2.9584866 2039583
0.024563454 -1.0749623 2.9689503 2039583
0.074052505 -1.0750173 2.9795077 2039583
0.12381563 -1.0749509 2.9901259 2039583
0.15908702 -1.0754616 2.9976501 2039583
1.4151896 -1.0752008 2.9754241 6710886
-0.056439772 -1.0246192 2.9517474 2039583
-0.024487514 -1.0250463 2.9585648 2039583
0.024606055 -1.0249295 2.9690378 2039583
0.074106827 -1.0251124 2.9795976 2039583
0.12388358 -1.0248703 2.9902182 2039583
0.15902916 -1.0251952 2.9977162 2039583
1.4151294 -1.0250013 2.9756114 6710886
-0.057369113 -0.97509956 2.951628 2039583
-0.02450023 -0.9749465 2.9586403 2039583
0.024539677 -0.97513551 2.9691026 2039583
0.074032634 -0.97496247 2.9796612 2039583
0.12389923 -0.97497028 2.9903002 2039583
0.15897137 -0.97492689 2.9977827 2039583
1.4151647 -0.97480232 2.9753711 6710886
-0.057514384 -0.94001561 2.9516509 2039583
-0.024500648 -0.94015026 2.9586942 2039583
0.024616342 -0.94040507 2.9691732 2039583
0.074012294 -0.93998122 2.979712 2039583
0.12390153 -0.94017637 2.9903562 2039583
0.15899429 -0.94001341 2.9978423 2039583
1.4151267 -0.92495877 2.9754591 6710886
1.4151088 -0.87493902 2.9754565 6710886
1.4164473 -0.84326047 2.9691358 6710886
-2.3671396 0.11047482 2.9962006 10197915
-2.3254573 0.11049966 2.9968739 10197915
-2.2751698 0.11052959 2.9976859 10197915
-2.2248538 0.11055952 2.9984982 10197915
-2.1745114 0.1105895 2.9993105 10197915
-2.1413445 0.11060922 2.9998457 10197915
-1.2625743 0.11122389 2.9502192 10197915
-1.2249308 0.1112463 2.9508138 10197915
-1.175122 0.11127598 2.951601 10197915
0.28559399 -1.3514291 3.0242076 2039583
0.3283425 -1.353578 3.0333247 2039583
0.37576416 -1.3558878 3.0434387 2039583
0.40298188 -1.3567468 3.0492435 2039583
1.3999834 -1.3570626 3.047116 6710886
1.4023741 -1.3540567 3.0359156 6710886
0.18556437 -1.3217511 3.002913 2039583
0.22503291 -1.323691 3.0113289 2039583
0.27545819 -1.3250046 3.0220864 2039583
0.32538834 -1.3250713 3.0327406 2039583
0.37446779 -1.3249969 3.0432093 2039583
0.40303367 -1.3247563 3.0493047 2039583
1.3999757 -1.3254954 3.0470989 6710886
1.4050422 -1.3244085 3.0233717 6710886
0.18536165 -1.2749598 3.0029433 2039583
0.2245737 -1.2749934 3.0113084 2039583
0.27541739 -1.2750208 3.0221577 2039583
0.32538334 -1.2751126 3.0328181 2039583
0.37451214 -1.2749302 3.043299 2039583
0.40295503 -1.2755418 3.0493648 2039583
1.399963 -1.2749888 3.0470719 6710886
1.4051425 -1.2750942 3.0228097 6710886
0.18535505 -1.2250024 3.00302 2039583
0.22453858 -1.2249366 3.0113802 2039583
0.27547273 -1.2250338 3.0222454 2039583
0.32544646 -1.2250836 3.0329101 2039583
0.37448776 -1.2249286 3.0433712 2039583
0.40235922 -1.2279221 3.0493124 2039583
1.3999505 -1.2244834 3.0470443 6710886
1.4051055 -1.2249895 3.0229073 6710886
0.18530338 -1.1749306 3.0030873 2039583
0.22453825 -1.1749396 3.0114574 2039583
0.27544782 -1.1751081 3.0223186 2039583
0.32544842 -1.1749884 3.0329857 2039583
0.37450424 -1.1749917 3.0434542 2039583
0.40172046 -1.1748426 3.0492592 2039583
1.3999383 -1.1752412 3.0470176 6710886
1.4051076 -1.1749903 3.0228114 6710886
0.1853307 -1.1248552 3.0031722 2039583
0.22456631 -1.124879 3.0115426 2039583
0.2754873 -1.1251774 3.0224035 2039583
0.3254503 -1.1248876 3.0330656 2039583
0.37445897 -1.1251191 3.0435207 2039583
0.40173119 -1.1243414 3.0493407 2039583
1.3999259 -1.126 3.0469909 6710886
1.4050795 -1.1249909 3.0228534 6710886
0.18413283 -1.074906 3.0029943 2039583
0.22453757 -1.0748144 3.0116153 2039583
0.27543366 -1.0751834 3.0224719 2039583
0.32545191 -1.0747856 3.0331483 2039583
0.37448275 -1.0751765 3.0436029 2039583
0.40174168 -1.0751008 3.0494201 2039583
1.3999135 -1.075497 3.0469635 6710886
1.405068 -1.0748885 3.0228271 6710886
0.18419522 -1.0250647 3.0030859 2039583
0.2246256 -1.0248094 3.0117118 2039583
0.27550182 -1.0251857 3.0225649 2039583
0.32548073 -1.0248127 3.0332284 2039583
0.3745271 -1.0250964 3.0436902 2039583
0.40175214 -1.0258572 3.049499 2039583
1.3999007 -1.0249951 3.0469358 6710886
1.4051105 -1.0249971 3.0225363 6710886
0.1841896 -0.97511739 3.0031633 2039583
0.22460943 -0.97486389 3.011786 2039583
0.27550915 -0.97512227 3.0226464 2039583
0.32545531 -0.97497076 3.0333033 2039583
0.37450978 -0.97494936 3.0437677 2039583
0.40176281 -0.97534865 3.0495806 2039583
1.3998883 -0.97449398 3.0469086 6710886
1.405043 -0.97510707 3.0227733 6710886
0.18402638 -0.94030064 3.0031822 2039583
0.22455777 -0.9400056 3.0118306 2039583
0.27557901 -0.94020379 3.0227156 2039583
0.32542562 -0.94026792 3.0333486 2039583
0.37441635 -0.93992287 3.0438023 2039583
0.40177032 -0.9399907 3.0496373 2039583
1.3998759 -0.92399377 3.0468812 6710886
1.4050298 -0.92500663 3.0227454 6710886
1.3998652 -0.88106948 3.0468583 6710886
1.4052248 -0.87698406 3.0217502 6710886
1.4093293 -0.84957802 3.0024803 6710886
-2.1167684 0.11062385 3.0002427 10197915
-2.0749733 0.11064874 3.0009177 10197915
-2.0245495 0.11067875 3.0017312 10197915
-1.9753288 0.11070804 3.0025265 10197915
-1.9248507 0.1107381 3.0033405 10197915
-1.8743458 0.11076816 3.0041566 10197915
-1.8250453 0.11079749 3.0049524 10197915
-1.775719 0.11082685 3.0057483 10197915
-1.7251326 0.11085697 3.0065646 10197915
-1.6745183 0.11088709 3.0073822 10197915
-1.6251128 0.11091651 3.0081801 10197915
-1.5756803 0.11094593 3.0089774 10197915
-1.5249852 0.11097611 3.0097966 10197915
-1.4742624 0.11100628 3.0106149 10197915
-1.4247501 0.11103578 3.0114141 10197915
-1.3752112 0.11106525 3.0122135 10197915
-1.3256466 0.11109476 3.0130141 10197915
-1.2748151 0.11112501 3.0138347 10197915
-1.2239561 0.11115527 3.0146558 10197915
-1.1867255 0.11117747 3.0152571 10197915
0.42985368 -1.3585049 3.0549731 2039583
0.47688517 -1.3606479 3.0650046 2039583
0.52566373 -1.3629588 3.075408 2039583
0.57470536 -1.3653258 3.0858669 2039583
0.62102026 -1.3677142 3.0957444 2039583
1.3935617 -1.3632883 3.0771995 6710886
0.42905354 -1.3249964 3.0548558 2039583
0.47627753 -1.3249537 3.0649302 2039583
0.52490056 -1.3249546 3.075305 2039583
0.5739094 -1.325031 3.0857601 2039583
0.61943406 -1.3249896 3.0954726 2039583
1.3943285 -1.3248715 3.0735495 6710886
0.42907289 -1.2748518 3.0549386 2039583
0.47616321 -1.275 3.0649838 2039583
0.52488095 -1.2749481 3.0753777 2039583
0.5741328 -1.2750691 3.085886 2039583
0.6194135 -1.2750126 3.0955467 2039583
1.3943044 -1.2749072 3.0735686 6710886
0.42824233 -1.2246068 3.0548394 2039583
0.47611991 -1.2250438 3.065053 2039583
0.52498066 -1.2249322 3.0754788 2039583
0.57392508 -1.2251115 3.0859208 2039583
0.6194033 -1.2249413 3.0956225 2039583
1.3942811 -1.224942 3.0735989 6710886
0.42773622 -1.1750871 3.0548093 2039583
0.47623053 -1.1749471 3.0651557 2039583
0.5249083 -1.1750634 3.0755401 2039583
0.57406282 -1.174945 3.0860276 2039583
0.61949217 -1.1748704 3.0957201 2039583
1.3942864 -1.1749783 3.0734856 6710886
0.42779884 -1.1250545 3.0549009 2039583
0.47621536 -1.1249188 3.0652311 2039583
0.52500129 -1.1250459 3.075639 2039583
0.57409221 -1.1249092 3.0861132 2039583
0.61941743 -1.1249671 3.0957828 2039583
1.3942688 -1.1249158 3.0734837 6710886
0.42716876 -1.0752386 3.0548453 2039583
0.47559801 -1.0746946 3.0651777 2039583
0.52494776 -1.0749532 3.075706 2039583
0.57409322 -1.0750101 3.0861902 2039583
0.61956167 -1.074977 3.0958917 2039583
1.3942688 -1.0748577 3.0734005 6710886
0.42646533 -1.0250278 3.0547726 2039583
0.47490942 -1.0248864 3.0651085 2039583
0.52505887 -1.0250077 3.075808 2039583
0.57408661 -1.0249672 3.0862682 2039583
0.61932021 -1.025142 3.0959182 2039583
1.3942306 -1.0249928 3.0734892 6710886
0.4266088 -0.97517663 3.0548816 2039583
0.47493467 -0.97487879 3.0651927 2039583
0.52497953 -0.97497851 3.0758698 2039583
0.57415199 -0.9749974 3.0863597 2039583
0.61829203 -0.9750005 3.0957773 2039583
1.3942442 -0.97512937 3.0733471 6710886
0.42658237 -0.94012916 3.0549304 2039583
0.47493133 -0.94017166 3.0652461 2039583
0.52488244 -0.9400214 3.0759025 2039583
0.57402629 -0.94001669 3.0863879 2039583
0.61820102 -0.94011414 3.0958116 2039583
1.3942194 -0.9250735 3.0733759 6710886
1.3946276 -0.8852247 3.0713911 6710886
-2.4175508 0.11034993 3.0616136 10197915
-2.3749702 0.11037529 3.0623174 10197915
-2.3248508 0.1104051 3.063144 10197915
-2.2747023 0.11043481 3.0639687 10197915
-2.2245271 0.11046459 3.0647948 10197915
-2.1743262 0.11049443 3.065623 10197915
-2.1240985 0.11052432 3.0664523 10197915
-2.0750997 0.11055345 3.06726 10197915
-2.0260756 0.11058261 3.0680695 10197915
-1.9757671 0.11061253 3.0688994 10197915
-1.9254322 0.11064247 3.0697298 10197915
-1.8750693 0.1106724 3.0705609 10197915
-1.8246794 0.11070237 3.0713923 10197915
-1.7742624 0.11073238 3.0722246 10197915
-1.7250792 0.11076159 3.0730355 10197915
-1.6758703 0.11079089 3.0738482 10197915
-1.6253722 0.1108209 3.0746808 10197915
-1.574847 0.11085095 3.0755153 10197915
-1.5242941 0.11088103 3.0763488 10197915
-1.474979 0.11091036 3.077163 10197915
-1.425638 0.1109397 3.0779769 10197915
-1.3750041 0.1109698 3.0788121 10197915
-1.324343 0.11099994 3.0796485 10197915
-1.2749219 0.11102931 3.0804634 10197915
-1.2254746 0.11105873 3.0812795 10197915
0.7956391 -1.4004799 3.1329472 2039583
0.82884347 -1.4025174 3.1400282 2039583
0.86220348 -1.4040318 3.1471429 2039583
1.3796711 -1.4028475 3.142324 6710886
0.64611679 -1.3679215 3.1010985 2039583
0.67492187 -1.3702302 3.10724 2039583
0.72501868 -1.3724658 3.1179252 2039583
0.77528232 -1.3746368 3.1286447 2039583
0.82461023 -1.3750738 3.1391671 2039583
0.86186928 -1.3750831 3.1471167 2039583
1.3832903 -1.3732157 3.1253259 6710886
0.6448521 -1.3248221 3.1008956 2039583
0.67463279 -1.3251182 3.1072493 2039583
0.72474968 -1.3249609 3.1179416 2039583
0.77509606 -1.324983 3.1286829 2039583
0.82446885 -1.3248963 3.1392169 2039583
0.86189163 -1.3251376 3.1471999 2039583
1.3835379 -1.3250114 3.1240804 6710886
0.64499032 -1.2750564 3.1010032 2039583
0.67449278 -1.275023 3.1072969 2039583
0.72468805 -1.2749584 3.1180079 2039583
0.77521127 -1.2750382 3.1287856 2039583
0.8245461 -1.2749319 3.1393113 2039583
0.8618502 -1.2750467 3.1472692 2039583
1.3835194 -1.2749208 3.1240823 6710886
0.64486933 -1.2250068 3.1010559 2039583
0.67461479 -1.2250596 3.1074016 2039583
0.72462553 -1.2249542 3.1180723 2039583
0.77516901 -1.224952 3.128855 2039583
0.82459176 -1.2251071 3.1393998 2039583
0.86174625 -1.2248108 3.1473262 2039583
1.3835373 -1.2250333 3.1239154 6710886
0.64500761 -1.1752352 3.1011631 2039583
0.67456317 -1.1750309 3.1074691 2039583
0.72477752 -1.1750782 3.1181843 2039583
0.7751224 -1.1749361 3.1289227 2039583
0.82466984 -1.1751343 3.1394932 2039583
0.86191213 -1.1748558 3.1474402 2039583
1.3835044 -1.1750441 3.1239803 6710886
0.64492124 -1.1251751 3.1012232 2039583
0.67457676 -1.125064 3.1075509 2039583
0.72464985 -1.1250023 3.1182337 2039583
0.7751776 -1.1250565 3.1290131 2039583
0.82462382 -1.1249471 3.1395621 2039583
0.86199909 -1.1251888 3.1475358 2039583
1.3835061 -1.1250588 3.1238909 6710886
0.6450417 -1.0750793 3.1013272 2039583
0.67464155 -1.0750273 3.1076417 2039583
0.72480142 -1.0749875 3.1183431 2039583
0.77524966 -1.075031 3.129107 2039583
0.82464933 -1.0749012 3.1396463 2039583
0.86184317 -1.0756197 3.1475804 2039583
1.3835031 -1.0751739 3.1238146 6710886
0.64479101 -1.0244406 3.1013534 2039583
0.67470592 -1.0249875 3.1077344 2039583
0.72476113 -1.0251031 3.1184127 2039583
0.77523136 -1.0249367 3.1291816 2039583
0.82469118 -1.0249932 3.1397338 2039583
0.86062139 -1.025048 3.1473987 2039583
1.3834611 -1.0249889 3.1239285 6710886
0.64367926 -0.97515309 3.1011932 2039583
0.67461962 -0.97501194 3.107794 2039583
0.72481018 -0.97502172 3.1185012 2039583
0.77529079 -0.97497797 3.1292717 2039583
0.82462901 -0.97508299 3.1397989 2039583
0.86054569 -0.97471511 3.1474614 2039583
1.3834789 -0.97480428 3.1237595 6710886
0.64369106 -0.94048136 3.1012499 2039583
0.67463028 -0.9400565 3.1078513 2039583
0.72464943 -0.93994433 3.1185231 2039583
0.77523661 -0.93999112 3.1293159 2039583
0.82497644 -0.94012767 3.1399269 2039583
0.86075073 -0.94000441 3.1475596 2039583
1.3834566 -0.92492193 3.1237783 6710886
1.3845421 -0.89294225 3.1186416 6710886
-2.4702086 0.11021932 3.1299429 10197915
-2.4254098 0.11024596 3.1306989 10197915
-2.3754656 0.11027562 3.131542 10197915
-2.3254917 0.11030517 3.1323812 10197915
-2.2754934 0.11033487 3.133224 10197915
-2.2254682 0.11036458 3.1340678 10197915
-2.1754165 0.11039434 3.1349127 10197915
-2.1253374 0.11042408 3.1357572 10197915
-2.0752323 0.11045386 3.1366029 10197915
-2.0250988 0.11048365 3.1374488 10197915
-1.974939 0.11051343 3.1382949 10197915
-1.9247522 0.11054327 3.1391423 10197915
-1.8745381 0.11057309 3.1399889 10197915
-1.8255858 0.1106022 3.1408153 10197915
-1.7753178 0.11063205 3.1416631 10197915
-1.7250234 0.11066195 3.1425123 10197915
-1.6747011 0.11069183 3.1433611 10197915
-1.6243523 0.11072175 3.1442106 10197915
-1.5752681 0.11075093 3.1450391 10197915
-1.524865 0.11078087 3.1458893 10197915
-1.4744349 0.11081085 3.1467407 10197915
-1.4252715 0.11084004 3.1475699 10197915
-1.3747873 0.11087005 3.1484218 10197915
-1.3242762 0.11090007 3.1492736 10197915
-1.2905878 0.11092009 3.1498432 10197915
0.88677365 -1.4052501 3.1523831 2039583
0.92553228 -1.4069836 3.1606486 2039583
0.9759593 -1.4094228 3.1714036 2039583
1.0266006 -1.4118859 3.1822042 2039583
1.0759722 -1.4143268 3.1927333 2039583
1.1053035 -1.4154239 3.1989896 2039583
1.3719751 -1.4111018 3.1783803 6710886
0.8868525 -1.3750879 3.152446 2039583
0.92441177 -1.3748798 3.1604602 2039583
0.97479051 -1.3748897 3.1712098 2039583
1.0256419 -1.3749728 3.1820569 2039583
1.0752991 -1.3752 3.1926506 2039583
1.1050884 -1.3754514 3.1990061 2039583
1.3728547 -1.37506 3.1742005 6710886
0.8868916 -1.3250586 3.1525335 2039583
0.92442799 -1.3250133 3.1605425 2039583
0.9748987 -1.3248543 3.1713102 2039583
1.0256231 -1.3249866 3.1821322 2039583
1.0753896 -1.3252057 3.1927485 2039583
1.1039766 -1.3243457 3.1988492 2039583
1.3728421 -1.3250768 3.1741707 6710886
0.88685077 -1.2750281 3.1526031 2039583
0.92444426 -1.2751449 3.1606236 2039583
0.97483468 -1.274817 3.1713738 2039583
1.0256954 -1.2749972 3.1822264 2039583
1.0754093 -1.2750539 3.1928325 2039583
1.1039023 -1.2753675 3.1989098 2039583
1.3728603 -1.2750963 3.1740022 6710886
0.88684189 -1.2249939 3.1526797 2039583
0.92452979 -1.225201 3.1607199 2039583
0.97493052 -1.2248491 3.1714742 2039583
1.0256691 -1.2250053 3.1822996 2039583
1.0754381 -1.2248992 3.1929166 2039583
1.103983 -1.2259111 3.1990044 2039583
1.3728178 -1.2251154 3.174114 6710886
0.88680124 -1.1748143 3.1527491 2039583
0.92450148 -1.1751095 3.1607928 2039583
0.97496784 -1.174879 3.1715579 2039583
1.0257506 -1.1750107 3.182394 2039583
1.07544 -1.1748973 3.1929946 2039583
1.1040125 -1.1755805 3.19909 2039583
1.3728263 -1.1750269 3.173991 6710886
0.88684082 -1.1247747 3.1528363 2039583
0.92453825 -1.1250151 3.1608787 2039583
0.97498095 -1.1249062 3.1716402 2039583
1.0257521 -1.1250877 3.1824729 2039583
1.0754683 -1.1248939 3.1930788 2039583
1.1040418 -1.1252476 3.1991746 2039583
1.3727936 -1.1249381 3.1740589 6710886
0.88668948 -1.0746441 3.1528826 2039583
0.92448586 -1.0749204 3.1609459 2039583
0.97501111 -1.0749301 3.1717255 2039583
1.0257339 -1.0752342 3.1825459 2039583
1.0754877 -1.0748092 3.1931639 2039583
1.1040711 -1.0749115 3.1992598 2039583
1.3727809 -1.0749595 3.1740317 6710886
0.88562864 -1.025183 3.1527343 2039583
0.92454624 -1.0248214 3.1610374 2039583
0.97503322 -1.0249515 3.1718082 2039583
1.0258316 -1.0252311 3.1826458 2039583
1.0755252 -1.0248768 3.1932487 2039583
1.1041005 -1.0245731 3.1993451 2039583
1.3728372 -1.0249847 3.1736813 6710886
0.88567352 -0.97518253 3.1528218 2039583
0.92463171 -0.97486418 3.1611335 2039583
0.97505867 -0.97504359 3.1718915 2039583
1.0258585 -0.97515255 3.1827307 2039583
1.0755796 -0.97502178 3.1933372 2039583
1.1026992 -0.97413898 3.1991253 2039583
1.3727566 -0.97500998 3.1739755 6710886
0.88522381 -0.94007826 3.152781 2039583
0.92451715 -0.94002616 3.161165 2039583
0.97482419 -0.93994337 3.1718969 2039583
1.0260012 -0.94000965 3.1828153 2039583
1.0758876 -0.94002455 3.1934588 2039583
1.1027192 -0.93969685 3.1991839 2039583
1.3729858 -0.92729896 3.1728208 6710886
1.3768542 -0.89851749 3.154654 6710886
-1.2659621 0.11093488 3.1502628 10197915
-1.2387357 0.11095107 3.1507223 10197915
1.3289073 -1.4513021 3.2466385 2039583
1.3573248 -1.45149 3.2470593 2039583
1.1314739 -1.4170153 3.2045689 2039583
1.1762382 -1.4190323 3.2141163 2039583
1.2255154 -1.4213111 3.2246273 2039583
1.2749995 -1.4237635 3.2351804 2039583
1.3215876 -1.4249868 3.2451177 2039583
1.3618175 -1.421492 3.2259667 5395026
1.1308305 -1.37482 3.2044988 2039583
1.175833 -1.3750279 3.2140999 2039583
1.2249888 -1.3749682 3.2245872 2039583
1.2745782 -1.3749856 3.2351673 2039583
1.3216437 -1.3749179 3.2452085 2039583
1.3622892 -1.3748504 3.2236764 5592405
1.1297196 -1.324953 3.2043378 2039583
1.1757911 -1.3250909 3.214169 2039583
1.225031 -1.325025 3.2246752 2039583
1.2747781 -1.3249534 3.2352881 2039583
1.3216047 -1.3250341 3.2452784 2039583
1.3622475 -1.3248647 3.2237904 5723991
1.1297089 -1.2748941 3.2044179 2039583
1.1757495 -1.2751526 3.2142379 2039583
1.2251275 -1.2749181 3.2247736 2039583
1.2745719 -1.275084 3.2353215 2039583
1.3216077 -1.2748699 3.2453578 2039583
1.3622634 -1.2749933 3.2236297 5723991
1.1297688 -1.2249211 3.2045069 2039583
1.1758809 -1.2250516 3.2143471 2039583
1.2251693 -1.22497 3.2248607 2039583
1.2747537 -1.2250482 3.2354395 2039583
1.3217059 -1.2248882 3.2454565 2039583
1.3622488 -1.2250121 3.2236118 5723991
1.1297988 -1.1751264 3.2045925 2039583
1.1758486 -1.1748698 3.2144172 2039583
1.225119 -1.1750998 3.2249284 2039583
1.2747777 -1.1749295 3.2355232 2039583
1.3217937 -1.174992 3.245553 2039583
1.3621954 -1.17503 3.223779 5723991
1.1298903 -1.125149 3.2046909 2039583
1.1759331 -1.1249212 3.2145131 2039583
1.2252063 -1.1249861 3.2250247 2039583
1.2747744 -1.1250521 3.2356002 2039583
1.320437 -1.1252894 3.2453425 2039583
1.3622169 -1.1250507 3.2235909 5723991
1.1294953 -1.0753531 3.204684 2039583
1.1754835 -1.0748188 3.2144964 2039583
1.2251838 -1.0748693 3.2250988 2039583
1.2748551 -1.0750083 3.2356951 2039583
1.3204781 -1.0751435 3.245429 2039583
1.3622144 -1.0748495 3.2235165 5723991
1.128455 -1.0250044 3.2045419 2039583
1.1745875 -1.0250947 3.2143826 2039583
1.2252434 -1.0249921 3.2251894 2039583
1.2747583 -1.0248821 3.2357543 2039583
1.3202316 -1.0250381 3.2454555 2039583
1.3621868 -1.0249803 3.2235606 5723991
1.126997 -0.97501314 3.204308 2039583
1.1745498 -0.97495943 3.2144535 2039583
1.2253944 -0.97502947 3.2253006 2039583
1.2749957 -0.97499663 3.235883 2039583
1.3204576 -0.9749313 3.2455819 2039583
1.3621899 -0.97511232 3.22346 5723991
1.1271894 -0.9399845 3.2044044 2039583
1.1744328 -0.94005555 3.2144821 2039583
1.2248683 -0.93998587 3.2252431 2039583
1.2747687 -0.93991917 3.2358882 2039583
1.3204321 -0.93989301 3.2456312 2039583
1.3626951 -0.93457484 3.2210288 5921370
-2.5226536 0.11008428 3.201436 10197915
-2.474226 0.11011305 3.2022727 10197915
-2.4244633 0.1101426 3.2031319 10197915
-2.3746731 0.11017215 3.2039912 10197915
-2.3248565 0.11020172 3.2048512 10197915
-2.2750137 0.1102313 3.2057116 10197915
-2.2251439 0.1102609 3.206573 10197915
-2.175247 0.11029053 3.2074339 10197915
-2.1253235 0.11032018 3.2082961 10197915
-2.0753732 0.11034982 3.2091579 10197915
-2.0253959 0.11037948 3.210021 10197915
-1.975392 0.11040917 3.2108848 10197915
-1.9253607 0.11043886 3.2117481 10197915
-1.8753029 0.11046859 3.2126124 10197915
-1.8252178 0.11049832 3.2134764 10197915
-1.7751063 0.11052808 3.2143421 10197915
-1.7249674 0.11055783 3.2152081 10197915
-1.6748013 0.11058761 3.2160733 10197915
-1.6246086 0.11061741 3.2169402 10197915
-1.5743889 0.1106472 3.2178071 10197915
-1.5241419 0.11067704 3.2186744 10197915
-1.4738677 0.11070688 3.2195423 10197915
-1.4248908 0.11073596 3.2203879 10197915
-1.3758879 0.11076507 3.2212338 10197915
-1.3255335 0.11079493 3.2221031 10197915
-1.2778047 0.11082328 3.2229273 10197915
1.3466079 -1.4516432 3.2504144 2039583
1.3539972 -1.4523468 3.2519901 2039583
1.3466269 -1.4247311 3.2504609 2039583
1.3540702 -1.4249617 3.2520483 2039583
1.3466624 -1.3749423 3.2505462 2039583
1.3539994 -1.3751707 3.2521117 2039583
1.346698 -1.3251506 3.2506316 2039583
1.3541411 -1.3248837 3.2522202 2039583
1.3467335 -1.2753564 3.2507172 2039583
1.3540702 -1.2750885 3.2522826 2039583
1.3468091 -1.2248714 3.2508125 2039583
1.35416 -1.224807 3.2523806 2039583
1.3467648 -1.1751019 3.2508812 2039583
1.3541956 -1.1749831 3.2524664 2039583
1.3455285 -1.1233188 3.2506983 2039583
1.3542312 -1.125157 3.252552 2039583
1.3453989 -1.0747027 3.2507465 2039583
1.3542666 -1.0753279 3.2526376 2039583
1.3454348 -1.0249003 3.2508323 2039583
1.3543025 -1.0254966 3.2527239 2039583
1.34547 -0.97509491 3.2509181 2039583
1.3540655 -0.97500151 3.2521548 2039583
1.3454946 -0.94009519 3.2509782 2039583
1.3540051 -0.93998373 3.2520108 2039583
-2.602983 0.10992785 3.2758222 10197915
-2.574873 0.10994453 3.2763197 10197915
-2.5253263 0.10997393 3.2771957 10197915
-2.4757526 0.11000333 3.2780712 10197915
-2.4248118 0.11003353 3.2789717 10197915
-2.375185 0.11006299 3.2798488 10197915
-2.325531 0.11009242 3.280726 10197915
-2.2745082 0.1101227 3.2816284 10197915
-2.2248003 0.11015215 3.2825058 10197915
-2.175066 0.11018164 3.2833855 10197915
-2.1253054 0.11021116 3.2842646 10197915
-2.0755177 0.11024068 3.2851448 10197915
-2.0243573 0.11027104 3.2860484 10197915
-1.9745157 0.11030058 3.2869287 10197915
-1.9246471 0.11033016 3.2878106 10197915
-1.874752 0.11035976 3.2886922 10197915
-1.8248301 0.11038934 3.2895746 10197915
-1.7748818 0.11041898 3.2904582 10197915
-1.7249061 0.11044861 3.2913404 10197915
-1.6749041 0.11047828 3.2922251 10197915
-1.6248745 0.11050793 3.293108 10197915
-1.574819 0.11053761 3.2939932 10197915
-1.524736 0.11056735 3.2948787 10197915
-1.4746261 0.11059704 3.2957633 10197915
-1.4244895 0.11062679 3.2966504 10197915
-1.3743258 0.11065653 3.2975368 10197915
-1.3254915 0.1106855 3.2983992 10197915
-1.2929226 0.11070481 3.2989752 10197915
-2.6583686 0.10978103 3.3542686 10197915
-2.6241121 0.10980133 3.3548889 10197915
-2.5747616 0.1098306 3.3557832 10197915
-2.5253842 0.10985984 3.3566761 10197915
-2.4759815 0.1098891 3.3575704 10197915
-2.4251781 0.1099192 3.3584902 10197915
-2.3743472 0.10994932 3.35941 10197915
-2.3248639 0.10997864 3.3603065 10197915
-2.2753534 0.11000795 3.3612018 10197915
-2.2258167 0.1100373 3.3620987 10197915
-2.1748765 0.11006749 3.3630209 10197915
-2.123908 0.11009768 3.3639431 10197915
-2.0742915 0.11012708 3.3648422 10197915
-2.0246468 0.11015647 3.3657396 10197915
-1.974977 0.11018591 3.3666391 10197915
-1.9252799 0.11021534 3.3675389 10197915
-1.8755561 0.1102448 3.3684387 10197915
-1.8258061 0.11027429 3.3693395 10197915
-1.776029 0.11030375 3.3702402 10197915
-1.7262257 0.11033327 3.3711421 10197915
-1.6750112 0.11036361 3.3720691 10197915
-1.6237683 0.11039397 3.3729961 10197915
-1.5738838 0.11042354 3.3739002 10197915
-1.523972 0.11045309 3.3748026 10197915
-1.4740337 0.11048269 3.3757069 10197915
-1.4240686 0.11051229 3.3766112 10197915
-1.3740765 0.11054189 3.3775158 10197915
-1.332397 0.11056659 3.3782709 10197915
-2.7164714 0.10962701 3.4365637 10197915
-2.674367 0.10965194 3.4373455 10197915
-2.6252217 0.10968104 3.4382575 10197915
-2.5760493 0.10971011 3.4391692 10197915
-2.5254459 0.10974007 3.4401083 10197915
-2.4748142 0.10977002 3.4410474 10197915
-2.424155 0.1098 3.441987 10197915
-2.374877 0.10982919 3.4429021 10197915
-2.3255711 0.10985833 3.4438157 10197915
-2.2748308 0.10988838 3.4447575 10197915
-2.2240627 0.10991843 3.445699 10197915
-2.1746776 0.10994764 3.4466152 10197915
-2.1252666 0.10997691 3.4475322 10197915
-2.0744162 0.11000697 3.4484749 10197915
-2.0249517 0.11003627 3.449393 10197915
-1.9966755 0.11005298 3.4499176 10197915
-1.9712179 0.11006805 3.4503896 10197915
-1.9245286 0.11009567 3.4512556 10197915
-1.8749846 0.11012501 3.4521751 10197915
-1.8254133 0.11015432 3.4530935 10197915
-1.7743992 0.11018452 3.454041 10197915
-1.7247748 0.1102139 3.4549618 10197915
-1.6751237 0.11024326 3.4558821 10197915
-1.6254467 0.11027268 3.456804 10197915
-1.575743 0.11030209 3.4577265 10197915
-1.5245912 0.11033235 3.4586751 10197915
-1.4748341 0.11036181 3.4595988 10197915
-1.4250494 0.11039125 3.4605215 10197915
-1.3752391 0.11042075 3.4614458 10197915
-1.3496127 0.1104359 3.4619207 10197915
-2.8005075 0.10945184 3.522568 10197915
-2.7746253 0.10946711 3.5230598 10197915
-2.7257206 0.10949606 3.5239909 10197915
-2.6753459 0.10952567 3.5249441 10197915
-2.6249468 0.10955542 3.5259016 10197915
-2.5745211 0.10958523 3.5268614 10197915
-2.5240681 0.10961504 3.5278208 10197915
-2.4750304 0.10964403 3.5287535 10197915
-2.4259665 0.10967304 3.5296872 10197915
-2.3754323 0.10970291 3.5306485 10197915
-2.3248715 0.10973281 3.5316103 10197915
-2.2757277 0.10976183 3.5325451 10197915
-2.2251117 0.10979175 3.5335078 10197915
-2.1744688 0.10982171 3.5344718 10197915
-2.1252456 0.10985078 3.5354075 10197915
-2.0759966 0.10987991 3.5363452 10197915
-2.0252714 0.10990988 3.5373094 10197915
-1.9745191 0.10993989 3.5382755 10197915
-1.9251904 0.10996905 3.5392144 10197915
-1.8758373 0.10999835 3.5401566 10197915
-1.8250037 0.11002845 3.541126 10197915
-1.7741424 0.11005854 3.542094 10197915
-1.7247066 0.11008772 3.5430331 10197915
-1.675245 0.11011697 3.5439742 10197915
-1.6257572 0.11014623 3.5449166 10197915
-1.5747861 0.11017635 3.545886 10197915
-1.5237876 0.11020653 3.5468564 10197915
-1.474219 0.1102358 3.5477991 10197915
-1.4246242 0.11026511 3.5487425 10197915
-1.3910609 0.11028498 3.5493813 10197915
-2.8178864 -1.6016983 3.5844128 2039583
-2.7726827 -1.6040816 3.594053 2039583
-2.7467036 -1.605244 3.5995936 2039583
-2.8235533 -1.5749706 3.5832462 2039583
-2.7750609 -1.5750548 3.5935903 2039583
-2.7469563 -1.5755446 3.5995862 2039583
-2.8236103 -1.5251056 3.5833113 2039583
-2.7751544 -1.5248357 3.5936491 2039583
-2.7469685 -1.5255966 3.5996614 2039583
-2.8235614 -1.4751537 3.5834 2039583
-2.7750859 -1.4748377 3.5937409 2039583
-2.7474782 -1.4791733 3.5996258 2039583
-2.8236492 -1.4250348 3.5834591 2039583
-2.7753098 -1.425066 3.5937719 2039583
-2.7483552 -1.4241343 3.5995245 2039583
-2.8237345 -1.3749136 3.5835218 2039583
-2.7752721 -1.3751423 3.5938587 2039583
-2.7484059 -1.3749484 3.599591 2039583
-2.823859 -1.3248734 3.5835731 2039583
-2.7753217 -1.3250636 3.5939279 2039583
-2.748457 -1.3257612 3.5996573 2039583
-2.8238528 -1.274914 3.5836513 2039583
-2.7754407 -1.2749094 3.5939801 2039583
-2.7485087 -1.2750814 3.5997257 2039583
-2.823894 -1.2250382 3.5837228 2039583
-2.7754879 -1.2248286 3.5940475 2039583
-2.7485607 -1.2243996 3.5997939 2039583
-2.8238461 -1.1750748 3.5838094 2039583
-2.7755113 -1.1749731 3.5941222 2039583
-2.7486117 -1.1752067 3.5998597 2039583
-2.8239195 -1.1250275 3.5838733 2039583
-2.7754183 -1.1251127 3.5942194 2039583
-2.748662 -1.1260118 3.5999265 2039583
-2.824048 -1.075061 3.5839243 2039583
-2.7755804 -1.0750256 3.5942636 2039583
-2.7487035 -1.0857602 3.5999806 2039583
-2.8241756 -1.0250931 3.5839734 2039583
-2.7757344 -1.0249377 3.5943084 2039583
-2.8243055 -0.97512382 3.5840263 2039583
-2.7759809 -0.97499764 3.5943344 2039583
-2.8232007 -0.92485273 3.5843384 2039583
-2.7744937 -0.92511213 3.5947325 2039583
-2.8228397 -0.87482041 3.5844944 2039583
-2.7743456 -0.8748343 3.5948384 2039583
-2.8228517 -0.82481378 3.5845702 2039583
-2.7745333 -0.82492036 3.5948775 2039583
-2.8230321 -0.7749635 3.58461 2039583
-2.7748437 -0.77516431 3.5948911 2039583
-2.8232117 -0.72511274 3.5846486 2039583
-2.7748127 -0.72516733 3.5949733 2039583
-2.8234642 -0.67534059 3.5846739 2039583
-2.7750204 -0.67504162 3.5950096 2039583
-2.8232365 -0.62524378 3.584801 2039583
-2.7758055 -0.62467527 3.5949199 2039583
-2.8232915 -0.57476008 3.5848687 2039583
-2.7762022 -0.57513428 3.5949135 2039583
-2.823153 -0.52450264 3.5849769 2039583
-2.7764022 -0.52542228 3.5949504 2039583
-2.8232281 -0.47471768 3.5850375 2039583
-2.7762151 -0.47511634 3.5950668 2039583
-2.823674 -0.42533621 3.5850205 2039583
-2.7762699 -0.42448485 3.5951347 2039583
-2.8236363 -0.37562418 3.5851061 2039583
-2.7759733 -0.37458089 3.5952761 2039583
-2.8235545 -0.3252821 3.5852025 2039583
-2.7767217 -0.32546604 3.5951939 2039583
-2.8236074 -0.27478671 3.5852704 2039583
-2.7766385 -0.27576134 3.5952883 2039583
-2.8236609 -0.22428975 3.5853393 2039583
-2.7777565 -0.22490224 3.5951307 2039583
-2.8233583 -0.17439739 3.5854809 2039583
-2.7778101 -0.17426528 3.5951979 2039583
-2.8241239 -0.12541927 3.5853953 2039583
-2.7778606 -0.12511584 3.5952637 2039583
-2.8238175 -0.075757653 3.5855377 2039583
-2.7779107 -0.07596454 3.5953305 2039583
-2.8238711 -0.025252974 3.5856035 2039583
-2.7779648 -0.025321938 3.5953989 2039583
-2.8239233 0.0252536 3.5856729 2039583
-2.7780159 0.025322584 3.5954661 2039583
-2.8239787 0.075762071 3.5857399 2039583
-2.7780685 0.075969003 3.5955341 2039583
-2.8240094 0.10547379 3.5857806 9474192
-2.7781005 0.10576186 3.5955751 9539985
-2.7213271 -1.6064117 3.6050065 2039583
-2.6734071 -1.6087835 3.6152248 2039583
-2.6233368 -1.6111441 3.6259034 2039583
-2.5737255 -1.6135336 3.6364825 2039583
-2.5294888 -1.6155527 3.6459167 2039583
-2.7225425 -1.5748589 3.6047943 2039583
-2.6748564 -1.5750747 3.6149676 2039583
-2.6241591 -1.5749253 3.6257837 2039583
-2.5746686 -1.5750873 3.6363409 2039583
-2.5301316 -1.5749849 3.645844 2039583
-2.7225845 -1.5249932 3.6048641 2039583
-2.6748912 -1.5249281 3.6150396 2039583
-2.6242745 -1.5250739 3.6258371 2039583
-2.5746505 -1.524999 3.6364233 2039583
-2.5298722 -1.5250735 3.6459782 2039583
-2.7232285 -1.4747549 3.6048079 2039583
-2.6748168 -1.4749331 3.6151328 2039583
-2.6242661 -1.475054 3.6259179 2039583
-2.5747313 -1.475077 3.6364856 2039583
-2.5302987 -1.4749492 3.6459644 2039583
-2.7239819 -1.4249473 3.604727 2039583
-2.6749451 -1.4250908 3.6151843 2039583
-2.6243567 -1.4248728 3.625977 2039583
-2.5746963 -1.4250702 3.6365714 2039583
-2.5307581 -1.4253045 3.6459446 2039583
-2.7240939 -1.3748602 3.604779 2039583
-2.6749799 -1.3749399 3.6152554 2039583
-2.6243725 -1.3750163 3.6260526 2039583
-2.5748117 -1.3749772 3.6366239 2039583
-2.531688 -1.3750383 3.6458247 2039583
-2.7239776 -1.3250258 3.6048787 2039583
-2.6750641 -1.3248614 3.6153169 2039583
-2.6244295 -1.3249897 3.6261182 2039583
-2.5748115 -1.3250531 3.6367037 2039583
-2.5313838 -1.3250028 3.6459684 2039583
-2.7240288 -1.2751009 3.6049473 2039583
-2.6750913 -1.2750149 3.615391 2039583
-2.6246109 -1.2749624 3.6261575 2039583
-2.5749989 -1.2749566 3.6367416 2039583
-2.5316229 -1.2749659 3.6459954 2039583
-2.724216 -1.2250084 3.6049879 2039583
-2.6750705 -1.2250088 3.6154718 2039583
-2.6243789 -1.225099 3.6262844 2039583
-2.5748897 -1.2250237 3.6368432 2039583
-2.531682 -1.2249271 3.6460619 2039583
-2.7244034 -1.1749141 3.6050234 2039583
-2.6753137 -1.1748512 3.615499 2039583
-2.6246183 -1.1749878 3.6263139 2039583
-2.5749209 -1.1750869 3.6369154 2039583
-2.5315864 -1.1749922 3.6461596 2039583
-2.7240827 -1.1249031 3.6051748 2039583
-2.6752293 -1.1249202 3.6155951 2039583
-2.6248083 -1.1249571 3.6263502 2039583
-2.5753024 -1.1250665 3.6369121 2039583
-2.5319512 -1.1249541 3.6461613 2039583
-2.7247508 -1.0746405 3.6051085 2039583
-2.6751399 -1.0750608 3.6156895 2039583
-2.6244531 -1.0750048 3.6265044 2039583
-2.5747864 -1.0750494 3.6371012 2039583
-2.5314982 -1.0749009 3.6463349 2039583
-2.7257576 -1.0250158 3.6049697 2039583
-2.6754689 -1.0250491 3.6156988 2039583
-2.6248391 -1.0249699 3.6265008 2039583
-2.5752907 -1.0250262 3.6370709 2039583
-2.5326333 -1.0254992 3.6461709 2039583
-2.7259302 -0.97496504 3.6050127 2039583
-2.6754889 -0.97503495 3.6157746 2039583
-2.6248806 -0.97493446 3.6265683 2039583
-2.5751231 -0.97500312 3.6371851 2039583
-2.5329268 -0.97499305 3.6461871 2039583
-2.7251391 -0.92467749 3.6052632 2039583
-2.674896 -0.92524368 3.6159782 2039583
-2.6245909 -0.92497307 3.6267102 2039583
-2.5751202 -0.92497629 3.6372635 2039583
-2.5334897 -0.92517841 3.6461461 2039583
-2.7244086 -0.87501061 3.6054933 2039583
-2.6742432 -0.87507755 3.6161954 2039583
-2.625169 -0.87517416 3.6266632 2039583
-2.5756178 -0.87495315 3.6372364 2039583
-2.5330982 -0.87498206 3.6463075 2039583
-2.7247372 -0.82513839 3.6055002 2039583
-2.6745207 -0.82510579 3.616214 2039583
-2.6248562 -0.82497138 3.6268096 2039583
-2.5749502 -0.82491618 3.6374569 2039583
-2.5335138 -0.82516181 3.6462975 2039583
-2.7247989 -0.77503961 3.6055658 2039583
-2.6740429 -0.77488464 3.6163938 2039583
-2.6247461 -0.77484524 3.6269124 2039583
-2.5757334 -0.77521193 3.6373689 2039583
-2.5333745 -0.77496934 3.6464047 2039583
-2.7244098 -0.72478193 3.6057255 2039583
-2.6742375 -0.72490662 3.616431 2039583
-2.6253822 -0.7251265 3.6268528 2039583
-2.5752165 -0.72509086 3.6375575 2039583
-2.5333462 -0.72501159 3.6464899 2039583
-2.7517085 -0.65772545 3.6000099 2039583
-2.7245817 -0.67490309 3.6057687 2039583
-2.6747305 -0.67517138 3.6164072 2039583
-2.6248746 -0.67491055 3.6270423 2039583
-2.5753691 -0.6749776 3.6376021 2039583
-2.53354 -0.67517841 3.6465261 2039583
-2.7517424 -0.62492132 3.6000538 2039583
-2.7251287 -0.62533039 3.605731 2039583
-2.6743639 -0.6248644 3.6165628 2039583
-2.6250255 -0.62494147 3.6270881 2039583
-2.5757973 -0.62502956 3.6375897 2039583
-2.5335917 -0.62535894 3.646594 2039583
-2.7517943 -0.57422262 3.6001222 2039583
-2.7248073 -0.57514054 3.6058784 2039583
-2.674197 -0.57479435 3.6166766 2039583
-2.6254523 -0.57513779 3.6270747 2039583
-2.5751822 -0.57489425 3.6377988 2039583
-2.5350566 -0.57519388 3.6463597 2039583
-2.7518449 -0.52501321 3.6001878 2039583
-2.7246134 -0.52465087 3.6060014 2039583
-2.6748984 -0.52529949 3.6166027 2039583
-2.6249714 -0.52475357 3.6272569 2039583
-2.5759819 -0.52519238 3.6377075 2039583
-2.5346966 -0.52482235 3.6465151 2039583
-2.7518957 -0.47580191 3.6002545 2039583
-2.7248669 -0.47499233 3.6060252 2039583
-2.6745872 -0.47498512 3.6167469 2039583
-2.6255171 -0.4751884 3.6272166 2039583
-2.5756543 -0.47474265 3.6378555 2039583
-2.5352077 -0.4750095 3.6464837 2039583
-2.7519476 -0.42509755 3.6003227 2039583
-2.7252493 -0.42541295 3.60602 2039583
-2.6742752 -0.42466566 3.6168942 2039583
-2.625313 -0.42528182 3.6273382 2039583
-2.5757024 -0.42501554 3.637923 2039583
-2.5350232 -0.42451912 3.6466029 2039583
-2.7520006 -0.37439132 3.6003911 2039583
-2.7250116 -0.37498996 3.6061459 2039583
-2.6750522 -0.37525228 3.6168065 2039583
-2.6250172 -0.37473494 3.6274812 2039583
-2.5757511 -0.37528691 3.637991 2039583
-2.5350699 -0.37467146 3.6466703 2039583
-2.7520509 -0.32517451 3.6004574 2039583
-2.7248688 -0.32441682 3.6062558 2039583
-2.6747365 -0.32516554 3.6169529 2039583
-2.6257627 -0.32517675 3.6273994 2039583
-2.5754294 -0.32490551 3.638139 2039583
-2.5351176 -0.32482201 3.6467378 2039583
-2.7524896 -0.27281791 3.600446 2039583
-2.725316 -0.27513552 3.60624 2039583
-2.6745937 -0.2744509 3.6170609 2039583
-2.6254611 -0.27502108 3.6275434 2039583
-2.5762122 -0.27520451 3.6380498 2039583
-2.5351644 -0.27497062 3.6468065 2039583
-2.7534363 -0.22522682 3.6003184 2039583
-2.7251635 -0.22560409 3.6063466 2039583
-2.6750398 -0.2250233 3.6170435 2039583
-2.6251826 -0.22494061 3.6276805 2039583
-2.5758944 -0.22458193 3.6381958 2039583
-2.5352118 -0.22511753 3.6468744 2039583
-2.7534885 -0.1745168 3.6003869 2039583
-2.725215 -0.17480911 3.6064181 2039583
-2.674886 -0.17532955 3.6171544 2039583
-2.6258798 -0.17538075 3.62761 2039583
-2.5759447 -0.17484544 3.6382644 2039583
-2.5365756 -0.17524904 3.6466622 2039583
-2.7535391 -0.1252964 3.6004531 2039583
-2.7250724 -0.12422614 3.606529 2039583
-2.6749389 -0.12438143 3.6172245 2039583
-2.6256084 -0.12474325 3.6277461 2039583
-2.5759909 -0.12510726 3.6383307 2039583
-2.5366223 -0.12539603 3.6467295 2039583
-2.7535899 -0.076074183 3.6005194 2039583
-2.7255206 -0.074942216 3.6065068 2039583
-2.6749873 -0.07492993 3.6172907 2039583
-2.6256573 -0.075147912 3.6278145 2039583
-2.5760393 -0.075367175 3.6383984 2039583
-2.5366697 -0.075541168 3.6467979 2039583
-2.7536418 -0.025358485 3.6005878 2039583
-2.7253675 -0.02540097 3.6066213 2039583
-2.6750371 -0.025476592 3.6173549 2039583
-2.6257055 -0.025550703 3.6278799 2039583
-2.5760865 -0.025625255 3.6384664 2039583
-2.5367177 -0.025684418 3.6468658 2039583
-2.7536943 0.025359128 3.600656 2039583
-2.7254195 0.025401609 3.6066899 2039583
-2.6750875 0.025477234 3.6174266 2039583
-2.6257558 0.025551358 3.6279504 2039583
-2.5761378 0.025625909 3.6385369 2039583
-2.5367663 0.025685078 3.6469357 2039583
-2.7537465 0.076078661 3.600724 2039583
-2.7256126 0.074868776 3.6067255 2039583
-2.6751366 0.074934274 3.6174922 2039583
-2.6258047 0.0751523 3.6280184 2039583
-2.5761847 0.075371563 3.6386044 2039583
-2.5368135 0.075545594 3.6470032 2039583
-2.7537773 0.10591451 3.6007643 10197915
-2.7249069 0.10471613 3.6069207 8289918
-2.6752689 0.1048385 3.617183 8092539
-2.6255622 0.10502341 3.6257761 8224125
-2.5757933 0.10526333 3.634156 8618883
-2.5325079 0.10603168 3.6378806 8816262
-2.4737773 0.10951232 3.6210768 10197915
-2.4249101 0.10954116 3.6220303 10197915
-2.3760178 0.10957006 3.6229854 10197915
-2.3256161 0.10959979 3.6239688 10197915
-2.275188 0.10962957 3.6249533 10197915
-2.2247324 0.10965937 3.6259389 10197915
-2.1742482 0.10968915 3.6269236 10197915
-2.1252234 0.10971811 3.6278813 10197915
-2.0761731 0.10974707 3.6288388 10197915
-2.02561 0.109777 3.6298285 10197915
-1.9750203 0.10980698 3.6308198 10197915
-1.9244008 0.10983687 3.6318076 10197915
-1.8752439 0.10986587 3.6327674 10197915
-1.8260614 0.10989493 3.633728 10197915
-1.7753603 0.10992485 3.6347167 10197915
-1.7246323 0.1099548 3.6357074 10197915
-1.6753701 0.10998389 3.6366699 10197915
-1.6260809 0.11001297 3.6376312 10197915
-1.5752717 0.11004299 3.6386237 10197915
-1.5244346 0.11007301 3.6396158 10197915
-1.4750659 0.11010214 3.6405792 10197915
-1.4346547 0.11012601 3.6413686 10197915
-2.3875084 -1.6524191 3.6965482 2039583
