# .PCD v0.7 - Point Cloud Data file format
VERSION 0.7
FIELDS x y z rgb
SIZE 4 4 4 4
TYPE F F F U
COUNT 1 1 1 1
WIDTH 1177
HEIGHT 1
VIEWPOINT 0 0 0 1 0 0 0
POINTS 1177
DATA ascii
2.1931722 -1.2259101 2.9466076 2039583
2.2252541 -1.2250116 2.9303386 2039583
2.2679405 -1.2249877 2.9086874 2039583
1.3316293 -1.1750335 2.9300458 2894892
2.1937609 -1.1750592 2.9465871 2039583
2.2254581 -1.1749812 2.9305093 2039583
2.2680683 -1.174937 2.9088957 2039583
1.3331558 -1.1241239 2.9334037 2894892
2.1937618 -1.1249101 2.9468615 2039583
2.2250478 -1.1252025 2.9309893 2039583
2.2677944 -1.1244997 2.9093115 2039583
1.3346502 -1.0742853 2.9366925 2894892
2.1940575 -1.0749294 2.9469843 2039583
2.2248774 -1.0750321 2.9313498 2039583
2.2683551 -1.0750613 2.909296 2039583
1.3361479 -1.0243347 2.9399877 2894892
2.1941299 -1.0252593 2.9472194 2039583
2.2249694 -1.0249633 2.9315779 2039583
2.2685325 -1.0250019 2.9094801 2039583
1.3376489 -0.97427177 2.9432902 2894892
2.1952305 -0.97488737 2.9469364 2039583
2.2251456 -0.97492856 2.9317622 2039583
2.2686605 -0.97493565 2.9096897 2039583
1.3288727 -0.92204684 2.9263458 2894892
2.1952481 -0.92488438 2.9472003 2039583
2.2252593 -0.92506433 2.9319756 2039583
2.2688291 -0.92491573 2.909878 2039583
1.3253336 -0.87852341 2.9196663 2894892
2.1962788 -0.89812684 2.9468248 2039583
2.2270877 -0.89827412 2.931196 2039583
2.2688735 -0.89815342 2.910001 2039583
1.3189551 -0.82509512 2.9074583 2894892
1.3204206 -0.77536553 2.9106884 2894892
1.321889 -0.72552538 2.9139264 2894892
1.323361 -0.67557406 2.9171708 2894892
1.3248361 -0.62551159 2.9204223 2894892
1.3263146 -0.57533717 2.923681 2894892
1.3277965 -0.52505082 2.9269476 2894892
1.3292813 -0.47465193 2.9302213 2894892
1.3307699 -0.42414016 2.9335022 2894892
1.3322259 -0.37472221 2.9367123 2894892
1.3336853 -0.32519522 2.939929 2894892
1.3351835 -0.27434799 2.9432316 2894892
1.3249888 -0.22469607 2.9234731 2894892
1.3235059 -0.1785679 2.920866 2894892
1.3168002 -0.12408538 2.9080195 2894892
1.3182286 -0.074771747 2.9111741 2894892
1.3196601 -0.02535017 2.9143353 2894892
1.3211297 0.025387792 2.9175808 2894892
-0.36691126 0.098410107 2.9325962 2960685
-0.32445484 0.09843044 2.9332027 3618615
-0.27469867 0.098454282 2.9339128 10197915
-0.22491811 0.098478116 2.9346232 10197915
-0.17511368 0.09850198 2.935334 10197915
-0.12528491 0.098525852 2.9360454 10197915
-0.075432174 0.098549731 2.9367573 10197915
-0.025555069 0.098573625 2.9374688 10197915
0.025563529 0.098598115 2.9381988 10197915
0.075489424 0.098622024 2.9389112 10197915
0.12543976 0.098645963 2.9396243 10197915
0.17541412 0.098669901 2.9403377 10197915
0.22541294 0.098693833 2.9410517 10197915
0.27543584 0.098717801 2.9417658 10197915
0.32548317 0.098741785 2.9424798 10197915
0.37555474 0.098765761 2.9431949 10197915
0.42442855 0.09878917 2.9438927 10197915
0.47454834 0.098813169 2.944608 10197915
0.52469224 0.098837182 2.9453235 10197915
0.57486087 0.09886124 2.9460399 10197915
0.62505347 0.098885268 2.9467559 10197915
0.67527097 0.098909318 2.9474733 10197915
0.72551256 0.098933399 2.9481902 10197915
0.77455235 0.098956883 2.9488902 10197915
0.82484257 0.098980993 2.9496083 10197915
0.8518365 0.098993912 2.9499936 10197915
1.3225675 0.075026393 2.9207561 2894892
1.3510994 -1.3142164 2.9674759 2894892
2.0937994 -1.3208312 2.996495 2039583
2.1238227 -1.3169345 2.9812865 2039583
2.1664746 -1.3121138 2.9596782 2039583
1.3522666 -1.2759736 2.9700391 2894892
2.0942676 -1.2749348 2.9965074 2039583
2.1252277 -1.2750149 2.9808033 2039583
2.1675868 -1.2749887 2.9593172 2039583
1.3538013 -1.225684 2.9734099 2894892
2.0944226 -1.2250061 2.9967029 2039583
2.1254268 -1.2250142 2.9809749 2039583
2.1683097 -1.2247131 2.9592259 2039583
1.3553393 -1.1752802 2.976788 2894892
2.0938742 -1.1755947 2.9972513 2039583
2.1248767 -1.1748943 2.9815278 2039583
2.1688256 -1.1750202 2.9592359 2039583
1.356881 -1.1247618 2.9801743 2894892
2.093775 -1.1251256 2.9975777 2039583
2.1246881 -1.1250441 2.9818954 2039583
2.1688223 -1.1250057 2.9595113 2039583
1.3583893 -1.0753357 2.9834871 2894892
2.0948331 -1.075356 2.9973137 2039583
2.1249547 -1.0749972 2.9820366 2039583
2.1691229 -1.0749274 2.9596314 2039583
1.3599011 -1.0257984 2.9868076 2894892
2.0949202 -1.0252533 2.9975436 2039583
2.1250997 -1.0249006 2.9822373 2039583
2.1692781 -1.0247926 2.9598281 2039583
1.3614532 -0.97493905 2.9902163 2894892
2.0951161 -0.97490585 2.997719 2039583
2.1252069 -0.97492558 2.9824557 2039583
2.1702108 -0.9749403 2.9596279 2039583
1.3629715 -0.9251793 2.9935517 2894892
2.0952756 -0.92479736 2.9979124 2039583
2.125396 -0.92503548 2.9826338 2039583
2.1704357 -0.92495489 2.9597869 2039583
1.3410189 -0.86182076 2.9507055 2894892
1.3644937 -0.8753072 2.9968941 2894892
2.0959435 -0.89832115 2.9977186 2039583
2.1254003 -0.89836884 2.9827759 2039583
2.1705453 -0.89832443 2.9598768 2039583
1.3420986 -0.82580793 2.9530811 2894892
1.3656092 -0.83874911 2.9993446 2894892
1.3436131 -0.77529788 2.9564137 2894892
1.3451312 -0.72467381 2.9597538 2894892
1.3466164 -0.67514503 2.963021 2894892
1.3481046 -0.62550575 2.9662962 2894892
1.3494503 -0.58061761 2.9692576 2894892
1.3502154 -0.55510199 2.9709411 2894892
1.3511276 -0.52468145 2.9729483 2894892
1.3526258 -0.47470883 2.9762447 2894892
1.3541276 -0.4246262 2.9795489 2894892
1.3555958 -0.3756575 2.98278 2894892
1.3571043 -0.32535374 2.9860988 2894892
1.3586158 -0.27493876 2.9894247 2894892
1.3600938 -0.22564462 2.992677 2894892
1.338549 -0.16013604 2.9506505 2894892
1.3616121 -0.17500629 2.9960179 2894892
1.3395908 -0.12477943 2.9529469 2894892
1.362911 -0.13169202 2.9988754 2894892
1.3410662 -0.074702993 2.9561999 2894892
1.342545 -0.024516987 2.9594598 2894892
1.343991 0.024552178 2.962647 2894892
-0.37108031 0.09804482 2.9956784 2960685
-0.32523289 0.098066695 2.996347 4408131
-0.27564532 0.098090351 2.9970701 10197915
-0.22603388 0.098114051 2.9977934 10197915
-0.17515719 0.098138332 2.9985349 10197915
-0.12425548 0.098162606 2.9992774 10197915
-0.086995043 0.098180398 2.9998209 10197915
0.87638444 0.099005677 2.9503443 10197915
0.92426789 0.099028602 2.9510276 10197915
0.97463101 0.099052712 2.9517462 10197915
1.0250185 0.09907686 2.9524655 10197915
1.0742005 0.099100426 2.9531674 10197915
1.1000293 0.099112771 2.9535356 10197915
1.3453869 0.07797765 2.9643736 3750201
1.3747194 0.099244371 2.9574573 10197915
1.4104941 0.099261522 2.9579678 8620172
1.9941748 -1.356692 3.0468326 2039583
2.0174751 -1.3539978 3.0350285 2039583
1.3752077 -1.323992 3.0149395 2894892
1.9944525 -1.3251915 3.0468645 2039583
2.0254886 -1.3250483 3.0311213 2039583
2.0685353 -1.3230633 3.0092976 2039583
1.3767165 -1.2754276 3.0182471 2894892
1.9945469 -1.2749966 3.0470908 2039583
2.0256085 -1.2751256 3.0313344 2039583
2.0692832 -1.2749543 3.009182 2039583
1.3782666 -1.2255381 3.0216453 2894892
1.9946425 -1.2247943 3.0473166 2039583
2.0248537 -1.2250516 3.0319908 2039583
2.0686576 -1.2250657 3.0097711 2039583
1.3798199 -1.1755366 3.0250514 2894892
1.994832 -1.174996 3.0474932 2039583
2.0249426 -1.1749823 3.0322204 2039583
2.0687935 -1.1750904 3.0099771 2039583
1.3813769 -1.125422 3.0284641 2894892
1.9959178 -1.1250775 3.0472157 2039583
2.0251362 -1.1249554 3.0323951 2039583
2.0689332 -1.1250491 3.01018 2039583
1.3829373 -1.0751946 3.0318856 2894892
1.9960706 -1.0754119 3.0474093 2039583
2.0253253 -1.0749214 3.0325732 2039583
2.0700145 -1.0750064 3.0099051 2039583
1.3845015 -1.024853 3.0353146 2894892
1.9960066 -1.0260973 3.0477114 2039583
2.0252163 -1.0246766 3.0329025 2039583
2.0700986 -1.024969 3.0101352 2039583
1.3860691 -0.97439814 3.0387509 2894892
1.9953547 -0.97494572 3.0483227 2039583
2.0246408 -0.97485512 3.033468 2039583
2.0702336 -0.97503865 3.0103393 2039583
1.3876017 -0.92506331 3.0421119 2894892
1.9957591 -0.92602426 3.0483844 2039583
2.0247633 -0.92492765 3.0336797 2039583
2.0703964 -0.92515838 3.0105302 2039583
1.389138 -0.87561905 3.0454793 2894892
1.9965105 -0.89786166 3.0481577 2039583
2.0240242 -0.89852136 3.034198 2039583
2.0704124 -0.89864093 3.0106673 2039583
1.3810517 -0.82371873 3.0298927 2894892
1.367547 -0.77522862 3.0036001 2894892
1.3690784 -0.72502148 3.0069637 2894892
1.3706141 -0.67470121 3.0103366 2894892
1.372153 -0.62426889 3.0137172 2894892
1.3736579 -0.57495689 3.0170224 2894892
1.3751662 -0.52553666 3.0203347 2894892
1.3766778 -0.47600776 3.0236547 2894892
1.3782305 -0.42512697 3.0270648 2894892
1.3797865 -0.37413222 3.0304832 2894892
1.3813083 -0.32426983 3.0338254 2894892
1.3828335 -0.27429718 3.0371747 2894892
1.384362 -0.22421412 3.0405316 2894892
1.3858937 -0.17402025 3.0438962 2894892
1.3816938 -0.12063766 3.0359824 2894892
1.3707838 -0.079193048 3.0147569 2894892
1.3661128 -0.024901818 3.0059209 2894892
1.3676072 0.024938123 3.0092092 2894892
-0.062146753 0.098192252 3.0001831 10197915
-0.024862306 0.098210059 3.0007265 10197915
0.024870312 0.098233797 3.001452 10197915
0.074626967 0.098257534 3.0021775 10197915
0.12440769 0.098281302 3.0029035 10197915
0.17421249 0.098305054 3.0036294 10197915
0.22404139 0.098328821 3.0043561 10197915
0.2738944 0.098352641 3.0050831 10197915
0.32501888 0.098377034 3.0058289 10197915
0.37616858 0.098401427 3.0065744 10197915
0.42609519 0.098425262 3.0073025 10197915
0.47604603 0.098449104 3.0080307 10197915
0.52602112 0.09847296 3.0087595 10197915
0.57602036 0.09849681 3.0094886 10197915
0.6260438 0.098520681 3.0102181 10197915
0.67609179 0.098544583 3.0109479 10197915
0.72616363 0.098568469 3.0116777 10197915
0.77500719 0.098591805 3.0123904 10197915
0.823874 0.09861511 3.013103 10197915
0.87401789 0.098639041 3.0138345 10197915
0.92418587 0.098662987 3.0145657 10197915
0.97437829 0.098686941 3.0152974 10197915
1.0245951 0.098710895 3.0160298 10197915
1.0748365 0.098734878 3.0167623 10197915
1.1125326 0.098752856 3.017312 10197915
1.3750288 0.082886092 3.0154407 5066061
1.4246885 0.098901846 3.0218642 9935000
1.4511635 0.098914512 3.0222509 928325
1.3992771 -1.3599496 3.0621455 2894892
1.8946182 -1.3686601 3.0972667 2039583
1.9236809 -1.3646027 3.0825474 2039583
1.9681106 -1.3594687 3.0600393 2039583
1.3997835 -1.3439443 3.0632539 2894892
1.4005641 -1.3192958 3.0649617 2894892
1.8951336 -1.3249658 3.0972447 2039583
1.925384 -1.325014 3.0818992 2039583
1.9696841 -1.3249027 3.0594306 2039583
1.4019716 -1.274861 3.0680416 2894892
1.8953817 -1.275015 3.0973911 2039583
1.9255875 -1.2750099 3.0820725 2039583
1.9698409 -1.2750511 3.0596223 2039583
1.4035759 -1.2241474 3.071552 2894892
1.8953891 -1.2250448 3.0976624 2039583
1.925565 -1.2250005 3.0823555 2039583
1.9698812 -1.2250644 3.0598762 2039583
1.4051446 -1.1745588 3.074986 2894892
1.895637 -1.1750826 3.0978098 2039583
1.9258152 -1.1749827 3.0825026 2039583
1.9701231 -1.174883 3.0600276 2039583
1.4067171 -1.1248589 3.0784271 2894892
1.8962375 -1.1264932 3.09777 2039583
1.9249288 -1.1249796 3.0832295 2039583
1.9702078 -1.1249092 3.0602572 2039583
1.408293 -1.0750476 3.0818756 2894892
1.896849 -1.0751441 3.0977407 2039583
1.925131 -1.0749776 3.0833943 2039583
1.9703935 -1.0749604 3.060437 2039583
1.4098725 -1.0251247 3.0853324 2894892
1.8968905 -1.0248277 3.097995 2039583
1.9251653 -1.0249221 3.0836515 2039583
1.9704348 -1.0248888 3.0606904 2039583
1.4114554 -0.97508955 3.0887966 2894892
1.8966398 -0.97672135 3.0983853 2039583
1.9247965 -0.97465736 3.0841105 2039583
1.9705925 -0.97492588 3.060884 2039583
1.4130421 -0.92494214 3.0922687 2894892
1.8961825 -0.92520326 3.0988994 2039583
1.9245322 -0.92499334 3.0845206 2039583
1.9711039 -0.92481089 3.0608993 2039583
1.4146321 -0.87468159 3.0957482 2894892
1.8962826 -0.89914006 3.0989907 2039583
1.9245311 -0.89877981 3.0846646 2039583
1.9722134 -0.89873964 3.0604775 2039583
1.3913713 -0.80373478 3.0503757 2894892
1.4159864 -0.83187377 3.0987122 2894892
1.3922977 -0.77391565 3.0524068 2894892
1.3938444 -0.72413611 3.0557973 2894892
1.3953927 -0.67424488 3.0591917 2894892
1.3969443 -0.62424284 3.0625935 2894892
1.3985012 -0.57413018 3.0660067 2894892
1.399632 -0.53773236 3.0684862 2894892
1.400413 -0.51259303 3.0701983 2894892
1.4015865 -0.47482923 3.0727704 2894892
1.4031146 -0.42564487 3.0761209 2894892
1.4046851 -0.37508833 3.0795646 2894892
1.4062595 -0.32441843 3.0830159 2894892
1.4077978 -0.27490625 3.0863883 2894892
1.4093395 -0.22528473 3.0897679 2894892
1.4109242 -0.17427832 3.0932424 2894892
1.4124727 -0.12443694 3.0966372 2894892
1.3891602 -0.066991203 3.05107 2894892
1.4136263 -0.087307252 3.0991664 2894892
1.3904324 -0.02529892 3.0538645 2894892
1.3919777 0.025336394 3.0572581 2894892
-0.37543255 0.097663462 3.0615335 2960685
-0.32477835 0.097687528 3.0622878 5460819
-0.27409917 0.097711638 3.0630441 10197915
-0.22466296 0.097735144 3.0637803 10197915
-0.17520282 0.097758658 3.0645177 10197915
-0.12444977 0.097782783 3.065274 10197915
-0.074941568 0.09780632 3.0660119 10197915
-0.025409311 0.097829863 3.06675 10197915
0.025417674 0.097854026 3.0675073 10197915
0.074998066 0.097877599 3.0682461 10197915
0.12460254 0.09790118 3.0689855 10197915
0.17550369 0.09792538 3.0697439 10197915
0.22515641 0.097948998 3.0704842 10197915
0.27483332 0.097972602 3.071224 10197915
0.32453391 0.09799622 3.071965 10197915
0.37425873 0.098019883 3.0727062 10197915
0.42528337 0.098044135 3.0734668 10197915
0.47505659 0.09806779 3.0742078 10197915
0.52485406 0.098091453 3.0749507 10197915
0.57467538 0.098115146 3.0756927 10197915
0.6245209 0.098138854 3.0764356 10197915
0.67566955 0.098163158 3.0771978 10197915
0.72556376 0.09818688 3.0779414 10197915
0.7754823 0.09821061 3.0786855 10197915
0.82542467 0.098234355 3.0794296 10197915
0.87539148 0.098258115 3.0801742 10197915
0.92538232 0.098281875 3.0809193 10197915
0.97539741 0.09830565 3.0816648 10197915
1.0254364 0.09832944 3.0824108 10197915
1.0755002 0.098353244 3.0831566 10197915
1.1255878 0.098377049 3.0839028 10197915
1.3934876 0.07481385 3.0605745 2894892
1.4292006 0.098521389 3.0884268 9276813
1.4678591 0.098539777 3.0890043 9080208
1.795233 -1.404045 3.1474857 2039583
1.8110468 -1.402282 3.1394742 2039583
1.4249607 -1.3707957 3.1127067 2894892
1.7955356 -1.3748983 3.1474922 2039583
1.8253846 -1.3746085 3.132354 2039583
1.869432 -1.3705802 3.1100323 2039583
1.4264538 -1.3244669 3.115968 2894892
1.7956773 -1.3249158 3.1476934 2039583
1.825922 -1.3250108 3.1323519 2039583
1.8705746 -1.3250201 3.1097019 2039583
1.4280711 -1.274274 3.1195016 2894892
1.796088 -1.2760533 3.1477518 2039583
1.8259704 -1.2750559 3.1326003 2039583
1.8707539 -1.2749258 3.1098843 2039583
1.4296925 -1.2239672 3.1230428 2894892
1.7968042 -1.2259212 3.1476631 2039583
1.8249024 -1.2248423 3.1334159 2039583
1.8698683 -1.2249875 3.1106079 2039583
1.4312766 -1.1748081 3.1265032 2894892
1.7960408 -1.1751872 3.1483278 2039583
1.8242496 -1.1749902 3.1340201 2039583
1.8700275 -1.1749909 3.1107996 2039583
1.4328644 -1.1255391 3.129972 2894892
1.7961268 -1.1252552 3.1485577 2039583
1.824339 -1.1250008 3.1342485 2039583
1.8707522 -1.1247132 3.1107073 2039583
1.4344978 -1.0748949 3.1335402 2894892
1.7962836 -1.0748999 3.1487532 2039583
1.8244998 -1.0750029 3.1344404 2039583
1.8712695 -1.0749826 3.1107163 2039583
1.4360937 -1.0254055 3.1370258 2894892
1.7968125 -1.0269524 3.148747 2039583
1.8246592 -1.0251037 3.1346319 2039583
1.8714184 -1.0250256 3.1109149 2039583
1.4376919 -0.97580421 3.1405172 2894892
1.7975384 -0.9744277 3.1486661 2039583
1.8246739 -0.97509348 3.1348984 2039583
1.8714336 -0.97505975 3.1111786 2039583
1.4393356 -0.92481691 3.1441071 2894892
1.7976584 -0.9249199 3.1488764 2039583
1.8248346 -0.92497122 3.1350906 2039583
1.8716385 -0.92497462 3.1113503 2039583
1.4409411 -0.87499225 3.1476142 2894892
1.7977215 -0.89886081 3.1489868 2039583
1.8251991 -0.89897859 3.1350479 2039583
1.8718621 -0.89869231 3.1113806 2039583
1.4268264 -0.82221699 3.1201491 2894892
1.4177833 -0.77508479 3.102644 2894892
1.4193439 -0.72575223 3.1060598 2894892
1.4209484 -0.67504221 3.1095707 2894892
1.4225563 -0.62421751 3.1130888 2894892
1.4241271 -0.57455283 3.1165266 2894892
1.4257009 -0.52477717 3.1199708 2894892
1.4272794 -0.47489262 3.1234245 2894892
1.4288609 -0.42489666 3.1268864 2894892
1.4304464 -0.3747907 3.1303554 2894892
1.4320352 -0.32457238 3.1338325 2894892
1.4336276 -0.27424344 3.1373169 2894892
1.4351825 -0.2250967 3.1407201 2894892
1.4367409 -0.17584321 3.14413 2894892
1.4383436 -0.12518179 3.1476378 2894892
1.4201617 -0.069415398 3.112174 2894892
1.4155799 -0.02442437 3.1034501 2894892
1.4170988 0.024459288 3.1067803 2894892
-0.40457314 0.097253174 3.1299696 2960685
-0.37480229 0.097267285 3.1304235 2960685
-0.32559815 0.097290576 3.1311731 6381921
-0.27507454 0.097314499 3.1319432 10197915
-0.2245263 0.097338431 3.1327133 10197915
-0.17525019 0.097361766 3.1334641 10197915
-0.12595041 0.097385101 3.1342156 10197915
-0.075328596 0.09740907 3.1349871 10197915
-0.024682056 0.097433046 3.1357589 10197915
0.024689946 0.097456425 3.1365111 10197915
0.074085638 0.097479805 3.1372635 10197915
0.124806 0.097503826 3.1380365 10197915
0.17555112 0.097527854 3.1388099 10197915
0.22501926 0.097551279 3.1395638 10197915
0.27451119 0.097574703 3.1403179 10197915
0.32402682 0.09759815 3.141072 10197915
0.37487045 0.097622231 3.1418471 10197915
0.4257389 0.097646303 3.1426222 10197915
0.47532725 0.09766978 3.1433775 10197915
0.52493954 0.097693279 3.1441338 10197915
0.5745756 0.097716771 3.1448901 10197915
0.62423563 0.097740285 3.145647 10197915
0.6739195 0.097763814 3.146404 10197915
0.72493601 0.097787969 3.1471817 10197915
0.77597725 0.097812138 3.147959 10197915
0.82573426 0.097835705 3.1487172 10197915
0.87551516 0.097859278 3.1494758 10197915
0.90565652 0.097873531 3.149935 10197915
1.4186208 0.073447958 3.1101162 2894892
1.4506741 -1.4074286 3.1631501 2894892
1.6957245 -1.4152513 3.1979001 2039583
1.722959 -1.4122888 3.1841016 2039583
1.7679284 -1.4072108 3.161319 2039583
1.4517593 -1.3743795 3.1655164 2894892
1.6958691 -1.3749228 3.1980469 2039583
1.7249845 -1.3750075 3.1832776 2039583
1.7701408 -1.3749593 3.1603727 2039583
1.4533898 -1.3247204 3.1690719 2894892
1.6959974 -1.3249978 3.1982553 2039583
1.7250667 -1.3250372 3.1835101 2039583
1.7703052 -1.3249677 3.1605639 2039583
1.4550245 -1.2749482 3.1726353 2894892
1.6969087 -1.2766459 3.1980574 2039583
1.7252696 -1.2750061 3.1836796 2039583
1.7707297 -1.2747723 3.1606231 2039583
1.4566621 -1.2250654 3.1762066 2894892
1.6972691 -1.2255847 3.1981535 2039583
1.7252992 -1.224968 3.1839399 2039583
1.7715442 -1.2250507 3.1604824 2039583
1.4583037 -1.1750687 3.1797862 2894892
1.6973838 -1.1753161 3.1983705 2039583
1.7254701 -1.1750324 3.1841249 2039583
1.7717 -1.1750631 3.160676 2039583
1.4599489 -1.1249605 3.1833739 2894892
1.6974992 -1.1250404 3.1985874 2039583
1.7255831 -1.1250355 3.1843414 2039583
1.7718085 -1.125069 3.1608956 2039583
1.4615979 -1.0747381 3.18697 2894892
1.6976142 -1.0747582 3.1988041 2039583
1.7256962 -1.074977 3.1845584 2039583
1.7718878 -1.0750673 3.1611276 2039583
1.4632508 -1.024403 3.1905737 2894892
1.698541 -1.0258865 3.1986005 2039583
1.7258329 -1.025077 3.184762 2039583
1.7725195 -1.0248801 3.1610808 2039583
1.4648647 -0.97524846 3.1940923 2894892
1.6988887 -0.9740119 3.1987081 2039583
1.7258791 -0.97511441 3.1850104 2039583
1.7731329 -0.97515625 3.1610436 2039583
1.466525 -0.92468709 3.1977127 2894892
1.6980613 -0.92504585 3.1993961 2039583
1.7250637 -0.92498308 3.1856992 2039583
1.7732861 -0.92509782 3.1612363 2039583
1.4674628 -0.89611995 3.1997576 2894892
1.7245804 -0.89902478 3.1860864 2039583
1.77338 -0.89914536 3.1613321 2039583
1.4427154 -0.81992924 3.1514904 2894892
1.4441632 -0.77500796 3.1546528 2894892
1.4457797 -0.72484738 3.1581841 2894892
1.4473996 -0.67457551 3.1617229 2894892
1.4489818 -0.62548357 3.1651788 2894892
1.4498991 -0.59701717 3.1671827 2894892
1.4507343 -0.57109982 3.1690071 2894892
1.45224 -0.52437896 3.1722958 2894892
1.4538324 -0.47495797 3.1757743 2894892
1.4554275 -0.42542803 3.1792586 2894892
1.4570271 -0.37578982 3.1827536 2894892
1.4586304 -0.32604221 3.1862552 2894892
1.4602371 -0.27618504 3.1897652 2894892
1.4618477 -0.22621794 3.1932826 2894892
1.4634613 -0.17614052 3.1968081 2894892
1.46461 -0.14049573 3.1993175 2894892
1.4400737 -0.070499063 3.1514242 2894892
1.4415187 -0.024826743 3.1545861 2894892
1.4430908 0.024862828 3.1580267 2894892
0.93056387 0.09788534 3.1503146 10197915
0.97514915 0.09790644 3.1509941 10197915
1.0250022 0.097930044 3.1517541 10197915
1.0748791 0.09795367 3.1525137 10197915
1.1247803 0.097977281 3.1532745 10197915
1.1628779 0.097995311 3.1538546 10197915
1.4447886 0.076888666 3.160924 2960685
1.4747629 0.098142982 3.1586072 10000536
1.5090348 0.098159231 3.1591299 8159880
1.5953773 -1.4516408 3.2486014 2039583
1.6024837 -1.4505706 3.2450027 2039583
1.4780964 -1.4194494 3.2171311 2894892
1.5967453 -1.4264287 3.2480457 2039583
1.6242275 -1.4233568 3.2341228 2039583
1.6697068 -1.4184016 3.2110801 2039583
1.4795673 -1.3754994 3.2203329 2894892
1.5972278 -1.3747813 3.2480829 2039583
1.6251054 -1.3749003 3.2339408 2039583
1.6706883 -1.3750904 3.2108183 2039583
1.4812578 -1.3249791 3.2240124 2894892
1.5974125 -1.3250971 3.248261 2039583
1.6252053 -1.3248929 3.2341647 2039583
1.6708852 -1.3250308 3.2109935 2039583
1.4829522 -1.2743449 3.2277007 2894892
1.5974436 -1.2749265 3.2485199 2039583
1.6253939 -1.2749974 3.2343414 2039583
1.671791 -1.2747266 3.2108083 2039583
1.4846069 -1.2248964 3.2313023 2894892
1.597628 -1.2252308 3.2486978 2039583
1.625522 -1.2249751 3.2345488 2039583
1.6721338 -1.2249644 3.2109058 2039583
1.4862655 -1.1753379 3.2349122 2894892
1.5982662 -1.1774585 3.2486355 2039583
1.6255726 -1.1748893 3.234798 2039583
1.6721603 -1.1750009 3.2111671 2039583
1.4879276 -1.1256683 3.2385294 2894892
1.5988157 -1.1264145 3.2486362 2039583
1.6255481 -1.1248746 3.2350852 2039583
1.6723585 -1.1249676 3.2113402 2039583
1.4895935 -1.0758873 3.2421553 2894892
1.5979115 -1.0755947 3.249373 2039583
1.6247324 -1.0750581 3.2357728 2039583
1.6724657 -1.0749906 3.2115576 2039583
1.4912632 -1.025995 3.2457898 2894892
1.5980214 -1.0245104 3.2495968 2039583
1.6249176 -1.0250795 3.2359502 2039583
1.6734926 -1.0249662 3.2113116 2039583
1.492628 -0.98521328 3.2487602 2894892
1.5981284 -0.97476387 3.2498143 2039583
1.6248649 -0.97509503 3.2362499 2039583
1.6736989 -0.97511417 3.2114792 2039583
1.5982008 -0.94114774 3.2499616 2039583
1.6250585 -0.9250477 3.2364259 2039583
1.6738502 -0.92492139 3.2116783 2039583
1.4682741 -0.87141114 3.2015274 2894892
1.62661 -0.8993091 3.2357795 2039583
1.673786 -0.89914095 3.2118516 2039583
1.4698138 -0.82452512 3.2048843 2894892
1.4714428 -0.77492839 3.2084355 2894892
1.4730747 -0.72522181 3.2119942 2894892
1.4747103 -0.67540473 3.2155607 2894892
1.4763498 -0.62547678 3.219135 2894892
1.4779927 -0.5754379 3.222718 2894892
1.4796395 -0.52528739 3.2263083 2894892
1.4812897 -0.47502503 3.2299073 2894892
1.4829439 -0.4246504 3.2335136 2894892
1.4846019 -0.37416321 3.2371283 2894892
1.4862182 -0.32489622 3.240653 2894892
1.4878391 -0.27552104 3.2441876 2894892
1.489508 -0.22469969 3.2478266 2894892
1.4904318 -0.19656999 3.2498407 2894892
1.4654197 -0.11537539 3.2010858 2894892
1.4666998 -0.07565318 3.2038822 2894892
1.4683244 -0.025242558 3.2074316 2894892
1.4699526 0.025279861 3.2109876 2894892
-0.40989527 0.096836142 3.2019327 2960685
-0.37546775 0.096852377 3.2024698 2960685
-0.32513109 0.096876107 3.2032545 7500402
-0.27476978 0.096899845 3.2040389 10197915
-0.22438373 0.096923597 3.2048247 10197915
-0.17397301 0.096947372 3.205611 10197915
-0.12486523 0.096970521 3.2063761 10197915
-0.075733766 0.0969937 3.2071419 10197915
-0.025250092 0.097017482 3.2079294 10197915
0.025258357 0.097041309 3.2087162 10197915
0.075791612 0.097065121 3.2095039 10197915
0.12501878 0.097088337 3.2102718 10197915
0.17426968 0.097111546 3.2110393 10197915
0.22487615 0.097135402 3.2118285 10197915
0.27550745 0.097159281 3.2126179 10197915
0.32483017 0.097182527 3.2133865 10197915
0.37417674 0.097205788 3.2141554 10197915
0.42488155 0.097229697 3.2149456 10197915
0.47561118 0.097253613 3.2157369 10197915
0.52502978 0.097276919 3.216507 10197915
0.57447219 0.097300224 3.2172778 10197915
0.62527567 0.097324193 3.2180698 10197915
0.67476583 0.097347513 3.2188418 10197915
0.72428018 0.097370848 3.2196131 10197915
0.77515721 0.097394846 3.2204061 10197915
0.82471949 0.097418211 3.221179 10197915
0.87430561 0.097441576 3.2219522 10197915
0.92525673 0.097465605 3.2227461 10197915
0.97489095 0.097489007 3.2235203 10197915
1.0245491 0.097512424 3.2242939 10197915
1.0755745 0.097536474 3.22509 10197915
1.1252809 0.097559907 3.2258642 10197915
1.1750114 0.097583354 3.2266395 10197915
1.2019014 0.097595997 3.2270579 10197915
1.4767313 0.081062555 3.219244 3881787
1.5251442 0.097748421 3.2320981 9934744
1.552126 0.097761177 3.2325196 796739
1.5303501 -1.4588023 3.2805035 2171169
1.5675948 -1.4548366 3.2626777 2039583
1.5314527 -1.4248856 3.279948 2171169
1.5719389 -1.4247327 3.2606351 2039583
1.5315444 -1.3750238 3.2804277 2171169
1.5723931 -1.3750398 3.2606821 2039583
1.5318201 -1.324994 3.2808328 2171169
1.572508 -1.3250787 3.2608936 2039583
1.532004 -1.2749474 3.2812669 2171169
1.5725931 -1.2751124 3.261126 2039583
1.5322133 -1.224968 3.2816999 2171169
1.572808 -1.225003 3.2612901 2039583
1.5323609 -1.1749545 3.2820747 2171169
1.5734357 -1.1746758 3.2612493 2039583
1.5314817 -1.1250024 3.282799 2171169
1.5731038 -1.12491 3.2616889 2039583
1.5314742 -1.07493 3.283077 2171169
1.5729002 -1.0749811 3.2620647 2039583
1.5316631 -1.0250978 3.2832534 2171169
1.5732195 -1.025049 3.2621734 2039583
1.4934657 -0.9601807 3.2505832 2894892
1.5316807 -0.97509032 3.2835186 2171169
1.5732 -0.97504562 3.2624595 2039583
1.4946136 -0.92587399 3.2530818 2894892
1.5317836 -0.92499131 3.2837405 2171169
1.5740809 -0.92477 3.2622848 2039583
1.4962947 -0.87564468 3.2567406 2894892
1.5319995 -0.87505686 3.2839034 2171169
1.5612864 -0.87589258 3.2690437 1974048
1.4979793 -0.82530212 3.2604077 2894892
1.5319524 -0.82511014 3.2842002 2171169
1.560499 -0.82495409 3.2697213 1843752
1.499401 -0.78282297 3.2635016 2894892
1.5315306 -0.77464831 3.2839861 2236962
1.5606333 -0.77502161 3.2699261 1778216
1.5303581 -0.72506893 3.2835705 2236962
1.56068 -0.7249462 3.2701771 1777703
1.5306674 -0.67506492 3.2840533 2236962
1.5609396 -0.67513835 3.2703171 1843753
1.5306785 -0.62496734 3.2844696 2236962
1.5607784 -0.62517881 3.2706726 1844008
1.5311064 -0.57501155 3.2847908 2236962
1.5611662 -0.57509255 3.2707493 1844009
1.5310671 -0.52504987 3.2853858 2236962
1.5609819 -0.52511483 3.2711167 1843496
1.5313618 -0.47499064 3.2857199 2236962
1.5613816 -0.47501984 3.271188 1778216
1.5317572 -0.42508215 3.2860656 2236962
1.5611972 -0.42502415 3.2715547 1777959
1.5315123 -0.37515229 3.2866995 2236962
1.5615861 -0.37491968 3.271631 1712168
1.5321866 -0.32481948 3.2868125 2236962
1.5614949 -0.3251842 3.2719498 1712168
1.5320392 -0.27509001 3.2871637 2236962
1.5617067 -0.2750569 3.2721174 1778217
1.5319352 -0.22510906 3.2874908 2236962
1.5617046 -0.22517648 3.2723897 1777960
1.4912246 -0.17242368 3.2515695 2894892
1.5324589 -0.17474741 3.2875013 2236962
1.5607746 -0.17492652 3.2731369 1843493
1.4927685 -0.12540394 3.2549357 2894892
1.5323486 -0.12531358 3.2878273 2236962
1.5608801 -0.1247621 3.2733576 1842980
1.4944042 -0.075593375 3.258502 2894892
1.5313532 -0.074933432 3.2886078 2236962
1.5598922 -0.074603595 3.2741332 1843236
1.4960433 -0.02567254 3.2620766 2894892
1.5314561 -0.024525149 3.2888319 2236962
1.5599977 -0.024417192 3.274354 1843492
1.497686 0.024356943 3.2656586 2894892
1.5315571 0.024527309 3.289048 2236962
1.5600988 0.024419339 3.274569 1843236
-0.41411278 0.096400112 3.2773046 2960685
-0.37480921 0.096418552 3.2779315 2960685
-0.324642 0.096442088 3.2787318 8618883
-0.27445063 0.096465662 3.2795324 10197915
-0.22559206 0.09648858 3.2803125 10197915
-0.17535201 0.096512169 3.2811143 10197915
-0.12508763 0.096535765 3.2819159 10197915
-0.074798428 0.096559353 3.2827191 10197915
-0.024484856 0.096582979 3.2835214 10197915
0.024492621 0.096605964 3.2843027 10197915
0.074854992 0.096629597 3.2851062 10197915
0.1252418 0.096653253 3.2859104 10197915
0.17429058 0.096676268 3.2866926 10197915
0.22472627 0.096699938 3.2874978 10197915
0.27518651 0.096723616 3.2883029 10197915
0.32430673 0.096746683 3.2890871 10197915
0.37481591 0.096770391 3.2898922 10197915
0.42534965 0.096794106 3.2906992 10197915
0.47454154 0.096817188 3.2914839 10197915
0.52512437 0.096840933 3.2922909 10197915
0.57573193 0.096864685 3.2930984 10197915
0.62499553 0.096887797 3.2938843 10197915
0.67428261 0.096910924 3.2946711 10197915
0.72496361 0.096934728 3.2954798 10197915
0.77566916 0.096958518 3.2962885 10197915
0.8250283 0.096981689 3.2970762 10197915
0.87441099 0.097004861 3.297864 10197915
0.92519015 0.097028688 3.2986743 10197915
0.97599423 0.097052544 3.2994852 10197915
1.0048393 0.097066104 3.2999461 10197915
1.4992435 0.071783364 3.2690544 2894892
1.5315491 0.073664494 3.289201 2302755
1.5602025 0.073262282 3.274785 1909029
1.0295711 0.09707769 3.3003399 10197915
1.0749277 0.097098969 3.301064 10197915
1.1244299 0.0971222 3.3018534 10197915
1.1739559 0.097145468 3.3026438 10197915
1.2152451 0.097164832 3.303302 10197915
-0.41992122 0.0959424 3.3562872 2960685
-0.37550694 0.095963165 3.3570132 2960685
-0.32551846 0.095986515 3.35783 9737364
-0.27550557 0.09600988 3.3586469 10197915
-0.22546834 0.096033253 3.3594649 10197915
-0.17540674 0.096056625 3.3602831 10197915
-0.12532076 0.096080005 3.3611014 10197915
-0.07521037 0.096103445 3.3619199 10197915
-0.025075555 0.096126832 3.3627396 10197915
0.025083698 0.096150286 3.3635588 10197915
0.075267404 0.096173711 3.3643789 10197915
0.12547559 0.09619718 3.3651998 10197915
0.17570828 0.096220642 3.3660202 10197915
0.22596547 0.096244112 3.3668418 10197915
0.27624717 0.096267596 3.3676631 10197915
0.32515562 0.096290447 3.3684626 10197915
0.37408745 0.09631329 3.3692622 10197915
0.42444158 0.096336812 3.370085 10197915
0.4748202 0.096360356 3.370908 10197915
0.52522349 0.096383907 3.3717318 10197915
0.57565141 0.096407458 3.3725557 10197915
0.62610388 0.096431017 3.3733802 10197915
0.67517859 0.096453942 3.3741822 10197915
0.72427678 0.096476883 3.3749845 10197915
0.77480215 0.096500486 3.3758106 10197915
0.82535201 0.09652409 3.3766363 10197915
0.87592673 0.09654773 3.3774626 10197915
0.92512029 0.096570708 3.3782663 10197915
0.97433734 0.096593685 3.3790712 10197915
1.0249852 0.096617371 3.3798988 10197915
1.0756577 0.096641034 3.3807268 10197915
1.1249461 0.096664056 3.381532 10197915
1.1742586 0.096687086 3.3823378 10197915
1.2250044 0.096710779 3.3831668 10197915
1.2560269 0.096725278 3.3836739 10197915
-0.42459378 0.095462598 3.4391892 2960685
-0.37481618 0.095485739 3.4400227 3750201
-0.32501423 0.095508881 3.4408567 10197915
-0.27518836 0.095532045 3.4416907 10197915
-0.22533809 0.095555209 3.4425254 10197915
-0.17546389 0.095578395 3.443361 10197915
-0.12556522 0.095601588 3.4441965 10197915
-0.075642541 0.09562479 3.4450326 10197915
-0.025695408 0.095647998 3.4458685 10197915
0.025703967 0.095671907 3.4467294 10197915
0.075700082 0.095695131 3.4475663 10197915
0.12429112 0.095717728 3.4483805 10197915
0.17433541 0.095740974 3.4492178 10197915
0.21009517 0.095757596 3.4498169 10197915
0.23441975 0.095768906 3.4502244 10197915
0.2744967 0.095787533 3.4508953 10197915
0.32461378 0.095810838 3.4517345 10197915
0.37475547 0.095834136 3.4525747 10197915
0.4249213 0.095857441 3.453414 10197915
0.47511181 0.095880777 3.4542546 10197915
0.52532655 0.095904127 3.4550953 10197915
0.57556593 0.095927477 3.4559369 10197915
0.62582952 0.095950834 3.4567783 10197915
0.67468059 0.095973536 3.4575965 10197915
0.72499275 0.095996916 3.4584391 10197915
0.77532923 0.096020319 3.4592819 10197915
0.82425106 0.096043058 3.4601009 10197915
0.87463611 0.096066467 3.4609449 10197915
0.92504567 0.0960899 3.4617891 10197915
0.97547984 0.096113347 3.4626336 10197915
1.0259385 0.096136808 3.4634781 10197915
1.0749791 0.0961596 3.4642994 10197915
1.1240432 0.096182406 3.4651215 10197915
1.1745744 0.09620589 3.4659672 10197915
1.2251303 0.096229397 3.466814 10197915
1.2713743 0.096250877 3.4675879 10197915
-0.45574316 0.094946511 3.5258453 2960685
-0.42513064 0.094960675 3.5263712 2960685
-0.37554955 0.0949836 3.5272224 5066061
-0.32594448 0.095006533 3.5280743 10197915
-0.27485529 0.095030144 3.5289514 10197915
-0.22374098 0.095053785 3.529829 10197915
-0.17406261 0.095076755 3.5306816 10197915
-0.1243602 0.09509974 3.5315351 10197915
-0.074633762 0.095122725 3.5323889 10197915
-0.024883267 0.095145732 3.5332432 10197915
0.024891289 0.095168747 3.5340977 10197915
0.074689925 0.095191762 3.5349526 10197915
0.12451267 0.095214799 3.5358086 10197915
0.17435953 0.095237859 3.536664 10197915
0.22423053 0.095260918 3.5375204 10197915
0.2741257 0.095283978 3.5383773 10197915
0.32404494 0.095307052 3.5392339 10197915
0.37398848 0.095330149 3.5400915 10197915
0.42395622 0.095353238 3.5409493 10197915
0.47394821 0.09537638 3.5418084 10197915
0.52396441 0.095399477 3.5426664 10197915
0.57400483 0.095422626 3.5435262 10197915
0.62406957 0.095445774 3.5443854 10197915
0.67415851 0.095468931 3.5452456 10197915
0.72427189 0.09549211 3.5461059 10197915
0.77440959 0.095515296 3.5469666 10197915
0.82457155 0.095538482 3.547828 10197915
0.87475801 0.095561683 3.5486896 10197915
0.92496872 0.095584899 3.5495517 10197915
0.97520393 0.095608115 3.5504143 10197915
1.0254635 0.095631376 3.5512774 10197915
1.0757475 0.095654614 3.552141 10197915
1.126056 0.095677868 3.5530043 10197915
1.1749079 0.095700458 3.5538433 10197915
1.2237836 0.095723055 3.5546825 10197915
1.2741637 0.095746346 3.5555477 10197915
1.312706 0.095764168 3.5562086 10197915
-0.46158975 0.094416134 3.617456 2960685
-0.42419943 0.09443333 3.6181149 2960685
-0.37482452 0.094456032 3.6189847 6579300
-0.32542571 0.094478741 3.6198552 10197915
-0.2745052 0.094502151 3.6207516 10197915
-0.22505833 0.09452489 3.6216228 10197915
-0.17558742 0.094547637 3.6224947 10197915
-0.12459259 0.094571076 3.6233921 10197915
-0.075073555 0.094593853 3.6242652 10197915
-0.025530415 0.094616614 3.6251376 10197915
0.025538862 0.094640113 3.6260369 10197915
0.075130224 0.094662897 3.6269104 10197915
0.12474573 0.094685726 3.6277845 10197915
0.17588964 0.094709232 3.6286855 10197915
0.2255535 0.094732068 3.6295609 10197915
0.27524155 0.094754927 3.6304364 10197915
0.32495332 0.094777778 3.6313117 10197915
0.37468934 0.094800644 3.6321881 10197915
0.42444906 0.094823517 3.633065 10197915
0.47423306 0.094846413 3.6339414 10197915
0.52555072 0.094870009 3.6348462 10197915
0.57538337 0.094892919 3.6357234 10197915
0.62524033 0.094915845 3.6366017 10197915
0.67512113 0.094938777 3.6374807 10197915
0.72502625 0.094961718 3.6383595 10197915
0.77495521 0.09498468 3.6392395 10197915
0.82490873 0.095007643 3.6401193 10197915
0.8748861 0.095030613 3.6409993 10197915
0.92488778 0.095053613 3.6418805 10197915
0.97491348 0.095076606 3.6427615 10197915
1.0249639 0.095099628 3.6436434 10197915
1.0750378 0.09512265 3.644526 10197915
1.1251365 0.095145673 3.6454084 10197915
1.1752592 0.09516874 3.646291 10197915
1.2254064 0.095191784 3.6471746 10197915
1.2755779 0.095214874 3.6480584 10197915
1.3242519 0.095237233 3.6489158 10197915
1.3546842 0.095251225 3.6494517 10197915
-0.46774724 0.093857281 3.7139471 2960685
-0.42475367 0.093876936 3.7147253 2960685
-0.37559658 0.093899392 3.7156141 7895160
-0.32487866 0.093922578 3.7165315 10197915
-0.27413583 0.093945771 3.7174489 10197915
-0.2249067 0.09396828 3.7183394 10197915
-0.17565395 0.093990795 3.7192304 10197915
-0.12483719 0.094014026 3.7201493 10197915
-0.07399556 0.094037265 3.7210691 10197915
-0.024670443 0.094059803 3.7219613 10197915
0.024678322 0.094082355 3.7228537 10197915
0.074050762 0.094104916 3.7237465 10197915
0.12499102 0.094128214 3.7246683 10197915
0.17595628 0.094151512 3.7255898 10197915
0.22540131 0.094174117 3.7264841 10197915
0.27487007 0.094196729 3.7273788 10197915
0.32436261 0.094219327 3.7282739 10197915
0.37387899 0.094241962 3.7291696 10197915
0.42496774 0.094265327 3.7300932 10197915
0.47608152 0.094288707 3.7310183 10197915
0.52567083 0.094311371 3.7319152 10197915
0.57528394 0.094334051 3.7328124 10197915
0.6249209 0.094356723 3.7337103 10197915
0.67458171 0.094379403 3.7346079 10197915
0.72426647 0.094402127 3.735507 10197915
0.77397513 0.094424836 3.7364061 10197915
0.82370782 0.094447583 3.7373056 10197915
0.87501973 0.094471037 3.7382336 10197915
0.92635691 0.094494507 3.7391622 10197915
0.97616291 0.094517253 3.740063 10197915
1.0259928 0.09454003 3.7409642 10197915
1.0758468 0.094562829 3.7418661 10197915
1.125725 0.09458562 3.742768 10197915
1.175627 0.094608441 3.7436705 10197915
1.2255534 0.09463124 3.7445734 10197915
1.2755035 0.094654083 3.745477 10197915
1.3254781 0.094676919 3.746381 10197915
1.3739135 0.094699062 3.7472575 10197915
-0.47424284 0.09326797 3.8157339 2960685
-0.42376107 0.093290903 3.8166723 2960685
-0.3748332 0.093313128 3.8175817 9671571
-0.32588175 0.093335368 3.8184917 10197915
-0.27532691 0.093358316 3.8194308 10197915
-0.22474718 0.093381301 3.8203707 10197915
-0.17414254 0.093404286 3.821311 10197915
-0.12509568 0.093426563 3.8222227 10197915
-0.076025151 0.093448855 3.8231344 10197915
-0.025347266 0.09347187 3.8240762 10197915
0.025355587 0.093494907 3.8250182 10197915
0.076083429 0.093517944 3.8259611 10197915
0.12524977 0.093540289 3.8268745 10197915
0.17443982 0.093562625 3.8277891 10197915
0.22524118 0.0935857 3.828733 10197915
0.27606761 0.093608789 3.8296769 10197915
0.32532948 0.093631156 3.8305926 10197915
0.37461522 0.093653545 3.8315086 10197915
0.42551538 0.093676664 3.8324544 10197915
0.47484872 0.093699075 3.8333709 10197915
0.52420598 0.093721494 3.8342886 10197915
0.57517999 0.093744643 3.8352354 10197915
0.62458515 0.093767084 3.8361542 10197915
0.67401397 0.09378954 3.8370724 10197915
0.72506207 0.093812719 3.8380206 10197915
0.77453887 0.093835205 3.8389399 10197915
0.82403958 0.093857676 3.8398602 10197915
0.87516201 0.093880914 3.8408103 10197915
0.92471081 0.093903415 3.8417311 10197915
0.97428352 0.093925931 3.8426523 10197915
1.0254804 0.093949176 3.8436036 10197915
1.0751011 0.093971722 3.8445258 10197915
1.1247461 0.093994282 3.8454485 10197915
1.1744145 0.09401682 3.8463709 10197915
1.2241071 0.094039403 3.8472948 10197915
1.2754277 0.094062708 3.8482485 10197915
1.3251686 0.094085306 3.8491731 10197915
1.3588748 0.094100475 3.8497927 10197915
1.3845651 0.094112135 3.85027 10197915
1.4182938 0.094127461 3.8508971 10197915
-0.50704771 0.092633732 3.9227614 2960685
-0.47461873 0.092648387 3.9233823 2960685
-0.424335 0.092671059 3.9243424 3881787
-0.37564978 0.092693023 3.9252727 10197915
-0.32531732 0.09271574 3.9262345 10197915
-0.27496049 0.092738464 3.9271967 10197915
-0.22457865 0.092761196 3.9281592 10197915
-0.17417239 0.092783935 3.9291224 10197915
-0.12536851 0.092805974 3.9300547 10197915
-0.074913323 0.092828728 3.9310191 10197915
-0.024433644 0.092851505 3.9319835 10197915
0.024441371 0.092873558 3.9329171 10197915
0.074970089 0.092896357 3.9338827 10197915
0.12552336 0.092919178 3.9348493 10197915
0.17446965 0.092941254 3.9357841 10197915
0.22507203 0.092964076 3.9367509 10197915
0.27569905 0.092986934 3.9377182 10197915
0.32471675 0.09300904 3.9386549 10197915
0.375393 0.093031898 3.9396234 10197915
0.42609397 0.093054779 3.9405913 10197915
0.47518316 0.093076929 3.9415295 10197915
0.52429593 0.09309911 3.9424689 10197915
0.57507032 0.093121991 3.9434381 10197915
0.62586945 0.093144923 3.9444089 10197915
0.67505383 0.093167111 3.9453485 10197915
0.72426188 0.093189329 3.9462893 10197915
0.77513474 0.093212277 3.9472611 10197915
0.82603246 0.093235239 3.9482334 10197915
0.87531239 0.093257479 3.9491754 10197915
0.90982151 0.093273044 3.9498348 10197915
0.93447876 0.093284182 3.9503059 10197915
0.97394258 0.093301974 3.9510596 10197915
1.0249387 0.093324997 3.952034 10197915
1.0759597 0.093348011 3.9530091 10197915
1.1253588 0.093370304 3.953953 10197915
1.1747817 0.093392603 3.9548974 10197915
1.2242279 0.093414903 3.955842 10197915
1.2736981 0.093437225 3.9567876 10197915
1.3248403 0.093460187 3.9577596 10197915
1.3760084 0.093483225 3.958735 10197915
1.4255511 0.093505591 3.9596822 10197915
1.4635491 0.093522735 3.960408 10197915
-0.51338983 0.091975436 4.0365167 2960685
-0.47501558 0.091992624 4.0372715 2960685
-0.42661083 0.09201432 4.0382228 5329233
-0.37651303 0.092036769 4.0392084 10197915
-0.32639074 0.092059217 4.040194 10197915
-0.27624404 0.092081688 4.0411792 10197915
-0.22607285 0.092104167 4.0421667 10197915
-0.17587711 0.092126645 4.0431528 10197915
-0.1256569 0.092149138 4.0441408 10197915
-0.075412162 0.092171669 4.0451283 10197915
-0.025142848 0.092194185 4.0461168 10197915
0.025151035 0.092216715 4.0471058 10197915
0.075469501 0.092239246 4.0480947 10197915
0.12581259 0.092261814 4.0490851 10197915
0.16106652 0.092277594 4.0497775 10197915
0.18625614 0.092288889 4.0502734 10197915
0.22489233 0.092306197 4.0510325 10197915
0.27362776 0.092328034 4.0519919 10197915
0.32406777 0.092350617 4.0529828 10197915
0.37453255 0.092373237 4.0539751 10197915
0.42502201 0.092395872 4.0549679 10197915
0.4755362 0.092418484 4.0559611 10197915
0.52607507 0.092441127 4.0569549 10197915
0.5749529 0.092463024 4.0579157 10197915
0.62385398 0.092484936 4.0588775 10197915
0.6744656 0.092507608 4.0598726 10197915
0.72510207 0.092530303 4.0608678 10197915
0.77576351 0.092553005 4.0618644 10197915
0.82475936 0.092574947 4.0628271 10197915
0.87377912 0.092596903 4.0637913 10197915
0.92451358 0.092619643 4.0647898 10197915
0.97527248 0.092642374 4.0657864 10197915
1.0260568 0.092665128 4.0667853 10197915
1.0751717 0.09268713 4.0677514 10197915
1.1243101 0.092709146 4.068717 10197915
1.1751676 0.092731938 4.0697174 10197915
1.22605 0.092754737 4.0707183 10197915
1.27526 0.092776775 4.0716853 10197915
1.3244936 0.092798844 4.0726538 10197915
1.3754497 0.092821687 4.0736566 10197915
1.4247305 0.092843749 4.0746245 10197915
1.4740354 0.092865855 4.0755944 10197915
1.5097528 0.092881866 4.0762973 10197915
-0.52182937 0.091277227 4.1570396 2960685
-0.47543699 0.091297865 4.1579795 2960685
-0.42558467 0.091320015 4.1589885 7303023
-0.37570852 0.091342203 4.1599989 10197915
-0.32580778 0.091364384 4.1610093 10197915
-0.27416092 0.091387354 4.162055 10197915
-0.22421122 0.091409557 4.1630669 10197915
-0.17423686 0.091431774 4.1640787 10197915
-0.12423845 0.091454007 4.1650901 10197915
-0.074215509 0.091476247 4.1661038 10197915
-0.024168475 0.091498502 4.1671176 10197915
0.024176033 0.091519997 4.1680961 10197915
0.074271224 0.091542259 4.1691108 10197915
0.12439053 0.091564551 4.1701255 10197915
0.17453451 0.091586843 4.1711416 10197915
0.22470267 0.091609173 4.1721568 10197915
0.27489552 0.09163148 4.1731734 10197915
0.32511258 0.091653787 4.17419 10197915
0.37535438 0.091676153 4.1752076 10197915
0.42562035 0.091698505 4.1762252 10197915
0.47417641 0.091720067 4.1772089 10197915
0.52449101 0.091742441 4.1782284 10197915
0.5748297 0.091764823 4.1792469 10197915
0.62519336 0.091787234 4.1802664 10197915
0.67558134 0.091809638 4.1812873 10197915
0.72425514 0.091831267 4.1822724 10197915
0.77469176 0.091853701 4.1832943 10197915
0.8251527 0.091876142 4.1843162 10197915
0.87389708 0.091897808 4.1853027 10197915
0.92440695 0.091920264 4.186326 10197915
0.97494096 0.091942742 4.1873488 10197915
1.0255001 0.091965213 4.1883726 10197915
1.0760837 0.091987722 4.1893978 10197915
1.1249464 0.092009425 4.1903863 10197915
1.1738325 0.092031173 4.1913772 10197915
1.224489 0.092053697 4.1924024 10197915
1.2751701 0.092076242 4.1934295 10197915
1.324127 0.092098013 4.1944208 10197915
1.3748571 0.092120565 4.1954479 10197915
1.4256117 0.092143141 4.196476 10197915
1.47464 0.092164941 4.1974688 10197915
1.5254437 0.092187516 4.1984968 10197915
1.5587419 0.092202358 4.199173 10197915
-0.55557561 0.090525098 4.2844634 2960685
-0.52547669 0.090538383 4.2850919 2960685
-0.47588426 0.090560257 4.2861271 2960685
-0.42626792 0.09058214 4.2871637 9145227
-0.37485406 0.090604804 4.2882361 10197915
-0.3234148 0.090627499 4.2893095 10197915
-0.2737247 0.090649419 4.2903476 10197915
-0.22401056 0.090671346 4.2913852 10197915
-0.17427237 0.09069328 4.2924237 10197915
-0.1245101 0.090715222 4.2934618 10197915
-0.074723735 0.090737186 4.2945013 10197915
-0.024913276 0.090759158 4.2955408 10197915
0.024921311 0.09078113 4.2965808 10197915
0.074780047 0.090803124 4.2976222 10197915
0.12466292 0.090825103 4.2986631 10197915
0.16922128 0.090844788 4.2995939 10197915
0.19418199 0.090855777 4.3001142 10197915
0.22450125 0.090869151 4.3007474 10197915
0.27445674 0.090891182 4.3017898 10197915
0.32443646 0.090913229 4.3028336 10197915
0.3744404 0.090935275 4.3038764 10197915
0.42446867 0.090957351 4.3049212 10197915
0.4745211 0.09097942 4.3059659 10197915
0.52459794 0.091001503 4.3070111 10197915
0.5746991 0.091023616 4.3080573 10197915
0.62482446 0.0910457 4.309103 10197915
0.67497438 0.091067836 4.3101506 10197915
0.7251485 0.091089964 4.3111978 10197915
0.77534711 0.091112085 4.3122449 10197915
0.82557011 0.091134265 4.3132939 10197915
0.87581742 0.091156408 4.314342 10197915
0.92608941 0.091178589 4.315392 10197915
0.97638565 0.091200769 4.316442 10197915
1.0249088 0.091222167 4.3174548 10197915
1.0734549 0.09124358 4.3184686 10197915
1.1238228 0.09126579 4.3195195 10197915
1.1742154 0.091288015 4.3205709 10197915
1.2246302 0.091310076 4.3216157 10197915
1.275072 0.091332324 4.322669 10197915
1.325538 0.091354586 4.3237219 10197915
1.3760287 0.091376849 4.3247752 10197915
1.4247397 0.091398329 4.3257928 10197915
1.4734735 0.091419838 4.3268099 10197915
1.5240364 0.091442116 4.3278651 10197915
1.5746239 0.091464438 4.3289213 10197915
1.6071572 0.091478817 4.3296022 10197915
-0.56406212 0.089737207 4.420527 2960685
-0.52387381 0.089754783 4.4213934 2960685
-0.47453123 0.089776352 4.4224558 4013373
-0.4251647 0.089797929 4.4235187 10197915
-0.37394485 0.089820333 4.4246225 10197915
-0.32453015 0.089841925 4.4256854 10197915
-0.27509147 0.089863561 4.4267516 10197915
-0.22562924 0.089885183 4.4278164 10197915
-0.17614292 0.089906819 4.4288821 10197915
-0.12479873 0.089929268 4.4299884 10197915
-0.075264141 0.089950927 4.4310551 10197915
-0.025705392 0.089972593 4.4321222 10197915
0.025713941 0.089995079 4.4332299 10197915
0.075321071 0.090016767 4.4342985 10197915
0.12495238 0.090038441 4.4353666 10197915
0.17460738 0.090060182 4.4364376 10197915
0.22428656 0.090081885 4.4375062 10197915
0.27583095 0.090104438 4.4386168 10197915
0.32555872 0.090126172 4.4396882 10197915
0.37531075 0.090147913 4.4407587 10197915
0.42508656 0.090169698 4.4418311 10197915
0.47488669 0.090191446 4.4429035 10197915
0.52471054 0.090213247 4.4439778 10197915
0.57455885 0.09023504 4.4450502 10197915
0.62443095 0.090256847 4.4461255 10197915
0.67432725 0.090278648 4.4471989 10197915
0.72424781 0.090300493 4.4482746 10197915
0.77419233 0.090322308 4.4493494 10197915
0.8019489 0.090334475 4.4499493 10197915
0.82601196 0.090344988 4.4504666 10197915
0.87415397 0.090366021 4.4515038 10197915
0.92417103 0.090387888 4.45258 10197915
0.97421253 0.090409771 4.4536581 10197915
1.0242779 0.090431675 4.4547367 10197915
1.0743679 0.090453573 4.4558153 10197915
1.1244819 0.09047547 4.4568944 10197915
1.1746205 0.090497419 4.4579754 10197915
1.2247831 0.090519346 4.4590559 10197915
1.2749702 0.090541288 4.4601374 10197915
1.3251814 0.09056323 4.4612179 10197915
1.3754174 0.090585217 4.4623003 10197915
1.4256768 0.090607166 4.4633822 10197915
1.4740987 0.090628348 4.4644256 10197915
1.5244068 0.090650342 4.4655089 10197915
1.574739 0.090672359 4.4665933 10197915
1.6250961 0.09069436 4.4676771 10197915
1.6586804 0.090709083 4.4684029 10197915
-2.3354998 -2.0322623 4.546277 2960685
1.6818793 -2.0162103 4.5424824 2039583
1.6822366 -1.9750321 4.5425262 2039583
1.6830463 -1.9292291 4.5425215 2039583
-2.3113532 -2.0525284 4.5937443 2960685
1.5788435 -2.0526681 4.5945482 2039583
-2.3192024 -2.0384359 4.5783658 2960685
1.5837955 -2.0253932 4.5921855 2039583
