# .PCD v0.7 - Point Cloud Data file format
VERSION 0.7
FIELDS x y z rgb
SIZE 4 4 4 4
TYPE F F F U
COUNT 1 1 1 1
WIDTH 1194
HEIGHT 1
VIEWPOINT 0 0 0 1 0 0 0
POINTS 1194
DATA ascii
1.0796494 0.10381768 4.1765494 10197915
1.1021578 0.10316609 4.1503367 10197915
2.0977235 0.10549144 4.1743131 10197915
2.1250472 0.10547435 4.173636 10197915
2.1745534 0.10544343 4.1724129 10197915
2.22403 0.10541251 4.1711898 10197915
2.2751825 0.10538056 4.1699257 10197915
2.3246007 0.10534972 4.1687045 10197915
2.3739893 0.10531885 4.1674833 10197915
2.4250515 0.10528698 4.1662226 10197915
2.4760816 0.1052551 4.1649604 10197915
2.5253823 0.1052243 4.1637416 10197915
2.5746534 0.10519353 4.1625242 10197915
2.6255937 0.1051617 4.1612649 10197915
2.6748071 0.10513099 4.1600494 2894892
2.7239904 0.10510025 4.1588335 2039583
2.7748404 0.1050685 4.1575766 2039583
2.8256598 0.10503675 4.156321 2039583
2.8747554 0.10500608 4.155107 2039583
2.9238231 0.10497545 4.1538949 2039583
2.9745517 0.10494375 4.1526408 2039583
3.0252504 0.10491209 4.1513877 2039583
3.0657883 0.10488678 4.1503863 2039583
1.028465 -1.8712397 4.2301397 2039583
1.0517588 -1.8649572 4.2031703 2039583
1.0301441 -1.8248695 4.2283406 2039583
1.0517818 -1.8249465 4.2032633 2039583
1.0300021 -1.7749914 4.2286534 2039583
1.0517638 -1.7753588 4.2034316 2039583
1.0301735 -1.7251098 4.2286015 2039583
1.0518857 -1.7249204 4.2034392 2039583
1.0301943 -1.6749773 4.2287269 2039583
1.051868 -1.6753269 4.2036066 2039583
1.0301002 -1.6247159 4.2289844 2039583
1.0518498 -1.6257287 4.2037759 2039583
1.0303068 -1.5746995 4.2288961 2039583
1.051972 -1.5752858 4.203783 2039583
1.0301424 -1.5249393 4.2292314 2039583
1.0519081 -1.5248017 4.2040071 2039583
1.0302328 -1.4750422 4.2292771 2039583
1.0520301 -1.4743561 4.2040153 2039583
1.0305878 -1.4252965 4.2290149 2039583
1.0520121 -1.4247458 4.2041831 2039583
1.0316921 -1.37512 4.2278914 2039583
1.0519941 -1.3751307 4.2043514 2039583
1.03169 -1.3251653 4.2280412 2039583
1.0521163 -1.3246804 4.2043595 2039583
1.0317184 -1.2749454 4.2281575 2039583
1.0520984 -1.2750601 4.2045279 2039583
1.0317624 -1.2251251 4.2282553 2039583
1.0520803 -1.2254354 4.2046962 2039583
1.0318481 -1.1751621 4.2283015 2039583
1.0535039 -1.1742649 4.2031908 2039583
1.0318331 -1.1249328 4.2284698 2039583
1.0535322 -1.1249305 4.2033043 2039583
1.0317576 -1.0749685 4.2287045 2039583
1.0534998 -1.0750319 4.2034903 2039583
1.0319036 -1.0249997 4.2286844 2039583
1.0536529 -1.0245759 4.2034612 2039583
1.0319173 -0.97503167 4.2288151 2039583
1.0536187 -0.97525185 4.2036481 2039583
1.0319018 -0.92505813 4.2289829 2039583
1.0535861 -0.92534238 4.203835 2039583
1.0319588 -0.87494481 4.2290654 2039583
1.0537393 -0.87488353 4.2038069 2039583
1.0319872 -0.82483649 4.2291818 2039583
1.0536424 -0.82495517 4.2040668 2039583
1.0320009 -0.77485269 4.2293143 2039583
1.0537956 -0.77449417 4.2040391 2039583
1.0320736 -0.72486943 4.2293782 2039583
1.0537632 -0.72457218 4.2042246 2039583
1.0321169 -0.67488462 4.2294769 2039583
1.0537288 -0.67522472 4.2044115 2039583
1.0320266 -0.62502629 4.2297268 2039583
1.053882 -0.62476069 4.2043839 2039583
1.0320692 -0.57503474 4.229825 2039583
1.0538496 -0.57482785 4.2045693 2039583
1.0322151 -0.52491122 4.2298064 2039583
1.0538154 -0.52546978 4.2047558 2039583
1.0321562 -0.4749096 4.2300267 2039583
1.0539683 -0.47500259 4.2047272 2039583
1.0323169 -0.42504224 4.2299852 2039583
1.0539359 -0.42505899 4.2049131 2039583
1.0322111 -0.37504199 4.2302542 2039583
1.0539035 -0.37511015 4.2050996 2039583
1.0321071 -0.32503384 4.2305226 2039583
1.0540564 -0.32463983 4.2050724 2039583
1.032343 -0.27489313 4.230402 2039583
1.0540221 -0.27526566 4.2052593 2039583
1.0325179 -0.22475514 4.2303481 2039583
1.0540512 -0.22474837 4.2053752 2039583
1.0323248 -0.17527345 4.2307172 2039583
1.0540804 -0.17422837 4.2054911 2039583
1.0320596 -0.12550527 4.2311692 2039583
1.0541086 -0.12544774 4.2056022 2039583
1.0326697 -0.07471808 4.230618 2039583
1.0541377 -0.074922174 4.205719 2039583
1.0332663 -0.024992483 4.2300801 2039583
1.0541668 -0.024393873 4.2058349 2039583
1.0338099 0.024531933 4.2296014 2039583
1.0541949 0.024394739 4.2059484 2039583
1.0340877 0.074785642 4.2294316 2302755
1.054224 0.074928559 4.2060647 2434341
-0.57092482 0.10715804 4.2402611 10197915
-0.52511114 0.10712943 4.2391281 10197915
-0.47403947 0.10709754 4.2378664 10197915
-0.42475775 0.10706675 4.2366481 10197915
-0.37550452 0.107036 4.2354317 10197915
-0.32627949 0.10700525 4.2342143 10197915
-0.2753264 0.10697343 4.2329555 10197915
-0.22440328 0.10694163 4.2316966 10197915
-0.17526503 0.10691094 4.2304831 10197915
-0.12615493 0.10688026 4.229269 10197915
-0.075320795 0.10684855 4.228013 10197915
-0.024516497 0.10681678 4.226757 10197915
0.024507141 0.10678618 4.2255459 10197915
0.075251825 0.1067545 4.2242913 10197915
0.12596676 0.10672282 4.2230382 10197915
0.17490415 0.10669226 4.2218294 10197915
0.22381353 0.1066617 4.2206202 10197915
0.27444008 0.10663009 4.2193699 10197915
0.32503682 0.10659848 4.2181187 10197915
0.37386039 0.10656799 4.2169127 10197915
0.42439798 0.10653643 4.2156634 10197915
0.474906 0.10650492 4.214416 10197915
0.52538377 0.10647339 4.2131686 10197915
0.57583177 0.10644185 4.2119203 10197915
0.62451178 0.10641141 4.2107167 10197915
0.67490089 0.10637994 4.2094707 10197915
0.72526062 0.10634848 4.2082257 10197915
0.77559024 0.10631705 4.2069826 10197915
0.82589042 0.10628563 4.2057385 10197915
0.87442786 0.10625534 4.2045398 10197915
0.92466933 0.10622393 4.2032976 10197915
0.97488153 0.1061926 4.2020574 10197915
1.028187 0.10431631 4.217391 10197915
1.0543315 0.10414336 4.2037129 10197915
0.98178434 -1.9084429 4.2841864 2039583
1.004316 -1.902208 4.2579713 2039583
0.98445731 -1.8750925 4.2811742 2039583
1.0052534 -1.8747141 4.2569613 2039583
0.98430419 -1.8249989 4.2814999 2039583
1.0053051 -1.8249375 4.2570491 2039583
0.98447531 -1.774899 4.2814517 2039583
1.0053083 -1.7751673 4.2571931 2039583
0.98441154 -1.7249569 4.2816734 2039583
1.0053358 -1.724949 4.2573109 2039583
0.98456466 -1.6748528 4.2816439 2039583
1.0053633 -1.6747285 4.2574282 2039583
0.98450154 -1.6249063 4.2818651 2039583
1.0053667 -1.6249481 4.2575717 2039583
0.98452866 -1.5752795 4.2819819 2039583
1.0054184 -1.5751591 4.2576599 2039583
0.98459083 -1.5250067 4.2820587 2039583
1.0054699 -1.5253685 4.2577467 2039583
0.98458248 -1.4747281 4.282218 2039583
1.0055461 -1.4751334 4.2578077 2039583
0.98466384 -1.4249315 4.2822704 2039583
1.0057777 -1.4240054 4.25769 2039583
0.98463684 -1.3749723 4.2824512 2039583
1.0069485 -1.374769 4.2564735 2039583
0.98473579 -1.3250083 4.2824845 2039583
1.0069377 -1.3247191 4.2566342 2039583
0.98463625 -1.2750437 4.2827482 2039583
1.006965 -1.2750238 4.2567501 2039583
0.98482466 -1.2249157 4.2826772 2039583
1.0070316 -1.2249706 4.2568216 2039583
0.98474419 -1.174944 4.282918 2039583
1.00702 -1.1752733 4.2569828 2039583
0.98477131 -1.1249703 4.2830362 2039583
1.0070473 -1.1252173 4.2571001 2039583
0.98479801 -1.0749934 4.283154 2039583
1.0070363 -1.0748075 4.2572618 2039583
0.98487914 -1.0251752 4.2832074 2039583
1.0071032 -1.0247444 4.2573333 2039583
0.98490566 -0.97503096 4.2833257 2039583
1.0071303 -0.97503257 4.2574496 2039583
0.98487902 -0.92504841 4.283505 2039583
1.0071967 -0.92531866 4.2575197 2039583
0.98517859 -0.87531996 4.2833047 2039583
1.0072631 -0.875251 4.2575912 2039583
0.98633599 -0.82491833 4.2821078 2039583
1.0071349 -0.82517499 4.2578888 2039583
0.98637301 -0.77508849 4.2822104 2039583
1.0072017 -0.77509993 4.2579603 2039583
0.98638958 -0.72525769 4.28234 2039583
1.0072681 -0.72502345 4.2580318 2039583
0.9864462 -0.67542183 4.2824221 2039583
1.0073346 -0.67494589 4.2581019 2039583
0.98649293 -0.6254074 4.282517 2039583
1.0074011 -0.62486726 4.2581739 2039583
0.9864502 -0.57521343 4.2827134 2039583
1.0073508 -0.57512778 4.2583809 2039583
0.98658675 -0.52501947 4.2827044 2039583
1.0072999 -0.52538264 4.2585864 2039583
0.98645508 -0.47499576 4.2830071 2039583
1.0073668 -0.47529408 4.2586589 2039583
0.98650223 -0.42496884 4.2831011 2039583
1.0074718 -0.42485732 4.2586856 2039583
0.98657846 -0.37511837 4.2831597 2039583
1.007539 -0.3744148 4.2587576 2039583
0.98656648 -0.32508561 4.2833242 2039583
1.0074887 -0.32465652 4.2589645 2039583
0.98664314 -0.27487639 4.2833834 2039583
1.0075159 -0.27525964 4.2590799 2039583
0.98673892 -0.22466777 4.2834201 2039583
1.0075431 -0.22586015 4.2591949 2039583
0.98684454 -0.1742826 4.2834468 2039583
1.0074553 -0.17572755 4.2594447 2039583
0.9867143 -0.12422928 4.2837481 2039583
1.0077126 -0.12460717 4.2592983 2039583
0.98674089 -0.07453952 4.2838631 2039583
1.0076268 -0.074116431 4.2595468 2039583
0.98676789 -0.024847122 4.2839799 2039583
1.0085986 -0.023696769 4.2585664 2039583
0.98679417 0.024848012 4.2840972 2039583
1.0090626 0.024697633 4.2581711 2039583
0.98682117 0.074545816 4.2842135 2105376
1.0090898 0.074094661 4.2582846 2039583
0.98683655 0.10294571 4.2842798 10197915
1.0091052 0.10232267 4.2583504 10197915
2.2817724 0.10509337 4.2995296 10197915
2.3256969 0.105066 4.2984095 10197915
2.3748665 0.10503537 4.2971573 10197915
2.4240074 0.10500475 4.2959042 10197915
2.4748728 0.10497308 4.2946086 10197915
2.5257072 0.10494141 4.2933125 10197915
2.5747602 0.10491084 4.2920623 10197915
2.6237848 0.10488034 4.2908139 10197915
2.6745296 0.10484871 4.2895203 10197915
2.725244 0.10481711 4.2882276 8158332
2.7741811 0.10478664 4.2869806 2039583
2.8248346 0.10475508 4.2856889 2039583
2.8754592 0.10472357 4.2843995 2039583
2.9243083 0.10469313 4.283155 2039583
2.9748719 0.10466161 4.2818661 2039583
3.0254064 0.10463015 4.2805786 2039583
3.0741684 0.10459977 4.2793345 2039583
3.1246426 0.10456835 4.2780499 2039583
3.1750863 0.10453691 4.2767634 2039583
3.2254992 0.10450551 4.2754788 2039583
0.93699861 -1.9200256 4.3362951 2039583
0.95849419 -1.9145844 4.311285 2039583
0.93770915 -1.875037 4.3356028 2039583
0.95902157 -1.8751996 4.3107877 2039583
0.93764436 -1.8250167 4.3358274 2039583
0.95904803 -1.8252437 4.3109055 2039583
0.93770856 -1.7749938 4.3359013 2039583
0.9590742 -1.7752852 4.3110237 2039583
0.93769556 -1.7249689 4.3360643 2039583
0.95910037 -1.7253245 4.311141 2039583
0.93772131 -1.6747162 4.336184 2039583
0.95912647 -1.6753608 4.3112602 2039583
0.93765694 -1.6246815 4.3364086 2039583
0.9591527 -1.6253943 4.311378 2039583
0.93782485 -1.5751015 4.336359 2039583
0.95917898 -1.5754256 4.3114953 2039583
0.93779796 -1.5252883 4.3365374 2039583
0.95920521 -1.5254536 4.3116136 2039583
0.93782413 -1.4750239 4.336658 2039583
0.95928907 -1.475222 4.311666 2039583
0.93794018 -1.4249823 4.3366704 2039583
0.95925802 -1.4249922 4.3118496 2039583
0.93788821 -1.3751646 4.3368797 2039583
0.95928431 -1.375012 4.3119683 2039583
0.93790054 -1.3251162 4.3370128 2039583
0.95931065 -1.3250294 4.3120871 2039583
0.9378621 -1.2750655 4.3372078 2039583
0.95933664 -1.2750435 4.3122044 2039583
0.9379909 -1.2252386 4.3372045 2039583
0.9593631 -1.2250553 4.3123221 2039583
0.93797773 -1.1751816 4.337369 2039583
0.95938927 -1.1750644 4.3124404 2039583
0.93800366 -1.1248988 4.3374891 2039583
0.9594155 -1.1250703 4.3125582 2039583
0.93809408 -1.0748376 4.3375325 2039583
0.95944154 -1.0750738 4.3126764 2039583
0.93801594 -1.0249999 4.3377714 2039583
0.95955402 -1.0248219 4.3126955 2039583
0.93817109 -0.97515965 4.3377385 2039583
0.95949453 -0.97456354 4.3129125 2039583
0.93810624 -0.92508847 4.3379636 2039583
0.9595207 -0.92455876 4.3130322 2039583
0.93811893 -0.87501764 4.3380976 2039583
0.95977354 -0.8741619 4.3128867 2039583
0.93815744 -0.82494169 4.3382001 2039583
0.96105248 -0.82502198 4.3115439 2039583
0.93941784 -0.77529174 4.3368802 2039583
0.96110278 -0.77502865 4.3116336 2039583
0.93970597 -0.72508168 4.3366952 2039583
0.96104187 -0.72481006 4.3118548 2039583
0.93967277 -0.67505139 4.3368831 2039583
0.9610678 -0.67481083 4.3119721 2039583
0.93978727 -0.62501872 4.3368969 2039583
0.96109396 -0.62480867 4.3120894 2039583
0.93972403 -0.57498127 4.3371201 2039583
0.96121019 -0.57502788 4.3121033 2039583
0.93975025 -0.52468473 4.3372388 2039583
0.96114683 -0.52524406 4.3123245 2039583
0.93968701 -0.47463706 4.3374619 2039583
0.96117312 -0.47523379 4.3124423 2039583
0.93980128 -0.42459574 4.3374763 2039583
0.96119916 -0.42522082 4.3125606 2039583
0.93976784 -0.37454271 4.3376637 2039583
0.96122557 -0.37520498 4.3126798 2039583
0.93982303 -0.32474989 4.3377481 2039583
0.96125185 -0.32518658 4.3127966 2039583
0.93990797 -0.27521563 4.3377957 2039583
0.96127796 -0.27516538 4.3129148 2039583
0.94005316 -0.22594525 4.3377743 2039583
0.96130449 -0.22514144 4.3130326 2039583
0.93992889 -0.17612633 4.3380651 2039583
0.96133089 -0.17511477 4.3131514 2039583
0.93995494 -0.12580797 4.3381848 2039583
0.96135694 -0.12508537 4.3132682 2039583
0.93998075 -0.075486794 4.3383045 2039583
0.96138334 -0.075053237 4.3133864 2039583
0.94000673 -0.025162879 4.3384247 2039583
0.96140957 -0.025018359 4.3135047 2039583
0.94003242 0.025163811 4.3385434 2039583
0.96143597 0.025019268 4.313623 2039583
0.94005823 0.075493269 4.3386631 2302755
0.96146238 0.075059615 4.3137407 2302755
0.32614073 0.10631141 4.3493619 10197915
0.37468505 0.10628118 4.348125 10197915
0.42499819 0.10624985 4.3468428 10197915
0.47528175 0.10621855 4.3455625 10197915
0.5255357 0.10618724 4.3442817 10197915
0.57575989 0.10615595 4.3430014 10197915
0.62595421 0.10612463 4.3417201 10197915
0.67611939 0.1060934 4.3404417 10197915
0.72625488 0.10606214 4.3391633 10197915
0.77636099 0.10603096 4.3378873 10197915
0.82643747 0.10599976 4.3366108 10197915
0.87648475 0.10596858 4.3353357 10197915
0.93096054 0.10476983 4.3353186 10197915
0.96147722 0.10365523 4.3138084 10197915
2.1797769 0.1051569 4.3021278 10197915
2.2237551 0.1051295 4.3010073 10197915
2.2554069 0.1051098 4.3002014 10197915
0.89697409 -1.9555502 4.382792 2039583
0.90611422 -1.9530687 4.3721571 2039583
0.89698923 -1.9247153 4.3828664 2039583
0.91291797 -1.9247521 4.3643208 2039583
0.8969593 -1.8748256 4.3830485 2039583
0.91306061 -1.8749694 4.3643022 2039583
0.89703816 -1.8249466 4.3831058 2039583
0.91310906 -1.8249941 4.3643942 2039583
0.8971169 -1.775067 4.3831615 2039583
0.91313386 -1.7750182 4.3645139 2039583
0.89708722 -1.7251689 4.3833451 2039583
0.91313607 -1.7250404 4.3646584 2039583
0.89711219 -1.6743686 4.3834662 2039583
0.91318363 -1.675263 4.3647509 2039583
0.89708245 -1.6244615 4.3836498 2039583
0.91318566 -1.6250752 4.3648992 2039583
0.89721495 -1.5754912 4.3836408 2039583
0.91321069 -1.5750878 4.3650188 2039583
0.89718521 -1.5255791 4.3838239 2039583
0.91323566 -1.5250982 4.3651381 2039583
0.89721006 -1.4747673 4.3839459 2039583
0.91333151 -1.4751071 4.3651743 2039583
0.89718026 -1.4248472 4.3841286 2039583
0.91328561 -1.4251103 4.365376 2039583
0.89725918 -1.3749498 4.3841848 2039583
0.91333401 -1.3749093 4.365469 2039583
0.89733809 -1.3250521 4.3842411 2039583
0.91331208 -1.3251098 4.3656425 2039583
0.89730817 -1.275123 4.3844247 2039583
0.91336048 -1.275108 4.3657355 2039583
0.89733309 -1.2242975 4.3845472 2039583
0.91347867 -1.2249035 4.365747 2039583
0.89730334 -1.1743597 4.3847299 2039583
0.91336352 -1.1748946 4.3660278 2039583
0.8974359 -1.1253781 4.3847208 2039583
0.9134354 -1.1250812 4.3660936 2039583
0.89740622 -1.075435 4.3849034 2039583
0.91353029 -1.0750663 4.3661318 2039583
0.89743108 -1.0245982 4.3850255 2039583
0.91355598 -1.0250508 4.3662505 2039583
0.89740127 -0.97464663 4.3852086 2039583
0.9135102 -0.97503078 4.3664517 2039583
0.89753419 -0.92566007 4.3851995 2039583
0.91346514 -0.92500544 4.3666534 2039583
0.89750439 -0.87570316 4.3853827 2039583
0.91360712 -0.87498081 4.3666363 2039583
0.89752924 -0.82485533 4.3855047 2039583
0.91358566 -0.82495385 4.3668103 2039583
0.89755422 -0.77400464 4.3856268 2039583
0.91493362 -0.77479231 4.3653898 2039583
0.8975783 -0.72496754 4.3857441 2039583
0.91507566 -0.72503144 4.3653727 2039583
0.89760238 -0.6759277 4.3858619 2039583
0.91512161 -0.6747719 4.365468 2039583
0.89762735 -0.62506878 4.3859839 2039583
0.91522062 -0.6246894 4.3655 2039583
0.89765245 -0.57420713 4.386106 2039583
0.915236 -0.57497042 4.3656325 2039583
0.89767623 -0.52515912 4.3862238 2039583
0.91511303 -0.52506906 4.3659225 2039583
0.89770043 -0.4761087 4.3863416 2039583
0.91512692 -0.47497869 4.3660555 2039583
0.89772552 -0.42523864 4.3864632 2039583
0.91523612 -0.42506781 4.3660765 2039583
0.89775044 -0.37436578 4.3865857 2039583
0.91534555 -0.37515724 4.3660979 2039583
0.89777464 -0.32530716 4.3867035 2039583
0.91545504 -0.3252475 4.3661175 2039583
0.89779872 -0.2762458 4.3868213 2039583
0.91531146 -0.27496207 4.3664341 2039583
0.89782363 -0.22536471 4.3869433 2039583
0.91533649 -0.22431731 4.3665547 2039583
0.89784861 -0.17448072 4.3870649 2039583
0.91510546 -0.1743717 4.3669739 2039583
0.89781886 -0.12447043 4.387249 2039583
0.91564637 -0.12557407 4.3664889 2039583
0.89795154 -0.075462811 4.3872395 2039583
0.91541094 -0.075984545 4.3669105 2039583
0.89792186 -0.02544708 4.3874221 2039583
0.91543645 -0.025328802 4.3670311 2039583
0.89794677 0.025448021 4.3875456 2039583
0.91546184 0.025329744 4.3671522 2039583
0.89802581 0.075469255 4.3876019 2302755
0.91548723 0.075991087 4.3672733 2434341
-0.60511458 0.10689149 4.3730931 10197915
-0.57603043 0.10687334 4.3723512 10197915
-0.52515513 0.10684165 4.3710537 10197915
-0.47430998 0.10680999 4.3697591 10197915
-0.42530906 0.10677945 4.3685093 10197915
-0.37633657 0.10674898 4.3672628 10197915
-0.32557958 0.10671733 4.3659678 10197915
-0.27485269 0.10668577 4.3646765 10197915
-0.22415577 0.10665417 4.3633838 10197915
-0.17529775 0.10662376 4.3621397 10197915
-0.1264679 0.10659333 4.3608947 10197915
-0.075858809 0.10656182 4.3596053 10197915
-0.025279613 0.1065303 4.3583159 10197915
0.025269669 0.10649883 4.3570285 10197915
0.075789079 0.10646735 4.3557405 10197915
0.12627865 0.10643589 4.354455 10197915
0.17493695 0.10640561 4.3532147 10197915
0.22356717 0.1063753 4.351975 10197915
0.27396956 0.10634393 4.3506913 10197915
0.30095977 0.1063271 4.3500032 10197915
0.89749527 0.10241482 4.3882995 10197915
0.91550076 0.10313215 4.3673377 10197915
-1.2372271 -1.9834681 4.4412413 2960685
2.2397983 0.10481816 4.4387355 10197915
2.2760861 0.1047956 4.4377813 10197915
2.3250515 0.10476521 4.4364934 10197915
2.3739877 0.1047348 4.4352059 10197915
2.4247069 0.10470331 4.4338722 10197915
2.4753957 0.10467184 4.4325385 10197915
2.5260537 0.10464034 4.4312057 10197915
2.5748739 0.10461005 4.4299231 10197915
2.6236653 0.10457973 4.4286385 10197915
2.6742344 0.10454832 4.4273086 10197915
2.7247734 0.10451695 4.4259796 10197915
2.7752812 0.10448556 4.4246507 10197915
2.8257599 0.10445421 4.4233232 5789784
2.8762078 0.10442287 4.4219961 2039583
2.9248247 0.10439266 4.4207172 2039583
2.9734147 0.1043625 4.4194398 2039583
3.0237737 0.1043312 4.4181151 2039583
3.0741024 0.10429996 4.416791 2039583
3.1244013 0.10426871 4.4154682 2039583
3.17467 0.10423748 4.4141455 2039583
3.2249091 0.10420629 4.4128242 2039583
3.2751176 0.1041751 4.4115038 2039583
3.3252957 0.10414392 4.4101834 2039583
3.3521669 0.10412725 4.4094777 2039583
-1.1788337 -2.0046663 4.4913607 2960685
-1.2103875 -1.9764615 4.4643044 2960685
-1.1841812 -1.9751294 4.486815 2960685
-1.2082889 -1.9250607 4.4661899 2960685
-1.1849638 -1.9256254 4.4862232 2960685
-1.2083063 -1.8747503 4.4662557 2960685
-1.1856874 -1.8749188 4.4856815 2960685
-1.2082353 -1.824827 4.4663968 2960685
-1.1856487 -1.8249542 4.485795 2960685
-1.2083416 -1.7748845 4.4663849 2960685
-1.1857111 -1.7751763 4.4858203 2960685
-1.2082701 -1.724957 4.4665265 2960685
-1.1856384 -1.7250204 4.4859643 2960685
-1.2083768 -1.6750132 4.4665141 2960685
-1.1857798 -1.6750578 4.4859228 2960685
-1.2083051 -1.6250811 4.4666548 2960685
-1.1857061 -1.625267 4.4860654 2960685
-1.2084117 -1.5751358 4.4666429 2960685
-1.185746 -1.575117 4.4861121 2960685
-1.2083403 -1.5251993 4.4667854 2960685
-1.1857409 -1.5249513 4.4861937 2960685
-1.2084465 -1.4752529 4.466773 2960685
-1.1858371 -1.4749839 4.4861917 2960685
-1.2084204 -1.4249409 4.4668765 2960685
-1.1858317 -1.4251906 4.4862781 2960685
-1.2084377 -1.3749949 4.4669414 2960685
-1.1857591 -1.3750291 4.4864192 2960685
-1.2084556 -1.3250482 4.4670062 2960685
-1.1858662 -1.3248634 4.4864078 2960685
-1.2084725 -1.2750999 4.4670715 2960685
-1.1858381 -1.2750702 4.4865112 2960685
-1.2084901 -1.2251498 4.4671354 2960685
-1.1858885 -1.2250879 4.4865479 2960685
-1.2085077 -1.1751984 4.4671998 2960685
-1.1859401 -1.1751077 4.4865828 2960685
-1.2085257 -1.1252457 4.4672647 2960685
-1.1858226 -1.124934 4.486763 2960685
-1.2085428 -1.0752915 4.4673305 2960685
-1.18615 -1.075294 4.4865623 2960685
-1.2091116 -1.0403701 4.4668975 2960685
-1.1934909 -1.0455358 4.4803057 2960685
-0.06897144 0.10625204 4.4994564 10197915
-0.024227722 0.10622425 4.4982791 10197915
0.024218582 0.10619415 4.497005 10197915
0.074498989 0.10616294 4.4956827 10197915
0.12475018 0.10613172 4.4943609 10197915
0.17497149 0.10610055 4.4930406 10197915
0.22516361 0.10606934 4.4917192 10197915
0.27532601 0.10603821 4.4904013 10197915
0.32545915 0.10600706 4.4890823 10197915
0.37556261 0.10597597 4.4877648 10197915
0.42563695 0.10594486 4.4864478 10197915
0.47568169 0.1059138 4.4851327 10197915
0.52569735 0.10588272 4.4838171 10197915
0.57568324 0.10585169 4.4825025 10197915
0.62563986 0.10582057 4.481185 10197915
0.67556727 0.10578959 4.4798727 10197915
0.72546566 0.10575859 4.4785595 10197915
0.77533466 0.10572762 4.4772482 10197915
0.82517457 0.10569666 4.4759378 10197915
0.87498486 0.1056657 4.4746265 10197915
0.90633368 0.10564626 4.473803 10197915
-1.1577536 -2.0088642 4.5094595 2960685
-1.1289328 -2.014338 4.5342045 2960685
-1.1581074 -1.9748694 4.5092101 2960685
-1.1305215 -1.9751103 4.5329022 2960685
-1.159261 -1.9240204 4.5082998 2960685
-1.1305947 -1.9250617 4.5329194 2960685
-1.1597639 -1.875056 4.5079479 2960685
-1.1304767 -1.8750132 4.5331006 2960685
-1.1598133 -1.8249247 4.5079851 2960685
-1.1306384 -1.8251131 4.533042 2960685
-1.1598632 -1.7750593 4.5080218 2960685
-1.13051 -1.7749037 4.5332327 2960685
-1.1597493 -1.7251897 4.5081983 2960685
-1.1305262 -1.7248485 4.5332985 2960685
-1.1598955 -1.6747905 4.5081544 2960685
-1.1306877 -1.6749468 4.5332403 2960685
-1.1598482 -1.6249182 4.5082741 2960685
-1.1306947 -1.6250446 4.5333142 2960685
-1.1598004 -1.5750427 4.5083952 2960685
-1.1306044 -1.5751384 4.5334725 2960685
-1.1599475 -1.5249093 4.5083489 2960685
-1.1306403 -1.5250788 4.5335207 2960685
-1.1598333 -1.475026 4.5085268 2960685
-1.1306757 -1.4750178 4.5335703 2960685
-1.160013 -1.4248898 4.5084529 2960685
-1.1306536 -1.4249476 4.5336685 2960685
-1.1598995 -1.3750128 4.5086298 2960685
-1.1306894 -1.3748837 4.5337172 2960685
-1.1599491 -1.3251246 4.5086675 2960685
-1.130774 -1.3249767 4.5337257 2960685
-1.1599661 -1.2749885 4.5087337 2960685
-1.1307608 -1.275059 4.5338159 2960685
-1.1600157 -1.2250987 4.508769 2960685
-1.1308155 -1.2249885 4.5338497 2960685
-1.1599993 -1.1749506 4.5088634 2960685
-1.130639 -1.1749204 4.53408 2960685
-1.1599838 -1.1247996 4.5089579 2960685
-1.1308397 -1.1250012 4.5339885 2960685
-1.1608293 -1.0813111 4.5083013 2960685
-1.1353683 -1.0898135 4.5301557 2960685
-0.6133613 0.10659016 4.5137749 10197915
-0.57396013 0.10656565 4.5127368 10197915
-0.52520186 0.10653539 4.5114551 10197915
-0.47459796 0.10650396 4.5101242 10197915
-0.42402336 0.10647254 4.5087938 10197915
-0.37535036 0.10644232 4.5075145 10197915
-0.32483473 0.10641094 4.5061851 10197915
-0.27434853 0.10637959 4.504858 10197915
-0.2257604 0.1063494 4.5035791 10197915
-0.17533293 0.10631811 4.502254 10197915
-0.12493475 0.10628679 4.5009279 10197915
-0.095082164 0.10626823 4.5001426 10197915
-1.058596 -2.0527542 4.5945535 2960685
-1.1056349 -2.0188262 4.5542073 2960685
-1.0748981 -2.0237134 4.5805979 2960685
-1.1055605 -1.9749901 4.5543413 2960685
-1.0758983 -1.9749308 4.5798187 2960685
-1.1056356 -1.9250135 4.5543566 2960685
-1.0758175 -1.924993 4.5799675 2960685
-1.1057106 -1.8750372 4.5543723 2960685
-1.0757533 -1.8749293 4.5801015 2960685
-1.1057854 -1.825061 4.5543876 2960685
-1.0759603 -1.8248656 4.5800042 2960685
-1.1056249 -1.7750916 4.5546064 2960685
-1.0758485 -1.7747965 4.5801797 2960685
-1.1056998 -1.7251109 4.5546217 2960685
-1.075864 -1.7248534 4.580246 2960685
-1.1057748 -1.6751316 4.554637 2960685
-1.0758955 -1.675036 4.5802999 2960685
-1.1058497 -1.6251518 4.5546517 2960685
-1.076039 -1.6250925 4.5802565 2960685
-1.1056889 -1.5751696 4.5548701 2960685
-1.075911 -1.5750182 4.5804482 2960685
-1.1057642 -1.5251858 4.5548863 2960685
-1.0760223 -1.5250679 4.5804305 2960685
-1.105839 -1.475202 4.5549016 2960685
-1.0759097 -1.4749925 4.5806065 2960685
-1.1059138 -1.4252187 4.5549164 2960685
-1.076038 -1.4249164 4.5805783 2960685
-1.1057531 -1.3752247 4.5551343 2960685
-1.0759095 -1.3749635 4.5807672 2960685
-1.1058283 -1.3252374 4.5551505 2960685
-1.0759728 -1.3250082 4.5807934 2960685
-1.1059893 -1.2747843 4.5550928 2960685
-1.0760851 -1.27518 4.5807767 2960685
-1.1058898 -1.2247854 4.5552583 2960685
-1.0761787 -1.2250969 4.5807757 2960685
-1.1058174 -1.175256 4.5553994 2960685
-1.0772045 -1.1752738 4.5799742 2960685
-1.1060133 -1.12622 4.5553102 2960685
-1.078703 -1.1312979 4.5787582 2960685
-1.1090534 -1.0996232 4.5527411 2960685
2.3262353 0.10444327 4.5836921 10197915
2.3749228 0.10441314 4.5823689 10197915
2.4254532 0.10438184 4.5809951 10197915
2.4759531 0.10435057 4.5796232 10197915
2.5245547 0.10432049 4.5783029 10197915
2.5749948 0.10428923 4.5769315 10197915
2.6254056 0.10425805 4.5755615 10197915
2.6739206 0.104228 4.574244 10197915
2.7242713 0.1041968 4.5728745 10132122
2.7745931 0.10416566 4.5715075 10132122
2.8248842 0.10413452 4.5701413 10132122
2.875145 0.10410336 4.5687747 10132122
2.9253757 0.10407228 4.56741 4605510
2.9755771 0.10404119 4.5660458 2039583
3.0257475 0.10401013 4.564682 2039583
3.0758893 0.10397907 4.5633206 2039583
3.1241446 0.10394919 4.5620074 2039583
3.174227 0.10391819 4.560647 2039583
3.2242796 0.1038872 4.5592871 2039583
3.2743015 0.10385621 4.5579271 2039583
3.3242953 0.10382526 4.5565696 2039583
3.3742576 0.10379433 4.5552111 2039583
3.424191 0.10376341 4.5538535 2039583
3.4556167 0.10374396 4.5530009 2039583
-1.0504144 -2.0550759 4.6015768 2960685
-1.0210562 -2.0600076 4.6267848 2960685
-0.99718302 -2.0648339 4.6472807 2960685
-1.0504231 -2.0264969 4.601615 2960685
-1.0246811 -2.0248253 4.6237268 2960685
-0.99730289 -2.0254114 4.6472406 2960685
-1.0504389 -1.9750539 4.6016846 2960685
-1.0247786 -1.9749222 4.6237249 2960685
-0.99731743 -1.9753823 4.6473088 2960685
-1.0504547 -1.9236094 4.6017537 2960685
-1.0248753 -1.9250182 4.6237216 2960685
-0.99733198 -1.9253519 4.6473765 2960685
-1.0504699 -1.8740687 4.601819 2960685
-1.024841 -1.8749853 4.6238308 2960685
-0.99734646 -1.87532 4.6474442 2960685
-1.0504849 -1.8245263 4.6018858 2960685
-1.024823 -1.8250774 4.6239266 2960685
-0.99736112 -1.8252864 4.647511 2960685
-1.0505 -1.7749829 4.6019521 2960685
-1.02492 -1.7750429 4.6239214 2960685
-0.99737549 -1.7752515 4.6475787 2960685
-1.0505152 -1.7254376 4.6020184 2960685
-1.0249021 -1.7248775 4.6240168 2960685
-0.99739003 -1.7252154 4.6476469 2960685
-1.0505302 -1.6758912 4.6020842 2960685
-1.0249826 -1.6748413 4.6240273 2960685
-0.99740463 -1.6751777 4.6477141 2960685
-1.0505453 -1.6263434 4.6021504 2960685
-1.0248827 -1.6249279 4.6241951 2960685
-0.997419 -1.6251386 4.6477814 2960685
-1.0505611 -1.5748881 4.6022191 2960685
-1.0248976 -1.5751404 4.6242609 2960685
-0.99743354 -1.5750979 4.6478496 2960685
-1.0505767 -1.5234317 4.6022882 2960685
-1.024978 -1.525097 4.6242723 2960685
-0.99744809 -1.525056 4.6479168 2960685
-1.0505918 -1.4738793 4.602354 2960685
-1.0249271 -1.4750531 4.6243944 2960685
-0.99746251 -1.4750124 4.6479845 2960685
-1.050607 -1.4243257 4.6024208 2960685
-1.0249584 -1.4250058 4.6244493 2960685
-0.99747699 -1.4249674 4.6480527 2960685
-1.0506222 -1.3747705 4.6024866 2960685
-1.0249567 -1.3749586 4.6245303 2960685
-0.99749148 -1.374921 4.6481199 2960685
-1.0506371 -1.3252139 4.6025534 2960685
-1.0250862 -1.3249106 4.6244993 2960685
-0.9975059 -1.324873 4.6481867 2960685
-1.0506524 -1.2756559 4.6026196 2960685
-1.0249869 -1.2748599 4.6246648 2960685
-0.99752033 -1.2748235 4.6482544 2960685
-1.0506675 -1.2260965 4.6026855 2960685
-1.0251163 -1.224936 4.6246347 2960685
-0.99753487 -1.2247727 4.6483226 2960685
-1.0520688 -1.1737467 4.6015654 2960685
-1.0250492 -1.1748834 4.6247706 2960685
-0.99754947 -1.1747203 4.6483898 2960685
-1.0522052 -1.1332755 4.6015129 2960685
-1.0249583 -1.1324892 4.6249151 2960685
-0.99756175 -1.1323674 4.648447 2960685
-0.10787682 0.10595034 4.6498322 10197915
-0.075115278 0.1059301 4.6489439 10197915
-0.025031906 0.10589908 4.6475821 10197915
0.025022151 0.10586809 4.6462216 10197915
0.075046927 0.10583711 4.6448636 10197915
0.12504242 0.10580616 4.6435041 10197915
0.17500871 0.10577523 4.6421466 10197915
0.22494572 0.10574429 4.640789 10197915
0.27485368 0.1057134 4.6394339 10197915
0.32473233 0.10568252 4.6380787 10197915
0.37458196 0.10565165 4.636724 10197915
0.42440242 0.10562079 4.6353693 10197915
0.47419378 0.10558999 4.6340175 10197915
0.5239563 0.10555919 4.6326656 10197915
0.57368946 0.10552837 4.6313138 10197915
0.62339348 0.10549756 4.629961 10197915
0.67497855 0.10546561 4.6285586 10197915
0.7265327 0.10543367 4.6271572 10197915
0.77614772 0.10540295 4.6258087 10197915
0.8257342 0.10537226 4.6244621 10197915
0.87529153 0.10534157 4.6231151 10197915
0.92101139 0.10531326 4.6218719 10197915
-0.9364574 -2.1007018 4.6993799 2960685
-0.97120315 -2.0696397 4.6695871 2960685
-0.94299823 -2.0744474 4.6938038 2960685
-0.97278047 -2.0249112 4.6683021 2960685
-0.94316834 -2.0250871 4.693737 2960685
-0.97293228 -1.9749523 4.6682534 2960685
-0.94312906 -1.9753292 4.6938505 2960685
-0.97280902 -1.924993 4.668438 2960685
-0.94314301 -1.9251866 4.6939187 2960685
-0.97292113 -1.8750327 4.6684222 2960685
-0.9431566 -1.8750424 4.6939864 2960685
-0.97283727 -1.8250704 4.6685767 2960685
-0.94322217 -1.8248912 4.6940112 2960685
-0.97290993 -1.7749583 4.6685934 2960685
-0.94318438 -1.7747499 4.6941247 2960685
-0.97278702 -1.7249922 4.6687789 2960685
-0.94319785 -1.7249902 4.694191 2960685
-0.97287905 -1.6750239 4.6687794 2960685
-0.9432115 -1.6752282 4.6942596 2960685
-0.97297198 -1.6250575 4.6687779 2960685
-0.94469303 -1.625344 4.6930671 2960685
-0.9729076 -1.5749383 4.6689138 2960685
-0.94489866 -1.5748346 4.6929717 2960685
-0.97303975 -1.5249658 4.6688805 2960685
-0.94494474 -1.5247933 4.6930113 2960685
-0.97293621 -1.4749949 4.6690507 2960685
-0.94502348 -1.4752383 4.6930232 2960685
-0.97300923 -1.4250213 4.6690664 2960685
-0.94493955 -1.4251916 4.6931758 2960685
-0.97300309 -1.3751948 4.6691523 2960685
-0.9449535 -1.3746586 4.693244 2960685
-0.97297847 -1.3250687 4.6692543 2960685
-0.94486982 -1.3246056 4.6933961 2960685
-0.97305125 -1.2749395 4.669271 2960685
-0.94494832 -1.2750448 4.6934075 2960685
-0.97296762 -1.224961 4.6694226 2960685
-0.94499457 -1.2249956 4.6934481 2960685
-0.97309893 -1.1749784 4.6693907 2960685
-0.94504088 -1.1749457 4.6934881 2960685
-0.97303277 -1.1325836 4.6695147 2960685
-0.94516188 -1.133164 4.6934514 2960685
-0.62409598 0.10627 4.6638613 10197915
-0.57369071 0.10623879 4.6624913 10197915
-0.52331507 0.10620759 4.6611223 10197915
-0.47490463 0.10617762 4.6598067 10197915
-0.42652181 0.10614768 4.6584921 10197915
-0.37623256 0.10611653 4.6571255 10197915
-0.32597274 0.10608541 4.6557598 10197915
-0.27574244 0.10605432 4.6543951 10197915
-0.22554152 0.10602322 4.6530299 10197915
-0.17537008 0.10599217 4.6516676 10197915
-0.13293961 0.10596588 4.6505141 10197915
-0.91427612 -2.1054583 4.7184234 2960685
-0.88867819 -2.1104391 4.7404013 2960685
-0.91813928 -2.0751381 4.7151532 2960685
-0.88947177 -2.0749826 4.7397761 2960685
-0.91823006 -2.0251589 4.7151551 2960685
-0.8895604 -2.0250773 4.739779 2960685
-0.91812658 -1.974986 4.7153273 2960685
-0.88964957 -1.975172 4.7397847 2960685
-0.91808766 -1.9250041 4.7154388 2960685
-0.88943601 -1.924991 4.740047 2960685
-0.9180485 -1.8750192 4.7155528 2960685
-0.88952368 -1.8748013 4.7400527 2960685
-0.91827118 -1.825037 4.7154398 2960685
-0.88961244 -1.8248925 4.7400556 2960685
-0.91823244 -1.7750516 4.7155542 2960685
-0.88970149 -1.7749848 4.7400594 2960685
-0.9182322 -1.7248691 4.7156363 2960685
-0.88952446 -1.7250706 4.7402902 2960685
-0.91823268 -1.6746821 4.7157135 2960685
-0.88961309 -1.6751595 4.7402954 2960685
-0.91976976 -1.6248046 4.7144747 2960685
-0.88970202 -1.6252476 4.7402978 2960685
-0.91997474 -1.5752887 4.714376 2960685
-0.88963902 -1.5750493 4.7404323 2960685
-0.91996324 -1.5252374 4.714467 2960685
-0.88957602 -1.5248469 4.7405672 2960685
-0.91995329 -1.4750093 4.7145553 2960685
-0.88966483 -1.4749324 4.7405701 2960685
-0.9200145 -1.4249551 4.7145829 2960685
-0.88975424 -1.4250184 4.7405739 2960685
-0.91995698 -1.3750832 4.7147126 2960685
-0.88969094 -1.3748107 4.7407069 2960685
-0.91989839 -1.3252071 4.7148428 2960685
-0.88970375 -1.3248817 4.7407765 2960685
-0.91995919 -1.2751491 4.7148714 2960685
-0.88975465 -1.2752483 4.7408113 2960685
-0.92001992 -1.22509 4.7148981 2960685
-0.88969165 -1.2250398 4.7409463 2960685
-0.92008096 -1.1750317 4.7149267 2960685
-0.88978022 -1.1748281 4.7409506 2960685
-0.9201923 -1.1326065 4.7148976 2960685
-0.88986248 -1.1324712 4.7409492 2960685
2.3894815 0.10406125 4.7392621 10197915
2.4243207 0.10403972 4.7382827 10197915
2.4746208 0.10400871 4.7368693 10197915
2.5248909 0.10397768 4.7354565 10197915
2.5751302 0.10394665 4.7340441 10132122
2.62534 0.10391569 4.7326331 10132122
2.6755202 0.1038847 4.7312222 10132122
2.7256701 0.10385375 4.7298126 10132122
2.77579 0.10382283 4.728404 10132122
2.8258796 0.10379191 4.726995 10132122
2.8759408 0.10376102 4.7255888 10132122
2.925971 0.10373013 4.7241821 10132122
2.9759717 0.10369926 4.7227769 10132122
3.0259435 0.10366844 4.7213726 4210752
3.0758848 0.10363761 4.7199678 2039583
3.1257963 0.10360678 4.718565 2039583
3.1756787 0.10357603 4.7171636 2039583
3.2255309 0.10354524 4.7157621 2039583
3.2753534 0.1035145 4.7143621 2039583
3.3251469 0.10348377 4.7129622 2039583
3.3749106 0.10345304 4.7115636 2039583
3.4246449 0.10342237 4.710166 2039583
3.4743495 0.10339168 4.7087688 2039583
3.524024 0.103361 4.7073712 2039583
3.5641263 0.10333628 4.7062454 2039583
-0.86328256 -2.115067 4.7622046 2960685
-0.83419013 -2.120868 4.7871823 2960685
-0.86397392 -2.0745206 4.7616763 2960685
-0.8348543 -2.0751684 4.7866864 2960685
-0.86408752 -2.024745 4.7616587 2960685
-0.83477604 -2.0253944 4.7868319 2960685
-0.86404938 -1.9747133 4.7617707 2960685
-0.8348788 -1.9751862 4.7868257 2960685
-0.86413038 -1.9249257 4.7617822 2960685
-0.83498162 -1.924979 4.7868156 2960685
-0.86400753 -1.8751472 4.7619672 2960685
-0.83490324 -1.8749795 4.7869639 2960685
-0.86408693 -1.8248641 4.7619791 2960685
-0.83497632 -1.8252139 4.7869816 2960685
-0.86428559 -1.7748271 4.761889 2960685
-0.83492726 -1.7749947 4.7871037 2960685
-0.86392641 -1.7250425 4.7622752 2960685
-0.83500153 -1.7249954 4.7871203 2960685
-0.86420888 -1.675251 4.7621131 2960685
-0.83489162 -1.6750033 4.7872939 2960685
-0.86423761 -1.62521 4.7621679 2960685
-0.83502483 -1.6247789 4.7872596 2960685
-0.86404967 -1.5749235 4.7624106 2960685
-0.83500665 -1.5750002 4.787354 2960685
-0.86421323 -1.5248796 4.7623501 2960685
-0.83489716 -1.5249994 4.787529 2960685
-0.86422563 -1.4750887 4.7624197 2960685
-0.83518338 -1.4749922 4.7873631 2960685
-0.86408699 -1.4250367 4.7626185 2960685
-0.83483112 -1.424989 4.7877455 2960685
-0.86425066 -1.3749931 4.7625585 2960685
-0.83508545 -1.3749816 4.7876072 2960685
-0.86426336 -1.3251971 4.7626257 2960685
-0.83503687 -1.3249732 4.7877288 2960685
-0.86424184 -1.2748952 4.7627254 2960685
-0.83513987 -1.2749627 4.7877192 2960685
-0.86416954 -1.2248409 4.762867 2960685
-0.83509123 -1.2249583 4.7878428 2960685
-0.86431748 -1.1750449 4.7628207 2960685
-0.83504254 -1.1749352 4.7879648 2960685
-0.86426061 -1.1326302 4.7629366 2960685
-0.83499485 -1.132859 4.7880721 2960685
0.23861481 0.10538834 4.7997022 10197915
0.27434886 0.10536629 4.7986979 10197915
0.3239556 0.10533568 4.7973042 10197915
0.37551624 0.10530385 4.7958546 10197915
0.42506459 0.10527328 4.7944622 10197915
0.47458377 0.10524271 4.7930703 10197915
0.52605367 0.10521099 4.791625 10197915
0.5755145 0.10518046 4.7902341 10197915
0.62494636 0.10514991 4.7888436 10197915
0.67434955 0.10511938 4.7874527 10197915
0.72372431 0.10508892 4.7860661 10197915
0.77504361 0.10505723 4.7846227 10197915
0.82633215 0.1050256 4.7831817 8158332
0.87561911 0.10499518 4.781796 5921370
0.92487687 0.10496475 4.7804112 3552822
0.96229506 0.10494167 4.7793593 2039583
-0.80363113 -2.1516619 4.8133802 2960685
-0.77566206 -2.1569765 4.8373942 2960685
3.6712706 -2.1582217 4.8432484 2039583
-0.80876571 -2.1250994 4.8090129 2960685
-0.7790935 -2.1250417 4.8344975 2960685
3.6716394 -2.1247375 4.8429189 2039583
-0.80896312 -2.0753238 4.8089232 2960685
-0.77910453 -2.0750005 4.8345695 2960685
3.6716268 -2.0749416 4.8430805 2039583
-0.80879158 -2.0248785 4.8091516 2960685
-0.77911627 -2.0249569 4.8346395 2960685
3.6718161 -2.0251617 4.843008 2039583
-0.80898899 -1.975103 4.8090615 2960685
-0.77922845 -1.9750937 4.8346238 2960685
3.6718037 -1.9753519 4.8431706 2039583
-0.80881524 -1.9253156 4.8092899 2960685
-0.77913862 -1.9248675 4.8347802 2960685
3.6718917 -1.9252357 4.8432174 2039583
-0.80903488 -1.8752056 4.8091831 2960685
-0.77984405 -1.8756229 4.8342538 2960685
3.6719244 -1.8750905 4.8433299 2039583
-0.80892992 -1.8250887 4.8093524 2960685
-0.78081232 -1.8249999 4.8335018 2960685
3.6720126 -1.8249716 4.8433766 2039583
-0.80882597 -1.7749677 4.8095217 2960685
-0.78104907 -1.7749704 4.8333797 2960685
3.6721153 -1.7751572 4.8434038 2039583
-0.80904537 -1.7248582 4.809413 2960685
-0.78093278 -1.7251278 4.833559 2960685
3.6720617 -1.725033 4.8436155 2039583
-0.80894244 -1.6747248 4.8095822 2960685
-0.780972 -1.6750983 4.8336039 2960685
3.6722355 -1.6748837 4.8435616 2039583
-0.80900061 -1.6249474 4.8096132 2960685
-0.78095531 -1.6250503 4.8337002 2960685
3.6721947 -1.6250867 4.8437576 2039583
-0.80896598 -1.5751426 4.80972 2960685
-0.78099489 -1.575018 4.833745 2960685
3.6727226 -1.5759184 4.8432884 2039583
-0.80902392 -1.5253634 4.8097506 2960685
-0.78097808 -1.5249681 4.8338399 2960685
3.6734235 -1.5247421 4.8426242 2039583
-0.80903494 -1.4748967 4.8098216 2960685
-0.78101736 -1.4749331 4.8338847 2960685
3.673449 -1.4750102 4.842742 2039583
-0.80902451 -1.4247707 4.8099113 2960685
-0.78112864 -1.425081 4.8338704 2960685
3.6736457 -1.4252832 4.8426619 2039583
-0.80903596 -1.3749734 4.8099809 2960685
-0.78098357 -1.3752407 4.8340731 2960685
3.6735013 -1.3751394 4.8429785 2039583
-0.8091175 -1.3248398 4.8099904 2960685
-0.78120518 -1.3249902 4.8339634 2960685
3.6737659 -1.325013 4.8428187 2039583
-0.80898958 -1.275045 4.8101802 2960685
-0.78087848 -1.2749412 4.8343239 2960685
3.6736193 -1.2752626 4.8431377 2039583
-0.80914086 -1.2252388 4.8101287 2960685
-0.78122795 -1.224893 4.8341041 2960685
3.6738834 -1.2251382 4.8429785 2039583
-0.80899131 -1.1751075 4.8103385 2960685
-0.78090125 -1.1748359 4.8344646 2960685
3.6737392 -1.1749784 4.8432961 2039583
-0.80922675 -1.1326044 4.8102036 2960685
-0.78132653 -1.1328002 4.834167 2960685
3.6740043 -1.1248555 4.8431377 2039583
3.6738923 -1.075093 4.8434148 2039583
3.6740885 -1.0249631 4.8433356 2039583
3.6740119 -0.9747963 4.843574 2039583
3.6742086 -0.92466664 4.8434935 2039583
3.6742017 -0.8749063 4.8436499 2039583
3.6741941 -0.82514209 4.8438067 2039583
3.6743913 -0.77501255 4.8437257 2039583
3.674314 -0.72482926 4.8439636 2039583
3.674511 -0.6746996 4.8438845 2039583
3.6743994 -0.62490296 4.8441625 2039583
3.674664 -0.57478929 4.8440022 2039583
3.6745503 -0.52538693 4.8442822 2039583
3.674747 -0.4752574 4.8442025 2039583
3.6747394 -0.42547545 4.8443589 2039583
3.6747997 -0.3753075 4.8444381 2039583
3.6748593 -0.325138 4.8445163 2039583
3.6749191 -0.2749669 4.8445964 2039583
3.6749799 -0.22479413 4.8446751 2039583
3.67504 -0.1746197 4.8447547 2039583
3.6750994 -0.12444366 4.8448339 2039583
3.6751597 -0.074265942 4.8449135 2039583
3.6752198 -0.024086611 4.8449922 2039583
3.6763442 0.02408094 4.8438263 2039583
3.6764035 0.074250631 4.8439059 2039583
-0.66165012 0.10594394 4.825006 10197915
-0.62553853 0.10592164 4.8239899 10197915
-0.57540715 0.1058907 4.8225813 10197915
-0.52530551 0.10585979 4.8211727 10197915
-0.47523269 0.10582887 4.8197651 10197915
-0.42518952 0.10579801 4.8183599 10197915
-0.37517512 0.10576713 4.8169532 10197915
-0.32519025 0.10573627 4.8155484 10197915
-0.27523422 0.10570546 4.8141446 10197915
-0.22530761 0.10567464 4.8127413 10197915
-0.17540979 0.10564387 4.8113394 10197915
-0.12554137 0.10561308 4.809937 10197915
-0.075701632 0.10558233 4.808537 10197915
-0.025891313 0.10555159 4.807137 10197915
0.025880873 0.10551962 4.8056817 10197915
0.075632468 0.10548893 4.8042836 10197915
0.12535471 0.10545822 4.8028855 10197915
0.17504847 0.10542757 4.8014889 10197915
0.21279696 0.10540428 4.8004279 10197915
3.6764374 0.10234631 4.8439498 2039583
-0.75415796 -2.1611822 4.8558574 2960685
-0.72380298 -2.1671255 4.8819189 2960685
3.6351495 -2.167964 4.8852749 2039583
3.6571822 -2.1620815 4.8596406 2039583
-0.75447053 -2.1249943 4.8556466 2960685
-0.72580326 -2.1249394 4.8802686 2960685
3.6361592 -2.1251078 4.8842273 2039583
3.6578367 -2.1249382 4.8589892 2039583
-0.75428963 -2.075402 4.8558812 2960685
-0.72576946 -2.0750458 4.8803778 2960685
3.636204 -2.0750258 4.8843226 2039583
3.6577485 -2.074929 4.8592405 2039583
-0.75449008 -2.0251417 4.8557892 2960685
-0.72600263 -2.0251484 4.8802567 2960685
3.6363723 -2.0249352 4.8842783 2039583
3.6578317 -2.0249217 4.8592906 2039583
-0.75431162 -1.9748729 4.8560228 2960685
-0.72579068 -1.9750986 4.8805199 2960685
3.6363368 -1.9750029 4.8844643 2039583
3.6579905 -1.9752066 4.8592534 2039583
-0.75441855 -1.9252796 4.8560104 2960685
-0.72586811 -1.9250453 4.8805313 2960685
3.6363566 -1.924913 4.884594 2039583
3.6579268 -1.9251888 4.8594775 2039583
-0.75525463 -1.8731043 4.8553758 2960685
-0.72594577 -1.8749924 4.8805461 2960685
3.6364973 -1.8749739 4.8845782 2039583
3.6580849 -1.8748976 4.8594422 2039583
-0.75617754 -1.8246751 4.8546605 2960685
-0.72577703 -1.8250872 4.8807707 2960685
3.6365547 -1.8251927 4.8846588 2039583
3.6580951 -1.8248733 4.85958 2039583
-0.75636667 -1.774918 4.854578 2960685
-0.72598809 -1.7750336 4.8806691 2960685
3.6365604 -1.7749406 4.8848014 2039583
3.6581547 -1.7748715 4.8596597 2039583
-0.75609374 -1.7246693 4.8548927 2960685
-0.72595561 -1.724974 4.8807769 2960685
3.6377783 -1.7247908 4.883534 2039583
3.6582408 -1.7251319 4.8597078 2039583
-0.75628287 -1.6749104 4.8548102 2960685
-0.72578716 -1.6750642 4.8810024 2960685
3.6378088 -1.6749065 4.8836465 2039583
3.6582727 -1.6751175 4.859817 2039583
-0.75625753 -1.6251552 4.8549104 2960685
-0.72602034 -1.6250106 4.8808818 2960685
3.6377571 -1.6248575 4.8838539 2039583
3.6583083 -1.6250999 4.8599262 2039583
-0.75626874 -1.5748945 4.8549829 2960685
-0.72605336 -1.5749408 4.8809323 2960685
3.637949 -1.5749819 4.8837786 2039583
3.658859 -1.5745884 4.8594337 2039583
-0.75638813 -1.5251373 4.8549585 2960685
-0.72586298 -1.5248787 4.8811769 2960685
3.6379852 -1.5252609 4.883884 2039583
3.6595564 -1.5250614 4.8587699 2039583
-0.75614846 -1.4753722 4.8552442 2960685
-0.72596306 -1.4749663 4.8811722 2960685
3.6380155 -1.4750406 4.883997 2039583
3.6596279 -1.4750025 4.8588352 2039583
-0.75644332 -1.4251151 4.8550715 2960685
-0.726062 -1.4248999 4.8811655 2960685
3.638001 -1.4251417 4.8841629 2039583
3.6595175 -1.42474 4.8591132 2039583
-0.75617045 -1.3748387 4.8553858 2960685
-0.72603005 -1.3749856 4.8812723 2960685
3.6371477 -1.375193 4.885304 2039583
3.658649 -1.3750347 4.8602705 2039583
-0.75646555 -1.3245838 4.8552132 2960685
-0.72590595 -1.3250684 4.8814607 2960685
3.6370168 -1.32498 4.8856068 2039583
3.6586888 -1.3249434 4.8603735 2039583
-0.75622582 -1.2748041 4.8554988 2960685
-0.72686416 -1.2753171 4.8807154 2960685
3.6372032 -1.2747716 4.8855391 2039583
3.6587274 -1.2748497 4.860477 2039583
-0.75634551 -1.2250423 4.8554749 2960685
-0.72783971 -1.2248218 4.8799591 2960685
3.6372945 -1.224929 4.885581 2039583
3.6588459 -1.225191 4.8604884 2039583
-0.75646484 -1.1752818 4.8554521 2960685
-0.72790945 -1.1748022 4.8799782 2960685
3.6371939 -1.1750737 4.8858457 2039583
3.658829 -1.1751066 4.8606563 2039583
-0.75621349 -1.1330314 4.8557353 2960685
-0.72766709 -1.1328669 4.8802538 2960685
3.6374598 -1.1248688 4.8856869 2039583
3.6589842 -1.1252199 4.8606229 2039583
3.6374087 -1.0748304 4.8858933 2039583
3.6589489 -1.0751234 4.8608146 2039583
3.637404 -1.0249724 4.8860483 2039583
3.6590466 -1.0250177 4.8608479 2039583
3.6375902 -0.97494823 4.8859806 2039583
3.6592019 -0.97513443 4.8608179 2039583
3.6375866 -0.92508692 4.8861332 2039583
3.6590495 -0.92503166 4.8611417 2039583
3.6377871 -0.87504214 4.8860474 2039583
3.6594167 -0.87492198 4.8608651 2039583
3.6375453 -0.82482576 4.8864779 2039583
3.659111 -0.82503432 4.8613687 2039583
3.6378124 -0.7749604 4.8863153 2039583
3.6594398 -0.77492613 4.8611345 2039583
3.6379337 -0.72510052 4.886322 2039583
3.6594036 -0.72503501 4.8613253 2039583
3.6377232 -0.67505246 4.8867159 2039583
3.6593683 -0.67513883 4.8615127 2039583
3.6381006 -0.62482446 4.886426 2039583
3.6596968 -0.62503731 4.8612804 2039583
3.6380005 -0.57495612 4.8866906 2039583
3.6593907 -0.57511884 4.8617859 2039583
3.6379018 -0.52508062 4.8869548 2039583
3.6598327 -0.52480465 4.8614211 2039583
3.6383576 -0.47467998 4.8865738 2039583
3.6596229 -0.47510812 4.8618126 2039583
3.6381786 -0.42516512 4.8869281 2039583
3.6598358 -0.42477679 4.8617134 2039583
3.6380191 -0.37527379 4.8872623 2039583
3.6598201 -0.37464455 4.8618793 2039583
3.6385207 -0.32470146 4.8868279 2039583
3.6596899 -0.32516363 4.8621802 2039583
3.6383553 -0.27535844 4.8871675 2039583
3.6601317 -0.27486396 4.8618126 2039583
3.6383395 -0.22491948 4.8873353 2039583
3.6599982 -0.22560336 4.8621149 2039583
3.6387241 -0.17462943 4.8870382 2039583
3.6600592 -0.17524828 4.8621941 2039583
3.6396194 -0.12550464 4.8861394 2039583
3.6601181 -0.12489166 4.8622751 2039583
3.6396782 -0.074899137 4.8862214 2039583
3.6601789 -0.074533299 4.8623538 2039583
3.6397393 -0.024291974 4.8863015 2039583
3.6602383 -0.024173316 4.8624349 2039583
3.6397972 0.024292488 4.8863788 2039583
3.6613679 0.024167622 4.8612628 2039583
3.6398561 0.074902922 4.8864594 2039583
3.6614268 0.074517943 4.8613429 2039583
2.677227 0.10351677 4.8993468 10132122
2.7251647 0.10348731 4.8979521 10132122
2.7750702 0.10345659 4.8964992 10132122
2.8249464 0.10342593 4.8950472 10132122
2.8747933 0.10339528 4.8935971 10132122
2.9246099 0.10336462 4.8921461 10132122
2.9743979 0.10333403 4.8906975 10132122
3.0241559 0.10330343 4.8892488 10197915
3.0758722 0.1032716 4.887743 10197915
3.125571 0.10324105 4.8862967 5066061
3.1752396 0.1032105 4.8848505 2039583
3.2248785 0.10317996 4.8834052 2039583
3.2744889 0.10314947 4.8819623 2039583
3.3260522 0.10311775 4.8804617 2039583
3.3756015 0.10308727 4.8790183 2039583
3.4251235 0.10305683 4.8775783 2039583
3.4746141 0.10302637 4.8761368 2039583
3.5240762 0.10299596 4.8746967 2039583
3.5754864 0.10296435 4.8732009 2039583
3.6248891 0.10293395 4.8717628 2039583
3.6613393 0.1027113 4.8612242 2039583
-0.6614458 -2.2041681 4.9354172 2960685
-0.64766806 -2.2074025 4.9472451 2960685
3.5881665 -2.2051327 4.9398685 2039583
3.6022127 -2.2008991 4.9235268 2039583
-0.70061529 -2.1708918 4.9018283 2960685
-0.67475247 -2.1746356 4.9240355 2960685
-0.64760035 -2.1756408 4.9473538 2960685
3.5900648 -2.1751909 4.937748 2039583
3.6107578 -2.1737974 4.9136596 2039583
-0.70062476 -2.124213 4.901895 2960685
-0.67520225 -2.1248908 4.923728 2960685
-0.64775741 -2.1244593 4.9473014 2960685
3.5901639 -2.1249986 4.9377828 2039583
3.6111324 -2.1249275 4.9133692 2039583
-0.70063466 -2.0755033 4.9019642 2960685
-0.67537302 -2.0748646 4.9236612 2960685
-0.64769316 -2.0742598 4.9474368 2960685
3.5902219 -2.0750275 4.9378624 2039583
3.611119 -2.0748861 4.9135318 2039583
