# .PCD v0.7 - Point Cloud Data file format
VERSION 0.7
FIELDS x y z rgb
SIZE 4 4 4 4
TYPE F F F U
COUNT 1 1 1 1
WIDTH 1207
HEIGHT 1
VIEWPOINT 0 0 0 1 0 0 0
POINTS 1207
DATA ascii
1.2790105 0.10275318 2.8755481 10197915
1.3251035 0.1032088 2.8634856 10197915
1.3612995 0.10316472 2.8622634 10197915
1.1829133 -1.3081062 2.9417202 2302755
1.2172236 -1.3039632 2.9234757 2039583
1.3196625 -1.3039089 2.9250453 2039583
1.1844143 -1.2750463 2.9410684 2236962
1.2252219 -1.2750112 2.919347 2039583
1.2555933 -1.2745041 2.9031825 2039583
1.3197663 -1.2749254 2.9252756 2039583
1.1843603 -1.2250131 2.9413207 2236962
1.2252365 -1.2250166 2.9195614 2039583
1.2557585 -1.225064 2.9033155 2039583
1.3199435 -1.2254015 2.9256687 2039583
1.1845477 -1.1750507 2.9414423 2236962
1.2253164 -1.1749656 2.9197409 2039583
1.2558525 -1.1750212 2.9034865 2039583
1.3201253 -1.1746566 2.9260716 2039583
1.1845258 -1.1250801 2.9416766 2236962
1.2254618 -1.1249582 2.9198866 2039583
1.2566335 -1.12438 2.903296 2039583
1.320303 -1.1251062 2.9264653 2039583
1.1846819 -1.0751059 2.9418161 2236962
1.2254122 -1.0749929 2.9201367 2039583
1.2569331 -1.0749798 2.9033582 2039583
1.3204806 -1.0755422 2.9268582 2039583
1.1855193 -1.0252929 2.941592 2236962
1.2255994 -1.0250216 2.9202573 2039583
1.2570381 -1.0250394 2.9035239 2039583
1.3206624 -1.0247558 2.9272618 2039583
1.1857803 -0.97495866 2.9416761 2236962
1.2256374 -0.9749952 2.9204609 2039583
1.2571301 -0.97509444 2.9036965 2039583
1.3208401 -0.97516525 2.9276559 2039583
1.1858667 -0.92496806 2.9418521 2236962
1.2257059 -0.92496061 2.920646 2039583
1.2572221 -0.9249714 2.9038706 2039583
1.3210177 -0.92556107 2.9280493 2039583
1.1859535 -0.87497216 2.942029 2236962
1.2258208 -0.87497175 2.9208081 2039583
1.2572191 -0.87484086 2.9040949 2039583
1.3211999 -0.87473333 2.9284527 2039583
1.1850997 -0.82524514 2.9427044 2236962
1.2249603 -0.82487136 2.9214885 2039583
1.2582911 -0.8249442 2.9037468 2039583
1.3213778 -0.82510215 2.9288473 2039583
1.1851288 -0.77507889 2.9429116 2236962
1.2249973 -0.77504861 2.9216912 2039583
1.2584171 -0.77506882 2.9039013 2039583
1.3215555 -0.77545756 2.9292414 2039583
1.186092 -0.72515792 2.9426219 2171169
1.2250503 -0.72500014 2.9218845 1713197
1.2585417 -0.72518837 2.9040563 1713455
1.3160201 -0.72062242 2.9189081 1518397
1.1862261 -0.67503721 2.9427719 2171169
1.2250684 -0.6749438 2.9220984 1256517
1.2585493 -0.67499882 2.9042759 1257290
1.3138425 -0.67450088 2.9148736 1322827
1.186413 -0.62499362 2.9428966 2171169
1.2251832 -0.62502557 2.9222579 1256517
1.2585579 -0.62480068 2.9044948 1323340
1.3144031 -0.62508065 2.9159863 1389133
1.1862611 -0.57504421 2.9431996 2171169
1.2252499 -0.57500476 2.9224467 1453895
1.2589411 -0.57435662 2.9045153 1586511
1.3143891 -0.57502353 2.9160211 1520719
1.1866051 -0.52499002 2.9432385 2171169
1.2252589 -0.52518344 2.922662 1519944
1.2596173 -0.52469057 2.9043756 1455182
1.3143749 -0.52497137 2.916055 1520974
1.186453 -0.47519684 2.9435415 2171169
1.2243366 -0.4750407 2.9233775 1388615
1.2589355 -0.47514644 2.9049585 1323853
1.3147455 -0.47488853 2.9168124 1389390
1.1877432 -0.42503482 2.9430788 2105376
1.2245048 -0.42502522 2.9235089 1190468
1.2589395 -0.42486396 2.9051797 1059657
1.3147317 -0.42479208 2.9168463 1059144
1.1875279 -0.37495637 2.9434149 2105376
1.2245461 -0.37505352 2.9237096 1256261
1.2589192 -0.37469223 2.9054146 1125450
1.3152926 -0.37530205 2.9179599 1125194
1.1878954 -0.32499281 2.9434428 2105376
1.2247211 -0.32497337 2.9238393 1057857
1.2590957 -0.32500631 2.9055429 1191498
1.3152788 -0.32517868 2.9179947 1191499
1.1876754 -0.27499819 2.9437819 2105376
1.2247225 -0.27493975 2.9240606 1058370
1.2598107 -0.27470139 2.9053841 1125962
1.3152649 -0.27506024 2.9180295 1125706
1.1880432 -0.22502722 2.9438076 2105376
1.2246321 -0.22499365 2.9243312 1124932
1.2602296 -0.22508524 2.9053831 1059657
1.3156359 -0.2249079 2.9187865 1059913
1.1880955 -0.17547914 2.9440014 2105376
1.2251395 -0.17514676 2.9242835 1058883
1.2603084 -0.17454214 2.9055655 1059656
1.315622 -0.17474526 2.9188211 1059656
1.1891822 -0.12506977 2.9436445 2039583
1.2249198 -0.12479835 2.9246242 992576
1.2602807 -0.12485839 2.905802 927556
1.3161836 -0.12518504 2.9199364 927557
1.1889896 -0.074937567 2.9439702 2039583
1.2249955 -0.075125858 2.9248056 1190210
1.2605665 -0.075526059 2.9058676 1059654
1.3159751 -0.075608455 2.9196043 1059655
1.1893309 -0.024961693 2.9440114 2039583
1.225071 -0.025447249 2.9249852 1190979
1.2605425 -0.025282992 2.9061043 1060167
1.3163463 -0.025406722 2.9203632 1191496
1.1894047 0.024963763 2.9441955 2039583
1.2251484 0.025449399 2.9251707 1058624
1.2613816 0.025670739 2.9058847 861506
1.3165274 0.025411373 2.9207644 1060167
1.1892118 0.074952058 2.9445207 6052956
1.225224 0.075140402 2.9253516 2636881
1.2618029 0.075455278 2.9058819 2373969
1.3165134 0.0756405 2.920799 2308689
-0.30105591 0.10518821 2.9184039 10197915
-0.27437425 0.10515571 2.9175022 10197915
-0.22468862 0.10509522 2.9158242 10197915
-0.17506051 0.10503481 2.9141483 10197915
-0.12428086 0.10497301 2.9124331 10197915
-0.074767642 0.10491272 2.9107614 10197915
-0.025311712 0.10485255 2.9090915 10197915
0.025291894 0.10479094 2.907382 10197915
0.075836077 0.10472943 2.9056752 10197915
0.12511984 0.10466943 2.9040105 10197915
0.17434675 0.10460951 2.9023483 10197915
0.22112088 0.10455257 2.9007685 10197915
0.591461 0.10387235 2.9497056 10197915
0.62542737 0.10383111 2.948534 10197915
0.67511773 0.10377075 2.9468203 10197915
0.72475088 0.10371046 2.9451084 10197915
0.77432585 0.10365026 2.9433985 10197915
0.82505065 0.10358865 2.9416492 10197915
0.87571508 0.10352711 2.9399014 10197915
0.92511547 0.10346711 2.9381976 10197915
0.97445804 0.1034072 2.9364963 10197915
1.0249454 0.10334589 2.9347546 10197915
1.0753727 0.10328463 2.9330158 10197915
1.1257404 0.10322345 2.9312785 10197915
1.1806322 0.10250529 2.9347 10197915
1.2259442 0.10171458 2.9242804 10197915
1.2597613 0.10176869 2.9070854 10197915
1.3315103 0.10279574 2.9237382 10197915
1.3743032 0.10292158 2.9227052 10197915
1.4005105 0.10288971 2.9218009 10197915
1.13399 -1.3139948 2.9677362 2302755
1.1587416 -1.310891 2.9545751 2894892
1.3357004 -1.3112144 2.9551661 2039583
1.3520747 -1.3174375 2.9859197 2039583
2.3632114 -1.3196158 2.9933648 2039583
1.134746 -1.2750556 2.9675074 2302755
1.1591878 -1.2748878 2.9544973 2894892
1.3358331 -1.2746121 2.9554598 2039583
1.3522331 -1.2742903 2.9862695 2039583
2.3636224 -1.2750036 2.9933443 2039583
1.1348165 -1.2249734 2.9676919 2302755
1.1592048 -1.2249119 2.9547112 2894892
1.3360145 -1.2245774 2.9558616 2039583
1.3524144 -1.2249675 2.9866693 2039583
2.3637855 -1.2250201 2.9934797 2039583
1.1348808 -1.1749637 2.9678807 2302755
1.1593101 -1.1749358 2.9548767 2894892
1.3361962 -1.1745293 2.9562628 2039583
1.3525952 -1.1756312 2.9870694 2039583
2.3639004 -1.1750318 2.9936404 2039583
1.1349583 -1.1248697 2.9680626 2302755
1.1593602 -1.1250858 2.9550729 2894892
1.3363774 -1.1244675 2.9566646 2039583
1.3527809 -1.1250479 2.9874794 2039583
2.3640394 -1.1250391 2.9937892 2039583
1.1349956 -1.074931 2.9682646 2302755
1.1594324 -1.0749584 2.9552562 2894892
1.3365548 -1.0756136 2.9570565 2039583
1.3529667 -1.0744506 2.9878893 2039583
2.3646386 -1.0755181 2.9936914 2039583
1.1351595 -1.0250671 2.9683986 2302755
1.1603649 -1.0244594 2.9549844 2894892
1.3367363 -1.0255247 2.957458 2039583
1.3531479 -1.0250738 2.9882896 2039583
2.3650942 -1.0251962 2.9936717 2039583
1.1351297 -0.97503632 2.9686375 2302755
1.1605834 -0.97487277 2.9550891 2894892
1.336918 -0.97542274 2.9578602 2039583
1.3533291 -0.97568399 2.9886899 2039583
2.3652315 -0.97506553 2.9938219 2039583
1.1351868 -0.92499721 2.9688306 2302755
1.1606605 -0.92486209 2.9552705 2894892
1.3370997 -0.9253068 2.9582622 2039583
1.353515 -0.92504573 2.9891002 2039583
2.3654225 -0.92483675 2.9939446 2039583
1.1353915 -0.87503403 2.9689424 2302755
1.1607774 -0.87508214 2.9554303 2894892
1.3372815 -0.87517726 2.9586644 2039583
1.3537009 -0.87439358 2.9895103 2039583
2.3653824 -0.89443034 2.9941006 2039583
1.1352946 -0.82506323 2.9692178 2302755
1.1607653 -0.82505834 2.9556584 2894892
1.3374634 -0.82503408 2.9590664 2039583
1.3538822 -0.82496339 2.9899116 2039583
1.1354734 -0.77492493 2.9693449 2302755
1.1608924 -0.77502346 2.9558141 2894892
1.3376452 -0.77487737 2.9594688 2039583
1.3540637 -0.77551997 2.9903126 2039583
1.1355304 -0.72486258 2.9695375 2302755
1.1619606 -0.72496688 2.9554691 2894892
1.3378271 -0.72470683 2.9598713 1518913
1.3542497 -0.72482651 2.9907231 1388104
1.1355677 -0.67503482 2.9697399 2302755
1.1619787 -0.67502803 2.9556808 2894892
1.338009 -0.67452276 2.9602737 1257034
1.3544359 -0.67411947 2.9911342 1322827
1.135691 -0.62496126 2.9698963 2302755
1.1622401 -0.62508434 2.9557631 2894892
1.3381865 -0.62554961 2.9606667 1454925
1.3546176 -0.62463558 2.9915357 1520462
1.1350857 -0.5753026 2.9704397 2302755
1.1614341 -0.57449508 2.9564176 2894892
1.3383688 -0.57533848 2.9610693 1520975
1.3547993 -0.57513845 2.9919367 1455183
1.1348516 -0.5250138 2.9707873 2302755
1.1613839 -0.52488828 2.9566648 2894892
1.3385508 -0.52511376 2.9614725 1586511
1.3549812 -0.52562797 2.9923377 1586767
1.1348037 -0.47502175 2.971035 2302755
1.1612833 -0.47471172 2.9569409 2894892
1.338733 -0.47487536 2.9618757 1323341
1.3551672 -0.47486585 2.9927495 1257548
1.1348491 -0.42502171 2.9712329 2302755
1.1624147 -0.42493561 2.9565609 2894892
1.3389151 -0.42462331 2.9622788 1059144
1.3553536 -0.42409 2.993161 1059144
1.1351522 -0.37484494 2.9712958 2302755
1.1625793 -0.37511921 2.9566953 2894892
1.339093 -0.37558374 2.962672 1125450
1.3555355 -0.37453899 2.9935622 1125450
1.1350476 -0.32500669 2.9715726 2302755
1.162385 -0.32509652 2.9570205 2894892
1.3392752 -0.32530463 2.9630752 1191499
1.3557174 -0.32497472 2.9939644 1191499
1.1349459 -0.27524555 2.9718478 2302755
1.1627616 -0.27489954 2.9570427 2894892
1.3394578 -0.27501184 2.9634788 1125706
1.3558993 -0.27539712 2.9943664 1125706
1.1353602 -0.22479616 2.9718525 2302755
1.162565 -0.2251431 2.9573689 2894892
1.3396401 -0.22470531 2.9638822 1125450
1.3560815 -0.22580624 2.9947684 1125449
1.135259 -0.17484683 2.9721284 2302755
1.1631716 -0.17453262 2.9572709 2894892
1.3398224 -0.17438516 2.9642859 1059656
1.3562682 -0.17496169 2.9951801 1059656
1.135329 -0.12560178 2.9723091 2302755
1.1638368 -0.12496062 2.9571381 2894892
1.3400005 -0.12527908 2.96468 927557
1.3564546 -0.12410326 2.9955926 927300
1.1354005 -0.075119354 2.9724958 2302755
1.1639096 -0.074735917 2.9573228 2894892
1.3401831 -0.074931726 2.9650838 1059655
1.3566368 -0.074471734 2.995995 1125447
1.1354711 -0.024630683 2.9726834 2302755
1.163982 -0.024504945 2.9575074 2894892
1.3403656 -0.02457078 2.965488 1191752
1.3568192 -0.024826879 2.9963977 1191752
1.1355417 0.024632702 2.9728651 2302755
1.1640534 0.024506945 2.9576874 2894892
1.3405439 0.024575135 2.9658821 1125703
1.3570012 0.024831319 2.9967999 1125703
1.1356581 0.075049073 2.9730277 3750201
1.1641262 0.074750334 2.9578726 5592405
1.3407266 0.074963309 2.9662864 2045775
1.3571838 0.074502856 2.9972024 1651276
-0.30376565 0.10495965 2.980582 10197915
-0.27403799 0.10492353 2.9795561 10197915
-0.22453344 0.10486342 2.9778485 10197915
-0.17508557 0.10480336 2.9761429 10197915
-0.12569441 0.10474338 2.9744401 10197915
-0.075127281 0.10468195 2.9726958 10197915
-0.024618953 0.10462061 2.9709537 10197915
0.024600212 0.10456083 2.9692562 10197915
0.074991286 0.10449962 2.9675183 10197915
0.12532386 0.1044385 2.9657826 10197915
0.17437187 0.10437892 2.9640908 10197915
0.22458783 0.10431793 2.962359 10197915
0.27474555 0.10425701 2.960629 10197915
0.3248443 0.10419618 2.9589009 10197915
0.37488511 0.10413539 2.9571748 10197915
0.42486703 0.10407468 2.9554513 10197915
0.47479123 0.10401405 2.9537294 10197915
0.52465683 0.1039535 2.9520099 10197915
0.56596649 0.10390332 2.9505844 10197915
0.99171275 0.1031481 2.9997196 10197915
1.0248652 0.10310793 2.9985518 10197915
1.0751625 0.10304698 2.996779 10197915
1.1256204 0.10247317 2.9828551 10197915
1.1641651 0.10171253 2.9579711 10197915
1.3408247 0.10200591 2.9665034 10197915
1.3748226 0.10258292 2.9867229 10197915
1.4158555 0.10263415 2.9847732 10197915
1.3857698 -1.3567156 3.0491734 2039583
2.2743087 -1.3551232 3.0405309 2039583
2.3054512 -1.3514516 3.0239692 2039583
1.3773409 -1.3245127 3.0333769 2039583
2.2784548 -1.3249414 3.0384567 2039583
2.3241291 -1.3239498 3.0141497 2039583
2.3503964 -1.3212432 3.0001791 2039583
1.3768282 -1.2762179 3.0324721 2039583
2.2785857 -1.2749721 3.0386107 2039583
2.3249583 -1.2750336 3.0139241 2039583
2.3505092 -1.2753156 3.0003233 2039583
1.3691591 -1.2253656 3.0181262 2039583
2.2786443 -1.2249947 3.0388014 2039583
2.3250628 -1.225018 3.0140917 2039583
2.3506312 -1.2256595 3.0004792 2039583
1.3693446 -1.1755098 3.0185347 2039583
2.2792318 -1.1751733 3.0387099 2039583
2.3252065 -1.1750432 3.0142384 2039583
2.3507535 -1.175998 3.0006351 2039583
1.3695298 -1.1256403 3.0189433 2039583
2.2798457 -1.124879 3.0386066 2039583
2.3253524 -1.1250616 3.0143833 2039583
2.3508787 -1.1250898 3.0007946 2039583
1.3697151 -1.0757575 3.019352 2039583
2.2799411 -1.074964 3.0387788 2039583
2.3254342 -1.0750756 3.0145624 2039583
2.3517034 -1.0706211 3.000598 2039583
1.3699012 -1.0258615 3.0197623 2039583
2.2800009 -1.0250435 3.0389681 2039583
2.3255284 -1.0251284 3.014735 2039583
2.3520036 -1.0243397 3.0006444 2039583
1.3700879 -0.97595233 3.0201735 2039583
2.2801638 -0.97500771 3.0391059 2039583
2.3256855 -0.97513133 3.0148737 2039583
2.3521261 -0.97466505 3.0007997 2039583
1.3702734 -0.92602891 3.0205824 2039583
2.2797065 -0.92515284 3.0395694 2039583
2.3252642 -0.92489499 3.0153196 2039583
2.352248 -0.92498541 3.0009561 2039583
1.3704588 -0.87609184 3.0209916 2039583
2.2795203 -0.89444345 3.0398054 2039583
2.3249562 -0.89451742 3.015619 2039583
2.3522255 -0.89450049 3.0011036 2039583
1.3706445 -0.82614136 3.0214007 2039583
1.3708303 -0.77617729 3.0218101 1974305
1.3710158 -0.72619963 3.0222194 1257291
1.3712018 -0.67620844 3.022629 1323084
1.3713875 -0.62620372 3.0230384 1520718
1.3715734 -0.57618546 3.023448 1389646
1.3717592 -0.52615368 3.0238581 1652303
1.3719451 -0.47610825 3.0242677 1257292
1.3721312 -0.42604932 3.0246778 1059144
1.3723172 -0.37597674 3.0250883 1125706
1.3725034 -0.32589069 3.0254979 1191499
1.3726895 -0.27579096 3.0259085 1125706
1.3728758 -0.22567765 3.0263193 1059913
1.3730621 -0.17555077 3.0267298 1059656
1.3732485 -0.12541024 3.0271404 927300
1.3734348 -0.075256132 3.0275514 1125447
1.373621 -0.025088405 3.0279622 1191753
1.3738075 0.025092945 3.0283735 1125703
1.3739942 0.075287916 3.0287843 1651276
-0.30786011 0.10472284 3.0455163 10197915
-0.27495295 0.10468296 3.0443561 10197915
-0.22437182 0.10462167 3.0425742 10197915
-0.17511202 0.10456198 3.040838 10197915
-0.12590893 0.10450234 3.039104 10197915
-0.075502172 0.10444129 3.0373278 10197915
-0.025154319 0.10438027 3.0355537 10197915
0.025134752 0.10431933 3.0337815 10197915
0.075365134 0.10425848 3.0320115 10197915
0.12553695 0.10419767 3.0302432 10197915
0.17565022 0.10413694 3.0284774 10197915
0.22570519 0.1040763 3.0267138 10197915
0.27570185 0.10401572 3.0249522 10197915
0.32564035 0.10395521 3.0231919 10197915
0.3755208 0.10389476 3.0214343 10197915
0.42534322 0.10383439 3.0196784 10197915
0.47510791 0.10377409 3.0179248 10197915
0.52481472 0.10371386 3.0161734 10197915
0.57446373 0.10365368 3.0144236 10197915
0.62405545 0.1035936 3.0126762 10197915
0.67482698 0.10353206 3.0108867 10197915
0.72553867 0.10347062 3.0090997 10197915
0.77495521 0.10341074 3.0073583 10197915
0.82431471 0.10335094 3.005619 10197915
0.8748486 0.10328969 3.0038381 10197915
0.92532331 0.10322853 3.0020595 10197915
0.96713609 0.10317788 3.000586 10197915
1.3740921 0.10164516 3.0290003 10197915
1.4480289 0.1023476 3.0499325 10197915
1.4567242 0.1023371 3.0496197 10197915
1.4032036 -1.3648995 3.0819147 2039583
2.1805031 -1.3664446 3.0904138 2039583
2.2226429 -1.3613099 3.0680041 2039583
2.2530499 -1.3578993 3.0518341 2039583
1.4033539 -1.3254602 3.0822446 2039583
2.1814604 -1.3250602 3.0900896 2039583
2.2247994 -1.3250185 3.0670207 2039583
2.2531281 -1.3250716 3.0519392 2039583
1.3861585 -1.2534814 3.0500281 2039583
1.4035479 -1.2745588 3.0826707 2039583
2.1815248 -1.2750077 3.0902762 2039583
2.2249844 -1.275061 3.0671468 2039583
2.253211 -1.2748752 3.0521173 2039583
1.3862627 -1.2257739 3.0502574 2039583
1.4037369 -1.2249166 3.0830863 2039583
2.1816564 -1.2250135 3.0904288 2039583
2.2250483 -1.2250028 3.0673304 2039583
2.2533524 -1.2249962 3.0522649 2039583
1.3864524 -1.1753874 3.0506749 2039583
1.4039263 -1.1752607 3.0835016 2039583
2.1824241 -1.1752293 3.0902429 2039583
2.2252896 -1.1749876 3.0674264 2039583
2.2540045 -1.173696 3.0521452 2039583
1.3866417 -1.124987 3.0510919 2039583
1.4041203 -1.1243178 3.0839283 2039583
2.1827693 -1.1249373 3.0902817 2039583
2.2252791 -1.1249672 3.0676608 2039583
2.2545431 -1.1251068 3.0520754 2039583
1.3868316 -1.0745728 3.0515094 2039583
1.4043096 -1.0746349 3.0843444 2039583
2.1829877 -1.0749984 3.0903866 2039583
2.2253902 -1.074988 3.0678139 2039583
2.2546251 -1.074836 3.0522556 2039583
1.3870213 -1.0241446 3.0519269 2039583
1.4044989 -1.0249386 3.08476 2039583
2.1830568 -1.024914 3.0905733 2039583
2.225553 -1.025052 3.06795 2039583
2.2546873 -1.0248086 3.0524445 2039583
1.3872067 -0.97496414 3.0523341 2039583
1.4046885 -0.97522908 3.0851762 2039583
2.183141 -0.97489822 3.0907507 2039583
2.2256658 -0.97501409 3.06812 2039583
2.2548602 -0.9750405 3.0525734 2039583
1.3873912 -0.9257701 3.0527406 2039583
1.4048778 -0.92550582 3.0855918 2039583
2.1829567 -0.92536974 3.0910692 2039583
2.2254694 -0.9247297 3.068445 2039583
2.255033 -0.92526835 3.0527029 2039583
1.3875813 -0.87530118 3.0531588 2039583
1.4050738 -0.87449473 3.0860219 2039583
2.1821244 -0.89454484 3.09165 2039583
2.2245574 -0.89447224 3.0690629 2039583
2.254813 -0.89465559 3.0529571 2039583
1.3877709 -0.82481873 3.0535767 2039583
1.4052635 -0.8247447 3.0864391 2039583
1.3879613 -0.77432227 3.0539947 1844010
1.4054531 -0.77498084 3.0868554 1713714
1.3881463 -0.72507495 3.0544021 1257034
1.4056426 -0.72520375 3.0872719 1257034
1.3883315 -0.67581457 3.05481 1323340
1.4058325 -0.67541301 3.0876882 1323340
1.3885219 -0.62527728 3.0552287 1520974
1.406027 -0.62433165 3.0881157 1520718
1.388712 -0.5747261 3.0556471 1389390
1.406217 -0.57451391 3.0885329 1455183
1.3889019 -0.52416122 3.0560653 1652304
1.4064066 -0.52468258 3.0889497 1586511
1.3890878 -0.4748472 3.0564737 1191499
1.4065968 -0.47483787 3.0893667 1191242
1.3892735 -0.42551979 3.0568821 1059401
1.4067867 -0.42497951 3.0897839 1059400
1.389464 -0.37491402 3.0573008 1125706
1.4069766 -0.37510788 3.0902014 1125963
1.3896544 -0.3242943 3.0577199 1191499
1.4071666 -0.32522258 3.0906188 1191755
1.3898396 -0.27492684 3.0581291 1125706
1.4073566 -0.27532399 3.0910366 1059913
1.3900256 -0.225546 3.0585377 1059913
1.4075468 -0.22541185 3.091454 1059913
1.3902162 -0.17488535 3.0589569 1059656
1.4077371 -0.17548625 3.0918717 1059656
1.3904067 -0.12421081 3.0593762 927300
1.4079273 -0.12554708 3.0922892 927300
1.3905927 -0.0747898 3.0597856 1125704
1.4081177 -0.0755945 3.0927076 1125704
1.3907788 -0.025355469 3.0601945 1191753
1.4083079 -0.025628308 3.0931256 1191753
1.3909695 0.025360098 3.0606148 1125703
1.4085033 0.025633043 3.0935545 1125703
1.3911556 0.074821122 3.0610244 1059654
1.4086938 0.075626493 3.0939727 1059654
0.079604685 0.10400178 3.0992274 10197915
0.12447809 0.10394754 3.0976102 10197915
0.1744253 0.10388716 3.0958114 10197915
0.22559321 0.10382531 3.0939679 10197915
0.27542353 0.10376509 3.0921733 10197915
0.32519561 0.10370491 3.0903802 10197915
0.37491044 0.10364481 3.0885892 10197915
0.42456716 0.10358479 3.0868003 10197915
0.47543779 0.1035233 3.0849683 10197915
0.52497876 0.10346341 3.0831838 10197915
0.574462 0.10340359 3.0814011 10197915
0.62515473 0.10334232 3.0795751 10197915
0.67578751 0.10328112 3.0777512 10197915
0.72509694 0.10322151 3.0759752 10197915
0.77434909 0.10316195 3.0742004 10197915
0.82480538 0.10310098 3.0723832 10197915
0.875202 0.10304006 3.0705676 10197915
0.92553902 0.1029792 3.0687544 10197915
0.97581691 0.10291842 3.0669436 10197915
1.0260351 0.10285773 3.0651345 10197915
1.0749412 0.10279861 3.0633724 10197915
1.1237907 0.10273956 3.0616128 10197915
1.1500738 0.1027078 3.0606666 10197915
1.3930352 0.1020961 3.0532365 10197915
1.4224169 0.10231931 3.0531106 10197915
1.4391346 -1.4039066 3.149369 2039583
2.0800102 -1.4032626 3.143743 2039583
2.1010919 -1.4002954 3.132534 2039583
1.4306434 -1.3730493 3.1334546 2039583
2.08446 -1.3754193 3.1414979 2039583
2.1239729 -1.3729544 3.120476 2039583
2.1560013 -1.3692663 3.1034429 2039583
1.4260967 -1.3295907 3.1249647 2039583
2.0849712 -1.3250571 3.1414497 2039583
2.1250377 -1.3249369 3.1201231 2039583
2.1562083 -1.3250641 3.1035292 2039583
1.4213951 -1.2755111 3.1161985 2039583
2.0850458 -1.2749382 3.141633 2039583
2.1252794 -1.274989 3.1202168 2039583
2.1563625 -1.2751666 3.1036699 2039583
1.4215888 -1.2253288 3.1166232 2039583
2.0851746 -1.2248926 3.1417871 2039583
2.1252091 -1.224987 3.1204777 2039583
2.1563926 -1.2250854 3.1038764 2039583
1.4217824 -1.175133 3.1170475 2039583
2.0852797 -1.1750847 3.1419518 2039583
2.1254201 -1.1750288 3.1205857 2039583
2.1571956 -1.17428 3.1036754 2039583
1.4219762 -1.1249235 3.1174722 2039583
2.085392 -1.1251099 3.1421158 2039583
2.1255107 -1.1250148 3.1207604 2039583
2.1575973 -1.1250893 3.1036804 2039583
1.4221699 -1.0747001 3.1178975 2039583
2.0858896 -1.0753777 3.1420715 2039583
2.1256428 -1.074996 3.120913 2039583
2.1577106 -1.0749991 3.1038425 2039583
1.4223639 -1.0244633 3.1183224 2039583
2.0860336 -1.0253588 3.1422172 2039583
2.1252105 -1.024693 3.1213667 2039583
2.1578233 -1.0249032 3.1040053 2039583
1.4225529 -0.97550124 3.1187367 2039583
2.0857539 -0.97487849 3.1425915 2039583
2.1249106 -0.97495943 3.121747 2039583
2.1579182 -0.97496247 3.1041772 2039583
1.4227469 -0.92523718 3.1191616 2039583
2.0858338 -0.9248966 3.1427705 2039583
2.1250532 -0.92500067 3.1218922 2039583
2.1580968 -0.92501742 3.1043031 2039583
1.4229409 -0.87495947 3.1195872 2039583
2.0858827 -0.89451218 3.14288 2039583
2.1247911 -0.89446789 3.1221681 2039583
2.157897 -0.89449722 3.1045461 2039583
1.4231346 -0.82466781 3.1200125 2039583
1.4233288 -0.77436262 3.1204371 1583418
1.4235177 -0.72533417 3.1208518 1257034
1.423712 -0.67500186 3.1212778 1389133
1.4239062 -0.6246559 3.1217036 1520974
1.4240955 -0.57558751 3.1221185 1520719
1.4242898 -0.52521431 3.1225448 1520975
1.4244843 -0.47482756 3.1229711 1190730
1.4246737 -0.42571941 3.1233866 1059400
1.4248683 -0.37530529 3.1238129 1125963
1.4250629 -0.32487753 3.1242392 1191755
1.4252524 -0.27572945 3.124655 1059913
1.425447 -0.22527441 3.1250815 1059913
1.4256418 -0.17480569 3.1255088 1125449
1.4258316 -0.12561767 3.1259251 861508
1.4260265 -0.075121582 3.1263518 1125704
1.4262214 -0.024611814 3.1267791 1191753
1.4264112 0.024616176 3.1271954 1125960
1.4266062 0.075153336 3.1276228 1059911
-0.31084222 0.10447377 3.1132917 10197915
-0.27461442 0.10442998 3.1119864 10197915
-0.22549434 0.10437059 3.1102173 10197915
-0.1751399 0.10430972 3.1084039 10197915
-0.12484362 0.10424891 3.1065919 10197915
-0.074606448 0.1041882 3.1047821 10197915
-0.02442728 0.10412755 3.1029742 10197915
0.024408832 0.10406852 3.1012154 10197915
0.053942833 0.1040328 3.1001513 10197915
0.63148624 0.10307337 3.1493213 10197915
0.67420405 0.10302186 3.1477478 10197915
0.72463471 0.10296106 3.14589 10197915
0.77500635 0.10290033 3.1440339 10197915
0.82531822 0.10283965 3.1421807 10197915
0.87557131 0.10277908 3.1403291 10197915
0.92447865 0.10272011 3.1385276 10197915
0.97461426 0.10265964 3.1366804 10197915
1.0246917 0.10259927 3.1348357 10197915
1.0747095 0.10253896 3.132993 10197915
1.1246691 0.10247871 3.1311524 10197915
1.163061 0.10243244 3.1297379 10197915
1.4359096 0.10210344 3.1196861 10197915
1.4727483 0.10205903 3.1183286 10197915
1.4577419 -1.4128883 3.1843147 2039583
1.9875482 -1.414302 3.1929121 2039583
2.0230944 -1.4100138 3.1740096 2039583
2.0582089 -1.4059126 3.1553359 2039583
1.4578876 -1.3760868 3.1846328 2039583
1.9877727 -1.3753819 3.192965 2039583
2.0252411 -1.3747621 3.173023 2039583
2.0593944 -1.3744675 3.1548445 2039583
1.4394802 -1.3154994 3.1501253 2039583
1.4580852 -1.3261313 3.1850648 2039583
1.9872078 -1.3250129 3.1934912 2039583
2.0248048 -1.3249675 3.1734772 2039583
2.0598428 -1.325173 3.1548262 2039583
1.4396378 -1.2751818 3.1504698 2039583
1.4582832 -1.2761624 3.185497 2039583
1.9873334 -1.2751359 3.1936443 2039583
2.0247893 -1.2749721 3.1737084 2039583
2.0599148 -1.2751806 3.15501 2039583
1.439831 -1.2257488 3.150893 2039583
1.458481 -1.2261795 3.1859291 2039583
1.9873848 -1.2251432 3.1938393 2039583
2.0249231 -1.2250226 3.1738584 2039583
2.0600421 -1.2250539 3.1551638 2039583
1.4400294 -1.1750005 3.1513267 2039583
1.458679 -1.1761833 3.1863616 2039583
1.9874935 -1.1750343 3.1940055 2039583
2.0250409 -1.1749659 3.1740193 2039583
2.0601709 -1.1749226 3.1553199 2039583
1.4402279 -1.1242388 3.1517608 2039583
1.4588772 -1.1261734 3.1867943 2039583
1.9880531 -1.1254408 3.1939285 2039583
2.0251572 -1.1250046 3.17418 2039583
2.0603139 -1.124916 3.1554649 2039583
1.4404212 -1.0747652 3.1521842 2039583
1.4590751 -1.0761499 3.187227 2039583
1.9887153 -1.0748827 3.1938004 2039583
2.02525 -1.0750912 3.1743524 2039583
2.0607848 -1.0742936 3.1554399 2039583
1.4406146 -1.0252781 3.152607 2039583
1.4592732 -1.0261129 3.1876597 2039583
1.9888018 -1.0247777 3.1939785 2039583
2.0253689 -1.0250192 3.1745112 2039583
2.0614531 -1.0248469 3.155304 2039583
1.4408079 -0.9757778 3.1530311 2039583
1.4594715 -0.97606218 3.188092 2039583
1.9888862 -0.97478479 3.1941552 2039583
2.0254245 -0.97499335 3.1747053 2039583
2.0615702 -0.9749859 3.1554637 2039583
1.4410064 -0.92496109 3.1534657 2039583
1.4596696 -0.92599797 3.1885257 2039583
1.9890467 -0.9249109 3.1942916 2039583
2.0250192 -0.92522472 3.1751413 2039583
2.0611064 -0.92464852 3.155936 2039583
1.4412053 -0.87413025 3.1539006 2039583
1.4598678 -0.87592006 3.1889582 2039583
1.9891154 -0.89438605 3.1943901 2039583
2.0247104 -0.89452934 3.1754417 2039583
2.0606878 -0.89460766 3.156291 2039583
1.4413989 -0.82458937 3.1543236 2039583
1.4600661 -0.82582873 3.1893919 2039583
1.4415928 -0.7750352 3.154748 1518914
1.4602646 -0.77572364 3.1898253 1322824
1.4417881 -0.72546852 3.1551752 1191498
1.4604629 -0.72560501 3.1902583 1257034
1.4419819 -0.67588753 3.1555994 1454669
1.4606611 -0.67547262 3.190691 1454926
1.4421806 -0.62498796 3.1560347 1520975
1.4608594 -0.62532657 3.1911242 1520975
1.4423795 -0.57407439 3.1564698 1586255
1.461058 -0.575167 3.1915584 1520719
1.4425735 -0.52445269 3.1568942 1455439
1.4612565 -0.52499384 3.1919918 1455183
1.4427676 -0.47481772 3.1573186 1124937
1.4614551 -0.47480708 3.1924255 1059144
1.4429617 -0.42516944 3.1577435 1059400
1.4616538 -0.42460653 3.1928596 1059401
1.4431556 -0.37550774 3.1581681 1125963
1.4618526 -0.37439242 3.1932943 1191499
1.4433497 -0.32583266 3.1585929 1191754
1.4620516 -0.32416466 3.1937287 1191755
1.4435438 -0.2761443 3.1590183 1059913
1.4622502 -0.27392325 3.1941636 1059657
1.4437431 -0.2251343 3.1594541 1059913
1.4624441 -0.22499087 3.1945863 1059914
1.4439427 -0.17411037 3.1598902 1125705
1.4626379 -0.17604545 3.1950085 1125705
1.4441369 -0.12438114 3.1603158 861251
1.4628367 -0.12576367 3.1954434 861508
1.4443312 -0.074638508 3.1607409 1125960
1.4630359 -0.075468257 3.1958783 1125704
1.4445257 -0.024882477 3.1611664 1191753
1.463235 -0.025159126 3.1963131 1191753
1.4447203 0.024886943 3.161592 1125960
1.463434 0.025163691 3.1967494 1125960
1.4449148 0.074669771 3.1620178 928325
1.4636335 0.075500213 3.1971848 928325
-0.31528401 0.10421495 3.1842017 10197915
-0.27558368 0.10416707 3.182739 10197915
-0.22534689 0.10410651 3.1808882 10197915
-0.17516848 0.10404601 3.1790397 10197915
-0.12504835 0.10398558 3.1771929 10197915
-0.074986421 0.10392521 3.1753485 10197915
-0.024982579 0.10386492 3.173507 10197915
0.024963278 0.10380469 3.1716661 10197915
0.074851245 0.10374454 3.1698279 10197915
0.12468145 0.10368446 3.1679928 10197915
0.17445393 0.10362446 3.1661589 10197915
0.22416888 0.1035645 3.1643276 10197915
0.275132 0.10350305 3.1624498 10197915
0.32603532 0.10344169 3.1605747 10197915
0.37557504 0.10338193 3.1587496 10197915
0.42505762 0.10332227 3.1569266 10197915
0.47448313 0.10326269 3.1551054 10197915
0.52514976 0.10320159 3.1532388 10197915
0.57575703 0.10314058 3.1513746 10197915
0.60687226 0.10310306 3.1502285 10197915
1.4450171 0.10087609 3.1622419 3426397
1.4804207 0.10177904 3.1905477 2900568
1.5154823 0.10173688 3.1892259 927812
1.8858801 -1.4514033 3.2468655 2039583
1.4767698 -1.4207401 3.2200511 2039583
1.889986 -1.4250582 3.244797 2039583
1.9241276 -1.4220093 3.2266374 2039583
1.9621539 -1.4168754 3.2064183 2039583
1.4769509 -1.3755516 3.2204463 2039583
1.8901513 -1.3751233 3.2449322 2039583
1.9248099 -1.3750629 3.2264824 2039583
1.9621283 -1.3749576 3.2066185 2039583
1.4771534 -1.3250341 3.2208881 2039583
1.8908952 -1.3257581 3.2447548 2039583
1.9249758 -1.3250608 3.2266164 2039583
1.9622478 -1.3249536 3.2067766 2039583
1.4773562 -1.2745028 3.2213299 2039583
1.8913474 -1.2749467 3.2447405 2039583
1.925005 -1.2750005 3.2268243 2039583
1.9623663 -1.2749456 3.2069364 2039583
1.4775589 -1.2239574 3.2217715 2039583
1.8914832 -1.2249801 3.2448902 2039583
1.9251353 -1.2249875 3.2269771 2039583
1.9624852 -1.2249314 3.2070942 2039583
1.4777565 -1.1747291 3.2222028 2039583
1.8915582 -1.1750001 3.2450726 2039583
1.925235 -1.1750274 3.2271454 2039583
1.962497 -1.1749125 3.2073112 2039583
1.477954 -1.1254873 3.2226334 2039583
1.8917181 -1.1250155 3.2452106 2039583
1.9253011 -1.1250623 3.227335 2039583
1.9631157 -1.124441 3.2072074 2039583
1.4781568 -1.0749011 3.2230756 2039583
1.8916318 -1.0751737 3.2454772 2039583
1.9254149 -1.0749818 3.2274957 2039583
1.9637794 -1.0749786 3.2070744 2039583
1.4783599 -1.0243012 3.2235179 2039583
1.8910991 -1.0255935 3.2459815 2039583
1.9245247 -1.0249306 3.2281909 2039583
1.9638709 -1.025018 3.207248 2039583
1.4785576 -0.97501922 3.2239494 2039583
1.8919556 -0.97488952 3.2457516 2039583
1.9246479 -0.9749096 3.2283475 2039583
1.9639844 -0.97505277 3.2074091 2039583
1.4787554 -0.92572421 3.2243807 2039583
1.8920221 -0.92499149 3.2459381 2039583
1.9246609 -0.92499 3.2285638 2039583
1.9640565 -0.92498541 3.2075934 2039583
1.4789585 -0.87508321 3.2248235 2039583
1.8920437 -0.89466518 3.2460623 2039583
1.9248078 -0.89452332 3.2286215 2039583
1.9640982 -0.89445138 3.2077072 2039583
1.4791616 -0.82442808 3.2252662 1909029
1.4793591 -0.7750929 3.2256975 1257547
1.4795573 -0.72574443 3.2261295 1257547
1.4797606 -0.67504835 3.2265725 1454669
1.4799646 -0.62433863 3.2270174 1520975
1.4801637 -0.5749501 3.2274516 1586511
1.4803619 -0.52554798 3.2278831 1389390
1.4805655 -0.47479686 3.2283278 1058887
1.4807637 -0.42536789 3.2287595 1059401
1.4809618 -0.37592563 3.2291918 1191499
1.4811654 -0.32513329 3.229636 1191755
1.4813693 -0.27432707 3.2300804 1059657
1.4815679 -0.22484446 3.2305131 1059913
1.4817661 -0.17534843 3.2309458 1125705
1.4819701 -0.12450098 3.2313902 861507
1.4821687 -0.074978203 3.2318234 1125961
1.4823673 -0.025442038 3.2322567 1191753
1.4825714 0.025446702 3.2327011 1060424
1.4827701 0.075009674 3.233135 928325
-0.074036561 0.10364836 3.2491467 10197915
-0.025563711 0.10359007 3.2473197 10197915
0.025543502 0.1035286 3.245393 10197915
0.075247802 0.10346885 3.2435191 10197915
0.12489424 0.10340915 3.2416477 10197915
0.17582314 0.1033479 3.2397277 10197915
0.22535409 0.10328834 3.2378607 10197915
0.27482751 0.10322884 3.2359955 10197915
0.32557902 0.10316781 3.2340822 10197915
0.37493759 0.10310844 3.2322216 10197915
0.42423886 0.10304915 3.2303636 10197915
0.47481391 0.10298834 3.2284565 10197915
0.52532929 0.1029276 3.2265525 10197915
0.57578498 0.10286692 3.2246499 10197915
0.62485623 0.10280792 3.2228003 10197915
0.67387056 0.10274896 3.220953 10197915
0.72415149 0.10268849 3.2190573 10197915
0.77437317 0.10262809 3.2171638 10197915
0.82453603 0.10256778 3.2152727 10197915
0.87463963 0.10250753 3.2133842 10197915
0.92468464 0.10244734 3.2114975 10197915
0.97467083 0.10238724 3.2096136 10197915
1.0245984 0.10232721 3.207731 10197915
1.0744675 0.10226723 3.2058511 10197915
1.1242781 0.10220732 3.2039735 10197915
1.1740304 0.1021475 3.2020979 10197915
1.2015026 0.10211445 3.2010622 10197915
1.4828722 0.1004656 3.2333574 928838
1.4961334 -1.4529629 3.2563903 2039583
1.5160378 -1.4614549 3.293772 2039583
1.7929229 -1.4623624 3.2962987 2039583
1.822789 -1.4589138 3.2804158 2039583
1.86323 -1.454019 3.2589107 2039583
1.4962482 -1.4247408 3.2566395 2039583
1.516189 -1.4247528 3.2941008 2039583
1.7930427 -1.4249581 3.296401 2039583
1.8257174 -1.4250098 3.2790082 2039583
1.8652753 -1.4250149 3.257951 2039583
1.4964503 -1.3750064 3.2570794 2039583
1.5163903 -1.3758063 3.2945383 2039583
1.7933037 -1.3754264 3.2964828 2039583
1.8258555 -1.3749329 3.2791581 2039583
1.8654214 -1.3749572 3.2580972 2039583
1.4966525 -1.3252587 3.2575195 2039583
1.5165975 -1.3254864 3.2949882 2039583
1.7944175 -1.3250456 3.296114 2039583
1.8260155 -1.3250198 3.279294 2039583
1.8662046 -1.3245322 3.2579043 2039583
1.4968547 -1.2754977 3.2579594 2039583
1.5168047 -1.2751529 3.295439 2039583
1.7943569 -1.2750412 3.2963684 2039583
1.8249582 -1.2750512 3.2800782 2039583
1.8656272 -1.2750134 3.2584302 2039583
1.4970623 -1.2243776 3.2584112 2039583
1.517012 -1.2248056 3.2958889 2039583
1.7945275 -1.2250327 3.2965014 2039583
1.825049 -1.2250166 3.2802529 2039583
1.8657011 -1.2250416 3.258615 2039583
1.4972645 -1.1745893 3.2588518 2039583
1.5172193 -1.1744447 3.2963395 2039583
1.7946991 -1.1750208 3.2966316 2039583
1.825229 -1.1751487 3.2803788 2039583
1.865802 -1.1750727 3.2587821 2039583
1.4974667 -1.1247873 3.2592919 2039583
1.5174211 -1.1254315 3.2967775 2039583
1.7940394 -1.1261127 3.2971992 2039583
1.8246101 -1.124846 3.2809324 2039583
1.8659265 -1.1250077 3.2589386 2039583
1.4976692 -1.074972 3.2597325 2039583
1.5176287 -1.0750432 3.2972286 2039583
1.7937744 -1.074887 3.2975693 2039583
1.8243257 -1.0750058 3.2813063 2039583
1.8659555 -1.0749408 3.2591469 2039583
1.497872 -1.0251437 3.2601745 2039583
1.517836 -1.0246413 3.2976794 2039583
1.7944177 -1.0262387 3.2974427 2039583
1.8244104 -1.0249892 3.2814841 2039583
1.8664106 -1.0246346 3.2591283 2039583
1.4980747 -0.9753015 3.2606149 2039583
1.518038 -0.97558826 3.2981179 2039583
1.7949977 -0.97536445 3.2973604 2039583
1.8244587 -0.97496629 3.2816794 2039583
1.8671857 -0.97495198 3.2589369 2039583
1.4982773 -0.92544568 3.2610557 2039583
1.5182459 -0.92515916 3.2985697 2039583
1.7950498 -0.92520314 3.2975562 2039583
1.8247041 -0.92499524 3.2817726 2039583
1.8673341 -0.92504555 3.2590778 2039583
1.49848 -0.87557667 3.2614973 2039583
1.518454 -0.8747164 3.2990217 2039583
1.7951504 -0.89415997 3.2976406 2039583
1.824634 -0.89454508 3.2819445 2039583
1.8674283 -0.89457548 3.2591641 2039583
1.4986827 -0.82569373 3.2619383 1778733
1.5186561 -0.82562345 3.2994611 1648437
1.4988909 -0.77444893 3.2623918 1191498
1.5188301 -0.78333879 3.299839 1191755
1.4990935 -0.72453898 3.2628329 1323340
1.4992965 -0.67461526 3.2632744 1454926
1.4994997 -0.62467825 3.2637165 1455183
1.4997025 -0.57472759 3.2641575 1652047
1.499905 -0.52476335 3.2645988 1389133
1.500108 -0.47478557 3.2650406 993351
1.5003109 -0.42479447 3.2654827 1059401
1.5005143 -0.37478969 3.2659247 1191499
1.5007175 -0.32477152 3.266367 1126219
1.5009208 -0.27473962 3.2668097 1059657
1.501124 -0.22469431 3.2672517 1059913
1.5013274 -0.17463534 3.2676947 1125961
1.5015309 -0.12456289 3.2681375 861251
1.5017343 -0.074476764 3.2685804 1125961
1.5019381 -0.024377175 3.2690239 1191753
1.502136 0.024381466 3.2694547 1060424
1.5023397 0.074507974 3.2698982 928325
-0.31857824 0.10394245 3.2583654 10197915
-0.27524418 0.10389034 3.256732 10197915
-0.22519258 0.10383014 3.2548451 10197915
-0.17519842 0.10377003 3.2529607 10197915
-0.12526262 0.10370997 3.2510779 10197915
-0.098291665 0.1036775 3.2500603 10197915
0.63148165 0.10251349 3.2992656 10197915
0.67487699 0.10246144 3.297591 10197915
0.72499895 0.10240134 3.2956569 10197915
0.77506238 0.1023413 3.2937241 10197915
0.82506675 0.10228133 3.2917945 10197915
0.87501317 0.10222144 3.2898667 10197915
0.92490065 0.10216162 3.2879417 10197915
0.97473007 0.10210186 3.2860186 10197915
1.0245008 0.10204216 3.2840974 10197915
1.0755565 0.10198095 3.2821269 10197915
1.1252099 0.10192139 3.2802107 10197915
1.174805 0.10186193 3.2782965 10197915
1.2163147 0.10181215 3.2766945 8816262
1.5243438 0.10144275 3.2648058 994118
1.5575489 0.10140293 3.2635243 860993
1.5364068 -1.4701462 3.3320279 2039583
1.6959624 -1.4754343 3.3478541 2039583
1.7232485 -1.4706933 3.3333509 2039583
1.7666374 -1.4655188 3.3102772 2039583
1.5365962 -1.4247679 3.3324385 2039583
1.6962543 -1.4253601 3.3479211 2039583
1.7245778 -1.4250042 3.3328447 2039583
1.7675425 -1.4249977 3.3099747 2039583
1.5368025 -1.3752514 3.3328865 2039583
1.6963831 -1.3750464 3.3480759 2039583
1.724642 -1.3749479 3.3330343 2039583
1.7678345 -1.3749194 3.3100426 2039583
1.5370094 -1.3257217 3.3333347 2039583
1.6964717 -1.3251806 3.3482504 2039583
1.724826 -1.3249478 3.3331587 2039583
1.7688857 -1.3250207 3.309705 2039583
1.5372218 -1.2748023 3.3337955 2039583
1.6965607 -1.2753104 3.3484249 2039583
1.7247908 -1.2750019 3.3333986 2039583
1.7688808 -1.2749629 3.3099313 2039583
1.5374341 -1.2238688 3.3342562 2039583
1.6966497 -1.2249727 3.3486018 2039583
1.7249647 -1.2249905 3.333529 2039583
1.769009 -1.2249758 3.3100846 2039583
1.537641 -1.1742986 3.3347046 2039583
1.6968653 -1.1758833 3.3487055 2039583
1.7250034 -1.1749731 3.3337309 2039583
1.7691242 -1.1748325 3.3102458 2039583
1.5378476 -1.1247147 3.3351536 2039583
1.69792 -1.1250105 3.3483703 2039583
1.7251347 -1.1250119 3.3338828 2039583
1.7691656 -1.1249112 3.3104465 2039583
1.5380551 -1.0751177 3.3356023 2039583
1.6980394 -1.0744488 3.3485317 2039583
1.72521 -1.0750446 3.3340652 2039583
1.7693194 -1.0750606 3.3105862 2039583
1.5382615 -1.0255073 3.336051 2039583
1.6980999 -1.0238541 3.3487251 2039583
1.725315 -1.0250127 3.3342335 2039583
1.7699836 -1.024665 3.3104568 2039583
1.5384691 -0.97588336 3.3365002 2039583
1.6981884 -0.97396076 3.3488994 2039583
1.7253584 -0.97503477 3.3344312 2039583
1.7705826 -0.97495705 3.3103597 2039583
1.5386816 -0.92486733 3.3369615 2039583
1.698277 -0.92406249 3.3490744 2039583
1.7254125 -0.92511189 3.3346255 2039583
1.7705652 -0.92498416 3.310591 2039583
1.5388947 -0.87383711 3.3374231 2039583
1.6981739 -0.89418268 3.3492622 2039583
1.7258304 -0.89475113 3.334537 2039583
1.7706698 -0.89454973 3.3106699 2039583
1.5391021 -0.82417262 3.3378727 1518656
1.5342153 -0.77022487 3.328758 1191242
1.5292932 -0.7247358 3.3195662 1389133
1.5294981 -0.67531699 3.3200109 1389389
1.5294299 -0.62519753 3.3199434 1455183
1.5299134 -0.57507408 3.3209128 1652303
1.5301189 -0.52561516 3.3213582 1257548
1.5300503 -0.47544113 3.3212905 993094
1.5308137 -0.42460978 3.3227854 1059657
1.530746 -0.3744086 3.3227198 1191499
1.5309515 -0.32489598 3.3231652 1125963
1.5308827 -0.27469879 3.323097 994121
1.5313677 -0.22446233 3.3240688 1059913
1.5315728 -0.1749094 3.3245149 1125961
1.5317783 -0.12534317 3.3249602 861251
1.5317099 -0.075085796 3.3248925 1125961
1.532195 -0.024801038 3.3258648 1191753
1.532401 0.024805473 3.3263113 1060167
1.5326065 0.074425302 3.3267581 993861
-0.32341671 0.1036586 3.3361201 10197915
-0.27627456 0.10360207 3.334301 10197915
-0.22503094 0.10354063 3.3323233 10197915
-0.17384751 0.10347924 3.3303478 10197915
-0.12410588 0.10341959 3.3284276 10197915
-0.074421577 0.10336001 3.3265102 10197915
-0.024794493 0.10330048 3.324595 10197915
0.024775485 0.10324105 3.3226819 10197915
0.074288435 0.10318168 3.3207712 10197915
0.12511718 0.10312071 3.3188088 10197915
0.17588642 0.10305984 3.3168497 10197915
0.22522576 0.10300067 3.3149459 10197915
0.27450848 0.10294157 3.3130434 10197915
0.32510102 0.1028809 3.3110909 10197915
0.37563446 0.1028203 3.3091404 10197915
0.42474476 0.1027614 3.3072448 10197915
0.47516039 0.10270095 3.3052993 10197915
0.52551734 0.10264057 3.3033555 10197915
0.57445621 0.10258187 3.3014672 10197915
0.60569543 0.1025444 3.300261 10197915
1.5412029 0.10090311 3.3364091 928582
1.5758017 0.10108409 3.3423939 928069
1.601624 0.10105319 3.3413718 926786
1.5861146 -1.5090697 3.3909752 2039583
1.6218667 -1.5077484 3.3871505 2039583
1.6629405 -1.5027869 3.3653095 2039583
1.5779291 -1.4754599 3.3854494 2039583
1.6250527 -1.4752761 3.3856013 2039583
1.6714435 -1.474424 3.3609095 2039583
1.5780774 -1.4251026 3.3857684 2039583
1.6244855 -1.4249592 3.3861246 2039583
1.6710843 -1.424935 3.361321 2039583
1.5666138 -1.37868 3.3781857 2039583
1.624593 -1.3750389 3.386291 2039583
1.6711316 -1.3749442 3.3615186 2039583
1.5579051 -1.3245682 3.3725917 2039583
1.624652 -1.3251774 3.3864799 2039583
1.6712188 -1.3248788 3.3616929 2039583
1.5581172 -1.2744414 3.3730502 2039583
1.6247311 -1.2751199 3.386663 2039583
1.6713533 -1.2748781 3.3618467 2039583
1.5583291 -1.224301 3.3735089 2039583
1.6247919 -1.2249922 3.3868523 2039583
1.6714032 -1.2249411 3.3620412 2039583
1.5585412 -1.1741471 3.3739686 2039583
1.6249422 -1.1749877 3.3869956 2039583
1.671726 -1.1748197 3.3620932 2039583
1.5587534 -1.1239794 3.374428 2039583
1.6250015 -1.1249783 3.3871858 2039583
1.6727264 -1.1250125 3.3617811 2039583
1.5589656 -1.0737982 3.3748872 2039583
1.6251289 -1.0749629 3.3873405 2039583
1.6727724 -1.075062 3.3619785 2039583
1.5591719 -1.0249978 3.3753338 2039583
1.6262136 -1.0249174 3.3869858 2039583
1.6728425 -1.025041 3.3621635 2039583
1.5593783 -0.97618419 3.3757808 2039583
1.626364 -0.97492099 3.3871274 2039583
1.6729523 -0.9750129 3.3623281 2039583
1.5595907 -0.92596275 3.3762405 2039583
1.6264904 -0.92505556 3.3872826 2039583
1.6730177 -0.92498076 3.3625166 2039583
1.5598031 -0.87572742 3.3767004 2039583
1.6185913 -0.87891251 3.3916917 1974306
1.6731802 -0.89462537 3.3625636 2039583
1.5600157 -0.82547849 3.3771603 1453895
1.6142665 -0.82514834 3.3942344 1388620
1.5602282 -0.77521586 3.3776205 1191242
1.6144018 -0.77512842 3.3943844 1190472
1.5604409 -0.72493976 3.3780811 1389133
1.61483 -0.72566539 3.3943763 1454669
1.5606534 -0.67464966 3.3785412 1454925
1.6156684 -0.67495579 3.3941553 1586512
1.5608673 -0.62434638 3.379004 1455182
1.6156559 -0.62467492 3.3943863 1586511
1.5610801 -0.57402891 3.3794646 1520975
1.6157957 -0.57486308 3.3945336 1586768
1.5612873 -0.525096 3.3799129 1191499
1.6160636 -0.52536774 3.3946102 1191242
1.5614942 -0.4761501 3.3803611 993095
1.6160061 -0.47538021 3.3948638 993095
1.561707 -0.42579222 3.3808224 1059658
1.6160917 -0.4247705 3.3950434 1190986
1.5619204 -0.3754206 3.3812838 1191755
1.6166067 -0.3752017 3.3949893 1257291
1.5621332 -0.32503521 3.3817444 1125962
1.6174804 -0.32524529 3.394747 1125963
1.5623457 -0.27463597 3.3822043 1059657
1.6174664 -0.27567321 3.3949735 1059657
1.5625588 -0.22422308 3.3826659 1125449
1.6175526 -0.22505119 3.3951542 1059913
1.5627661 -0.17519751 3.3831148 1125962
1.6176383 -0.17442395 3.3953338 927814
1.5629735 -0.12615873 3.3835635 861251
1.6176641 -0.1250138 3.3955395 795202
1.5631869 -0.075705335 3.3840261 1125961
1.6178595 -0.075798407 3.3956549 1191497
1.5634004 -0.025238177 3.3844876 1191753
1.6187354 -0.025926758 3.3954108 1191753
1.5636139 0.025242768 3.3849497 1060167
1.6190989 0.02532069 3.3954449 1059398
1.5638273 0.075737506 3.3854125 993862
1.6191844 0.075965628 3.3956246 861507
0.13379069 0.1028083 3.3994055 10197915
0.17454801 0.10275957 3.397794 10197915
0.22509152 0.10269914 3.3957961 10197915
0.27557561 0.10263877 3.3937998 10197915
0.32600039 0.10257849 3.3918059 10197915
0.37496793 0.10251994 3.3898699 10197915
0.42387915 0.10246146 3.3879366 10197915
0.4741298 0.10240136 3.3859494 10197915
0.52432173 0.10234135 3.3839653 10197915
0.57445472 0.10228141 3.3819828 10197915
0.62452912 0.10222154 3.3800035 10197915
0.67454487 0.10216174 3.378026 10197915
0.72450203 0.102102 3.3760507 10197915
0.77440107 0.10204234 3.3740778 10197915
0.82424164 0.10198274 3.3721073 10197915
0.87402397 0.1019232 3.3701394 10197915
0.92512846 0.1018621 3.368119 10197915
0.97617215 0.10180107 3.3661008 10197915
1.0257776 0.10174176 3.3641393 10197915
1.075325 0.10168251 3.3621805 8553090
1.124815 0.10162335 3.3602245 5855577
1.1742471 0.10156423 3.3582697 3684408
1.2249924 0.10150355 3.3562634 2039583
1.2565091 0.10146589 3.3550174 2039583
1.5869415 -1.5118703 3.405724 2039583
1.5872581 -1.4748986 3.4057212 2039583
1.587412 -1.4249648 3.4058604 2039583
1.588334 -1.3746231 3.4055929 2039583
1.5886853 -1.324986 3.4056277 2039583
1.5887556 -1.2748215 3.4058125 2039583
1.588871 -1.2250825 3.4059722 2039583
1.588902 -1.1751919 3.406177 2039583
1.5890365 -1.1250119 3.4063296 2039583
1.5891137 -1.0749692 3.4065118 2039583
1.5891579 -1.0250679 3.4067099 2039583
1.6015958 -1.0254718 3.4000871 2039583
1.5892357 -0.97501433 3.4068906 2039583
1.6016808 -0.97481322 3.4002674 2039583
1.5894006 -0.92495531 3.4070265 2039583
1.6017656 -0.92414951 3.4004474 2039583
1.5894722 -0.87503493 3.4072106 1974307
1.601848 -0.87488788 3.4006226 1974306
1.5894338 -0.82496762 3.4074533 1388619
1.6019309 -0.82562095 3.4007978 1388620
1.5895736 -0.77489424 3.4076011 1191241
1.6020156 -0.77494133 3.4009786 1190728
1.5898305 -0.72509998 3.4076867 1520462
1.602597 -0.72022307 3.4009128 1520462
1.5897021 -0.67501402 3.4079785 1454926
1.6033095 -0.67485505 3.4007354 1520719
1.589054 -0.6255151 3.4085419 1586255
1.6026046 -0.62334579 3.4013391 1652047
1.5888811 -0.57526708 3.4088576 1520976
1.6023499 -0.5749858 3.4016895 1586768
1.5889347 -0.52523714 3.4090524 1190986
1.6024346 -0.52427953 3.4018703 1190986
1.588906 -0.47472477 3.4092915 1058887
1.6025175 -0.4749766 3.4020455 1058631
1.5889729 -0.42483953 3.4094782 1125450
1.6026001 -0.4256686 3.4022207 1125450
1.5892555 -0.37528059 3.4095485 1257291
1.6033319 -0.37309834 3.402065 1257291
1.589211 -0.32490647 3.4097958 1125706
1.6038969 -0.32416198 3.4019823 1125706
1.589151 -0.27467951 3.4100511 1059913
1.6039793 -0.27484706 3.4021578 1059657
1.5895205 -0.22527494 3.4100738 1059913
1.6040618 -0.22552711 3.4023333 1125449
1.5894597 -0.17519431 3.4103296 1125962
1.604147 -0.17479271 3.4025133 1059912
1.5895442 -0.12433795 3.4105113 860738
1.6042323 -0.12405296 3.402694 860738
1.5896264 -0.074889161 3.4106879 1191753
1.6043149 -0.074717507 3.4028687 1191753
1.5897081 -0.025435215 3.4108632 1257289
1.6053158 -0.02445608 3.4025598 1191753
1.5897932 0.02543702 3.4110458 1125960
1.6056089 0.025374236 3.4026256 1125960
1.5898751 0.074901305 3.4112206 928582
1.6056917 0.074716419 3.4028015 994118
-0.35265896 0.10338998 3.4186385 10197915
-0.32564989 0.10335765 3.4175696 10197915
-0.27451649 0.10329651 3.4155481 10197915
-0.22486123 0.10323714 3.4135849 10197915
-0.17526346 0.10317784 3.4116242 10197915
-0.12430782 0.1031169 3.4096096 10197915
-0.074824966 0.10305773 3.4076533 10197915
-0.025399417 0.10299866 3.4056995 10197915
0.025379471 0.10293793 3.4036913 10197915
0.074690729 0.10287897 3.4017417 10197915
0.10847322 0.10283858 3.4004064 10197915
0.99181622 0.10146826 3.4496057 10197915
1.0257046 0.10142787 3.4482319 10197915
1.0750802 0.101369 3.4462311 9079434
1.1243982 0.10131022 3.4442327 2039583
1.1750658 0.10124981 3.4421797 2039583
1.225673 0.1011895 3.440129 2039583
1.2720108 0.10113426 3.4382508 2039583
1.5899173 0.10034187 3.4113121 928582
1.6057342 0.10009418 3.4028916 993862
-0.2508488 0.10294951 3.4999635 10197915
-0.2246832 0.10291833 3.4989033 10197915
-0.17529805 0.10285946 3.4969022 10197915
-0.12596934 0.10280066 3.4949031 10197915
-0.075248957 0.1027402 3.4928479 10197915
-0.024587639 0.10267982 3.4907947 10197915
0.024568949 0.10262121 3.4888027 10197915
0.075112462 0.10256096 3.4867542 10197915
0.12559724 0.10250079 3.4847088 10197915
0.17458262 0.1024424 3.4827237 10197915
0.22495018 0.10238237 3.4806824 10197915
0.27525929 0.10232238 3.4786434 10197915
0.32550904 0.10226249 3.4766073 10197915
