# .PCD v0.7 - Point Cloud Data file format
VERSION 0.7
FIELDS x y z rgb
SIZE 4 4 4 4
TYPE F F F U
COUNT 1 1 1 1
WIDTH 1164
HEIGHT 1
VIEWPOINT 0 0 0 1 0 0 0
POINTS 1164
DATA ascii
-0.52513182 0.11188366 1.6773835 10197915
-0.47513101 0.11194689 1.678136 10197915
-0.42661342 0.11201051 1.6778148 10197915
-0.3746841 0.11209431 1.6701114 10197915
-0.32469818 0.11215683 1.6711842 10197915
-0.27465984 0.11222 1.6719844 10197915
-0.22456302 0.11228267 1.6730592 10197915
-0.17475511 0.11234527 1.673992 10197915
-0.12489434 0.11240853 1.6746476 10197915
-0.074980885 0.11247066 1.6758603 10197915
-0.025006033 0.11253347 1.6767964 10197915
0.02502466 0.11259634 1.6777329 10197915
0.074759722 0.11265914 1.6785229 10197915
0.12726457 0.11273637 1.6742523 6513507
0.1748634 0.11280581 1.6706433 6513507
0.21425579 0.11285327 1.6723375 6513507
-1.3650382 0.11067016 1.7354902 10197915
-1.324894 0.11074555 1.7245915 10197915
-1.2748897 0.11080831 1.7255687 10197915
-1.225059 0.11087085 1.7265426 10197915
-1.1749414 0.11093374 1.7275223 10197915
-1.1259617 0.11101456 1.7194349 10197915
-1.075214 0.11108164 1.7188289 10197915
-1.0252342 0.11114439 1.7197995 10197915
-0.97484773 0.11120795 1.7206278 10197915
-0.92510986 0.11127006 1.7217439 10197915
-0.87531471 0.11133289 1.7225609 10197915
-0.82510787 0.11139591 1.7235358 10197915
-0.77485412 0.11145833 1.7248133 10197915
-0.72453415 0.11152217 1.7254891 10197915
-0.67451257 0.11158463 1.7266117 10197915
-0.62479001 0.11164703 1.7275771 10197915
-0.57501626 0.11171015 1.7282376 10197915
-0.52518618 0.11177208 1.7295119 10197915
-0.47529617 0.11183468 1.7304808 10197915
-0.42303979 0.11190744 1.7281482 10197915
-0.37470508 0.111984 1.7216603 10197915
-0.32495481 0.11204647 1.7226151 10197915
-0.27515337 0.11210898 1.7235817 10197915
-0.22505514 0.11217146 1.7247487 10197915
-0.17514047 0.11223499 1.7253069 10197915
-0.12517066 0.11229685 1.7266767 10197915
-0.07490357 0.1123604 1.7274468 10197915
-0.027286518 0.11242985 1.7238362 10197915
0.024925986 0.11250823 1.7188643 10197915
0.075167917 0.11257163 1.7196798 10197915
0.12546906 0.11263447 1.7207931 6645093
0.17511047 0.11269712 1.7215927 6513507
0.21768092 0.11274937 1.7229848 6513507
-1.3347317 -0.80180812 1.79623 2039583
-1.3738 -0.77198213 1.7745897 2039583
-1.3388497 -0.775307 1.7940162 2039583
-1.3751106 -0.72501993 1.7739969 2039583
-1.3392601 -0.72499639 1.793932 2039583
-1.375167 -0.67500675 1.7741066 2039583
-1.3393233 -0.67494237 1.7940398 2039583
-1.3752512 -0.62497252 1.7742027 2039583
-1.3393984 -0.6249572 1.7941408 2039583
-1.3752987 -0.5749926 1.7743198 2039583
-1.3394921 -0.57500356 1.7942322 2039583
-1.3754281 -0.52500719 1.7743901 2039583
-1.3395559 -0.52496958 1.7943391 2039583
-1.3754761 -0.47500116 1.7745086 2039583
-1.3399379 -0.47526908 1.794268 2039583
-1.4000331 -0.42095819 1.7610066 2039583
-1.3751026 -0.42507625 1.774859 2039583
-1.3402182 -0.42499152 1.7942569 2039583
-1.4001056 -0.37501502 1.7610977 2039583
-1.3751169 -0.37500143 1.7749935 2039583
-1.3403155 -0.37501478 1.7943454 2039583
-1.4001837 -0.32542023 1.7611959 2039583
-1.3752216 -0.32498497 1.7750767 2039583
-1.340389 -0.32499099 1.7944466 2039583
-1.4002632 -0.27509049 1.7612958 2039583
-1.3752699 -0.27499393 1.7751936 2039583
-1.3404679 -0.27500194 1.7945465 2039583
-1.4003423 -0.22475508 1.7613955 2039583
-1.3753047 -0.22499643 1.7753177 2039583
-1.3404759 -0.22504455 1.7946848 2039583
-1.4004208 -0.1751436 1.761494 2039583
-1.3749069 -0.17500687 1.7756829 2039583
-1.3405365 -0.17534517 1.7947937 2039583
-1.400499 -0.12552652 1.7615923 2039583
-1.3751134 -0.12497599 1.77571 2039583
-1.3406782 -0.12492266 1.7948587 2039583
-1.4005785 -0.075174108 1.7616923 2039583
-1.3750465 -0.075000159 1.7758893 2039583
-1.340754 -0.07510642 1.7949595 2039583
-1.4006578 -0.024816006 1.7617921 2039583
-1.3750805 -0.025016334 1.7760142 2039583
-1.3408293 -0.025284618 1.7950598 2039583
-1.4007359 0.024817852 1.7618905 2039583
-1.3751584 0.025018211 1.7761148 2039583
-1.3409053 0.025286525 1.7951622 2039583
-1.4008142 0.074457265 1.761989 2500134
-1.3752922 0.0749982 1.7761831 2631720
-1.3409802 0.07511957 1.7952632 2631720
-1.4008627 0.10511945 1.7620496 10066329
-1.3751477 0.10570334 1.7755104 10132122
-1.335201 0.10702041 1.7895185 10197915
-1.2747732 0.11068962 1.7811072 10197915
-1.2249128 0.11075178 1.7822791 10197915
-1.1750026 0.11081472 1.7831197 10197915
-1.124038 0.11090095 1.7736936 10197915
-1.0748599 0.11096455 1.7737751 10197915
-1.0249749 0.11102665 1.7749946 10197915
-0.97503573 0.11108974 1.7757761 10197915
-0.92696404 0.11115652 1.7736953 10197915
-0.87490964 0.11123961 1.7664049 10197915
-0.82524192 0.11130156 1.7675573 10197915
-0.77515203 0.11136438 1.768555 10197915
-0.72464675 0.11142806 1.7693977 10197915
-0.67480719 0.11149023 1.7705535 10197915
-0.62491477 0.11155315 1.7713836 10197915
-0.57496488 0.11161546 1.7725422 10197915
-0.52495897 0.11167854 1.7733744 10197915
-0.47489801 0.11174097 1.7745351 10197915
-0.42514381 0.11180336 1.775526 10197915
-0.37497246 0.1118666 1.7763616 10197915
-0.32473937 0.11192927 1.7775258 10197915
-0.27518827 0.11199179 1.7783436 10197915
-0.2252093 0.11205447 1.779344 10197915
-0.17481478 0.11211732 1.780512 10197915
-0.1247248 0.11218013 1.7815094 10197915
-0.074948356 0.11224294 1.7823317 10197915
-0.022593662 0.11232321 1.7765357 10197915
0.024981029 0.11239176 1.7733265 10197915
0.074969865 0.11245544 1.7738755 10197915
0.12502289 0.11251725 1.7753062 6974058
0.17512752 0.1125811 1.7758571 6513507
0.21962585 0.11263905 1.7757266 6513507
-1.3119453 -0.80465794 1.808892 2039583
-1.2720076 -0.80962908 1.8310874 2039583
-1.2438737 -0.81310469 1.8467214 2039583
-1.3139716 -0.77481282 1.8078507 2039583
-1.2749349 -0.77497464 1.8295587 2039583
-1.2440242 -0.77503014 1.8467463 2039583
-1.3143792 -0.72502452 1.8077669 2039583
-1.2749535 -0.72495651 1.8296913 2039583
-1.2441024 -0.72511172 1.846845 2039583
-1.3144517 -0.67493981 1.8078703 2039583
-1.2750894 -0.67499876 1.8297577 2039583
-1.2441709 -0.67503262 1.8469507 2039583
-1.3145365 -0.62495995 1.8079649 2039583
-1.2750936 -0.62501931 1.8298973 2039583
-1.2442391 -0.62494898 1.847056 2039583
-1.3146194 -0.57503021 1.8080615 2039583
-1.2751939 -0.57498395 1.8299872 2039583
-1.2443094 -0.57508832 1.8471594 2039583
-1.3146691 -0.5250386 1.8081774 2039583
-1.2752515 -0.52497566 1.8300946 2039583
-1.2449358 -0.52499211 1.8469545 2039583
-1.3150452 -0.47479877 1.8081118 2039583
-1.2753659 -0.47501206 1.8301764 2039583
-1.2450354 -0.47494346 1.847042 2039583
-1.3153734 -0.42501462 1.8080723 2039583
-1.2753922 -0.42500958 1.8303052 2039583
-1.2450372 -0.42497209 1.8471839 2039583
-1.3154526 -0.3750087 1.8081716 2039583
-1.2755034 -0.37496856 1.8303845 2039583
-1.2451503 -0.37508222 1.8472644 2039583
-1.3154637 -0.3249976 1.8083074 2039583
-1.2755231 -0.32498753 1.8305216 2039583
-1.2452394 -0.32510224 1.8473581 2039583
-1.3150547 -0.27497256 1.808678 2039583
-1.2750785 -0.27504054 1.8309082 2039583
-1.2453123 -0.27509028 1.8474587 2039583
-1.3151115 -0.22496244 1.8087894 2039583
-1.2751281 -0.2250409 1.8310225 2039583
-1.2459246 -0.22509575 1.8472627 2039583
-1.3156567 -0.17485338 1.80863 2039583
-1.2752417 -0.17496835 1.8311058 2039583
-1.2459793 -0.1752637 1.8473742 2039583
-1.3157536 -0.12508598 1.8087177 2039583
-1.275353 -0.12497529 1.8311796 2039583
-1.2460499 -0.12475812 1.8474795 2039583
-1.3158879 -0.074861601 1.8087878 2039583
-1.2749965 -0.074930847 1.8315251 2039583
-1.245753 -0.075739071 1.8477852 2039583
-1.3159559 -0.024781171 1.8088926 2039583
-1.2748239 -0.025042709 1.8317646 2039583
-1.2456335 -0.025264645 1.8479958 2039583
-1.3160293 0.024783041 1.808993 2039583
-1.2748985 0.025044596 1.8318737 2039583
-1.2457622 0.024874451 1.8480673 2039583
-1.3161105 0.074874766 1.8090919 2697513
-1.2750568 0.075038567 1.8319218 2631720
-1.2463313 0.075025193 1.8478945 2565927
-1.3163271 0.10553744 1.8090427 10132122
-1.2747275 0.10586056 1.8306432 10132122
-1.2331523 0.1084088 1.836646 10132122
-1.175004 0.1107138 1.8302981 10197915
-1.1248313 0.1107766 1.8313359 10197915
-1.0749844 0.11083867 1.8325492 10197915
-1.0250728 0.11090158 1.8334018 10197915
-0.97511441 0.11096373 1.8346174 10197915
-0.92255086 0.11104153 1.8301135 10197915
-0.87481135 0.11111549 1.8245159 10197915
-0.82739162 0.11118212 1.8220855 10197915
-0.77509779 0.11126564 1.8147472 10197915
-0.72476494 0.11132909 1.8155987 10197915
-0.67511725 0.11139092 1.8167903 10197915
-0.62541705 0.11145359 1.8176293 10197915
-0.57491106 0.11151648 1.8188385 10197915
-0.52472091 0.11157939 1.8198642 10197915
-0.47485593 0.11164223 1.820706 10197915
-0.4249264 0.11170442 1.8219037 10197915
-0.37494805 0.11176741 1.8227475 10197915
-0.32490799 0.11182977 1.8239479 10197915
-0.27481592 0.11189291 1.8247942 10197915
-0.22466488 0.11195535 1.8259958 10197915
-0.1748341 0.11201783 1.827015 10197915
-0.12495087 0.11208114 1.827673 10197915
-0.075015448 0.11214292 1.8290547 10197915
-0.025017576 0.11220553 1.8300762 10197915
0.025036216 0.11226829 1.8310994 10197915
0.074761942 0.11233098 1.8319321 10197915
0.12454641 0.11239295 1.8331336 7237230
0.17476752 0.11245587 1.8341601 6513507
0.22644891 0.11253018 1.8307571 6513507
0.25107813 0.11252587 1.8477049 6513507
-1.2183303 -0.81629735 1.8609157 2039583
-1.1740315 -0.82183069 1.8855332 2039583
-1.1489244 -0.82470733 1.8994871 2039583
-1.2193667 -0.77498466 1.8604579 2039583
-1.1753023 -0.77503592 1.884961 2039583
-1.1489799 -0.7747764 1.8995988 2039583
-1.2194386 -0.72501588 1.8605607 2039583
-1.1753427 -0.72500747 1.8850808 2039583
-1.1494261 -0.72880125 1.8994821 2039583
-1.2194724 -0.67506474 1.8606849 2039583
-1.1754019 -0.67500907 1.8851892 2039583
-1.149707 -0.67518699 1.8994794 2039583
-1.2195736 -0.62503952 1.8607712 2039583
-1.1754893 -0.62502319 1.8852861 2039583
-1.1497723 -0.62485886 1.899587 2039583
-1.2196487 -0.57498711 1.8608724 2039583
-1.1755662 -0.5750137 1.8853872 2039583
-1.1498373 -0.574525 1.8996946 2039583
-1.22026 -0.52504063 1.8606755 2039583
-1.1756204 -0.5249989 1.8855009 2039583
-1.1499016 -0.5249719 1.8998008 2039583
-1.2203267 -0.47500515 1.8607824 2039583
-1.1756629 -0.47499621 1.8856189 2039583
-1.1499658 -0.47541341 1.8999069 2039583
-1.2203944 -0.42498714 1.8608882 2039583
-1.1755438 -0.42512509 1.8858285 2039583
-1.1499994 -0.44945219 1.8999623 2039583
-1.2201555 -0.37487015 1.8611634 2039583
-1.1754863 -0.37514573 1.8860022 2039583
-1.2199522 -0.32502115 1.8614187 2039583
-1.1753074 -0.32502776 1.886243 2039583
-1.2200816 -0.27493942 1.8614905 2039583
-1.1753306 -0.27502978 1.8863753 2039583
-1.2207127 -0.22495726 1.8612814 2039583
-1.175421 -0.22498921 1.886467 2039583
-1.2207187 -0.17499025 1.8614222 2039583
-1.1755335 -0.17496225 1.8865485 2039583
-1.2208557 -0.12510146 1.8614885 2039583
-1.1759703 -0.12514573 1.8864472 2039583
-1.2207528 -0.074975722 1.8616887 2039583
-1.1761569 -0.075028457 1.8864886 2039583
-1.2210429 -0.024913609 1.8616704 2039583
-1.1762227 -0.025010752 1.8865935 2039583
-1.2211744 0.024969999 1.8617398 2039583
-1.1762897 0.025012627 1.8866996 2039583
-1.2215343 0.074951723 1.8616838 2631720
-1.1763555 0.075041592 1.8868071 2631720
-1.2215359 0.10551818 1.8616695 10132122
-1.1762899 0.10603615 1.8847315 10132122
-1.1250074 0.11066997 1.881103 10197915
-1.0749563 0.11073168 1.8825611 10197915
-1.0248553 0.11079526 1.8832332 10197915
-0.97468746 0.11085804 1.8843005 10197915
-0.92485338 0.11091995 1.8855573 10197915
-0.87496144 0.1109828 1.8864211 10197915
-0.82126749 0.11109087 1.8684324 10197915
-0.77504075 0.1111616 1.8634173 10197915
-0.72488964 0.11122476 1.8642774 10197915
-0.6750586 0.11128717 1.8653228 10197915
-0.62479627 0.11134966 1.8665701 10197915
-0.57485449 0.11141221 1.8676181 10197915
-0.52524358 0.11147473 1.8684667 10197915
-0.47480756 0.11153746 1.8697178 10197915
-0.42469737 0.11160018 1.8707693 10197915
-0.37492225 0.11166291 1.8716208 10197915
-0.32508552 0.11172487 1.8728595 10197915
-0.27519757 0.11178774 1.8737133 10197915
-0.22525097 0.11184986 1.8749547 10197915
-0.17524967 0.11191287 1.8758104 10197915
-0.12519273 0.11197513 1.8770543 10197915
-0.07507766 0.11203827 1.8779124 10197915
-0.024910111 0.11210068 1.8791589 10197915
0.024928592 0.11216307 1.8802049 10197915
0.07520853 0.11222641 1.8810661 10197915
0.1255483 0.11228902 1.8823164 7368816
0.17516105 0.11235156 1.8831573 6513507
0.22482893 0.11241333 1.8843999 6513507
0.25398374 0.1124444 1.8875395 6513507
-1.1339289 -0.85216349 1.9092351 2039583
-1.1373454 -0.82501751 1.9064771 2039583
-1.1374303 -0.7749958 1.906562 2039583
-1.1379147 -0.72474706 1.9064327 2039583
-1.1381321 -0.67500299 1.9064368 2039583
-1.1381818 -0.62503111 1.9065696 2039583
-1.1382687 -0.57496989 1.9066525 2039583
-1.1383311 -0.52498686 1.9067813 2039583
-1.1383718 -0.47499773 1.9068878 2039583
-1.1500432 -0.41562122 1.9000345 2039583
-1.1384591 -0.42500281 1.9070041 2039583
-1.1500959 -0.37470594 1.9001222 2039583
-1.1385249 -0.37500262 1.9070966 2039583
-1.1501603 -0.3251307 1.9002284 2039583
-1.1386064 -0.32491148 1.9072138 2039583
-1.1502246 -0.2755498 1.9003345 2039583
-1.1386356 -0.27490053 1.9073299 2039583
-1.1502898 -0.22517627 1.900442 2039583
-1.1386908 -0.22500624 1.9074453 2039583
-1.1503552 -0.17479704 1.9005501 2039583
-1.1388437 -0.17506793 1.9075243 2039583
-1.1508178 -0.12072497 1.9004472 2039583
-1.1388482 -0.12482884 1.9076451 2039583
-1.1510825 -0.075195536 1.9004303 2039583
-1.1388921 -0.07504265 1.9078012 2039583
-1.1511378 -0.02519566 1.9005424 2039583
-1.1389787 -0.025252081 1.9078645 2039583
-1.1512033 0.025197571 1.90065 2039583
-1.1390446 0.025254034 1.9079766 2039583
-1.1512771 0.075208724 1.9007525 2631720
-1.1390897 0.075056113 1.9081322 2565927
-1.1512614 0.10510063 1.9008465 10132122
-1.1341026 0.1065987 1.9157765 10132122
-1.0749357 0.11061963 1.9349632 10197915
-1.0265021 0.11068217 1.9350895 10197915
-0.97543705 0.11077295 1.9236082 10197915
-0.92496043 0.11083606 1.9247038 10197915
-0.87521642 0.11089826 1.9257845 10197915
-0.82489997 0.11098893 1.9139026 10197915
-0.77498037 0.11105182 1.91477 10197915
-0.72502124 0.11111476 1.9156374 10197915
-0.67500019 0.11117685 1.9169259 10197915
-0.62492687 0.11123993 1.9177958 10197915
-0.57479465 0.11130217 1.9190866 10197915
-0.52460676 0.11136539 1.9199592 10197915
-0.47515488 0.11142679 1.9212351 10197915
-0.42524824 0.1114892 1.9223115 10197915
-0.37489516 0.11155265 1.9231868 10197915
-0.32487464 0.1116152 1.9242653 10197915
-0.27520394 0.11167685 1.9255465 10197915
-0.22507305 0.11173955 1.9266279 10197915
-0.17488611 0.11180232 1.9277102 10197915
-0.12504956 0.11186509 1.928574 10197915
-0.074748345 0.111928 1.9296584 10197915
-0.024796724 0.11199003 1.9309468 10197915
0.024815042 0.11205207 1.9320166 10197915
0.074878059 0.11211514 1.9328846 10197915
0.12500054 0.11217738 1.9341768 7631988
0.17517743 0.11224058 1.9350475 6513507
0.22324666 0.1123033 1.9348661 6513507
0.25661936 0.11237054 1.9236715 6513507
-1.1583974 -0.8649258 1.9677101 2039583
-1.1584746 -0.82503599 1.9678415 2039583
-1.1585708 -0.77536976 1.9680048 2039583
-1.1586685 -0.72488099 1.9681705 2039583
-1.1587645 -0.67519832 1.9683338 2039583
-1.1588608 -0.62550724 1.9684975 2039583
-1.1589587 -0.57499325 1.9686632 2039583
-1.1590568 -0.52447075 1.96883 2039583
-1.1591529 -0.47475478 1.9689933 2039583
-1.1592492 -0.42503047 1.9691572 2039583
-1.1593471 -0.37448266 1.9693234 2039583
-1.1594434 -0.32474175 1.9694866 2039583
-1.1595397 -0.27499259 1.9696503 2039583
-1.159636 -0.22523512 1.9698142 2039583
-1.1597326 -0.17546937 1.9699777 2039583
-1.1598303 -0.12487932 1.9701442 2039583
-1.1599268 -0.075096972 1.9703079 2039583
-1.1600231 -0.025306273 1.9704713 2039583
-1.1601212 0.025309123 1.970638 2039583
-1.1602176 0.075116448 1.9708018 2171169
-1.158056 0.1078807 1.9726881 10132122
-1.1251401 0.11046854 1.9751607 10197915
-1.0750152 0.11053114 1.97628 10197915
-1.0223832 0.11060368 1.9742755 10197915
-0.97500843 0.11068582 1.9645963 10197915
-0.92507166 0.11074919 1.9652544 10197915
-0.87508112 0.11081067 1.9668119 10197915
-0.82502723 0.1108732 1.9679219 10197915
-0.77491659 0.1109358 1.9690331 10197915
-0.72516018 0.11099846 1.9699079 10197915
-0.67534226 0.11106021 1.9712415 10197915
-0.62506258 0.11112302 1.9723563 10197915
-0.57514191 0.11118589 1.9732341 10197915
-0.52515137 0.11124786 1.9745721 10197915
-0.47511682 0.11131084 1.9754519 10197915
-0.42501533 0.11137295 1.976792 10197915
-0.37486646 0.11143608 1.9776746 10197915
-0.32506129 0.11149831 1.9787787 10197915
-0.27480039 0.11156061 1.9801234 10197915
-0.22488528 0.11162297 1.9812301 10197915
-0.17532676 0.11168539 1.9820987 10197915
-0.12489299 0.11174791 1.9834474 10197915
-0.07481017 0.11181048 1.9845581 10197915
-0.027875373 0.11187422 1.98321 10197915
0.025337692 0.1119657 1.9727046 10197915
0.075232759 0.11202807 1.9738034 10197915
0.12518373 0.11209048 1.974903 7829367
0.17519011 0.11215297 1.976004 6513507
0.22855297 0.11222918 1.9727299 6513507
0.25966266 0.11228523 1.9653916 6513507
-1.1868342 -0.90162599 2.0188556 2039583
-1.1868874 -0.8749004 2.0189457 2039583
-1.1869859 -0.82478344 2.019114 2039583
-1.1870855 -0.77465862 2.0192828 2039583
-1.1871847 -0.72452539 2.0194521 2039583
-1.1872842 -0.67438376 2.0196211 2039583
-1.1873821 -0.62506968 2.0197873 2039583
-1.1874799 -0.57574743 2.0199537 2039583
-1.1875793 -0.52558094 2.0201232 2039583
-1.1876788 -0.4754059 2.0202923 2039583
-1.1877782 -0.42522261 2.0204613 2039583
-1.1878778 -0.37503085 2.0206311 2039583
-1.1879773 -0.32483068 2.0208001 2039583
-1.1880769 -0.27462208 2.0209696 2039583
-1.1881771 -0.2244052 2.0211399 2039583
-1.1882751 -0.17501691 2.0213068 2039583
-1.1883731 -0.12562047 2.0214734 2039583
-1.1884727 -0.075378463 2.0216427 2039583
-1.1885723 -0.025128029 2.0218122 2039583
-1.1886719 0.02513084 2.0219817 2039583
-1.1887716 0.075398132 2.0221515 2039583
-1.1712836 0.10973283 2.0207572 10066329
-1.1250798 0.11037648 2.0182281 10197915
-1.0751024 0.11043835 2.0196095 10197915
-1.0250585 0.1105013 2.0205102 10197915
-0.97496986 0.11056329 2.0218949 10197915
-0.92523021 0.11062537 2.0230303 10197915
-0.87502092 0.11068854 2.0239341 10197915
-0.82475799 0.11075075 2.0253229 10197915
-0.77484924 0.11081304 2.0264626 10197915
-0.72530735 0.11087541 2.0273423 10197915
-0.67528498 0.11093779 2.0284922 10197915
-0.62479866 0.11100029 2.0298867 10197915
-0.57466489 0.11106287 2.0310304 10197915
-0.52489561 0.1111255 2.0319154 10197915
-0.47507164 0.11118714 2.0333035 10197915
-0.42518896 0.11124994 2.0341909 10197915
-0.37768555 0.11133295 2.0241771 10197915
-0.32500213 0.11140618 2.0218794 10197915
-0.27489796 0.11146872 2.0230148 10197915
-0.2247375 0.11153135 2.0241508 10197915
-0.17452064 0.11159403 2.0252891 10197915
-0.12508583 0.11165573 2.0264082 10197915
-0.075595982 0.11171754 2.02753 10197915
-0.021299191 0.11179838 2.0226648 10197915
0.025050122 0.11187415 2.0153279 10197915
0.074764624 0.11193674 2.016201 10197915
0.12453851 0.11199837 2.0175664 8026746
0.17478757 0.11206112 2.0186968 6513507
0.22466433 0.11212394 2.0195723 6513507
0.26292336 0.11216923 2.0215869 6513507
-1.2168401 -0.91370344 2.0728188 2039583
-1.2169188 -0.87511629 2.0729525 2039583
-1.2170199 -0.8253746 2.0731254 2039583
-1.2171214 -0.77562463 2.0732975 2039583
-1.2234205 -0.72136194 2.0866661 2039583
-1.2242535 -0.67455202 2.0884051 2039583
-1.2242936 -0.62470019 2.0884733 2039583
-1.2243959 -0.57514083 2.0886135 2039583
-1.2245157 -0.52527702 2.0888526 2039583
-1.2246039 -0.47511888 2.0890021 2039583
-1.2246916 -0.42495334 2.0891521 2039583
-1.2247319 -0.37506893 2.0892208 2039583
-1.2247566 -0.32518262 2.0891957 2039583
-1.2249552 -0.27499878 2.0896022 2039583
-1.2250432 -0.22480449 2.0897517 2039583
-1.2251313 -0.17460303 2.0899024 2039583
-1.2251389 -0.12497008 2.0898802 2039583
-1.2253056 -0.075336874 2.0901995 2039583
-1.2253938 -0.025113896 2.0903497 2039583
-1.2254817 0.025116296 2.0904994 2039583
-1.2255695 0.075353727 2.0906503 2039583
-1.2168943 0.10805739 2.0859168 8487297
-1.1750109 0.11018401 2.0779333 10066329
-1.125282 0.11024657 2.0788376 10066329
-1.0750749 0.110308 2.0805473 10132122
-1.0248185 0.11037178 2.0811992 10197915
-0.9749164 0.11043341 2.0826373 10197915
-0.92539543 0.11049629 2.0832617 10197915
-0.87529624 0.11059109 2.0693216 10197915
-0.82518166 0.11065359 2.0704911 10197915
-0.77501065 0.11071613 2.0716615 10197915
-0.72478253 0.11077876 2.0728335 10197915
-0.67449796 0.11084148 2.0740068 10197915
-0.62501013 0.11090316 2.0751612 10197915
-0.57546693 0.11096494 2.0763173 10197915
-0.52501297 0.11102785 2.0774944 10197915
-0.47450191 0.11109083 2.0786726 10197915
-0.42479092 0.11115281 2.0798323 10197915
-0.37363124 0.11124752 2.066576 10197915
-0.32493547 0.11131056 2.0666115 10197915
-0.27500463 0.11137229 2.0680265 10197915
-0.22500676 0.11143522 2.0689256 10197915
-0.17496596 0.11149707 2.0703435 10197915
-0.12528786 0.11155904 2.0714943 10197915
-0.075126491 0.11162215 2.0723958 10197915
-0.024913287 0.11168423 2.0738187 10197915
0.024931774 0.11174639 2.0749731 10197915
0.07525751 0.11180973 2.0758784 10197915
0.12521622 0.11187205 2.0770261 8289918
0.17478767 0.11193331 2.0784438 6513507
0.22485533 0.11199574 2.0796034 6513507
0.26725858 0.11204698 2.0813556 6513507
-1.2503119 -0.71952671 2.1388929 2039583
-1.2506624 -0.67540962 2.1394923 2039583
-1.2510625 -0.62508649 2.1401763 2039583
-1.2514627 -0.57473129 2.1408608 2039583
-1.2518559 -0.52522814 2.1415341 2039583
-1.2522563 -0.4748089 2.1422193 2039583
-1.2526575 -0.42435756 2.1429052 2039583
-1.2530515 -0.37475967 2.143579 2039583
-1.253446 -0.32513067 2.1442537 2039583
-1.2538404 -0.27547035 2.1449287 2039583
-1.2542423 -0.22489113 2.1456163 2039583
-1.2546445 -0.17427957 2.1463044 2039583
-1.25504 -0.1245243 2.1469808 2039583
-1.2554356 -0.074737601 2.1476576 2039583
-1.2558315 -0.024919515 2.1483343 2039583
-1.2562275 0.024929995 2.1490123 2039583
-1.256617 0.073919855 2.1496785 2039583
-1.2217009 0.11002365 2.1245828 10000536
-1.1756625 0.110081 2.1256897 10000536
-1.1252267 0.1101438 2.1269028 10000536
-1.0747333 0.11020668 2.1281171 10000536
-1.0250541 0.11026854 2.1293123 10000536
-0.97531903 0.11033048 2.1305082 10132122
-0.92384821 0.11039688 2.1306698 10197915
-0.87471366 0.11049088 2.1165054 10197915
-0.82475764 0.11055254 2.1179805 10197915
-0.77474034 0.11061545 2.1188908 10197915
-0.72467345 0.1106772 2.1203694 10197915
-0.67497981 0.1107391 2.1215556 10197915
-0.62522995 0.11080108 2.1227427 10197915
-0.5749988 0.11086427 2.1236575 10197915
-0.52513522 0.11092637 2.1248474 10197915
-0.4747836 0.11098851 2.1263332 10197915
-0.42480972 0.11105076 2.1275258 10197915
-0.37522605 0.11111312 2.1284242 10197915
-0.32513827 0.11117551 2.1296196 10197915
-0.27499899 0.11123675 2.1313863 10197915
-0.22481117 0.11130051 2.132014 10197915
-0.17745614 0.11136529 2.1304412 10197915
-0.12462179 0.11145953 2.1184151 10197915
-0.07463818 0.1115218 2.1195989 10197915
-0.024598984 0.11158416 2.120784 10197915
0.024617001 0.1116455 2.1219494 10197915
0.074767604 0.11170799 2.1231377 10197915
0.12497406 0.11177053 2.1243267 8553090
0.17523709 0.11183318 2.1255171 6513507
0.22555616 0.11189587 2.1267087 6513507
0.27062574 0.11195204 2.1277764 6513507
-1.2568152 0.098870642 2.1500175 2039583
-1.2607938 0.10886829 2.175422 7434609
-1.2248003 0.10991296 2.1744523 10000536
-1.1754589 0.10997367 2.1759777 10000536
-1.1251634 0.11003688 2.1769156 10000536
-1.0748209 0.11009888 2.1784554 10000536
-1.0248586 0.11016104 2.1796851 10000536
-0.97484004 0.11022328 2.1809165 10000536
-0.92522317 0.11028566 2.1818261 10000536
-0.87652087 0.11037757 2.1683822 10066329
-0.82431144 0.11044729 2.1674423 10197915
-0.77446157 0.11050934 2.1686599 10197915
-0.72455519 0.11057145 2.1698787 10197915
-0.67459285 0.11063361 2.1710989 10197915
-0.62457436 0.11069588 2.1723206 10197915
-0.57449949 0.1107582 2.1735435 10197915
-0.52436817 0.11082058 2.1747682 10197915
-0.47507727 0.11088193 2.1759717 10197915
-0.42573136 0.11094334 2.177177 10197915
-0.37543234 0.11100592 2.1784053 10197915
-0.32507643 0.11106858 2.179635 10197915
-0.27466372 0.11113133 2.1808665 10197915
-0.22509585 0.11119303 2.1820769 10197915
-0.17131883 0.11127591 2.1759338 10197915
-0.12482242 0.11135374 2.1677432 10197915
-0.075022444 0.11141639 2.1686447 10197915
-0.025171624 0.11147778 2.1701579 10197915
0.025190493 0.1115405 2.1713789 10197915
0.075152896 0.11160333 2.1722834 10197915
0.12517604 0.11166496 2.1738019 8750469
0.17525238 0.11172797 2.1747093 6513507
0.22538497 0.1117897 2.1762307 6513507
0.27427351 0.11184919 2.1780641 6513507
-1.2869192 -0.71881074 2.2046411 2039583
-1.2872764 -0.67515653 2.2052531 2039583
-1.287686 -0.62510663 2.2059546 2039583
-1.2880956 -0.57502502 2.2066562 2039583
-1.2885053 -0.52491134 2.2073581 2039583
-1.2889155 -0.47476599 2.208061 2039583
-1.2893183 -0.42550132 2.2087512 2039583
-1.2897291 -0.37529239 2.2094543 2039583
-1.2901398 -0.32505167 2.2101583 2039583
-1.2905511 -0.27477881 2.2108631 2039583
-1.2909625 -0.22447407 2.2115681 2039583
-1.2913668 -0.1750527 2.2122602 2039583
-1.2917712 -0.12560031 2.2129531 2039583
-1.2921833 -0.0752002 2.2136593 2039583
-1.2925959 -0.02476811 2.2143657 2039583
-1.2930014 0.024778461 2.2150602 2039583
-1.2934065 0.074356109 2.215755 2039583
-1.2780424 0.1087877 2.2240939 2039583
-1.2253231 0.10979951 2.2271581 5197647
-1.1752414 0.10986177 2.2284207 9671571
-1.1251028 0.10992408 2.2296846 10000536
-1.0749073 0.10998646 2.2309504 10000536
-1.0255691 0.11004777 2.2321939 10000536
-0.97526032 0.11011031 2.2334623 10000536
-0.92489463 0.1101729 2.2347319 10000536
-0.87440503 0.11027288 2.2186165 10000536
-0.82475728 0.1103353 2.2195232 10000536
-0.77462119 0.11039764 2.2207773 10000536
-0.72489184 0.11046015 2.221698 10066329
-0.67509979 0.11052136 2.2232668 10066329
-0.6252566 0.11058404 2.22419 10132122
-0.57535517 0.11064538 2.2257612 10197915
-0.5253979 0.11070818 2.2266874 10197915
-0.47538617 0.11076965 2.2282608 10197915
-0.42531452 0.11083262 2.2291894 10197915
-0.37519267 0.1108942 2.2307668 10197915
-0.32845032 0.11096166 2.2275765 10197915
-0.2744295 0.11105767 2.2154443 10197915
-0.22499105 0.11111916 2.2166705 10197915
-0.17549784 0.11118072 2.2178986 10197915
-0.12503153 0.11124349 2.2191505 10197915
-0.07450854 0.11130632 2.2204039 10197915
-0.024848435 0.11136808 2.2216365 10197915
0.024866827 0.11142991 2.2228699 10197915
0.074637316 0.11149181 2.2241051 10197915
0.12446313 0.11155378 2.2253413 9013641
0.17434436 0.11161581 2.2265785 6513507
0.22428113 0.11167793 2.2278173 6513507
0.27427346 0.1117401 2.2290583 6513507
0.30206874 0.11177468 2.2297473 6513507
-1.32584 -0.71898711 2.2745452 2039583
-1.3262117 -0.67488682 2.275183 2039583
-1.3266312 -0.62512749 2.2759027 2039583
-1.3270509 -0.57533699 2.2766225 2039583
-1.3274704 -0.52551472 2.2773426 2039583
-1.3278985 -0.47471985 2.2780771 2039583
-1.328319 -0.42483419 2.2787979 2039583
-1.3287396 -0.37491661 2.2795198 2039583
-1.3291605 -0.32496756 2.2802417 2039583
-1.3295815 -0.27498671 2.2809644 2039583
-1.3300027 -0.22497438 2.2816875 2039583
-1.3304247 -0.17493008 2.2824104 2039583
-1.3308465 -0.12485426 2.2831342 2039583
-1.3312688 -0.074746475 2.2838585 2039583
-1.3316913 -0.024607094 2.2845836 2039583
-1.3321059 0.024617305 2.285295 2039583
-1.3325292 0.074819997 2.2860208 2039583
-1.3183852 0.10894189 2.2867441 2039583
-1.2793534 0.10962824 2.2744718 2039583
-1.225685 0.10972107 2.2636111 3684408
-1.1757092 0.10978314 2.2648911 10000536
-1.1256769 0.10984527 2.2661731 10000536
-1.0755877 0.10990747 2.2674568 10000536
-1.025442 0.10996975 2.2687416 10000536
-0.97523934 0.1100321 2.2700279 10000536
-0.92497987 0.11009454 2.2713158 10000536
-0.87466323 0.11015703 2.2726049 10000536
-0.82428938 0.11021958 2.2738957 10000536
-0.77479279 0.11028107 2.2751639 10000536
-0.72524095 0.11034261 2.2764335 10000536
-0.67469716 0.11040538 2.2777286 10000536
-0.62503362 0.11046705 2.2790008 10000536
-0.57531416 0.1105288 2.2802746 9934743
-0.52459961 0.11059179 2.2815745 10000536
-0.47476828 0.11065367 2.2828507 10132122
-0.42488062 0.11071562 2.2841291 10197915
-0.37493756 0.11077767 2.2854092 10197915
-0.32076743 0.11086623 2.2768402 10197915
-0.27500233 0.11094193 2.2691946 10197915
-0.22482698 0.11100354 2.270818 10197915
-0.17459758 0.11106669 2.2717464 10197915
-0.12525235 0.11112725 2.2733488 10197915
-0.075377658 0.11118919 2.2746162 10197915
-0.024985163 0.11125256 2.2755485 10197915
0.025003741 0.11131468 2.2768188 10197915
0.075043544 0.11137533 2.2787886 10197915
0.12512887 0.11143905 2.2793636 9211020
0.17396779 0.11150216 2.2794721 6513507
0.22508222 0.11160216 2.2637229 6513507
0.27494007 0.11166414 2.2649798 6513507
0.30506736 0.11170156 2.265739 6513507
-1.3673013 -0.72014374 2.3490133 2039583
-1.3676718 -0.67750746 2.3496501 2039583
-1.3553525 0.10939633 2.3368018 2039583
-1.3248292 0.10943419 2.3376107 2039583
-1.2710309 0.10952866 2.3260577 2171169
-1.2253003 0.10960004 2.3204043 8421504
-1.1754931 0.10966106 2.3220801 10000536
-1.1251469 0.10972354 2.3234024 10000536
-1.0747437 0.10978604 2.3247271 10000536
-1.0247734 0.10984881 2.325671 10000536
-0.97472602 0.10991015 2.3273542 10000536
-0.92464036 0.10997304 2.3283012 10000536
-0.87628096 0.11003577 2.3283107 10000536
-0.8255468 0.11013707 2.3117094 10000536
-0.77522713 0.11019951 2.3130205 10000536
-0.72485077 0.11026204 2.3143327 10000536
-0.67536896 0.11032346 2.3156219 10000536
-0.62487876 0.11038613 2.3169367 10000536
-0.57433164 0.11044884 2.3182538 10000536
-0.52468199 0.11051046 2.3195467 9934743
-0.47497705 0.11057214 2.3208411 9934743
-0.42521656 0.11063386 2.3221376 10066329
-0.37540048 0.11069568 2.3234351 10197915
-0.32552868 0.1107576 2.3247342 10197915
-0.27560112 0.11081957 2.3260348 10197915
-0.22561759 0.1108816 2.327337 10197915
-0.17557813 0.11094369 2.3286402 10197915
-0.12548257 0.11100589 2.3299456 10197915
-0.075330816 0.1110681 2.3312516 10197915
-0.025122793 0.11113041 2.3325598 10197915
0.025141593 0.11119282 2.333869 10197915
0.075462438 0.11125525 2.3351798 10197915
0.12487033 0.11131658 2.3364668 9474192
0.17670365 0.11138938 2.3338568 6513507
0.22488791 0.11148167 2.3199255 6513507
0.27501947 0.11154389 2.3212202 6513507
0.3089762 0.11158151 2.3242273 6513507
-1.3678908 -0.65230381 2.3500261 2039583
-1.368127 -0.62514985 2.3504319 2039583
-1.3685658 -0.57469875 2.3511856 2039583
-1.3689957 -0.52518648 2.3519247 2039583
-1.3694261 -0.47564283 2.352664 2039583
-1.3698655 -0.42509571 2.3534188 2039583
-1.3703049 -0.37451628 2.3541739 2039583
-1.3707362 -0.32487792 2.3549149 2039583
-1.3711681 -0.27520818 2.3556564 2039583
-1.3716083 -0.22453238 2.3564131 2039583
-1.3720405 -0.17479964 2.3571553 2039583
-1.3724729 -0.12503532 2.3578985 2039583
-1.3729057 -0.075239837 2.3586416 2039583
-1.3733387 -0.025412731 2.3593855 2039583
-1.3737804 0.025423629 2.3601444 2039583
-1.3742141 0.075314038 2.3608897 2039583
-1.3677119 0.10824686 2.3732491 2039583
-1.3249793 0.10934789 2.3778534 2039583
-1.2754533 0.10940928 2.3791878 5592405
-1.2248994 0.10947192 2.3805501 10000536
-1.1752617 0.10953341 2.3818877 10000536
-1.1255679 0.10959499 2.3832269 10000536
-1.0748421 0.10965785 2.3845935 10000536
-1.0250355 0.10971958 2.3859353 10000536
-0.97517258 0.10978135 2.3872793 10000536
-0.92525369 0.10984322 2.3886242 10000536
-0.87229359 0.10992038 2.3846567 10000536
-0.82508177 0.11001065 2.3710866 10000536
-0.77541733 0.11007222 2.3724134 10000536
-0.72521794 0.11013527 2.3733578 10000536
-0.6749537 0.11019674 2.375097 10000536
-0.62463826 0.11025995 2.3760443 10000536
-0.57474685 0.11032181 2.377377 9934743
-0.52577841 0.11038253 2.3786683 9934743
-0.47519299 0.11048783 2.3601172 9934743
-0.42459008 0.11055059 2.3614578 9934743
-0.3749046 0.11061219 2.3627737 10000536
-0.3251633 0.11067387 2.3640916 10132122
-0.2753669 0.11073563 2.3654106 10197915
-0.22551452 0.11079745 2.3667312 10197915
-0.17462748 0.11086056 2.3680792 10197915
-0.1246629 0.11092252 2.3694029 10197915
-0.074642062 0.11098456 2.3707278 10197915
-0.024565602 0.11104666 2.3720543 10197915
0.024583573 0.11110761 2.3733561 10197915
0.074771523 0.11116985 2.3746858 10197915
0.12501536 0.11123215 2.3760169 9671571
0.17531595 0.11129454 2.3773494 6513507
0.22567263 0.111357 2.3786831 6513507
0.27509698 0.11141828 2.3799925 6513507
0.31269419 0.1114649 2.3809886 6513507
-1.4115791 -0.72037745 2.4285398 2039583
-1.4119835 -0.67529517 2.4292355 2039583
-1.4124333 -0.62517405 2.4300089 2039583
-1.4128834 -0.57502103 2.4307833 2039583
-1.4133338 -0.52483612 2.4315586 2039583
-1.4137845 -0.47461906 2.4323335 2039583
-1.4142351 -0.42436999 2.433109 2039583
-1.414677 -0.37509492 2.4338696 2039583
-1.4151195 -0.3257888 2.4346304 2039583
-1.4155711 -0.27544478 2.4354076 2039583
-1.4160229 -0.22506863 2.4361849 2039583
-1.4164754 -0.17466025 2.4369633 2039583
-1.4169189 -0.12522893 2.437726 2039583
-1.4173626 -0.075766437 2.4384892 2039583
-1.4178156 -0.025262654 2.4392688 2039583
-1.418269 0.02527342 2.4400489 2039583
-1.4187137 0.074830033 2.4408138 2039583
-1.4130167 0.10604389 2.4323051 2039583
-1.3754699 0.10919626 2.4181259 2039583
-1.3251338 0.1092586 2.4195063 2039583
-1.2747405 0.10932098 2.4208879 9276813
-1.2252793 0.10938224 2.4222438 10000536
-1.1757625 0.10944353 2.4236016 10000536
-1.1251981 0.10950614 2.424988 10000536
-1.0745761 0.10956881 2.4263759 10000536
-1.0248903 0.10963032 2.4277384 10000536
-0.9751488 0.1096919 2.4291019 10000536
-0.92535108 0.10975358 2.4304674 10000536
-0.87549764 0.10981529 2.4318342 10000536
-0.82558799 0.1098771 2.4332027 10000536
-0.77562201 0.10993897 2.4345727 10000536
-0.72559988 0.11000089 2.4359441 10000536
-0.67552137 0.1100629 2.4373176 10000536
-0.62538624 0.11012498 2.4386916 10000536
-0.5751946 0.11018711 2.440068 9934743
-0.52318233 0.11025817 2.438379 9934743
-0.47453427 0.11035673 2.4217982 9934743
-0.42460582 0.11041858 2.4231565 9934743
-0.37513146 0.11048078 2.4240716 9934743
-0.32559127 0.1105412 2.4258468 9934743
-0.27500135 0.11060476 2.4268093 10000536
-0.2273263 0.11067025 2.4250848 10066329
-0.17464031 0.11077333 2.4088504 10197915
-0.12481195 0.11083508 2.4101932 10197915
-0.074928001 0.11089689 2.4115372 10197915
-0.024988394 0.11095876 2.4128828 10197915
0.025006991 0.11102071 2.4142301 10197915
0.075058237 0.11108273 2.4155788 10197915
0.12516542 0.11114483 2.4169288 9803157
0.17532864 0.11120698 2.4182808 6513507
0.22554804 0.11126921 2.4196336 6513507
0.27582368 0.11133151 2.4209886 6513507
0.31608322 0.11138142 2.4220734 6513507
-1.4146622 0.10905545 2.4601476 2039583
-1.3755223 0.10910389 2.4612405 2039583
-1.3252944 0.10916609 2.4626436 4802889
-1.2750082 0.10922831 2.4640472 10000536
-1.224665 0.10929058 2.4654522 10000536
-1.1742641 0.10935293 2.4668586 10000536
-1.1248158 0.10941411 2.4682386 10000536
-1.0753115 0.10947535 2.46962 10000536
-1.0247401 0.1095379 2.4710314 10000536
-0.97512412 0.10959928 2.4724162 10000536
-0.92545217 0.10966074 2.4738023 10000536
-0.87470925 0.10972351 2.4752183 10000536
-0.82492518 0.10978509 2.4766076 10000536
-0.77508456 0.10984674 2.4779985 10000536
-0.72518831 0.10990848 2.4793913 10000536
-0.67523569 0.10997029 2.4807851 10000536
-0.62522715 0.11003213 2.4821808 9934743
-0.57516193 0.11009408 2.4835775 9934743
-0.52504075 0.11015607 2.4849763 9934743
-0.47486264 0.11021814 2.486377 9934743
-0.42462835 0.11028031 2.4877791 9934743
-0.37536415 0.11034123 2.4891531 10000536
-0.32501724 0.11040352 2.4905581 10000536
-0.27461383 0.11046586 2.4919653 10000536
-0.22156185 0.11055019 2.4847074 10000536
-0.17568246 0.11063598 2.4724276 10066329
-0.1250461 0.11069767 2.4742744 10066329
-0.074860223 0.11075979 2.4756627 10197915
-0.025141137 0.11082229 2.4765913 10197915
0.021723066 0.11090804 2.4649105 10197915
0.075354971 0.11099257 2.4579046 10197915
0.12532072 0.11105445 2.4592748 9934743
0.17534178 0.11111638 2.4606462 6513507
0.22541912 0.11117838 2.462019 6513507
0.27555194 0.11124044 2.4633937 6513507
0.31856671 0.1112937 2.4645729 6513507
-1.4589701 -0.71959114 2.5136559 2039583
-1.4593831 -0.67500257 2.5143678 2039583
-1.4598451 -0.62519997 2.5151637 2039583
-1.4603071 -0.57536596 2.5159595 2039583
-1.4607692 -0.52550024 2.5167558 2039583
-1.4612316 -0.47560301 2.5175531 2039583
-1.4616947 -0.4256742 2.5183504 2039583
-1.4621578 -0.3757138 2.5191483 2039583
-1.4626216 -0.32572168 2.5199473 2039583
-1.4630853 -0.27569783 2.5207462 2039583
-1.4635495 -0.22564228 2.5215456 2039583
-1.4640137 -0.17555493 2.5223458 2039583
-1.4644786 -0.12543581 2.5231469 2039583
-1.4649435 -0.075284854 2.5239475 2039583
-1.4654089 -0.025102036 2.5247498 2039583
-1.4658747 0.025112666 2.5255518 2039583
-1.4663405 0.075359292 2.5263546 2039583
-1.4646815 0.10789595 2.5394678 2039583
-1.4246168 0.10894759 2.504528 2039583
-1.3745551 0.10900947 2.5059507 2039583
-1.3254601 0.10907019 2.5073464 8553090
-1.2752861 0.10913226 2.5087736 10000536
-1.2250543 0.10919436 2.5102007 10000536
-1.1747651 0.10925651 2.5116301 10000536
-1.1244189 0.10931873 2.5130603 10000536
-1.0750445 0.10937976 2.5144632 10000536
-1.0256149 0.10944086 2.5158675 10000536
-0.97509825 0.1095033 2.517303 10000536
-0.92452437 0.10956582 2.5187399 10000536
-0.87492657 0.10962711 2.5201492 10000536
-0.82527286 0.10968848 2.5215604 10000536
-0.77556372 0.10974992 2.5229728 10000536
-0.7257989 0.10981143 2.5243866 10000536
-0.67493951 0.10987429 2.5258317 10000536
-0.62402225 0.10993722 2.5272784 9934743
-0.57408732 0.10999894 2.528697 9934743
-0.52409631 0.11006073 2.5301175 9934743
-0.47404918 0.11012258 2.5315392 9934743
-0.42499024 0.11018322 2.5329335 9934743
-0.37587687 0.11024392 2.5343287 10000536
-0.325663 0.11030599 2.5357554 10000536
-0.27539238 0.11036813 2.537184 10000536
-0.22506519 0.11043032 2.538614 10000536
-0.17468119 0.11049259 2.5400455 10000536
-0.12424033 0.11055494 2.5414784 10000536
-0.07479535 0.11061605 2.5428839 10000536
-0.025295278 0.11067724 2.5442903 10066329
0.027784929 0.11078445 2.5263429 10197915
0.074771829 0.11085053 2.5239413 10197915
0.12451681 0.11091101 2.5258253 10197915
0.17043334 0.11098401 2.5195398 6710886
0.22424464 0.111083 2.5058868 6513507
0.27422884 0.11114484 2.507282 6513507
0.32113907 0.11120287 2.5085907 6513507
-1.5028019 0.10864925 2.5965874 2039583
-1.4733939 0.10869373 2.5936112 2039583
-1.4250307 0.10879656 2.5748532 2039583
-1.3784198 0.10888498 2.5617895 4539717
-1.3245896 0.10897204 2.5537324 10000536
-1.2745302 0.10903392 2.5551834 10000536
-1.2244133 0.10909585 2.5566342 10000536
-1.1742388 0.1091578 2.5580857 10000536
-1.125055 0.10921855 2.55951 10000536
-1.0758156 0.10927934 2.5609343 10000536
-1.0254724 0.10934149 2.5623915 10000536
-0.97507185 0.10940374 2.5638502 10000536
-0.92461389 0.10946607 2.5653105 10000536
-0.87515157 0.10952713 2.5667417 10000536
-0.82563376 0.1095883 2.5681744 10000536
-0.77500516 0.10965082 2.5696402 10000536
-0.72431904 0.10971338 2.5711067 10000536
-0.67463291 0.10977475 2.5725448 9934743
-0.62489086 0.10983619 2.5739839 9934743
-0.57509333 0.10989766 2.5754249 9934743
-0.52523971 0.10995924 2.5768673 9934743
-0.47533056 0.11002087 2.5783114 9934743
-0.42536512 0.11008254 2.5797577 10000536
-0.37534404 0.11014435 2.5812051 10000536
-0.32526624 0.11020618 2.5826547 10000536
-0.27513269 0.11026809 2.5841055 10000536
-0.22494233 0.11033007 2.5855579 10000536
-0.17469592 0.1103921 2.5870118 10000536
-0.12546368 0.11045289 2.5884366 10000536
-0.075104885 0.1105151 2.5898936 10000536
-0.024689766 0.11057734 2.5913529 10000536
0.024707921 0.11063834 2.5927825 10000536
0.075236 0.11070075 2.5942447 10066329
0.12582065 0.11076321 2.5957084 10197915
0.17973453 0.11086438 2.5811005 6776679
0.2250751 0.11093624 2.5749929 6513507
0.27080947 0.11101148 2.5675371 6513507
0.3248668 0.11111005 2.5542395 6513507
-1.509792 -0.71982121 2.6049359 2039583
-1.5102249 -0.67468828 2.6056828 2039583
-1.5106994 -0.62522745 2.6065016 2039583
-1.5111744 -0.57573557 2.6073208 2039583
-1.5116596 -0.52513558 2.6081586 2039583
-1.5121464 -0.47450352 2.6089976 2039583
-1.5126221 -0.42491683 2.6098182 2039583
-1.5130984 -0.37529895 2.61064 2039583
-1.5135745 -0.32564986 2.6114619 2039583
-1.5140618 -0.27488896 2.6123025 2039583
-1.5145489 -0.22409566 2.6131432 2039583
-1.5150265 -0.17435126 2.6139667 2039583
-1.5155038 -0.12457552 2.6147912 2039583
-1.5159819 -0.07476835 2.6156151 2039583
-1.5164601 -0.024929775 2.6164405 2039583
-1.5169386 0.024940254 2.6172659 2039583
-1.5174176 0.074841782 2.6180923 2039583
-1.5164188 0.10760389 2.6402619 2039583
-1.4751058 0.10857672 2.6472754 2039583
-1.4254587 0.10863791 2.648767 4671303
-1.3752084 0.10877677 2.6143265 10000536
-1.3247491 0.1088689 2.6018372 10000536
-1.2748083 0.10893051 2.6033096 10000536
-1.224812 0.10899229 2.6047859 10000536
-1.1747582 0.10905406 2.606262 10000536
-1.1246477 0.1091159 2.6077397 10000536
-1.0755481 0.10917647 2.6091874 10000536
-1.0253245 0.10923844 2.6106684 10000536
-0.97504449 0.10930046 2.6121507 10000536
-0.92470664 0.10936254 2.6136348 10000536
-0.87431222 0.10942475 2.6151206 10000536
-0.82493418 0.10948565 2.6165764 10000536
-0.77550107 0.10954665 2.6180341 10000536
-0.72493631 0.10960902 2.6195247 9934743
-0.67431432 0.10967148 2.6210172 9934743
-0.6247133 0.10973266 2.6224799 9934743
-0.57505685 0.10979391 2.6239436 9934743
-0.52534497 0.10985525 2.6254094 9934743
-0.47557765 0.10991664 2.6268766 9934743
-0.42575455 0.10997812 2.6283457 10000536
-0.37587568 0.11003964 2.6298161 10000536
-0.32594094 0.11010125 2.6312885 10000536
-0.27595031 0.11016292 2.6327627 10000536
-0.22590366 0.11022467 2.634238 10000536
-0.17580086 0.11028647 2.6357152 10000536
-0.12564182 0.11034836 2.6371942 10000536
-0.075426467 0.11041031 2.638675 10000536
-0.025154721 0.11047234 2.640157 10000536
0.02517356 0.11053444 2.6416411 10000536
0.075558454 0.1105966 2.6431265 10000536
0.12490266 0.11065746 2.6445818 10000536
0.17430164 0.11071841 2.6460381 7171437
0.22485445 0.11078079 2.6475289 6513507
0.27926913 0.11088382 2.6323369 6513507
0.32155946 0.11098938 2.6086321 6513507
0.35253516 0.11104318 2.6022694 6513507
-1.5562241 0.10836594 2.6966133 2039583
-1.5254737 0.10840381 2.6975558 2039583
-1.4749125 0.1084661 2.6991055 2039583
-1.447412 0.10849997 2.6999485 2039583
-1.3681887 0.1087085 2.6504884 10000536
-1.3249142 0.10876184 2.6517889 10000536
-1.2740145 0.10882457 2.6533182 10000536
-1.2241409 0.10888605 2.6548171 10000536
-1.1742114 0.10894768 2.6563199 10000536
-1.1242249 0.10900929 2.6578221 10000536
-1.0741813 0.10907097 2.6593258 10000536
-1.0240815 0.10913272 2.6608319 10000536
-0.97501582 0.1091932 2.6623061 10000536
-0.92589545 0.10925374 2.6637824 10000536
-0.87562746 0.10931569 2.6652927 10000536
-0.82530218 0.10937773 2.6668053 10000536
-0.77491993 0.10943983 2.6683195 10000536
-0.72448051 0.109502 2.6698349 9934743
-0.67508215 0.10956287 2.6713192 9934743
-0.62562853 0.10962381 2.6728053 9934743
-0.57501906 0.10968619 2.6743259 9934743
-0.52435213 0.10974862 2.6758485 9934743
-0.47473106 0.10980976 2.6773396 10000536
-0.4250541 0.10987101 2.6788323 10000536
-0.37532225 0.1099323 2.6803267 10000536
-0.32553437 0.10999367 2.6818233 10000536
-0.27458289 0.11005647 2.6833539 10000536
-0.22468296 0.11011798 2.6848538 10000536
-0.17472674 0.11017955 2.6863549 10000536
-0.12471507 0.11024118 2.6878576 10000536
-0.074646987 0.1103029 2.6893623 10000536
-0.024523247 0.11036467 2.6908686 10000536
0.024541156 0.11042516 2.692343 10000536
0.074776523 0.11048706 2.6938527 10000536
0.12506782 0.11054904 2.6953638 10000536
0.17429633 0.1106097 2.6968429 7368816
0.22469981 0.11067184 2.6983576 6513507
0.26506156 0.11072159 2.6995707 6513507
0.32943651 0.1109098 2.6506121 6513507
0.35589477 0.11094245 2.6513922 6513507
-1.5644439 -0.72006881 2.7030945 2039583
-1.5648986 -0.67435008 2.7038801 2039583
-1.5653867 -0.62525702 2.7047231 2039583
-1.5658861 -0.5750162 2.7055864 2039583
-1.566386 -0.52474362 2.70645 2039583
-1.5668747 -0.47555706 2.7072947 2039583
-1.5673761 -0.42522088 2.7081606 2039583
-1.5678769 -0.37485263 2.7090256 2039583
-1.5683669 -0.32557237 2.7098722 2039583
-1.5688683 -0.27514014 2.7107389 2039583
-1.5693699 -0.22467589 2.711606 2039583
-1.5698612 -0.17530173 2.7124541 2039583
-1.5703633 -0.12477336 2.7133222 2039583
-1.5708661 -0.074212857 2.7141907 2039583
-1.5713581 -0.024744505 2.7150412 2039583
-1.5718502 0.024754833 2.7158909 2039583
-1.5723424 0.074285187 2.7167416 2039583
-1.5777563 0.10678916 2.739723 2039583
-1.4220912 0.10853112 2.7007239 9868950
-1.3747177 0.10858946 2.7021754 10000536
-1.3250862 0.10865055 2.7036958 10000536
-1.2753996 0.10871175 2.7052181 10000536
-1.2256559 0.10877299 2.7067428 10000536
-1.1747495 0.10883567 2.7083018 10000536
-1.1248941 0.10889716 2.7098322 10000536
-1.074981 0.10895862 2.7113616 10000536
-1.0250119 0.10902014 2.7128925 10000536
-0.97498578 0.10908175 2.7144251 10000536
-0.92490369 0.1091434 2.7159595 10000536
-0.87476438 0.10920512 2.7174957 10000536
-0.82456893 0.10926694 2.719034 10000536
-0.77543354 0.10932744 2.7205391 9934743
-0.72512513 0.10938938 2.7220805 9934743
-0.67475992 0.10945141 2.7236245 9934743
-0.62545842 0.10951209 2.7251346 9934743
-0.57497984 0.10957422 2.7266808 9934743
-0.52444422 0.10963643 2.7282286 10132122
-0.47497597 0.10969736 2.7297449 10197915
-0.42545268 0.10975832 2.731262 10197915
-0.37587431 0.10981939 2.7327812 10197915
-0.3251119 0.10988188 2.7343364 10132122
-0.27429208 0.10994446 2.7358932 10000536
-0.22454539 0.11000571 2.7374175 10000536
-0.17474325 0.11006701 2.7389433 10000536
-0.12488556 0.1101284 2.7404711 10000536
-0.074972227 0.11018987 2.7420003 10000536
-0.025003143 0.1102514 2.7435312 10000536
0.025021764 0.11031298 2.745064 10000536
0.075102597 0.11037464 2.7465982 10000536
0.12523945 0.11043637 2.7481346 10000536
0.16858353 0.11048974 2.7494626 7960953
0.28974554 0.11075202 2.7003126 6513507
0.32455298 0.1107949 2.7013583 6513507
0.35938364 0.11083783 2.702405 6513507
-1.559885 0.10824624 2.7503426 2039583
-1.5251621 0.10828894 2.7514281 2039583
-1.4747123 0.10835104 2.7530055 5723991
-1.424204 0.10841317 2.7545838 10000536
-1.3747624 0.10847397 2.7561293 10000536
-1.3252652 0.10853484 2.7576761 10000536
-1.2757125 0.1085958 2.7592244 10000536
-1.2249756 0.10865819 2.7608099 10000536
-1.1741809 0.10872068 2.7623971 10000536
-1.1244582 0.10878182 2.7639511 10000536
-1.0746804 0.10884316 2.7655096 10000536
-1.024846 0.10890446 2.767067 10000536
-0.97495496 0.10896582 2.7686262 10000536
-0.92500782 0.10902727 2.7701871 10000536
-0.87500423 0.10908876 2.7717495 10000536
-0.82494426 0.10915032 2.773314 9934743
-0.77482778 0.10921197 2.7748802 9934743
-0.72465467 0.10927367 2.776448 9934743
-0.67442471 0.10933545 2.7780178 9934743
-0.624138 0.10939729 2.7795889 9934743
-0.57493943 0.10945781 2.7811263 10000536
-0.52568585 0.10951838 2.7826655 10197915
-0.47523069 0.10958043 2.7842424 10197915
-0.42471835 0.10964258 2.7858207 10197915
-0.37529877 0.10970335 2.7873652 10197915
-0.32582399 0.1097642 2.7889116 10197915
-0.27514198 0.10982653 2.7904952 10197915
-0.22440241 0.10988893 2.7920811 10197915
-0.17476042 0.10995 2.7936318 10197915
-0.12506287 0.11001111 2.7951853 10132122
-0.075310439 0.11007231 2.7967403 10000536
-0.025502205 0.11013358 2.7982962 10000536
0.015078583 0.11018348 2.7995646 10000536
0.19369616 0.11052066 2.750232 6513507
0.22568159 0.11056005 2.7512119 6513507
0.27484295 0.11062057 2.7527184 6513507
0.32405853 0.11068117 2.7542262 6513507
0.36300957 0.11072913 2.7554197 6513507
-1.6233774 -0.72033644 2.8089426 2039583
-1.6238438 -0.67514509 2.8097496 2039583
-1.6243578 -0.6252892 2.8106394 2039583
-1.6248726 -0.57540154 2.8115301 2039583
-1.6253877 -0.52548248 2.8124206 2039583
-1.6259029 -0.47553149 2.8133123 2039583
-1.6264185 -0.42554909 2.8142049 2039583
-1.6269355 -0.37553492 2.815099 2039583
-1.6274515 -0.32548907 2.8159928 2039583
-1.6279682 -0.27541116 2.8168867 2039583
-1.6284852 -0.22530174 2.8177812 2039583
-1.6290023 -0.17516018 2.8186762 2039583
