# .PCD v0.7 - Point Cloud Data file format
VERSION 0.7
FIELDS x y z rgb
SIZE 4 4 4 4
TYPE F F F U
COUNT 1 1 1 1
WIDTH 1168
HEIGHT 1
VIEWPOINT 0 0 0 1 0 0 0
POINTS 1168
DATA ascii
-0.72527897 0.11149254 2.7744162 3495806
-0.68465328 0.11142827 2.7728171 5332332
-0.60354435 0.11129998 2.7696249 10000536
-0.57462519 0.11125423 2.7684865 10066329
-0.52493548 0.11117565 2.7665308 10197915
-0.47531533 0.11109716 2.7645776 10197915
-0.42576569 0.11101878 2.7626276 10197915
-0.36608976 0.10731586 2.7819698 10132122
-0.32875636 0.10614121 2.7782524 8818585
-0.27409509 0.11077888 2.7566578 10197915
-0.22482838 0.11070095 2.7547183 10197915
-0.17563148 0.11062313 2.7527821 10197915
-0.12764464 0.11054723 2.7508934 10197915
0.034791153 0.11017596 2.7993731 10197915
0.075336896 0.11011191 2.7977459 10197915
0.12508738 0.11003328 2.7957482 10197915
0.17476742 0.10995479 2.7937534 10197915
0.22437607 0.10987639 2.7917621 10197915
0.27506557 0.10979629 2.789727 10197915
0.32568118 0.10971634 2.7876952 10197915
0.37507552 0.10963827 2.7857118 10197915
0.42439908 0.10956033 2.7837315 10197915
0.47479746 0.10948071 2.781708 10197915
0.52512258 0.10940118 2.7796876 9145227
0.56053758 0.10934523 2.778266 6513507
-0.30493304 -0.61414742 2.8093946 6447714
-0.29808131 -0.6148656 2.8215787 6447714
-1.7671305 -0.59673893 2.8272254 6447714
-1.7248126 -0.59678108 2.8245609 6447714
-1.6752349 -0.59683669 2.8245659 5921370
-1.6250715 -0.59689444 2.8253546 9193544
-1.5823679 -0.59693646 2.8224306 12278105
-1.1659881 -0.59741712 2.8297031 6447714
-1.123763 -0.59745389 2.8243966 6447714
-1.0750407 -0.59750533 2.8227971 4207668
-1.0250939 -0.59756047 2.8224385 4329231
-0.98491395 -0.59760058 2.8199551 4329231
-0.85387909 -0.59778339 2.8381803 7574190
-0.8247453 -0.5977878 2.8239253 3561851
-0.77520853 -0.59784341 2.8239815 3946309
-0.72496802 -0.59789991 2.8240423 6566193
-0.67518991 -0.59795672 2.8246186 6566193
-0.62493044 -0.59801352 2.8248873 6566193
-0.57466143 -0.59807032 2.8251557 6566193
-0.52508152 -0.59812576 2.8251081 6566193
-0.47503495 -0.5981831 2.8257911 6566193
-0.42497042 -0.59823948 2.8259568 6566193
-0.38595322 -0.58991653 2.8158288 6566193
-0.30497092 -0.57515717 2.8093271 5521228
-0.2980811 -0.57512122 2.8215768 4996685
-0.37714767 -0.52452523 2.8010812 6444887
-0.30493274 -0.52491599 2.8093944 3236499
-0.29808098 -0.52485645 2.8215756 2117500
-0.37716666 -0.47464952 2.8012218 6447714
-0.30493271 -0.47486827 2.8093929 3433877
-0.29808092 -0.47459161 2.8215752 2380414
-0.37680069 -0.42152488 2.8011541 6447714
-0.30495515 -0.42501336 2.8093524 3368085
-0.29808089 -0.42432681 2.8215747 2445951
-0.37594944 -0.37478861 2.8007975 6447714
-0.30490994 -0.37496805 2.809432 3170964
-0.2980808 -0.37523109 2.821574 2249086
-1.4158059 -0.30875948 2.8245819 2967909
-0.98293102 -0.30524954 2.8448074 2039583
-0.50717694 -0.30925274 2.8145568 5658198
-0.49298376 -0.30944285 2.8400457 5658198
-0.37596828 -0.32491037 2.8009374 6447714
-0.3049551 -0.32491937 2.8093503 3039635
-0.29808071 -0.3249664 2.8215723 2183036
-1.9175243 -0.28663605 2.8177752 3289650
-1.8751826 -0.28671923 2.8245761 6250335
-1.8365164 -0.28675821 2.8133237 6447714
-1.7543106 -0.28691998 2.8267817 2039583
-1.7246032 -0.28694525 2.815865 2039583
-1.675483 -0.28702605 2.8163784 2834002
-1.6251943 -0.28710878 2.8169241 2110537
-1.5807195 -0.28717938 2.8161473 2039583
-1.4683267 -0.2873733 2.8216352 2039583
-1.4191543 -0.29253635 2.8241453 3230049
-0.9829666 -0.27461642 2.8449106 3618615
-0.85428697 -0.28852314 2.8379738 3631001
-0.84232247 -0.28852373 2.8284187 3104659
-0.75889438 -0.28866446 2.8347585 5006462
-0.72471613 -0.28871334 2.8326676 3231855
-0.69229054 -0.2887612 2.8314855 5790559
-0.61091107 -0.28889295 2.8347166 6316387
-0.57513213 -0.28892684 2.823278 2763306
-0.51879042 -0.29127058 2.821403 2039583
-0.49332076 -0.29375517 2.8408844 2039583
-0.37598714 -0.27502722 2.8010786 3487029
-0.3049098 -0.27487135 2.8094308 2644366
-0.29808059 -0.27470174 2.8215716 1984889
-0.98302424 -0.22512801 2.8450778 2039583
-0.37600595 -0.22513901 2.8012185 5725540
-0.30499333 -0.22502236 2.8092792 2446988
-0.29711926 -0.22402999 2.8232801 1456736
-0.983082 -0.17563362 2.8452446 2039583
-0.37602484 -0.17524582 2.8013594 5988968
-0.30487236 -0.17496604 2.8094923 2513294
-0.29711807 -0.17487623 2.8232815 1456736
-0.98314148 -0.12495482 2.8454158 2039583
-0.37604371 -0.1253476 2.8014996 5988712
-0.30499327 -0.12493107 2.8092771 2514063
-0.29709515 -0.12515453 2.8233218 1456735
-0.98320067 -0.074270017 2.8455873 2039583
-0.37606251 -0.0754444 2.80164 5923175
-0.30487221 -0.074867181 2.8094909 2448269
-0.297095 -0.074858747 2.8233216 1390429
-0.98325843 -0.024757965 2.8457551 2039583
-0.37608144 -0.025536155 2.8017807 6185573
-0.30499279 -0.024839947 2.8092752 2250378
-0.29709488 -0.024563024 2.8233206 1390685
-0.98275322 0.023667252 2.8456059 2039583
-0.37610075 0.025537902 2.8019242 6513507
-0.30499265 0.02483994 2.8092747 1986181
-0.29709482 0.02456302 2.8233192 1324891
-0.98191315 0.074262366 2.8452761 6908265
-0.37586913 0.076844536 2.8019283 8553606
-0.30487165 0.074867114 2.8094888 1787776
-0.29709467 0.074858688 2.8233182 1192279
-2.2523234 0.1139079 2.8345213 9868950
-2.2244563 0.11386383 2.8334241 10066329
-2.1748276 0.11378534 2.8314714 10197915
-2.1252677 0.11370694 2.8295202 10197915
-2.0854256 0.11364391 2.8279526 10197915
-1.9757937 0.11347051 2.823637 10197915
-1.9253058 0.11339068 2.8216498 10197915
-1.8748896 0.11331092 2.8196657 10197915
-1.8377205 0.11325213 2.8182025 10197915
-1.7503501 0.1131139 2.8147631 10197915
-1.7240646 0.11307235 2.813729 10197915
-1.6739308 0.11299305 2.8117559 7176598
-1.6238674 0.11291386 2.8097851 2374484
-1.576252 0.11283854 2.8079109 10132122
-1.4634204 0.11266008 2.8034699 10197915
-1.4243124 0.11259823 2.8019309 8095895
-1.3876092 0.11254017 2.8004861 1851757
-1.1595587 0.11206314 2.8473232 10197915
-1.0709293 0.11192308 2.8437648 993351
-1.0255028 0.11185132 2.8419409 9343123
-0.98358124 0.10701516 2.8438606 10066329
-0.85269272 0.11157825 2.8350031 2710413
-0.84199512 0.11156136 2.834574 2051460
-0.7588976 0.11143004 2.8312376 6387601
-0.72571594 0.11137763 2.829906 2179945
-0.69137704 0.11132336 2.8285272 7962245
-0.60981452 0.11119449 2.8252528 7899030
-0.57441372 0.11113854 2.8238308 8357260
-0.52490914 0.11106032 2.8218434 10132122
-0.47547403 0.11098222 2.819859 10197915
-0.4249343 0.11090235 2.8178298 10197915
-0.38003719 0.10743478 2.8066518 10132122
-0.30509394 0.10573968 2.8090236 6781842
-0.28083256 0.10922658 2.8148766 8817553
-0.22466689 0.11058591 2.8097897 10197915
-0.17448729 0.11050663 2.8077753 10197915
-0.12437902 0.11042745 2.8057637 10197915
-0.075505614 0.11035024 2.8038015 10197915
-0.025539618 0.11027128 2.8017952 10197915
0.0092809647 0.11021626 2.8003974 10197915
0.19716887 0.10980064 2.8498342 10197915
0.22541006 0.10975606 2.8486767 10197915
0.27478203 0.10967812 2.8466539 10197915
0.32525676 0.10959847 2.8445868 10197915
0.37565872 0.10951892 2.8425219 10197915
0.42481771 0.10944133 2.8405075 10197915
0.47507477 0.10936201 2.8384492 10197915
0.52525949 0.10928279 2.8363929 9934743
0.56605536 0.1092184 2.834722 6513507
-1.8112197 -0.59680814 2.8873067 6447714
-1.7749892 -0.59682423 2.8748951 6447714
-1.7248853 -0.59688216 2.8758249 6447714
-1.6750042 -0.59693849 2.8760965 5849923
-1.6257404 -0.59699291 2.8756804 10508633
-1.5928732 -0.59699941 2.8603346 9787737
-1.2027559 -0.59748948 2.8873119 6447714
-1.1736555 -0.59749526 2.8737237 6447714
-1.1248662 -0.59754896 2.8732677 6184542
-1.0749729 -0.59760547 2.8735392 3610648
-1.024775 -0.59766173 2.8736091 4329231
-0.99302703 -0.5976879 2.8688107 4460817
-0.86024654 -0.59785318 2.8772357 6193574
-0.82536995 -0.59788769 2.8748958 2836837
-0.77512234 -0.59794432 2.8751006 4862522
-0.72486681 -0.59800124 2.8754427 6566193
-0.67460638 -0.59805781 2.8755121 6566193
-0.62432724 -0.59811485 2.8759887 6566193
-0.57433903 -0.59817147 2.8762612 6566193
-0.52463502 -0.59822714 2.8763216 6566193
-0.47493336 -0.59828389 2.8768017 6566193
-0.42690581 -0.59833384 2.8748679 6566193
-0.3935422 -0.59835207 2.8651488 6566193
-1.4009789 -0.30830997 2.8513119 1979726
-1.3888518 -0.30889332 2.8731735 2306626
-0.99609417 -0.30603579 2.8521349 2039583
-0.47303054 -0.30954045 2.8758795 5658198
-2.0308428 -0.27376917 2.8901715 2039583
-1.9015324 -0.28677678 2.8722653 6513507
-1.8810203 -0.28682312 2.878454 3750201
-1.8012228 -0.28699487 2.8985033 2039583
-1.7698764 -0.28700742 2.8802919 2039583
-1.7264811 -0.28706294 2.8732364 2436147
-1.6747223 -0.28712684 2.8636622 3099753
-1.624752 -0.28721023 2.8647697 1909802
-1.5923086 -0.28724879 2.8580499 2039583
-1.5072081 -0.28741932 2.873436 2039583
-1.4753008 -0.28745806 2.8672414 2039841
-1.4169872 -0.2725147 2.8651958 2706028
-1.3885559 -0.27536967 2.8736901 2701383
-0.99613047 -0.27532372 2.8522382 3487029
-0.86130828 -0.28859097 2.8800282 3302037
-0.84794557 -0.2885865 2.8666017 2578061
-0.76557398 -0.28874153 2.8814716 5534094
-0.72498763 -0.28880218 2.880372 3361377
-0.69650769 -0.28882486 2.8689694 6513507
-0.6162644 -0.28897548 2.8832281 3365509
-0.57449484 -0.28903955 2.8830168 1975597
-0.52447295 -0.28911844 2.8838024 2039583
-0.47592902 -0.29304901 2.8787823 2039583
-2.0306947 -0.22493391 2.8902302 2039583
-1.4156446 -0.22458963 2.8667336 2377578
-1.3883895 -0.22496501 2.87394 2571345
-0.99618912 -0.2257079 2.852407 2039583
-2.0308061 -0.17533855 2.8902476 2039583
-1.415817 -0.17459983 2.8669789 2180457
-1.3883327 -0.1749568 2.8740146 2177104
-0.9962492 -0.17490457 2.8525794 2039583
-2.0309165 -0.12556469 2.890311 2039583
-1.4159187 -0.12472294 2.8671854 1917287
-1.3883021 -0.12502219 2.8740547 1782605
-0.99630958 -0.12409512 2.8527503 2039583
-2.0309098 -0.075440884 2.8904412 2039583
-1.4160205 -0.074839078 2.8673918 1785958
-1.3882968 -0.075013101 2.8740489 1454411
-0.99636823 -0.074461371 2.8529203 2039583
-2.0309637 -0.025147544 2.8905189 2039583
-1.4161235 -0.024947947 2.867599 1720678
-1.3882936 -0.025004316 2.874042 1323083
-0.99642718 -0.024821762 2.8530881 2039583
-2.0310187 0.025148436 2.8905959 2039583
-1.4162252 0.02495035 2.867805 1654628
-1.3882914 0.025004229 2.8740325 1191240
-0.9957549 0.02659129 2.8528538 2039583
-2.0310726 0.075447142 2.8906732 2105376
-1.4163266 0.074855834 2.8680129 1456480
-1.3882856 0.075012505 2.8740253 1387848
-0.99454826 0.072742619 2.852308 6513507
-2.3000782 0.11386526 2.8931119 9934743
-2.2740903 0.1138242 2.8920686 9868950
-2.2246366 0.11374605 2.8900833 9868950
-2.1752496 0.11366801 2.8881001 10132122
-2.1320908 0.11359982 2.8863676 10197915
-2.0292017 0.10792204 2.8890018 10066329
-1.9746989 0.11335113 2.8800488 10197915
-1.9244292 0.11327171 2.8780303 10197915
-1.8815707 0.11320398 2.8763099 10197915
-1.7691616 0.11302637 2.8717968 10197915
-1.7252728 0.11295702 2.8700349 9409689
-1.6753517 0.11287813 2.8680305 2179686
-1.6255012 0.11279937 2.8660295 7568002
-1.5927078 0.11274755 2.864713 10197915
-1.5042019 0.1126077 2.8611596 10000536
-1.4751551 0.11256181 2.8599935 10000536
-1.4187521 0.10774318 2.8651276 1850468
-1.3856025 0.10725652 2.8704102 3688797
-1.325441 0.11232524 2.8539829 10197915
-1.2748737 0.11224536 2.8519528 10197915
-1.2484118 0.11220352 2.8508902 10197915
-1.0211297 0.11172358 2.8997428 7370623
-0.99364752 0.10515404 2.8518946 10132122
-0.86181188 0.11147211 2.8932161 2183302
-0.76608145 0.11132101 2.8892944 4811664
-0.72496188 0.11125612 2.88761 3229536
-0.69837701 0.11121415 2.8865206 10000536
-0.61634207 0.11108465 2.8831608 2905990
-0.5741936 0.11101814 2.8814335 6252916
-0.5248816 0.11094032 2.8794131 10066329
-0.47563919 0.11086258 2.8773961 10197915
-0.42526704 0.11078306 2.8753326 10197915
-0.39411765 0.11073391 2.8740563 10197915
-0.27458301 0.11054524 2.8691597 10197915
-0.22449875 0.11046618 2.8671076 10197915
-0.17448604 0.11038724 2.8650591 10197915
-0.12454473 0.11030842 2.863013 10197915
-0.074674688 0.11022971 2.86097 10197915
-0.024875786 0.11015111 2.8589301 10197915
0.024852166 0.11007261 2.8568928 10197915
0.074509285 0.10999424 2.8548586 10197915
0.12409574 0.10991596 2.8528271 10197915
0.17125593 0.10984153 2.8508952 10197915
0.4324182 0.10930604 2.8993485 10197915
0.47417158 0.10924023 2.8976021 10197915
0.52421129 0.10916132 2.8955097 10197915
0.5718016 0.1090863 2.8935194 7237230
-1.8545227 -0.59687108 2.9438477 6447714
-1.8227704 -0.59687871 2.9296939 6447714
-1.775017 -0.59693003 2.9286335 6447714
-1.7254337 -0.59698611 2.9289091 5263183
-1.6749325 -0.59704286 2.9289715 8212817
-1.6357784 -0.59708017 2.925632 9197913
-1.2120144 -0.59756547 2.9311154 6447714
-1.1758187 -0.59758806 2.9219775 6447714
-1.1248059 -0.59764135 2.9200332 4868425
-1.0753133 -0.59769815 2.9207425 4593431
-1.0274538 -0.59774923 2.9194376 5974056
-0.99945444 -0.59774834 2.9030838 6566193
-0.86687618 -0.59793645 2.9231722 4813210
-0.82464331 -0.5979811 2.9218411 2505811
-0.7747851 -0.5980376 2.9221871 6041907
-0.72491407 -0.59809411 2.9225359 6566193
-0.6750434 -0.5981499 2.9224477 6566193
-0.62484819 -0.59820718 2.9230161 6566193
-0.57494175 -0.5982632 2.9230714 6566193
-0.52592635 -0.59831858 2.9233401 6566193
-0.48011291 -0.59835154 2.9140344 6566193
-0.44667307 -0.59837335 2.9061193 6566193
-0.45439535 -0.30952129 2.9093466 5658198
-0.44109881 -0.30973786 2.9332263 5658198
-2.0110664 -0.2737475 2.9173083 2039583
-1.8146993 -0.28705928 2.9394538 2039583
-1.77502 -0.28711775 2.9366596 2039842
-1.7243154 -0.28717527 2.9248679 3890043
-1.6744981 -0.28723067 2.9128277 2306882
-1.6319989 -0.28729734 2.9116914 2039583
-1.5183574 -0.28749463 2.9177787 2039583
-1.4768993 -0.28755698 2.9154418 3227728
-1.4487265 -0.28757945 2.9044075 6193317
-0.87448436 -0.28865966 2.9276185 3170708
-0.77193177 -0.28882241 2.9299545 4811404
-0.72939801 -0.2888867 2.9291975 2569797
-0.62192321 -0.28905866 2.9323502 3299197
-0.57461786 -0.28913176 2.9324079 1909545
-0.52495074 -0.28921014 2.9332008 2039583
-0.468173 -0.29111224 2.92536 2039583
-0.44146222 -0.29382294 2.9346042 2039583
-2.0110919 -0.22499788 2.9172616 2039583
-2.0111654 -0.17491181 2.9171319 2039583
-2.0109897 -0.12474947 2.9174426 2039583
-2.0111537 -0.075207122 2.9171495 2039583
-2.0110712 -0.025380639 2.9172966 2039583
-2.01107 0.025380624 2.9172966 2039583
-2.0111532 0.075207062 2.9171479 2039583
-2.2248232 0.11362347 2.949054 9868950
-2.1794655 0.11355188 2.9471958 9934743
-2.010618 0.1067329 2.9182332 9803157
-1.9748116 0.11322887 2.938812 5532291
-1.9260174 0.11315184 2.9368126 6976124
-1.8124205 0.11297254 2.9321589 10197915
-1.7750527 0.11291357 2.9306283 10197915
-1.7252865 0.11283503 2.9285901 3758203
-1.6755898 0.11275657 2.9265537 4938089
-1.6346402 0.11269192 2.9248762 10197915
-1.5194943 0.11251018 2.9201591 10132122
-1.4762565 0.11244194 2.9183877 6913426
-1.3690039 0.11227266 2.9139938 10197915
-1.3247193 0.11220276 2.9121802 10197915
-1.2866266 0.11214264 2.9106195 10197915
-1.1836171 0.11198005 2.9063995 10197915
-1.1065565 0.11185841 2.9032423 1059660
-1.074805 0.1118083 2.9019418 1652828
-1.0394185 0.11175244 2.9004922 2834260
-0.76491642 0.11119378 2.9494207 2181752
-0.73034555 0.11113926 2.9479742 4675174
-0.62314332 0.11097024 2.9434915 2575477
-0.57519263 0.11089464 2.9414861 8159623
-0.52485347 0.11081527 2.9393811 10000536
-0.47458583 0.11073603 2.937279 10132122
-0.42561364 0.11065882 2.935231 10197915
-0.39870527 0.1106164 2.9341054 10197915
-0.30347872 0.11046625 2.9301229 10197915
-0.27545157 0.11042209 2.9289515 10197915
-0.22432368 0.11034147 2.9268131 10197915
-0.17448471 0.11026289 2.9247289 10197915
-0.12471732 0.11018445 2.9226475 10197915
-0.07502012 0.1101061 2.9205694 10197915
-0.025394114 0.11002783 2.9184942 10197915
0.025369504 0.10994781 2.9163709 10197915
0.074853554 0.10986979 2.9143023 10197915
0.12426689 0.10979189 2.9122355 10197915
0.17481306 0.10971221 2.9101214 10197915
0.22528596 0.10963262 2.9080105 10197915
0.27568567 0.10955314 2.9059031 10197915
0.32601243 0.10947382 2.9037983 10197915
0.37507081 0.10939646 2.9017465 10197915
0.40734199 0.10934558 2.9003968 10197915
-2.3549337 -0.5680936 2.9745243 5987163
-2.3457847 -0.56808579 2.9909995 5987163
-1.8660535 -0.59693223 2.9814107 6447714
-1.8248365 -0.59696972 2.9769402 6447714
-1.7750432 -0.59702653 2.9775238 6316128
-1.7252399 -0.59708232 2.9775019 5915459
-1.6767685 -0.59713566 2.9769988 9197913
-1.646127 -0.59714055 2.9621243 9197913
-1.2512257 -0.59765595 2.9991887 6447714
-1.2224473 -0.59765452 2.9821298 6447714
-1.1743149 -0.5976963 2.9760427 6447714
-1.125859 -0.59774721 2.9742675 4535348
-1.074734 -0.59779388 2.9688551 6500400
-1.0350735 -0.59783471 2.9670727 6566193
-0.90137386 -0.59802687 2.9886234 7508141
-0.87373412 -0.59802306 2.9710224 3891590
-0.82512546 -0.59807622 2.9703348 3226187
-0.77504814 -0.59813309 2.9706893 6566193
-0.72527552 -0.59818906 2.9708183 6566193
-0.67517304 -0.59824669 2.9716284 6566193
-0.62478065 -0.5983026 2.9713087 6566193
-0.57830369 -0.59834248 2.9652383 6566193
-0.53938937 -0.59836543 2.9547272 6566193
-2.3549211 -0.52495992 2.9745076 2039583
-2.3457084 -0.52499181 2.9910963 2039583
-2.3548884 -0.47484323 2.9745193 2039583
-2.3456938 -0.47500834 2.9910779 2039583
-2.354897 -0.42500076 2.9744594 2039583
-2.345696 -0.42502591 2.9910285 2039583
-2.3549259 -0.37502509 2.9743621 2039583
-2.3457143 -0.37490878 2.9909487 2039583
-2.3548391 -0.32518095 2.9744728 2039583
-2.3456881 -0.32479158 2.9909489 2039583
-0.41869751 -0.30970696 2.9734554 5658198
-2.3548129 -0.27520114 2.9744735 2039583
-2.3456514 -0.27508551 2.9909708 2039583
-1.8237537 -0.2871182 2.9744205 2039583
-1.774964 -0.2871992 2.9752595 3227470
-1.7221637 -0.28726315 2.9649713 2704478
-1.6749077 -0.28733787 2.9640312 1974565
-1.6434706 -0.28736278 2.9516189 2039583
-1.5579454 -0.28754437 2.9719224 2039583
-1.5288678 -0.2875655 2.9595528 2039583
-1.4955626 -0.28760818 2.9541392 2039583
-0.90214485 -0.28873593 2.9911797 3631000
-0.88809276 -0.28873068 2.9768069 3104915
-0.8044042 -0.28887364 2.9841177 2632752
-0.77476084 -0.2889128 2.9805882 3956352
-0.735232 -0.28897133 2.979219 2108472
-0.65314704 -0.28911594 2.9887447 3301780
-0.62525094 -0.28914773 2.9827003 3297908
-0.5747453 -0.28922731 2.983521 1974049
-0.52421206 -0.28930694 2.9843421 2039583
-0.47488451 -0.2893846 2.9851437 2039583
-0.41750109 -0.28228751 2.9861581 2697513
-2.3548861 -0.2248248 2.9742959 2039583
-2.3456364 -0.22551917 2.9909525 2039583
-0.41095421 -0.22567652 2.9964693 6513507
-2.354816 -0.17497928 2.9743748 2039583
-2.3455651 -0.17539278 2.9910355 2039583
-0.41086662 -0.17480247 2.9965365 6513507
-2.3547792 -0.12554696 2.9743989 2039583
-2.3456616 -0.12460835 2.9908137 2039583
-0.41093296 -0.12414835 2.9966717 6513507
-2.3548081 -0.075033829 2.9743006 2039583
-2.3455913 -0.074345559 2.990896 2039583
-0.41094822 -0.074491695 2.9967806 6513507
-2.3547711 -0.024644528 2.974318 2039583
-2.3455768 -0.024781734 2.9908767 2039583
-0.4109633 -0.024831373 2.9968913 6513507
-2.3547573 0.024644313 2.9743021 2039583
-2.345562 0.024781508 2.9908574 2039583
-0.41097847 0.024832591 2.9970014 6513507
-2.3547637 0.075032339 2.9742434 2039583
-2.3455477 0.074344084 2.99084 2039583
-0.4109937 0.074500211 2.9971125 8355711
-2.3546441 0.10704644 2.9744294 3815994
-2.3398678 0.10851123 2.9806411 5526612
-2.2740257 0.11370115 2.9510698 9934743
-1.9621481 0.11308134 2.9994881 4872296
-1.9468198 0.11305717 2.9988472 10197915
-1.8575373 0.11291642 2.9951134 10132122
-1.8257072 0.11286622 2.9937825 10197915
-1.7748334 0.11278602 2.9916544 5927823
-1.7253008 0.11270793 2.9895833 2242383
-1.6771046 0.11263195 2.9875674 10197915
-1.5606854 0.1124484 2.9826992 10000536
-1.5240698 0.11239065 2.9811676 9277846
-1.491269 0.11233896 2.9797964 2315658
-1.4094058 0.11220988 2.976373 10000536
-1.375459 0.11215635 2.9749532 10000536
-1.325223 0.11207715 2.9728522 10197915
-1.2086952 0.11189345 2.9679792 10197915
-1.1187459 0.11175162 2.9642174 993864
-1.0751033 0.11168279 2.9623923 1981534
-1.0427145 0.11163176 2.9610376 5989746
-0.879987 0.1113752 2.9542325 2117766
-0.78963065 0.11123274 2.950454 5862031
-0.46472892 0.11059032 2.9993331 10000536
-0.4186767 0.10725023 2.9973681 10066329
-0.30622667 0.11034071 2.9925637 2176591
-0.27511257 0.1102917 2.9912345 8159623
-0.22538313 0.1102134 2.9891107 10197915
-0.17572424 0.11013521 2.9869895 10197915
-0.12489729 0.11005516 2.9848189 10197915
-0.074143521 0.10997524 2.9826519 10197915
-0.024698947 0.10989739 2.9805398 10197915
0.024675667 0.10981963 2.9784307 10197915
0.075211883 0.10974006 2.9762728 10197915
0.12567551 0.10966058 2.9741178 10197915
0.17483766 0.10958316 2.972018 10197915
0.22515661 0.10950392 2.9698689 10197915
0.27540332 0.10942479 2.9677229 10197915
0.32435435 0.1093477 2.9656324 10197915
0.37445736 0.10926882 2.9634922 10197915
0.42448869 0.10919001 2.9613557 10197915
0.47444731 0.10911135 2.9592218 10197915
0.52555007 0.10903088 2.9570394 10197915
0.57536393 0.10895244 2.9549117 7895160
0.60327941 0.10890847 2.9537194 6447714
-0.46067831 -0.75973672 3.0449314 6447714
-0.4250631 -0.75970882 3.0251007 6447714
-0.39384419 -0.75979167 3.0184963 6447714
-0.45985985 -0.73692405 3.0445373 6447714
-0.42256349 -0.72884238 3.0237918 6447714
-0.39389417 -0.72527397 3.0183752 6447714
-0.40050018 -0.69993961 3.0115862 6447714
-0.39418069 -0.69853222 3.0178363 6447714
-0.46041664 -0.61385912 3.0451846 6566193
-0.42892486 -0.6137597 3.027648 6566193
-2.3270473 -0.56822002 3.0247362 5987163
-1.9093051 -0.59699559 3.0380116 6447714
-1.8750744 -0.59701312 3.0275016 6447714
-1.8250768 -0.59706968 3.0277872 6447714
-1.77507 -0.59712625 3.028074 4998983
-1.7250538 -0.59718293 3.0283608 8738133
-1.6879334 -0.59721369 3.0229032 9197913
-1.2575557 -0.59770578 3.0280085 6447714
-1.2255452 -0.59773529 3.0247753 6447714
-1.1755311 -0.59779173 3.0250618 5723991
-1.1245272 -0.59784704 3.0241432 5385260
-1.0753896 -0.59789205 3.019038 6566193
-1.0431951 -0.59791774 3.0137453 6566193
-0.90717161 -0.5980919 3.0248756 6653608
-0.87465382 -0.59811962 3.0204203 2969199
-0.82499444 -0.59817541 3.0204599 4076609
-0.77532327 -0.59823203 3.0209875 6566193
-0.72502011 -0.59828836 3.021039 6566193
-0.67744172 -0.59833503 3.0177081 6566193
-0.63494283 -0.59835958 3.0060194 6566193
-0.46032524 -0.57544863 3.0452378 6442317
-0.42899242 -0.57513303 3.027792 6442574
-2.3270173 -0.52505368 3.024755 2039583
-0.45915049 -0.52473909 3.0447218 6447714
-0.42898348 -0.52521873 3.0279231 6447714
-2.3270071 -0.47506532 3.0247271 2039583
-0.45923081 -0.47451276 3.0449045 6447714
-0.42906886 -0.47514272 3.0281069 6447714
-2.327004 -0.42507732 3.0246913 2039583
-0.45924217 -0.42470571 3.0450466 6447714
-0.42910275 -0.42506155 3.0282626 6447714
-2.3270078 -0.37513733 3.0246289 2039583
-0.45911154 -0.37532729 3.0451078 6447714
-0.42911509 -0.37505385 3.0284054 6447714
-2.326952 -0.32505843 3.0246878 2039583
-1.3528521 -0.30947593 3.0490072 2175039
-1.339473 -0.30871999 3.0415592 1912900
-0.4589574 -0.34120899 3.0451155 6447714
-0.42769358 -0.33777606 3.0277162 6447714
-2.3269496 -0.27497959 3.024647 2039583
-1.813489 -0.28721222 3.0111423 2039584
-1.7749031 -0.28728297 3.0150051 3494768
-1.7248282 -0.28736538 3.0155499 2174266
-1.6848472 -0.28742474 3.0129156 2039583
-1.3528763 -0.29432321 3.049062 2039583
-1.3363584 -0.27753672 3.0399098 3883077
-0.90509617 -0.28878069 3.0175452 3368343
-0.89514363 -0.28879637 3.0177088 2775952
-0.81126392 -0.28895813 3.0349119 3427944
-0.77529871 -0.28901035 3.0331335 3428976
-0.74181944 -0.28905731 3.0305822 1909287
-0.65847421 -0.28920025 3.0381713 5339297
-0.62501955 -0.28924713 3.0356193 2638170
-0.57895571 -0.28931341 3.0330136 2039583
-0.52614027 -0.28937778 3.0237842 2039583
-0.47616109 -0.28945652 3.0246069 2039583
-0.43016779 -0.26969337 3.0065782 3618615
-2.3269699 -0.22490194 3.024565 2039583
-1.3345978 -0.22411112 3.0390756 1650759
-0.4295851 -0.22446366 3.0061891 6513507
-2.3269293 -0.17491738 3.0245883 2039583
-1.3346758 -0.1750183 3.039253 1454669
-0.42971036 -0.17437166 3.0063949 6513507
-2.3269601 -0.1251221 3.0244904 2039583
-1.3347535 -0.12591974 3.0394311 1388876
-0.42973158 -0.12455724 3.0065422 6513507
-2.3268569 -0.075184219 3.0246346 2039583
-1.3348337 -0.075556278 3.0396123 1323083
-0.42975253 -0.074737936 3.0066905 6513507
-2.3268418 -0.025061276 3.0246134 2039583
-1.3349137 -0.025186762 3.039794 1257290
-0.42977366 -0.024913732 3.0068381 6513507
-2.3268261 0.025061052 3.0245948 2039583
-1.3349937 0.025188774 3.0399761 1125191
-0.42979491 0.024915358 3.0069861 6513507
-2.3268113 0.075182714 3.0245767 2039583
-1.3350735 0.075570345 3.0401587 2899798
-0.4298161 0.074749365 3.0071344 8421504
-2.3264549 0.10745363 3.0227902 4342338
-2.2752464 0.11357497 3.0125818 9934743
-2.2275927 0.11349984 3.0105891 9934743
-2.0235276 0.1131781 3.0020552 5598858
-1.9864311 0.11311964 3.0005038 1913932
-1.6036801 0.11238388 3.0479765 10000536
-1.5752757 0.11233915 3.0467632 10000536
-1.5327048 0.11227213 3.0449452 5205390
-1.424578 0.11210183 3.0403273 10000536
-1.3744869 0.11202297 3.0381877 9211796
-1.3362693 0.10785675 3.0390632 9211537
-1.2348589 0.11180308 3.0322247 10197915
-1.1556833 0.1116784 3.0288429 1059918
-1.1250845 0.11163022 3.0275362 1587034
-1.0792319 0.11155801 3.025578 3162969
-0.90527731 0.11128408 3.0181487 2513549
-0.89387971 0.11126612 3.0176618 1787776
-0.80788314 0.11113069 3.0139887 6256015
-0.77505964 0.11107901 3.0125871 1917033
-0.73848015 0.1110214 3.0110245 6712953
-0.65537572 0.11089054 3.0074756 2775181
-0.62520748 0.11084303 3.0061872 2245221
-0.57497978 0.11076393 3.0040419 10197915
-0.52482378 0.11068495 3.0018997 10197915
-0.48975453 0.11062972 3.0004015 10066329
-0.42982876 0.10465195 3.0072224 10000536
-0.11622372 0.1099062 3.0493028 10197915
-0.075756513 0.10984254 3.0475364 10197915
-0.025235927 0.10976309 3.0453322 10197915
0.025211621 0.10968374 3.0431309 10197915
0.075586289 0.1096045 3.0409324 10197915
0.12588821 0.1095254 3.0387373 10197915
0.17611761 0.10944637 3.0365448 10197915
0.22502181 0.10936946 3.0344117 10197915
0.27385679 0.10929266 3.0322804 10197915
0.32387301 0.10921401 3.0300977 10197915
0.37381727 0.10913545 3.0279188 10197915
0.42493528 0.10905506 3.0256877 10197915
0.4759787 0.10897477 3.0234606 10197915
0.5257045 0.10889654 3.0212898 10197915
0.57535893 0.10881846 3.0191238 8816262
0.6100772 0.10876385 3.0176084 6447714
-0.5538106 -0.76677966 3.0967705 6447714
-0.52139252 -0.76089597 3.0787363 6447714
-0.48553652 -0.75960183 3.0587735 6447714
-0.50719649 -0.74721974 3.0708683 6447714
-0.48282301 -0.74194056 3.0573108 6447714
-0.55426443 -0.61372918 3.097441 6566193
-0.52472419 -0.61364281 3.0809934 6566193
-0.48538426 -0.61350977 3.0590875 6566193
-2.3062911 -0.56832892 3.0621154 5987163
-2.292722 -0.56823909 3.0865486 5921370
-1.9529891 -0.59706765 3.0993328 6447714
-1.9215891 -0.59706789 3.0815976 6447714
-1.8749142 -0.59711701 3.0801299 6447714
-1.8266332 -0.59716082 3.0748844 6184542
-1.7750943 -0.59721637 3.0737016 6243139
-1.7270106 -0.59726822 3.072732 9197913
-1.6979924 -0.5972774 3.0609257 9197913
-1.2664014 -0.5977847 3.0730581 6447714
-1.2252312 -0.59782499 3.0700667 6447714
-1.1754094 -0.59788197 3.0706122 4669761
-1.124945 -0.59793842 3.0706537 6434864
-1.0768321 -0.59799075 3.0699024 6566193
-0.91478044 -0.59818119 3.0744231 5142176
-0.875058 -0.59822124 3.0721879 2572634
-0.82517588 -0.59827793 3.0725653 5189944
-0.77658582 -0.59832752 3.0700915 6566193
-0.73011422 -0.59835523 3.0578053 6566193
-0.55377769 -0.57669139 3.0972712 6441803
-0.52448064 -0.57507294 3.0809624 6442574
-0.48522183 -0.57473642 3.059104 6442574
-2.3062906 -0.52508759 3.0620782 2039583
-2.2927318 -0.52505821 3.0864928 2039583
-0.55299085 -0.52476299 3.0969758 6447714
-0.52475214 -0.52501559 3.0812502 6447714
-0.48406798 -0.52512336 3.0585957 6447714
-2.3062694 -0.47518951 3.0620651 2039583
-2.2926917 -0.47508267 3.0865188 2039583
-0.55301791 -0.47474772 3.0971265 6447714
-0.5245989 -0.47510728 3.081301 6447714
-0.48410359 -0.47509268 3.0587516 6447714
-2.3062561 -0.42507571 3.062047 2039583
-2.2926843 -0.42511746 3.0864842 2039583
-0.55304503 -0.42472759 3.0972784 6447714
-0.52474433 -0.42504105 3.0815182 6447714
-0.48402169 -0.42505905 3.0588431 6447714
-2.3062818 -0.37496462 3.061954 2039583
-2.292707 -0.37504557 3.0863967 2039583
-0.55302358 -0.37511247 3.0974019 6447714
-0.52458179 -0.37496817 3.0815654 6447714
-0.4840163 -0.37491688 3.0589764 6447714
-2.3061838 -0.32496095 3.0620852 2039583
-2.2926204 -0.32498011 3.0865064 2039583
-1.4207466 -0.30908534 3.086813 2039583
-1.3762882 -0.3090525 3.0620577 2238252
-1.2652891 -0.30926451 3.0974953 2631720
-0.518893 -0.34676152 3.0784745 6447714
-0.48319989 -0.34299526 3.058609 6447714
-2.3061872 -0.27506131 3.0620344 2039583
-2.2926688 -0.27511021 3.0863788 2039583
-1.8011615 -0.28732511 3.0552402 6784937
-1.7678528 -0.27014151 3.0631897 2571602
-1.7413347 -0.27137065 3.0764832 1974047
-1.6971235 -0.28749782 3.0570765 2039583
-1.4199485 -0.29320699 3.0875494 2172202
-1.3761761 -0.29227766 3.0676465 1974564
-1.2652858 -0.29386467 3.097487 6447714
-0.81613743 -0.28902236 3.0732877 4415614
-0.77429712 -0.28908831 3.0739887 2440532
-0.74639434 -0.2891323 3.0744562 2039583
-0.66263157 -0.28926429 3.07586 5405089
-0.62453157 -0.2893244 3.0764987 2241605
-0.5708912 -0.28939512 3.0700154 2039583
-0.52558655 -0.2894547 3.064445 2039583
-0.47943521 -0.2895177 3.0600126 2039583
-0.44886565 -0.28954995 3.0520077 2039583
-2.3062713 -0.22527607 3.0618377 2039583
-2.2926445 -0.22494659 3.0863769 2039583
-1.7666994 -0.22531383 3.0637817 2374224
-1.7435234 -0.22494841 3.0789502 2039583
-2.306175 -0.17505783 3.0619619 2039583
-2.2925856 -0.17507483 3.0864336 2039583
-1.7670041 -0.17517573 3.064029 2111310
-1.7436762 -0.17521329 3.0786335 2039583
-2.3061011 -0.12462431 3.0620522 2039583
-2.2926385 -0.12511514 3.0862904 2039583
-1.7670848 -0.12440564 3.064167 1716812
-1.7435822 -0.12499851 3.0787623 2039583
-2.3062091 -0.075168394 3.0618117 2039583
-2.2925322 -0.075235799 3.0864441 2039583
-1.7671616 -0.07490053 3.0642991 1454155
-1.7435706 -0.075253688 3.078742 2039583
-2.3061333 -0.025370222 3.0619037 2039583
-2.2926114 -0.025382983 3.0862517 2039583
-1.7672416 -0.025391012 3.0644407 1323082
-1.7435596 -0.025509574 3.0787218 2039583
-2.3061173 0.025370022 3.0618834 2039583
-2.2925963 0.02538277 3.0862308 2039583
-1.7673335 0.025392719 3.0645959 1191240
-1.743548 0.025509369 3.0787015 2039583
-2.3061666 0.075166874 3.0617526 2039583
-2.2924862 0.075234331 3.0863838 2039583
-1.7674195 0.074911751 3.0647454 993605
-1.743536 0.07525216 3.0786808 2894892
-2.3058829 0.10684123 3.0622313 4079166
-2.2891631 0.10777862 3.0840786 4868682
-2.0717688 0.11312101 3.0679686 6322323
-2.0259917 0.11304892 3.0660131 1848140
-1.993327 0.11299748 3.0646183 10197915
-1.9020289 0.11285371 3.060719 10197915
-1.8746876 0.11281066 3.0595515 10132122
-1.825261 0.11273281 3.0574403 7636116
-1.769273 0.10693883 3.062809 1124935
-1.7386725 0.10765284 3.0718701 9671829
-1.6942186 0.11252645 3.0518432 10000536
-1.2621784 0.11170856 3.0993087 10132122
-1.1694871 0.11156277 3.0952632 1059657
-1.1251864 0.1114931 3.0933304 1718620
-1.0900416 0.11143782 3.0917974 5266539
-0.91873711 0.1111684 3.0843217 2051974
-0.81790102 0.11100979 3.0799212 4614286
-0.77532774 0.11094284 3.0780637 2703710
-0.74568129 0.11089619 3.0767696 10197915
-0.66204238 0.11076466 3.0731201 2841229
-0.62479222 0.11070608 3.0714946 3952486
-0.57475674 0.11062737 3.0693114 10066329
-0.5247919 0.11054879 3.0671313 10000536
-0.4748984 0.11047029 3.0649538 10000536
-0.30909389 0.11020952 3.0577185 1913932
-0.27475846 0.11015553 3.0562203 7765123
-0.22521932 0.1100776 3.0540586 10066329
-0.17448232 0.10999781 3.0518441 10197915
-0.14027375 0.10994402 3.0503519 10197915
0.28247517 0.10913873 3.099257 10197915
0.32464829 0.1090725 3.0973761 10197915
0.3744244 0.10899432 3.0951555 10197915
0.42540303 0.10891423 3.0928814 10197915
0.47503552 0.10883626 3.0906672 10197915
0.52459627 0.1087584 3.0884569 10197915
0.57535464 0.10867868 3.0861928 9737364
0.617176 0.108613 3.0843275 6447714
-0.62519598 -0.61355108 3.1369379 6566193
-0.58003992 -0.61356878 3.1117933 6566193
-2.2828267 -0.56845683 3.1043653 5987163
-1.9560095 -0.5971089 3.121959 6447714
-1.9248775 -0.59715313 3.1267111 6447714
-1.8749764 -0.59720922 3.1267715 6447714
-1.8243213 -0.59725571 3.1216362 4801347
-1.7751195 -0.59730929 3.120796 8935255
-1.7378436 -0.5973379 3.1141884 9197913
-1.3047451 -0.59786695 3.1364856 6447714
-1.274393 -0.59787637 3.124027 6447714
-1.2256294 -0.59793103 3.1240423 6381921
-1.1752656 -0.59798807 3.1243415 4664878
-1.1248921 -0.59804505 3.1246369 6566193
-1.0856608 -0.59808326 3.1217642 6566193
-0.95021456 -0.59828323 3.1462393 6916267
-0.92249715 -0.59827656 3.1271224 4023693
-0.87647408 -0.5983212 3.1235604 2571089
-0.82957113 -0.59835017 3.111619 6172978
-0.79911792 -0.59837335 3.1061103 6566193
-0.62354219 -0.5748533 3.1361227 6442574
-0.57941824 -0.5745604 3.1115551 6442831
-2.2827146 -0.52478135 3.1045275 2039583
-0.62371904 -0.52493668 3.136358 6447714
-0.57882005 -0.52504325 3.111356 6447714
-2.2822835 -0.47515097 3.1052582 2039583
-0.62374955 -0.47509503 3.1365104 6447714
-0.57877964 -0.47497275 3.1114709 6447714
-2.2821889 -0.42517895 3.1053843 2039583
-0.62373787 -0.42500898 3.136641 6447714
-0.5787378 -0.42506051 3.1115837 6447714
-2.2822597 -0.37501651 3.1052117 2039583
-0.62273043 -0.38195658 3.136198 6447714
-0.57818961 -0.37774298 3.1114075 6447714
-2.2821641 -0.32504135 3.1053367 2039583
-1.4692487 -0.30890831 3.1138208 2039583
-1.446705 -0.30964103 3.1012666 2039583
-1.2623231 -0.30979639 3.1028218 2829099
-2.2822256 -0.27488321 3.1051807 2039583
-1.4700111 -0.2917797 3.1226344 2039583
-1.4298345 -0.28945082 3.1268427 2638171
-1.3902192 -0.28823999 3.1293581 1716554
-1.2652608 -0.29266644 3.1082263 6447714
-0.82162327 -0.28909475 3.116483 3956351
-0.77635115 -0.28916156 3.1148186 2306882
-0.66727817 -0.28933874 3.1194665 4550037
-0.62467772 -0.28940228 3.1182477 2239800
-0.57923138 -0.2894651 3.1143081 2039583
-0.53913391 -0.2895112 3.10585 2039583
-2.2821739 -0.22513035 3.1052287 2039583
-2.2821593 -0.17495738 3.1052091 2039583
-2.282145 -0.12478497 3.1051898 2039583
-2.2821302 -0.074613236 3.1051698 2039583
-2.2821157 -0.024442123 3.1051505 2039583
-2.2821009 0.024441922 3.1051309 2039583
-2.2820868 0.074611798 3.1051109 2039583
-2.2820778 0.10677163 3.105098 3881787
-2.1194952 0.11305697 3.1367195 6387858
-2.0753362 0.11298752 3.1347928 1453900
-2.0405803 0.11293285 3.1332757 1257552
-1.923202 0.11274824 3.1281536 10197915
-1.8739642 0.1126708 3.1260054 8883863
-1.8340888 0.11260808 3.1242652 1852273
-1.7518235 0.1124787 3.1206758 10000536
-1.7385731 0.11245784 3.1200969 10000536
-1.6208584 0.11227269 3.1149602 10000536
-1.5746726 0.11220006 3.1129448 6716305
-1.4653811 0.11202817 3.108176 10000536
-1.4246492 0.11196408 3.1063983 5664909
-1.3839608 0.11190009 3.1046228 2439761
-0.85213393 0.11092096 3.1498675 10066329
-0.82572913 0.11087951 3.1486905 3035773
-0.77956164 0.11080698 3.146631 4609382
-0.67032212 0.11063538 3.141758 2247804
-0.62567216 0.11056525 3.1397662 6121331
-0.57583499 0.11048697 3.1375434 10000536
-0.52606827 0.1104088 3.1353233 10000536
-0.48029205 0.11033688 3.1332812 10000536
-0.31338999 0.11007472 3.1258364 1716554
-0.27568874 0.11001549 3.1241546 8817294
-0.22504854 0.10993595 3.121896 10000536
-0.17448087 0.10985652 3.1196404 10066329
-0.12528037 0.10977925 3.1174457 10197915
-0.074857317 0.10970004 3.1151965 10197915
-0.024506366 0.10962095 3.1129508 10197915
0.024483446 0.109544 3.1107655 10197915
0.074690685 0.10946514 3.1085258 10197915
0.1248263 0.10938637 3.1062891 10197915
0.17488922 0.10930773 3.1040564 10197915
0.22488081 0.10922923 3.1018262 10197915
0.25689131 0.10917892 3.1003983 10197915
-0.71963918 -0.61376542 3.1895254 6566193
-0.6751892 -0.613536 3.1647751 6566193
-1.9189397 -0.59724796 3.1713729 6447714
-1.8751272 -0.59730589 3.1758599 5460819
-1.824652 -0.59736264 3.1759815 7424843
-1.7790949 -0.59740657 3.1723933 9197913
-1.3128293 -0.59793311 3.1745725 6447714
-1.2752296 -0.5979706 3.1722817 6447714
-1.2249668 -0.59802753 3.1725821 5066061
-1.1742754 -0.59808439 3.172646 5910062
-1.1244078 -0.5981409 3.172936 6566193
-1.0936049 -0.59816974 3.1701205 6566193
-0.9557457 -0.59833986 3.1780436 6916523
-0.93038654 -0.59834778 3.1677151 3497350
-0.89690191 -0.59837109 3.1604726 3228246
-0.7187351 -0.57517201 3.1891272 6442317
-0.67518097 -0.57499474 3.1648757 6442574
-0.64860433 -0.57552195 3.1500764 6442574
-0.71879733 -0.52521038 3.1892991 6447714
-0.67527813 -0.52488798 3.1650679 6447714
-0.64863575 -0.52595598 3.1502292 6447714
-0.71886587 -0.47513509 3.1894729 6447714
-0.6753751 -0.4748514 3.1652584 6447714
-0.64866805 -0.47508064 3.1503861 6447714
-0.71886802 -0.42505383 3.189611 6447714
-0.67539918 -0.42496446 3.1654072 6447714
-0.64870048 -0.4242003 3.150543 6447714
-0.71718216 -0.39141878 3.1887646 6447714
-0.67369938 -0.38725349 3.1645641 6447714
-0.64872611 -0.38375339 3.1506674 6447714
-1.6115379 -0.305475 3.1930614 2572635
-1.5909452 -0.30579823 3.1815929 6587815
-1.2142205 -0.30935955 3.1892087 2112342
-1.6105689 -0.29413328 3.1925521 2704736
-1.5909677 -0.29393956 3.1816382 6456487
-1.506524 -0.28814739 3.1759098 2697513
-1.475198 -0.2881968 3.1764545 5068900
-1.4255784 -0.28827509 3.1773171 2441825
-1.3001043 -0.28847298 3.1794984 6447714
-1.2888247 -0.28845936 3.1629081 6447714
-1.2145137 -0.29409355 3.1886768 2046807
-0.81371331 -0.28920186 3.167171 3626612
-0.78075421 -0.2816588 3.1819277 3160128
-0.67758536 -0.28941792 3.170284 4680592
-0.63786608 -0.28946292 3.1615372 2241089
-0.77521962 -0.22395214 3.1986485 6447714
-0.77525705 -0.17492962 3.1988029 6447714
-0.77529454 -0.12590232 3.1989577 6447714
-0.77533311 -0.075545073 3.1991165 6447714
-0.77537161 -0.025182804 3.1992757 6447714
-0.77406067 0.027516427 3.1986895 6447714
-0.77391708 0.075536601 3.1987405 8421504
-1.9630399 0.11266598 3.1994219 10000536
-1.9249047 0.11260607 3.1977205 10132122
-1.8800075 0.11253557 3.1957183 1721461
-1.7795353 0.11237775 3.1912363 10132122
-1.6644764 0.11219701 3.1861038 10000536
-1.6253076 0.11213548 3.1843565 9146517
-1.5929203 0.1120846 3.1829121 2118537
-1.5080498 0.11195128 3.1791263 10000536
-1.4757744 0.11190059 3.1776867 8358549
-1.4247266 0.1118204 3.1754093 1981277
-1.2907362 0.11160994 3.1694326 10000536
-1.207917 0.11147984 3.1657383 1125967
-1.1759125 0.11142955 3.1643105 1455449
-1.1279553 0.11135424 3.1621721 2965848
-0.95001531 0.11107469 3.1542332 2381964
-0.93809724 0.11105601 3.1537027 1986181
-0.77394038 0.10601919 3.1988368 10132122
-0.31655166 0.10993168 3.1969974 1716298
-0.27400348 0.10986495 3.1950576 10197915
-0.22486939 0.10978785 3.1928153 10197915
-0.17580478 0.10971089 3.190577 10066329
-0.12548538 0.10963196 3.1882815 10000536
-0.075238273 0.10955314 3.1859894 10132122
-0.025063403 0.10947442 3.1837006 10197915
0.025039434 0.10939583 3.1814148 10197915
0.075070374 0.10931735 3.1791325 10197915
0.12502958 0.10923896 3.1768534 10197915
0.17491719 0.10916071 3.1745772 10197915
0.2247334 0.10908259 3.1723044 10197915
0.27447835 0.10900455 3.1700354 10197915
0.32415217 0.10892662 3.1677692 10197915
0.37505907 0.10884676 3.1654468 10197915
0.42589197 0.10876702 3.1631279 10197915
0.47534963 0.10868942 3.1608717 10197915
0.52473676 0.10861197 3.1586185 10197915
0.57535011 0.10853256 3.1563091 10197915
0.62459546 0.10845532 3.1540625 7039851
1.219893 -1.4512314 3.2464805 11711154
1.2210245 -1.4250276 3.2460437 11711154
1.2211335 -1.3748522 3.2460768 11711154
1.2210971 -1.3249078 3.2462037 11711154
1.2211727 -1.2749711 3.2463098 11711154
1.2212495 -1.225032 3.246417 11711154
1.2212263 -1.1750897 3.2465796 11711154
1.2214031 -1.1251442 3.2466316 11711154
1.2212803 -1.0751919 3.2468491 11711154
1.2220736 -1.0261897 3.2465584 11711154
1.2226145 -0.97483081 3.2464125 11711154
1.2226112 -0.92805636 3.2465553 11711154
-0.77059543 -0.6134277 3.2179003 6566193
-0.74380028 -0.61211878 3.2029841 6566193
-1.9065802 -0.59734756 3.2148738 6447714
-1.8746389 -0.59740484 3.2257442 5259071
-1.8244652 -0.59746212 3.2263122 9197913
-1.7917949 -0.59748477 3.2192156 9197913
-1.3506012 -0.59802741 3.2438345 6447714
-1.3218008 -0.59802008 3.2237267 6447714
-1.2749052 -0.59806997 3.2224228 6447714
-1.224292 -0.59812725 3.2227314 4470840
-1.1750013 -0.59818298 3.2230325 6566193
-1.1284504 -0.59823215 3.2214701 6566193
-1.0996207 -0.59822547 3.2017393 6566193
-0.77047873 -0.57507682 3.2179401 6442317
-0.74302149 -0.57451296 3.2026527 6442574
-0.77066404 -0.52510738 3.2181804 6447714
-0.74311858 -0.52444345 3.2028439 6447714
-0.77062553 -0.47494164 3.2182968 6447714
-0.74309373 -0.47504735 3.2029641 6447714
-0.77063364 -0.42496338 3.2184365 6447714
-0.74306887 -0.42564809 3.2030861 6447714
-0.77044922 -0.39345405 3.2184196 6447714
-0.7431525 -0.39413533 3.2032189 6447714
-2.2052252 -0.31418154 3.2438698 2039583
-1.6749629 -0.30526012 3.2283781 2039583
-1.6365399 -0.30562779 3.2069821 2039583
-1.2047565 -0.30949214 3.2062051 3491158
-1.1903486 -0.30951464 3.2320812 2838129
-2.205287 -0.27522859 3.2437224 2039583
-1.6704158 -0.27346045 3.2332335 1908770
-1.6306152 -0.29132578 3.2130527 2765885
-1.5982611 -0.2880587 3.2041943 5996196
-1.517872 -0.28822061 3.224349 6447714
-1.4754442 -0.28828019 3.2211711 4612476
-1.4349816 -0.28833863 3.2189839 2177103
-1.3144653 -0.28853491 3.2244203 6447714
-1.2132723 -0.29127011 3.2190917 2834517
-1.1906172 -0.29383415 3.2329247 3232629
-0.78901291 -0.26964322 3.2062042 3424330
-2.2052219 -0.22468251 3.243794 2039583
-1.6695639 -0.22491467 3.2345133 1909028
-0.78904808 -0.22449107 3.206347 4279383
-2.20526 -0.17497651 3.2436798 2039583
-1.6697012 -0.17514879 3.2344062 1908772
-0.78924179 -0.17450784 3.2065904 4148055
-2.2052202 -0.12497613 3.2437067 2039583
-1.6697161 -0.12462611 3.2346253 1908772
-0.78896809 -0.12538806 3.2065723 4147798
-2.2052062 -0.075253978 3.2436862 2039583
-1.6695099 -0.075213373 3.2346449 1908772
-0.78916401 -0.075726911 3.2068176 3950677
-2.2051921 -0.02553246 3.2436662 2039583
-1.6682408 -0.025459174 3.2343712 1908770
-0.80000538 -0.0079867216 3.2130394 1323082
-0.78875923 -0.025952606 3.2067277 4082262
-2.2051773 0.025532231 3.2436457 2039583
-1.6682829 0.025460016 3.2344532 1908514
-0.80003166 0.025292393 3.2131443 1257289
-0.78770095 0.025238346 3.2062788 4344918
-2.2051637 0.075252503 3.2436249 2039583
-1.6683234 0.075041592 3.2345328 2632237
-0.80005264 0.051916894 3.2132292 1191240
-0.78774053 0.075718358 3.2064385 5463400
-2.2051551 0.10615936 3.2436121 3684408
-2.1694129 0.11299016 3.2086272 6584978
-2.1255803 0.11292131 3.2066722 1454159
-2.088635 0.11286326 3.2050242 1191246
-1.983487 0.11269812 3.2003338 10000536
-1.6683493 0.10586376 3.2345793 9343122
-1.4646412 0.11173268 3.2493739 1718879
-1.4412825 0.11169601 3.2483077 1387591
-1.3206161 0.11150675 3.2428036 6322322
-1.2208297 0.11135019 3.238251 1059400
-1.1744491 0.11127743 3.236135 1587293
-1.1403817 0.11122401 3.234581 5200747
-0.96105862 0.11094271 3.2264006 1986181
-0.86092508 0.11078563 3.2218323 5336718
-0.82446265 0.11072842 3.2201686 1390432
-0.78776407 0.10627435 3.2065351 6449782
-0.70318282 0.1105382 3.2146368 2051718
-0.67494768 0.11049388 3.2133477 1851498
-0.62524956 0.11041592 3.2110803 8685451
-0.57562214 0.11033808 3.2088168 10000536
-0.52472597 0.11025823 3.2064943 10000536
-0.48459473 0.11019528 3.204664 10000536
0.14540406 0.10905313 3.2497559 10197915
0.17494649 0.10900686 3.2483771 10197915
0.22457916 0.10892912 3.2460608 10197915
0.27547988 0.1088494 3.2436841 10197915
0.32496992 0.10877186 3.2413738 10197915
0.37438887 0.10869444 3.2390671 10197915
0.42507067 0.10861506 3.2367013 10197915
0.47567838 0.10853578 3.2343385 10197915
0.52488381 0.1084587 3.2320418 10197915
0.57401866 0.10838173 3.229748 10197915
0.6244095 0.10830281 3.2273958 8158332
0.65619999 0.10825298 3.2259116 6447714
1.1358734 -1.4615908 3.2931092 6447714
1.1710291 -1.4574291 3.273598 4934475
1.2210207 -1.4540086 3.2598481 10132122
1.252474 -1.4609926 3.2896585 11711154
1.1363763 -1.4248669 3.2929418 6447714
1.1750121 -1.4249754 3.2714834 4473924
1.2154356 -1.4248862 3.2565465 10197915
1.2524347 -1.4255136 3.2895555 11711154
1.1364084 -1.3750639 3.2930722 6447714
1.1750895 -1.3748829 3.2715919 4473924
1.2155603 -1.3749917 3.2565849 10132122
1.2523791 -1.3750277 3.2894089 11711154
1.1365082 -1.3250082 3.2931671 6447714
1.1752409 -1.3250189 3.2716572 4408131
1.2157147 -1.324924 3.2567554 10197915
1.252323 -1.3245466 3.2892623 11711154
1.1365068 -1.2749488 3.2933187 6447714
1.1751417 -1.2749773 3.2718625 4473924
1.2156329 -1.2750307 3.2567325 10132122
1.2522688 -1.275434 3.2891197 11711154
1.1365844 -1.2250102 3.2934256 6447714
1.1746635 -1.2251718 3.272279 4473924
1.2146678 -1.2243204 3.2569642 9671571
1.2522129 -1.2249615 3.2889729 11711154
1.1366506 -1.1750685 3.2935388 6447714
1.1741625 -1.174961 3.2727077 4539717
1.213937 -1.1749904 3.2569938 9276813
1.2521573 -1.1744937 3.2888265 11711154
1.1376952 -1.1252459 3.2931092 6447714
1.1741738 -1.1249632 3.2728508 4539717
1.2138757 -1.125078 3.2570331 9276813
1.2521029 -1.1253941 3.2886839 11711154
1.137894 -1.0749519 3.2931499 6447714
1.174283 -1.0750194 3.2729421 4539717
1.2141336 -1.0750288 3.2572348 9276813
1.2520471 -1.0749351 3.2885377 11711154
1.1378577 -1.0249205 3.2933211 6447714
1.1742607 -1.0251355 3.2731028 4539717
1.214016 -1.024309 3.2567067 9342606
1.2519914 -1.0244807 3.2883916 11711154
1.1379818 -0.97515428 3.293401 6447714
1.1743369 -0.97506243 3.2732127 4539717
1.2143935 -0.9749065 3.2566369 9539985
1.2519373 -0.97539401 3.2882483 11711154
1.1379668 -0.92839038 3.293551 6447714
1.174456 -0.92806631 3.2732878 4539717
1.2135978 -0.92858577 3.2563179 9474192
1.2518935 -0.93585515 3.2881341 11711154
-1.8670008 -0.5974955 3.2673383 8606804
-1.8313135 -0.59753776 3.2685034 9197913
-1.3579687 -0.59808719 3.27827 6447714
-1.3246288 -0.59811515 3.2735169 6447714
-1.2750155 -0.59817177 3.2740932 6052956
-1.2249441 -0.59822857 3.2744036 4860715
-1.1748632 -0.59828526 3.274713 6566193
-1.136634 -0.5983246 3.2729483 6566193
-2.2010345 -0.31385633 3.251416 2039583
-2.1870017 -0.31410834 3.2766869 3492965
-1.1675035 -0.30934808 3.2731071 2636365
-2.2010241 -0.2747913 3.2513998 2039583
-2.18696 -0.27505541 3.2767279 3560562
-1.6578223 -0.28813884 3.2962255 3957385
-1.6462783 -0.27365091 3.2572222 2765114
-1.5589747 -0.28828302 3.2916832 6513507
-1.525233 -0.28831774 3.2823706 6121072
-1.4759043 -0.28839475 3.2828054 3033960
-1.4447876 -0.28841594 3.2684152 1322312
-1.3332136 -0.28859198 3.2704103 2970493
-1.2524729 -0.28871939 3.2718544 1917541
-1.2255423 -0.28876194 3.272336 2901084
-1.1703267 -0.29344869 3.2731588 2505294
-2.2010098 -0.22495027 3.2513793 2039583
-2.186892 -0.22508857 3.276798 3297649
-1.6475873 -0.22346248 3.253623 2039583
-2.2009954 -0.17510991 3.251359 2039583
-2.1869409 -0.17492288 3.2766628 2837615
-1.6473607 -0.17525141 3.2539871 2039583
-2.2009819 -0.12527013 3.2513382 2039583
-2.1869903 -0.12515196 3.2765346 2377579
-1.6473486 -0.12537128 3.253963 2039583
-2.2009678 -0.075431019 3.2513177 2039583
-2.186763 -0.074913003 3.2768984 2048873
-1.6473371 -0.075491846 3.2539396 2039583
-2.200954 -0.025592521 3.2512975 2039583
-2.1869636 -0.024701945 3.2764924 1852008
-1.6473246 -0.02561314 3.253916 2039583
-2.2009401 0.025592303 3.2512763 2039583
-2.1869469 0.024701737 3.2764695 1720421
-1.6473125 0.025612887 3.2538917 2039583
-2.2009258 0.075429529 3.2512553 2039583
-2.1867182 0.074911483 3.2768342 1522529
-1.6473004 0.075490125 3.2538683 3026478
-2.2009175 0.10640912 3.2512429 4013373
-2.1852198 0.10742103 3.276099 1587551
-2.1375418 0.11278825 3.2800717 1125453
-2.0186946 0.11260181 3.2746499 9868950
-1.9740543 0.11253177 3.2726128 10000536
-1.9266832 0.11245747 3.2704523 2706808
-1.8210207 0.11229173 3.2656319 10197915
-1.7129017 0.11212211 3.2606993 7830916
-1.643175 0.10806965 3.2548563 7832980
-1.5251696 0.11182763 3.2521353 10000536
-1.4893894 0.11177149 3.2505028 4417937
-0.8715111 0.11064611 3.2972264 3825545
