# .PCD v0.7 - Point Cloud Data file format
VERSION 0.7
FIELDS x y z rgb
SIZE 4 4 4 4
TYPE F F F U
COUNT 1 1 1 1
WIDTH 1204
HEIGHT 1
VIEWPOINT 0 0 0 1 0 0 0
POINTS 1204
DATA ascii
1.582788 -0.72504079 3.4857786 2565927
1.6115468 -0.72501123 3.4608493 2434341
1.9084071 -0.72496223 3.4583106 2039583
1.5828614 -0.67502743 3.4862955 2565927
1.6117626 -0.67503452 3.4612401 2434341
1.9087195 -0.67492688 3.4588766 2039583
1.5841473 -0.62507582 3.4857588 2565927
1.6129246 -0.62490565 3.4608154 2434341
1.9090329 -0.62487537 3.459444 2039583
1.5843297 -0.57491666 3.4861829 2565927
1.6131526 -0.57500422 3.4611952 2434341
1.9092283 -0.57552254 3.4598727 2039583
1.5845493 -0.52509975 3.4865696 2565927
1.6133456 -0.52487922 3.4616082 2434341
1.9097667 -0.52543861 3.4606998 2039583
1.5847461 -0.47508693 3.4869781 2565927
1.6136005 -0.47496232 3.461967 2434341
1.9098543 -0.47534135 3.4610069 2039583
1.5853912 -0.42537934 3.4869957 2631720
1.6143141 -0.42450908 3.461931 2434341
1.9103928 -0.42521718 3.4618347 2039583
1.5862899 -0.37487116 3.4868023 2631720
1.6151426 -0.37495357 3.4617906 2368548
1.9102263 -0.37641269 3.4618433 2039583
1.5863284 -0.32507098 3.4873464 2631720
1.6149337 -0.32499322 3.4625502 2368548
1.9069575 -0.32522807 3.4582834 2039583
1.5860792 -0.27551368 3.4881368 2631720
1.6152179 -0.274492 3.4628868 2368548
1.8995522 -0.25298774 3.450038 2039583
1.90727 -0.27512762 3.4588504 2039583
1.5860913 -0.2250627 3.4887116 2631720
1.6147873 -0.22462784 3.4638386 2434341
1.89973 -0.22442192 3.4503605 2039583
1.9075826 -0.22501099 3.4594169 2039583
1.5869011 -0.17487857 3.4885907 2697513
1.6158472 -0.17479791 3.4634984 2368548
1.899943 -0.19013716 3.4507477 2039583
1.9049392 -0.17091022 3.4565907 2039583
1.5870314 -0.12562822 3.4890485 2631720
1.6158999 -0.12485379 3.4640324 2368548
1.9042796 -0.1245649 3.4560201 2039583
1.5873318 -0.075056359 3.4893754 2697513
1.6160927 -0.074633986 3.4644461 2368548
1.9045917 -0.074464448 3.4565861 2039583
1.5874699 -0.024578104 3.4898398 2697513
1.6164129 -0.024244929 3.4647522 2368548
1.9049037 -0.024347724 3.4571519 2039583
1.5885619 0.024346229 3.4894612 2697513
1.6174935 0.024399748 3.4643812 2368548
1.9052068 0.024352888 3.4577026 2039583
0.18925783 0.085238747 3.4872468 10197915
0.22510865 0.085139953 3.4832048 10197915
0.27516961 0.085002005 3.477561 10197915
0.32506698 0.084864497 3.471935 10197915
0.37480476 0.084727421 3.4663274 10197915
0.42438063 0.084590808 3.4607382 10197915
0.47520721 0.084450729 3.4550078 10197915
0.51041049 0.08435373 3.4510388 4342338
0.8795709 0.082596086 3.4976974 2039583
0.92596477 0.082469374 3.4923315 2039583
0.97501791 0.08233539 3.4866579 2039583
1.0239105 0.082201861 3.481003 2039583
1.0740359 0.082064956 3.4752052 2039583
1.1239942 0.081928492 3.4694262 2039583
1.1737869 0.081792496 3.4636679 2039583
1.2247897 0.081653185 3.4577682 2039583
1.2715081 0.081525594 3.4523649 2039583
1.5888476 0.065058261 3.4896855 2697513
1.6176478 0.064592689 3.4647121 5000268
1.9150199 0.069856532 3.4609981 7368816
1.9742323 0.078854896 3.4606969 10197915
2.0251682 0.07871709 3.454649 10197915
2.0572536 0.078630283 3.4508393 10197915
2.4392946 0.076816827 3.4984694 10197915
2.4753103 0.076720364 3.4940765 10197915
2.524524 0.076588564 3.4880733 10197915
2.5748932 0.076453649 3.4819295 10197915
2.6250851 0.076319218 3.4758067 10197915
2.6751006 0.076185249 3.4697056 10197915
2.7249415 0.076051764 3.4636261 8224125
2.7511113 0.075981706 3.4604356 8158332
1.4983329 -1.5689113 3.5492098 2039583
1.5220677 -1.5643687 3.528687 2039583
1.552544 -1.5583483 3.5023367 2039583
1.4984902 -1.5249594 3.5495834 2039583
1.5252581 -1.5249844 3.5263784 2039583
1.5530062 -1.5229951 3.5023463 2039583
1.4986215 -1.4883267 3.5498936 2039583
1.5253364 -1.4750013 3.5268884 2039583
1.5538603 -1.4750657 3.5021615 2039583
1.525612 -1.4250069 3.5272291 2039583
1.5540875 -1.4249426 3.5025456 2039583
1.5248986 -1.3750808 3.5284297 2039583
1.5533668 -1.3743697 3.503756 2039583
1.5248352 -1.3249151 3.529062 2039583
1.5533632 -1.3251159 3.5043297 2039583
1.5251964 -1.2750883 3.5293274 2039583
1.5545694 -1.2748034 3.5038674 2039583
1.526334 -1.2250178 3.5289223 2039583
1.5548528 -1.2249905 3.5042002 2039583
1.526502 -1.1749858 3.5293565 2039583
1.5550632 -1.1749005 3.5045974 2039583
1.5266684 -1.1250077 3.5297925 2039583
1.5551504 -1.1250888 3.5051003 2039583
1.5268663 -1.0750166 3.5301983 2039583
1.5560158 -1.0738775 3.5049429 2039583
1.5277692 -1.0252521 3.5299942 2039583
1.5566297 -1.0249205 3.5049789 2039583
1.5283805 -0.97492075 3.5300462 2039583
1.5568856 -0.97494036 3.5053351 2039583
1.528463 -0.92488933 3.5305545 2039583
1.5569397 -0.92494929 3.505868 2039583
1.5286156 -0.87498367 3.5310044 2039583
1.557412 -0.87422454 3.5060465 2039583
1.5286009 -0.8256216 3.531585 2039583
1.5578268 -0.82416433 3.5062673 2039583
1.5290718 -0.77494866 3.5317659 2039583
1.5576063 -0.77514136 3.5070274 2039583
1.5291905 -0.72490185 3.5322433 2039583
1.557731 -0.7251032 3.5074997 2039583
1.5293465 -0.67499644 3.532686 2039583
1.5578563 -0.6750505 3.507971 2039583
1.5296 -0.62500232 3.5330479 2039583
1.5590295 -0.62470269 3.5075388 2039583
1.5307323 -0.57506835 3.5326421 2039583
1.5593776 -0.5750047 3.507812 2039583
1.5310465 -0.52489018 3.532953 2039583
1.5596179 -0.52501321 3.5081835 2039583
1.5311993 -0.47477669 3.533401 2039583
1.559654 -0.47516468 3.5087311 2039583
1.5313296 -0.42481095 3.5338676 2039583
1.5603915 -0.42449608 3.5086772 2039583
1.5320656 -0.37526673 3.5338066 2039583
1.5611476 -0.3748762 3.5085988 2039583
1.5327716 -0.32500446 3.5337751 2039583
1.561443 -0.32462874 3.5089245 2039583
1.5328587 -0.27515054 3.5342767 2039583
1.561368 -0.27454603 3.5095696 2039583
1.5322313 -0.22465591 3.5354068 2039583
1.5608989 -0.22503358 3.510551 2039583
1.5324371 -0.17457557 3.5358093 2039583
1.5617298 -0.17559181 3.5104034 2039583
1.5335108 -0.12449885 3.5354578 2039583
1.5621898 -0.12472858 3.5105946 2039583
1.5336932 -0.074707948 3.5358787 2039583
1.5622448 -0.074185148 3.5111334 2039583
1.5338744 -0.024905287 3.5362985 2039583
1.5624288 -0.024730969 3.5115483 2039583
1.5340567 0.024909222 3.5367188 2039583
1.5635458 0.024927819 3.5111527 2039583
0.43812045 0.083801836 3.5487573 10197915
0.47431025 0.083702989 3.5445709 10197915
0.52483928 0.083564967 3.538727 5197647
0.57520348 0.083427414 3.5329013 2039583
0.62540054 0.083290301 3.5270956 2039583
0.67543459 0.083153665 3.5213084 2039583
0.72530293 0.083017439 3.5155401 2039583
0.77500987 0.082881682 3.5097916 2039583
0.82455301 0.082746357 3.504061 2039583
0.85420853 0.082665361 3.5006306 2039583
1.2348783 0.080855273 3.5484874 2039583
1.2743505 0.080748491 3.5438004 2039583
1.3249537 0.080611579 3.5377924 2039583
1.3753858 0.080475122 3.5318041 2039583
1.4256473 0.080339164 3.5258365 2039583
1.4757392 0.080203623 3.5198884 2039583
1.5337156 0.065964945 3.534101 2039583
1.5638955 0.065249264 3.5110698 2039583
2.0342591 0.077901661 3.5478761 10197915
2.0754097 0.077791445 3.5428567 10197915
2.1246412 0.077659585 3.5368509 10197915
2.1750667 0.077524528 3.5307002 10197915
2.225318 0.077389926 3.52457 10197915
2.2753942 0.077255815 3.5184624 10197915
2.3252983 0.077122152 3.5123749 10197915
2.3750286 0.076988958 3.506309 10197915
2.4138925 0.076884873 3.5015686 10197915
2.8173349 0.074991703 3.549283 2039583
1.4440356 -1.6049281 3.5958624 2039583
1.454698 -1.6023017 3.5866499 2039583
1.4448754 -1.5752133 3.5954792 2039583
1.4723359 -1.5733569 3.5716963 2039583
1.4450318 -1.525123 3.5959244 2039583
1.4735328 -1.5249571 3.5712185 2039583
1.4452215 -1.4750202 3.5963407 2039583
1.474339 -1.4746917 3.5711017 2039583
1.4454111 -1.4249064 3.5967574 2039583
1.4750251 -1.4250398 3.5710828 2039583
1.446272 -1.3766161 3.5965705 2039583
1.4752073 -1.3750315 3.571506 2039583
1.4468466 -1.3246624 3.5966749 2039583
1.4753784 -1.3250753 3.5719354 2039583
1.4469754 -1.2746429 3.5971432 2039583
1.4754976 -1.2750422 3.5724108 2039583
1.5016177 -1.2530639 3.5500236 2039583
1.4471909 -1.2251191 3.5975299 2039583
1.4757695 -1.224934 3.5727561 2039583
1.5017178 -1.2252011 3.5502603 2039583
1.447546 -1.1768435 3.5977819 2039583
1.4759252 -1.1749423 3.5732028 2039583
1.5018969 -1.1753328 3.5506835 2039583
1.4486418 -1.1252307 3.5974309 2039583
1.4760225 -1.1249942 3.5736969 2039583
1.5019604 -1.1241807 3.5512209 2039583
1.4487804 -1.075417 3.5978873 2039583
1.4750743 -1.0748013 3.5751004 2039583
1.5011765 -1.0758429 3.5524609 2039583
1.4478856 -1.0244046 3.5992551 2039583
1.4742491 -1.0249196 3.5763936 2039583
1.5022053 -1.0238019 3.5521722 2039583
1.4480605 -0.9738239 3.5996897 2039583
1.4744691 -0.97504699 3.576781 2039583
1.5026118 -0.97574127 3.5523763 2039583
1.4481685 -0.94257724 3.5999584 2039583
1.4745505 -0.92496818 3.577291 2039583
1.502791 -0.9258135 3.5528004 2039583
1.474817 -0.87487668 3.5776415 2039583
1.5029702 -0.87587404 3.5532234 2039583
1.4749352 -0.82496709 3.5781164 2039583
1.5035398 -0.82427257 3.553328 2039583
1.4751512 -0.7749818 3.5785093 2039583
1.504406 -0.77575576 3.5531394 2039583
1.4756312 -0.72520101 3.5786719 2039583
1.5045853 -0.72579354 3.5535638 2039583
1.4765447 -0.67494243 3.5784624 2039583
1.5047646 -0.6758194 3.5539875 2039583
1.4767854 -0.62488127 3.5788331 2039583
1.5049442 -0.62583333 3.5544112 2039583
1.4769768 -0.57487589 3.5792451 2039583
1.5061504 -0.57541168 3.5539508 2039583
1.4770555 -0.52499467 3.5797572 2039583
1.5063058 -0.52538884 3.5543947 2039583
1.4770471 -0.47504109 3.5803447 2039583
1.5055351 -0.47556409 3.5556395 2039583
1.4774555 -0.42469287 3.580574 2039583
1.5056605 -0.42576972 3.5561099 2039583
1.477638 -0.37474629 3.5809929 2039583
1.5064552 -0.37471509 3.5560124 2039583
1.477879 -0.32493997 3.5813632 2039583
1.507097 -0.32558092 3.556026 2039583
1.4782275 -0.27524927 3.5816352 2039583
1.5072767 -0.27552438 3.5564499 2039583
1.4791352 -0.22489528 3.5814338 2039583
1.5074565 -0.22545579 3.5568748 2039583
1.4793785 -0.17501658 3.5818009 2039583
1.5077806 -0.17500478 3.5571797 2039583
1.4798726 -0.12553106 3.5819457 2039583
1.5088929 -0.12525007 3.5567908 2039583
1.4797436 -0.075695865 3.5826356 2039583
1.5090728 -0.07515882 3.5572166 2039583
1.4808818 -0.025374059 3.5822322 2039583
1.5092533 -0.025055595 3.5576394 2039583
1.4811959 0.025232006 3.5825474 2039583
1.5094335 0.025059579 3.5580654 2039583
0.19118263 0.084476292 3.5773182 10197915
0.22501609 0.084383875 3.573405 10197915
0.27637148 0.084243618 3.5674658 10197915
0.32609549 0.084107809 3.5617144 10197915
0.37565947 0.083972432 3.5559812 10197915
0.41345862 0.083869204 3.5516098 10197915
0.82558137 0.08196266 3.5970871 2039583
0.87482321 0.081829421 3.5912395 2039583
0.925349 0.081692725 3.5852406 2039583
0.97426897 0.081560373 3.5794315 2039583
1.0244615 0.081424564 3.5734723 2039583
1.074489 0.081289232 3.5675323 2039583
1.1243486 0.081154317 3.5616117 2039583
1.1754616 0.081016034 3.5555429 2039583
1.2108603 0.080920272 3.5513396 2039583
1.481337 0.065311506 3.5828881 2039583
1.5101477 0.06528876 3.5579131 2039583
1.9819609 0.078041732 3.5542548 10197915
2.0095124 0.077967934 3.5508945 10197915
2.4309969 0.076015353 3.5977311 10197915
2.474895 0.075899035 3.5922265 10197915
2.5254912 0.075764962 3.5858808 9474192
2.574548 0.075634986 3.5797293 7895160
2.6247914 0.075501859 3.5734282 6118749
2.6748605 0.075369194 3.5671496 4276545
2.7247512 0.075236998 3.5608931 2565927
2.7758095 0.075101711 3.5544896 2039583
2.806632 0.075020045 3.5506246 2039583
1.3907061 -1.6147548 3.6419795 2039583
1.417325 -1.6096331 3.6189644 2039583
1.3911495 -1.5750548 3.6420569 2039583
1.4203833 -1.5750922 3.6167138 2039583
1.3913156 -1.5250703 3.6424921 2039583
1.4206048 -1.5249966 3.6170993 2039583
1.3915673 -1.4750665 3.6428528 2039583
1.4208127 -1.4750569 3.6175008 2039583
1.3927534 -1.4249152 3.6424055 2039583
1.4208933 -1.4251039 3.6180112 2039583
1.3930172 -1.3750678 3.6427553 2039583
1.4218364 -1.3747152 3.6177769 2039583
1.3930464 -1.3252065 3.6433082 2039583
1.4223547 -1.3249742 3.617903 2039583
1.3922046 -1.274887 3.6446209 2039583
1.4215196 -1.2750309 3.619206 2039583
1.3928515 -1.2260259 3.6446254 2039583
1.4215827 -1.2249472 3.6197309 2039583
1.3936541 -1.1749961 3.644522 2039583
1.4220349 -1.1746821 3.6199243 2039583
1.3937932 -1.1250026 3.6449814 2039583
1.4230592 -1.125023 3.6196103 2039583
1.3939322 -1.0749962 3.6454401 2039583
1.4232413 -1.0750936 3.6200309 2039583
1.3942081 -1.0249804 3.6457798 2039583
1.423475 -1.0250833 3.6204078 2039583
1.3953598 -0.97483039 3.6453638 2039583
1.4235749 -0.97498804 3.6209028 2039583
1.3956625 -0.92511785 3.6456776 2039583
1.4245211 -0.9246769 3.6206672 2039583
1.3957102 -0.8749882 3.6462173 2039583
1.4250926 -0.87500596 3.6207449 2039583
1.395979 -0.82525092 3.6465611 2039583
1.4252017 -0.82505655 3.6212304 2039583
1.3965421 -0.77683234 3.6466348 2039583
1.4254756 -0.7750957 3.6215727 2039583
1.3973955 -0.72513509 3.6464942 2039583
1.4254895 -0.72505492 3.6221387 2039583
1.4511896 -0.70844299 3.6000531 2039583
1.3975614 -0.67536211 3.6469278 2039583
1.425694 -0.67500162 3.6225426 2039583
1.451303 -0.67568326 3.6003346 2039583
1.3972237 -0.62737942 3.6477766 2039583
1.4253603 -0.62475544 3.6234164 2039583
1.4514784 -0.62504524 3.6007698 2039583
1.3967955 -0.57519913 3.6487522 2039583
1.4249107 -0.57501847 3.6243784 2039583
1.4516538 -0.57439482 3.6012051 2039583
1.3979348 -0.52582103 3.6483371 2039583
1.4252278 -0.5249421 3.6246881 2039583
1.4518242 -0.52522266 3.6016271 2039583
1.3982315 -0.47464249 3.6486728 2039583
1.4251585 -0.47492102 3.6253262 2039583
1.4530002 -0.47390616 3.601203 2039583
1.3983978 -0.42481002 3.6491067 2039583
1.425251 -0.42521623 3.6258254 2039583
1.4529334 -0.42323378 3.6018476 2039583
1.398564 -0.37496585 3.6495404 2039583
1.4244733 -0.37504882 3.6270785 2039583
1.4523447 -0.37465394 3.6029215 2039583
1.3986897 -0.33719751 3.6498692 2039583
1.4247341 -0.32494903 3.6274347 2039583
1.4524747 -0.32442364 3.6033921 2039583
1.4248846 -0.27491248 3.6278822 2039583
1.4532175 -0.27351251 3.6033375 2039583
1.4247732 -0.22499633 3.6285543 2039583
1.4539671 -0.22540954 3.6032455 2039583
1.4255065 -0.17521608 3.6285002 2039583
1.4541428 -0.17467605 3.6036813 2039583
1.4253079 -0.12479472 3.6292551 2039583
1.4542682 -0.124288 3.6041567 2039583
1.4265286 -0.075234726 3.6287696 2039583
1.4545393 -0.075054683 3.6044919 2039583
1.4267718 -0.025559122 3.6291375 2039583
1.4556607 -0.024843721 3.6041028 2039583
1.4269439 0.025563277 3.6295803 2039583
1.4559419 0.025386211 3.6044412 2039583
0.39000654 0.083141118 3.6488059 10197915
0.42429453 0.083048366 3.6447353 10197915
0.47485015 0.082911558 3.638731 10197915
0.52523947 0.082775243 3.6327491 7303023
0.57546347 0.082639351 3.626785 2039583
0.62552267 0.082503907 3.6208413 2039583
0.67541832 0.082368925 3.6149173 2039583
0.72515064 0.082234368 3.6090114 2039583
0.77472103 0.082100257 3.6031256 2039583
0.80090541 0.082029417 3.6000168 2039583
1.199056 0.080138676 3.6497567 2039583
1.2251943 0.080068648 3.6465676 2039583
1.2744555 0.079936698 3.6405578 2039583
1.3249955 0.079801343 3.6343935 2039583
1.3753663 0.079666421 3.6282487 2039583
1.427021 0.066019945 3.6290698 2039583
1.4560814 0.065710656 3.6047876 2039583
2.0325563 0.077071071 3.6476972 10197915
2.074867 0.076958954 3.6423919 10197915
2.1240759 0.076828569 3.6362207 10197915
2.1745188 0.076694913 3.6298947 10197915
2.2247858 0.076561727 3.6235912 10197915
2.2748787 0.076428995 3.6173091 10197915
2.3247988 0.076296732 3.6110487 10197915
2.3745461 0.076164924 3.6048105 10197915
2.406245 0.076080926 3.6008346 10197915
2.8404152 0.074071527 3.6488233 2039583
2.8733404 0.073985294 3.6445754 2039583
1.3281045 -1.6514822 3.6958232 2039583
1.3368496 -1.6244789 3.6885557 2039583
1.3650837 -1.6197606 3.6641355 2039583
1.3372824 -1.5750525 3.6887538 2039583
1.3660969 -1.5751096 3.6637731 2039583
1.3373139 -1.5249431 3.6893065 2039583
1.3661966 -1.5250925 3.6642668 2039583
1.3375381 -1.475089 3.6896901 2039583
1.3665169 -1.4749606 3.6645689 2039583
1.3388935 -1.4250499 3.6890957 2039583
1.3676552 -1.424994 3.6641636 2039583
1.3389907 -1.3749259 3.6895926 2039583
1.3678918 -1.3750657 3.6645353 2039583
1.3391784 -1.3249516 3.6900091 2039583
1.3680373 -1.3250196 3.6649904 2039583
1.3393176 -1.2751122 3.6904681 2039583
1.3682009 -1.2749684 3.6654289 2039583
1.3399972 -1.2258302 3.690448 2039583
1.3689796 -1.2245293 3.6653392 2039583
1.3396059 -1.1748664 3.6913781 2039583
1.3685514 -1.1750975 3.6662829 2039583
1.3398285 -1.1247305 3.6917663 2039583
1.368674 -1.1250151 3.6667562 2039583
1.3399969 -1.0749536 3.6921971 2039583
1.3688627 -1.0749267 3.6671736 2039583
1.340121 -1.0249835 3.6926689 2039583
1.3691159 -1.0250013 3.667532 2039583
1.3413039 -0.9752059 3.6922212 2039583
1.3702655 -0.9750846 3.667115 2039583
1.3416667 -0.92507368 3.6924877 2039583
1.3704991 -0.92506063 3.6674919 2039583
1.3417264 -0.87491673 3.6930163 2039583
1.3706509 -0.87510806 3.6679389 2039583
1.3419065 -0.82496262 3.6934402 2039583
1.370868 -0.82506198 3.6683316 2039583
1.3425292 -0.77573597 3.693471 2039583
1.3715717 -0.77474397 3.6683056 2039583
1.3433518 -0.72500265 3.6933455 2039583
1.3722916 -0.7250613 3.6682575 2039583
1.3435367 -0.67510056 3.6937633 2039583
1.3723972 -0.67499262 3.6687462 2039583
1.3438278 -0.62494075 3.6940935 2039583
1.3726705 -0.62498999 3.6690879 2039583
1.343832 -0.57525748 3.6946654 2039583
1.3727398 -0.57489598 3.6696086 2039583
1.3448439 -0.52601522 3.6943598 2039583
1.3741636 -0.52494448 3.6689553 2039583
1.3447102 -0.47612524 3.6950541 2039583
1.3733515 -0.47477928 3.670239 2039583
1.3443735 -0.42566752 3.69593 2039583
1.3733634 -0.42503002 3.6708062 2039583
1.3445357 -0.37518373 3.6963751 2039583
1.373461 -0.37502611 3.6713021 2039583
1.3448077 -0.32537094 3.6967168 2039583
1.3740821 -0.32464796 3.6713488 2039583
1.3460197 -0.27563515 3.696243 2039583
1.3750167 -0.27494153 3.6711128 2039583
1.3461816 -0.22512904 3.6966882 2039583
1.3750348 -0.22512405 3.6716743 2039583
1.3463436 -0.17461084 3.6971333 2039583
1.3752483 -0.17487983 3.6720726 2039583
1.346501 -0.12561177 3.6975648 2039583
1.3755475 -0.12497412 3.67239 2039583
1.3472228 -0.077676125 3.6974945 2039583
1.3753527 -0.074760564 3.6731431 2039583
1.4018376 -0.074098878 3.6501911 2039583
1.3479902 -0.024508441 3.6974454 2039583
1.3758776 -0.024565695 3.6732697 2039583
1.4019994 -0.025710357 3.6506114 2039583
1.3481475 0.024512256 3.6978774 2039583
1.3760377 0.024569536 3.6736999 2039583
1.402171 0.025714556 3.6510587 2039583
0.19472128 0.083669454 3.6719933 10197915
0.22492072 0.083587758 3.6684074 10197915
0.27462998 0.083453268 3.6625056 10197915
0.32567945 0.083315164 3.6564438 10197915
0.36610299 0.083205774 3.6516438 10197915
0.79384863 0.081223935 3.6991823 2039583
0.82517177 0.081140049 3.6953621 2039583
0.87575895 0.081004538 3.6891911 2039583
0.92617768 0.080869526 3.6830418 2039583
0.97495377 0.080738872 3.6770918 2039583
1.0235708 0.080608658 3.6711609 2039583
1.0749632 0.080471016 3.664892 2039583
1.1261822 0.080333836 3.6586447 2039583
1.1743149 0.080204919 3.6527731 2039583
1.3482757 0.064349726 3.6982281 2039583
1.3747501 0.064030051 3.6752732 2039583
1.4012361 0.065776467 3.652334 2039583
2.4462438 0.075103976 3.6996822 6118749
2.4744532 0.075030081 3.6960423 5263440
2.5251052 0.074897423 3.6895075 3618615
2.5755768 0.074765205 3.6829939 2039583
2.6258719 0.074633479 3.6765051 2039583
2.6759894 0.0745022 3.6700385 2039583
2.7259312 0.07437139 3.663595 2039583
2.7756979 0.07424105 3.6571736 2039583
2.8156655 0.074136347 3.6520164 2039583
1.2808247 -1.660895 3.736702 2039583
1.3106756 -1.6552571 3.7108891 2039583
1.2830449 -1.6252331 3.7351904 2039583
1.3124406 -1.6252395 3.709707 2039583
1.2842635 -1.5750017 3.7347164 2039583
1.3126695 -1.5750206 3.7100904 2039583
1.2844067 -1.5250082 3.735172 2039583
1.3127918 -1.5249407 3.7105656 2039583
1.2841215 -1.4755565 3.7359927 2039583
1.3125845 -1.4742987 3.7113318 2039583
1.2835093 -1.425217 3.7371056 2039583
1.3131192 -1.4249756 3.7114406 2039583
1.2842637 -1.3755575 3.7370272 2039583
1.3133111 -1.3751682 3.7118511 2039583
1.2849911 -1.3249887 3.7369828 2039583
1.3133959 -1.3250899 3.7123575 2039583
1.2851076 -1.275082 3.737462 2039583
1.3135773 -1.275004 3.7127814 2039583
1.2852795 -1.2250361 3.7378924 2039583
1.31434 -1.2244833 3.7127063 2039583
1.2855129 -1.1749789 3.7382698 2039583
1.315093 -1.1749918 3.7126267 2039583
1.2866678 -1.125183 3.7378466 2039583
1.3151823 -1.1251949 3.7131264 2039583
1.2869285 -1.0750664 3.7382004 2039583
1.3154063 -1.0750363 3.7135129 2039583
1.2871087 -1.0250676 3.7386231 2039583
1.3155543 -1.0248618 3.7139688 2039583
1.2873563 -0.97491866 3.7389915 2039583
1.3167892 -0.97492212 3.7134748 2039583
1.2876788 -0.92530155 3.7392864 2039583
1.3170491 -0.92513502 3.7138271 2039583
1.2887597 -0.87502575 3.7389328 2039583
1.3171604 -0.87501812 3.7143128 2039583
1.2889273 -0.82524538 3.7393632 2039583
1.3173594 -0.82499486 3.7147183 2039583
1.289081 -0.77514327 3.7398124 2039583
1.3179933 -0.77461582 3.7147541 2039583
1.2890935 -0.72516906 3.7403805 2039583
1.3187253 -0.72484219 3.7146971 2039583
1.2888463 -0.67575395 3.7411683 2039583
1.3177582 -0.67498058 3.7161133 2039583
1.289489 -0.62500316 3.7411988 2039583
1.3179747 -0.62492549 3.7165067 2039583
1.2896887 -0.57489377 3.7416067 2039583
1.3182039 -0.57495624 3.7168853 2039583
1.2899072 -0.52477485 3.7419984 2039583
1.3191681 -0.52475917 3.7166312 2039583
1.2900524 -0.47464216 3.7424531 2039583
1.31961 -0.4751693 3.7168238 2039583
1.2912514 -0.42497745 3.7419901 2039583
1.319869 -0.42504326 3.7171807 2039583
1.2914897 -0.37520003 3.7423608 2039583
1.3197976 -0.3749024 3.717823 2039583
1.291642 -0.32562527 3.7428021 2039583
1.3202448 -0.32477388 3.7180176 2039583
1.2917318 -0.27580917 3.7433023 2039583
1.321646 -0.27483103 3.7173808 2039583
1.2922089 -0.22617349 3.7434652 2039583
1.3216314 -0.22497514 3.7179706 2039583
1.2934107 -0.1744749 3.7430217 2039583
1.3215884 -0.17544244 3.7185838 2039583
1.2934574 -0.12407271 3.7435663 2039583
1.3217195 -0.12512952 3.719053 2039583
1.2936107 -0.074452214 3.7440081 2039583
1.3230505 -0.074157536 3.7184911 2039583
1.2937638 -0.024820013 3.7444515 2039583
1.3233677 -0.024649914 3.718791 2039583
1.2946866 0.023814157 3.7442153 2039583
1.3235226 0.024653764 3.7192276 2039583
0.38825428 0.082310259 3.7486567 10197915
0.42501307 0.082211815 3.7441735 10197915
0.47541866 0.08207681 3.738025 10197915
0.52566069 0.081942245 3.7318964 9671571
0.5757367 0.081808135 3.7257886 2039583
0.62565047 0.081674434 3.7196989 2039583
0.67539996 0.081541188 3.7136312 2039583
0.72498888 0.081408374 3.7075825 2039583
0.76843524 0.081292003 3.7022824 2039583
1.2343671 0.07918603 3.7477958 2039583
1.2890918 0.067676865 3.7440736 2039583
1.3230437 0.064849615 3.720108 2039583
2.0844326 0.076051645 3.7463648 10197915
2.1249197 0.075945608 3.7411416 10197915
2.175374 0.07581345 3.7346323 10197915
2.2256539 0.075681753 3.7281442 10197915
2.2743299 0.075554267 3.7218642 10197915
2.324266 0.075423464 3.715421 10197915
2.3754492 0.075289398 3.708817 8224125
2.4222102 0.075166926 3.7027831 6776679
2.8972769 0.073014483 3.7498057 2039583
2.9240122 0.072945304 3.7462523 2039583
2.9619341 0.072847202 3.7412143 2039583
1.2278354 -1.6715109 3.7825134 2039583
1.2573668 -1.6653743 3.7569849 2039583
1.2297599 -1.624913 3.7813854 2039583
1.2579083 -1.6241829 3.7569928 2039583
1.2299163 -1.5749699 3.7818289 2039583
1.2590874 -1.5747575 3.7565434 2039583
1.2300894 -1.5250157 3.7822587 2039583
1.2591951 -1.5249147 3.7570283 2039583
1.2302464 -1.4750501 3.7827022 2039583
1.2593883 -1.4748405 3.7574413 2039583
1.2314653 -1.4251831 3.7822239 2039583
1.2594963 -1.4247516 3.7579284 2039583
1.2313291 -1.3754258 3.7829194 2039583
1.2599539 -1.3733847 3.7581282 2039583
1.2306226 -1.3250234 3.7841148 2039583
1.2597272 -1.3248618 3.7588863 2039583
1.2308111 -1.2749047 3.7845321 2039583
1.2599437 -1.2750075 3.7592764 2039583
1.2313348 -1.2252496 3.7846541 2039583
1.2601107 -1.2251427 3.7597101 2039583
1.2322903 -1.1749743 3.7844074 2039583
1.2601945 -1.1750925 3.7602172 2039583
1.232438 -1.1249381 3.7848599 2039583
1.2615554 -1.124871 3.7596183 2039583
1.2326561 -1.0750015 3.7852502 2039583
1.2617882 -1.0749888 3.7599969 2039583
1.2327471 -1.0251662 3.7857482 2039583
1.2618642 -1.0249531 3.7605109 2039583
1.2335441 -0.97562963 3.7856331 2039583
1.262105 -0.97490519 3.7608821 2039583
1.2342523 -0.92506945 3.7856059 2039583
1.2625912 -0.92441922 3.7610445 2039583
1.2343997 -0.87498748 3.7860563 2039583
1.2635311 -0.87491131 3.7608042 2039583
1.2345822 -0.8250137 3.786479 2039583
1.2637779 -0.82487011 3.7611709 2039583
1.2346941 -0.77502829 3.7869618 2039583
1.2638466 -0.77481562 3.7616916 2039583
1.2359582 -0.7253195 3.7864406 2039583
1.2640108 -0.72488999 3.7621272 2039583
1.236285 -0.67524678 3.7867377 2039583
1.2649362 -0.67441899 3.7619126 2039583
1.2363608 -0.62524921 3.7872515 2039583
1.2655169 -0.62497288 3.761981 2039583
1.2364386 -0.57522935 3.7877648 2039583
1.2655934 -0.57492048 3.7624938 2039583
1.2355348 -0.52527952 3.7891278 2039583
1.2646315 -0.5250175 3.7639067 2039583
1.2368096 -0.47495088 3.7886066 2039583
1.2647589 -0.47505572 3.764375 2039583
1.2369344 -0.42493123 3.7890775 2039583
1.266072 -0.4250192 3.7638183 2039583
1.237105 -0.37490112 3.7895095 2039583
1.2663515 -0.37494054 3.7641554 2039583
1.237252 -0.32501543 3.7899606 2039583
1.2664763 -0.32474345 3.7646301 2039583
1.2380055 -0.27601486 3.7898765 2039583
1.2666383 -0.27464581 3.7650697 2039583
1.2388914 -0.22575051 3.78969 2039583
1.2671156 -0.22425109 3.7652402 2039583
1.2389181 -0.17586786 3.790246 2039583
1.2680746 -0.17469564 3.7649829 2039583
1.2390666 -0.12563483 3.7906995 2039583
1.2682254 -0.12479736 3.7654305 2039583
1.2392149 -0.075389706 3.7911534 2039583
1.2683761 -0.074887119 3.7658789 2039583
1.2402532 -0.025699899 3.7908287 2039583
1.2685268 -0.02496502 3.7663264 2039583
1.2407376 0.025129547 3.7909985 2039583
1.2695234 0.025304569 3.7660463 2039583
0.19689935 0.082822777 3.7719986 10197915
0.22481805 0.082747996 3.7685928 10197915
0.27433872 0.082615376 3.7625527 10197915
0.32524008 0.082479045 3.7563434 10197915
0.36369631 0.082376026 3.7516522 10197915
0.83393687 0.080247007 3.7980113 2039583
0.87522089 0.080137633 3.7928345 2039583
0.92553329 0.080004297 3.7865248 2039583
0.97567701 0.079871461 3.7802367 2039583
1.025656 0.079739012 3.7739689 2039583
1.0754679 0.07960704 3.7677221 2039583
1.1251171 0.0794755 3.7614968 2039583
1.1746002 0.079344362 3.75529 2039583
1.2384031 0.065541975 3.7882471 2039583
1.2700005 0.063970089 3.7660818 2039583
2.5348253 0.073952161 3.797962 2039583
2.575232 0.073847629 3.7925935 2039583
2.6255841 0.073717356 3.785903 2039583
2.6757607 0.073587544 3.7792363 2039583
2.7257595 0.073458195 3.7725935 2039583
2.7755837 0.073329292 3.7659733 2039583
2.825233 0.073200852 3.7593775 2039583
2.8732989 0.073076494 3.7529902 2039583
1.1498892 -1.7112778 3.8496246 2039583
1.1692491 -1.7074239 3.8328865 2039583
1.2012577 -1.7009941 3.805213 2039583
1.1499592 -1.6858627 3.849859 2039583
1.175208 -1.6750894 3.8280952 2039583
1.2034956 -1.6734548 3.803592 2039583
1.1753227 -1.625035 3.8285744 2039583
1.2039498 -1.6247042 3.8037624 2039583
1.1754721 -1.5749676 3.8290274 2039583
1.2041132 -1.5748576 3.8041999 2039583
1.1755798 -1.5250553 3.8295133 2039583
1.2042371 -1.5250008 3.8046696 2039583
1.175828 -1.4750473 3.8298781 2039583
1.2043818 -1.474739 3.8051276 2039583
1.1766237 -1.4253253 3.8297637 2039583
1.2057613 -1.4248505 3.8045092 2039583
1.1773345 -1.37499 3.8297312 2039583
1.2059046 -1.3752067 3.8049622 2039583
1.1773832 -1.3249952 3.8302681 2039583
1.206017 -1.3252383 3.805443 2039583
1.1775447 -1.2749864 3.8307083 2039583
1.2061923 -1.2752551 3.8058708 2039583
1.177647 -1.2249647 3.8311999 2039583
1.2067764 -1.2239211 3.8059592 2039583
1.1789309 -1.1752396 3.8306632 2039583
1.2077303 -1.1748729 3.8057003 2039583
1.1792865 -1.1250876 3.8309362 2039583
1.2078618 -1.124818 3.8061666 2039583
1.1793624 -1.074988 3.8314514 2039583
1.2080454 -1.0747485 3.8065886 2039583
1.1796062 -1.0249689 3.8318195 2039583
1.208215 -1.0249318 3.8070209 2039583
1.1796252 -0.97502452 3.832382 2039583
1.2089849 -0.97423625 3.8069386 2039583
1.181038 -0.92497849 3.8317375 2039583
1.2096729 -0.9251141 3.8069129 2039583
1.1812533 -0.87517923 3.8321273 2039583
1.2097957 -0.8749755 3.8073869 2039583
1.1802007 -0.82534409 3.8336177 2039583
1.2088526 -0.824727 3.8087862 2039583
1.1802278 -0.7750594 3.8341782 2039583
1.2088771 -0.77507555 3.8093421 2039583
1.1808604 -0.72549731 3.8342042 2039583
1.2101432 -0.72465909 3.8088288 2039583
1.1817348 -0.67506337 3.8340299 2039583
1.2104436 -0.67489928 3.8091443 2039583
1.1818484 -0.62487406 3.8345139 2039583
1.2106062 -0.62482643 3.8095844 2039583
1.1820573 -0.57501781 3.8349113 2039583
1.2105588 -0.57491428 3.8102031 2039583
1.1821635 -0.52515113 3.8353965 2039583
1.2109624 -0.52469862 3.8104365 2039583
1.1829733 -0.4755013 3.8352695 2039583
1.2122042 -0.47509882 3.8099334 2039583
1.1838691 -0.42508671 3.8350782 2039583
1.2124114 -0.4252739 3.8103328 2039583
1.1839114 -0.37490031 3.8356235 2039583
1.2126181 -0.37543929 3.8107312 2039583
1.1837596 -0.32469285 3.8363376 2039583
1.2126377 -0.32526821 3.811296 2039583
1.1841568 -0.27509683 3.8365669 2039583
1.2134326 -0.2741344 3.8111994 2039583
1.1853926 -0.22569622 3.8360693 2039583
1.2140939 -0.22434342 3.8112037 2039583
1.1856604 -0.17483187 3.836427 2039583
1.2141645 -0.17454895 3.8117208 2039583
1.1856241 -0.12436902 3.8370426 2039583
1.2146689 -0.12549861 3.8118508 2039583
1.1861265 -0.07513123 3.8371789 2039583
1.2145944 -0.075814039 3.8124914 2039583
1.1860828 -0.025438713 3.8377926 2039583
1.2156875 -0.024866698 3.8121345 2039583
1.186963 0.024847601 3.8376126 2039583
1.2155559 0.025776146 3.8128352 2039583
0.43363819 0.081307657 3.8482108 10197915
0.47445297 0.081199512 3.8430924 10197915
0.52454287 0.081066787 3.8368108 10197915
0.57446939 0.080934502 3.8305502 4079166
0.62423313 0.080802649 3.8243089 2039583
0.67383516 0.080671214 3.8180888 2039583
0.72481763 0.080536142 3.8116958 2039583
0.77563119 0.080401488 3.8053229 2039583
0.80941778 0.080311969 3.8010864 2039583
1.1863437 0.065202177 3.8386164 2039583
1.2149955 0.064780198 3.8137736 2039583
2.146625 0.074956447 3.8495393 10197915
2.1748023 0.074883565 3.8457966 8618883
2.2251003 0.074753456 3.839114 7039851
2.2752235 0.074623771 3.832454 5723991
2.3251734 0.074494541 3.8258178 4079166
2.3749502 0.074365772 3.8192041 2105376
2.4245555 0.074237444 3.812613 2039583
2.47399 0.074109554 3.8060455 2039583
2.5087879 0.074019514 3.8014214 2039583
3.0280375 0.071716838 3.8468587 2039583
3.0539153 0.071650773 3.8433151 2039583
1.0959445 -1.7217613 3.8962684 2039583
1.1219602 -1.7165388 3.8737748 2039583
1.0961868 -1.6751418 3.8965976 2039583
1.1245476 -1.6749799 3.8720131 2039583
1.1500292 -1.6604443 3.8500931 2039583
1.0962085 -1.62475 3.8971648 2039583
1.1246387 -1.6249396 3.8725164 2039583
1.1501298 -1.6238996 3.8504293 2039583
1.0965689 -1.5758286 3.8974175 2039583
1.1247904 -1.5748852 3.8729646 2039583
1.1502652 -1.5746344 3.8508832 2039583
1.0977824 -1.5248336 3.8969576 2039583
1.1249076 -1.524907 3.8734403 2039583
1.1504008 -1.5253574 3.851337 2039583
1.0979968 -1.4749857 3.8973505 2039583
1.1249993 -1.4749135 3.873945 2039583
1.1505408 -1.474479 3.8518054 2039583
1.0980442 -1.4250767 3.8978877 2039583
1.1252369 -1.4249949 3.8743141 2039583
1.1516995 -1.4216751 3.8514128 2039583
1.0982589 -1.3752069 3.8982797 2039583
1.1252943 -1.3749759 3.8748453 2039583
1.1520801 -1.3754752 3.8516192 2039583
1.0985385 -1.3287581 3.8985746 2039583
1.1254371 -1.32495 3.8753023 2039583
1.1522201 -1.3245747 3.8520868 2039583
1.0997763 -1.2758045 3.8981171 2039583
1.1255628 -1.2749929 3.8757722 2039583
1.1523173 -1.2744431 3.8525844 2039583
1.0999117 -1.2242769 3.8985965 2039583
1.1257669 -1.2250249 3.8761744 2039583
1.152535 -1.2251378 3.8529668 2039583
1.0999879 -1.1952879 3.8988667 2039583
1.124734 -1.1748812 3.8776493 2039583
1.1537924 -1.1737093 3.8524735 2039583
1.124685 -1.1250211 3.8782716 2039583
1.1539824 -1.1247653 3.8528762 2039583
1.1254251 -1.0752461 3.878207 2039583
1.1542275 -1.0754293 3.8532364 2039583
1.1262704 -1.0249505 3.8780575 2039583
1.1543125 -1.0249919 3.8537464 2039583
1.1263521 -0.97500825 3.8785646 2039583
1.1545056 -0.97407526 3.8541691 2039583
1.1266606 -0.92496604 3.8788769 2039583
1.1559361 -0.92517191 3.8534961 2039583
1.1265434 -0.87500054 3.8795578 2039583
1.1559929 -0.87497902 3.8540289 2039583
1.1275568 -0.82539463 3.8792541 2039583
1.1560495 -0.82477158 3.8545613 2039583
1.1282248 -0.77499473 3.8792608 2039583
1.1563494 -0.77538246 3.8548737 2039583
1.1270839 -0.72501767 3.8808284 2039583
1.1557368 -0.72385454 3.8560019 2039583
1.1271492 -0.67506754 3.8813512 2039583
1.1564353 -0.67464584 3.8559687 2039583
1.1274396 -0.62501252 3.8816788 2039583
1.1567212 -0.62494177 3.8562963 2039583
1.1283796 -0.57517558 3.8814416 2039583
1.1568848 -0.57495421 3.8567348 2039583
1.1289297 -0.52494603 3.8815484 2039583
1.156849 -0.52467036 3.8573463 2039583
1.1291097 -0.47484338 3.8819726 2039583
1.1579865 -0.4742249 3.8569469 2039583
1.1290123 -0.42494151 3.8826344 2039583
1.1584984 -0.42505136 3.8570716 2039583
1.1293166 -0.37501997 3.8829505 2039583
1.1584983 -0.37463287 3.8576579 2039583
1.1306792 -0.32489648 3.8823495 2039583
1.1589155 -0.32515767 3.8578691 2039583
1.1308122 -0.27506825 3.8828118 2039583
1.1589133 -0.27494341 3.8584516 2039583
1.1311437 -0.22491434 3.883106 2039583
1.1599674 -0.22445731 3.858125 2039583
1.1308794 -0.17504714 3.8839142 2039583
1.1605753 -0.1754414 3.8581645 2039583
1.1315672 -0.12538879 3.8838925 2039583
1.1605951 -0.12469254 3.858737 2039583
1.1324404 -0.075257771 3.8837168 2039583
1.1607318 -0.075143971 3.859194 2039583
1.1329665 -0.025415258 3.8838382 2039583
1.1608692 -0.02558358 3.8596478 2039583
1.1331037 0.025419353 3.8843102 2039583
1.1622766 0.025580456 3.8590214 2039583
0.22471005 0.08186122 3.8744111 10197915
0.27561909 0.08172635 3.8680274 10197915
0.32477838 0.081596106 3.8618627 10197915
0.37377933 0.08146625 3.8557167 10197915
0.40846637 0.081374347 3.8513677 10197915
0.89820892 0.079158708 3.8994217 2039583
0.92641521 0.079084828 3.8957829 2039583
0.97644198 0.078953795 3.8893275 2039583
1.0263033 0.078823224 3.882895 2039583
1.0759997 0.078693025 3.8764813 2039583
1.1317776 0.065782212 3.8833139 2039583
1.1623815 0.065554611 3.8593683 2039583
2.1347411 0.074987203 3.8511188 10197915
2.6445165 0.072695941 3.8993771 2039583
2.6740425 0.072620571 3.8953342 2039583
2.7241082 0.072492741 3.8884776 2039583
2.7739985 0.072365381 3.8816462 2039583
2.8251717 0.072234727 3.8746381 2039583
2.8761628 0.072104566 3.867656 2039583
2.9255202 0.071978547 3.8608968 2039583
2.9747057 0.071852982 3.8541615 2039583
3.0021241 0.071782991 3.8504069 2039583
1.0416659 -1.7570189 3.9429133 2039583
1.0592893 -1.7535658 3.927676 2039583
1.042155 -1.7249531 3.9428599 2039583
1.0709249 -1.724609 3.9179244 2039583
1.04225 -1.6750586 3.943357 2039583
1.0713582 -1.674979 3.9181242 2039583
1.0424184 -1.624887 3.9437935 2039583
1.0714605 -1.6249548 3.9186151 2039583
1.0432725 -1.5759346 3.9436195 2039583
1.07174 -1.5747542 3.9189546 2039583
1.0439497 -1.5249667 3.9436233 2039583
1.0730679 -1.5249956 3.9183807 2039583
1.0441439 -1.474834 3.9440372 2039583
1.0731262 -1.4750352 3.91891 2039583
1.0442338 -1.4249984 3.9445379 2039583
1.0733346 -1.42507 3.9193082 2039583
1.0443931 -1.3748289 3.9449804 2039583
1.0734226 -1.3750873 3.919811 2039583
1.0453408 -1.3258823 3.9447265 2039583
1.0739803 -1.3246666 3.9199123 2039583
1.0459163 -1.2751467 3.9448152 2039583
1.0749428 -1.2749919 3.9196534 2039583
1.045009 -1.2260683 3.9461706 2039583
1.0739844 -1.2249001 3.9210665 2039583
1.0448016 -1.1751179 3.9469409 2039583
1.0738509 -1.1750063 3.9217601 2039583
1.045042 -1.1245821 3.9473176 2039583
1.0741669 -1.1249472 3.9220686 2039583
1.0460743 -1.0761037 3.9469864 2039583
1.0741435 -1.0749568 3.9226656 2039583
1.1003392 -1.0615606 3.9001124 2039583
1.0465639 -1.0253056 3.9471498 2039583
1.0743248 -1.0250462 3.9230874 2039583
1.1004367 -1.0244883 3.9004576 2039583
1.0466454 -0.97552878 3.9476559 2039583
1.0744715 -0.97511888 3.923538 2039583
1.1005681 -0.97451138 3.9009233 2039583
1.0468576 -0.92497635 3.9480584 2039583
1.0745994 -0.92509562 3.9240079 2039583
1.1006993 -0.92452234 3.9013884 2039583
1.0469393 -0.87517565 3.948565 2039583
1.0746202 -0.87497574 3.9245727 2039583
1.1008308 -0.87452155 3.9018548 2039583
1.0480732 -0.82851076 3.9481232 2039583
1.0749106 -0.82501626 3.9249001 2039583
1.101905 -0.82143515 3.9015381 2039583
1.0485191 -0.77534753 3.9483531 2039583
1.074913 -0.77512461 3.9254751 2039583
1.1024321 -0.77508622 3.9016185 2039583
1.0486459 -0.72472674 3.9488301 2039583
1.0750945 -0.72505772 3.9258966 2039583
1.1024804 -0.72502601 3.9021575 2039583
1.0487685 -0.67572713 3.9492922 2039583
1.0752239 -0.67497319 3.9263654 2039583
1.1026955 -0.67503095 3.9025502 2039583
1.0488912 -0.62671602 3.9497535 2039583
1.0754056 -0.62504935 3.9267862 2039583
1.1027436 -0.62494493 3.9030893 2039583
1.0753723 -0.57502818 3.9273937 2039583
1.1041006 -0.57358336 3.902508 2039583
1.075698 -0.52491242 3.9276953 2039583
1.1043453 -0.52549392 3.9028528 2039583
1.0757285 -0.47503537 3.9282463 2039583
1.1044773 -0.47542641 3.9033196 2039583
1.0758101 -0.42506322 3.9287536 2039583
1.1046091 -0.42534727 3.9037855 2039583
1.0760489 -0.37506154 3.9291282 2039583
1.1047409 -0.37525597 3.9042528 2039583
1.0775591 -0.32496339 3.9283969 2039583
1.106171 -0.32505924 3.903594 2039583
1.0775148 -0.27508581 3.9290147 2039583
1.1063031 -0.27495846 3.9040611 2039583
1.0774943 -0.22501065 3.929615 2039583
1.1064353 -0.22484575 3.9045269 2039583
1.0767943 -0.17484452 3.9308007 2039583
1.1052672 -0.17477143 3.9061203 2039583
1.0768393 -0.12564355 3.9313331 2039583
1.1056029 -0.12406936 3.9064174 2039583
1.0780387 -0.074911289 3.9308815 2039583
1.1068293 -0.074435726 3.9059308 2039583
1.0781684 -0.024430238 3.9313543 2039583
1.1069617 -0.024275126 3.9063959 2039583
1.0782939 0.024434023 3.931813 2039583
1.1070898 0.024278866 3.9068484 2039583
0.52818525 0.080127902 3.9471648 10197915
0.57472962 0.080005988 3.9411597 6579300
0.62592757 0.079871893 3.9345536 2039583
0.67536288 0.079742394 3.9281745 2039583
0.72463679 0.07961335 3.9218178 2039583
0.77533376 0.079480559 3.9152763 2039583
0.82586205 0.079348207 3.9087567 2039583
0.87308121 0.079224527 3.9026642 2039583
1.0783943 0.063533321 3.9321785 2039583
1.107192 0.063129865 3.9072087 2039583
2.2867906 0.073609203 3.9483643 2039583
2.3246238 0.073512599 3.9431825 2039583
2.3744206 0.073385477 3.9363637 2039583
2.4240441 0.073258802 3.9295685 2039583
2.4749928 0.073128723 3.9225907 2039583
2.5257616 0.07299912 3.9156396 2039583
2.5748653 0.072873756 3.908915 2039583
2.61936 0.072760157 3.902822 2039583
0.98624653 -1.7677207 3.9905484 2039583
1.0149952 -1.7621703 3.9656911 2039583
0.98737168 -1.7255542 3.9900637 2039583
1.0167536 -1.7250054 3.9645982 2039583
0.98836744 -1.6750059 3.9897845 2039583
1.0167543 -1.6749208 3.9651787 2039583
0.98854196 -1.6249912 3.9902146 2039583
1.0169299 -1.6248224 3.9656053 2039583
0.98871684 -1.5749665 3.9906409 2039583
1.017975 -1.5744615 3.9652972 2039583
0.98884529 -1.5249293 3.9911108 2039583
1.0185807 -1.5250002 3.9653542 2039583
0.98922455 -1.4756675 3.9913535 2039583
1.0186585 -1.4750676 3.9658628 2039583
0.99037737 -1.4252269 3.9909379 2039583
1.0187358 -1.4251263 3.9663758 2039583
0.99044544 -1.3750783 3.991461 2039583
1.0189083 -1.3750577 3.9668088 2039583
0.99066687 -1.3249218 3.9918499 2039583
1.0200267 -1.3246027 3.9664338 2039583
0.99068153 -1.2749898 3.9924169 2039583
1.0204825 -1.2749935 3.9666204 2039583
0.99138933 -1.2257065 3.992373 2039583
1.0206629 -1.2250732 3.9670424 2039583
0.99233341 -1.1748168 3.9921467 2039583
1.020726 -1.1750339 3.9675682 2039583
0.99243635 -1.1250589 3.9926329 2039583
1.0208006 -1.1250883 3.9680815 2039583
0.99258459 -1.0750121 3.9930863 2039583
1.0221027 -1.074788 3.9675496 2039583
0.99273348 -1.0249542 3.9935367 2039583
1.0225449 -1.0249231 3.9677494 2039583
0.99336576 -0.9758538 3.9935567 2039583
1.0225056 -0.9750039 3.9683526 2039583
0.99428874 -0.92480731 3.9933484 2039583
1.0226527 -0.92507046 3.9687929 2039583
0.99440622 -0.87527901 3.9938211 2039583
1.0228409 -0.87502766 3.9692111 2039583
0.99422443 -0.82624334 3.9945469 2039583
1.0239108 -0.82455999 3.9688814 2039583
0.99326098 -0.77517241 3.9959745 2039583
1.023039 -0.77497536 3.9702094 2039583
0.993954 -0.72656739 3.9959381 2039583
1.023185 -0.72507632 3.9706585 2039583
0.99494451 -0.67430818 3.9956844 2039583
1.0233858 -0.67507637 3.9710689 2039583
0.99500436 -0.62415457 3.9962142 2039583
1.0235023 -0.62497598 3.9715478 2039583
0.99512219 -0.57455504 3.9966872 2039583
1.0247616 -0.57500762 3.9710464 2039583
0.99524009 -0.52494377 3.9971604 2039583
1.0250139 -0.52493703 3.9714081 2039583
0.99585414 -0.47770843 3.9971759 2039583
1.0252572 -0.4747726 3.971782 2039583
0.99683845 -0.42556038 3.9969265 2039583
1.0251937 -0.42484981 3.9724147 2039583
0.99695659 -0.37592849 3.9973993 2039583
1.0253724 -0.37508845 3.972836 2039583
1.0522352 -0.35347247 3.9500217 2039583
0.99707448 -0.32628486 3.9978724 2039583
1.0256976 -0.32505742 3.973134 2039583
1.052305 -0.325674 3.9502835 2039583
0.99719644 -0.27497402 3.9983613 2039583
1.0257472 -0.27510503 3.9736714 2039583
1.0524321 -0.27497396 3.9507613 2039583
0.99780387 -0.22784275 3.9983816 2039583
1.0254849 -0.22530478 3.9744749 2039583
1.0525595 -0.22426179 3.9512389 2039583
0.99879903 -0.17391974 3.9981437 2039583
1.0247753 -0.17552489 3.975657 2039583
1.0516261 -0.17193985 3.9526544 2039583
0.99891722 -0.12424295 3.9986169 2039583
1.0249972 -0.12448099 3.9760537 2039583
1.051842 -0.12431636 3.9530191 2039583
0.99903554 -0.074554414 3.9990904 2039583
1.0247355 -0.074140035 3.9768646 2039583
1.0529319 -0.075325944 3.9526415 2039583
0.99915385 -0.024854084 3.9995642 2039583
1.0248556 -0.024715949 3.9773324 2039583
1.0530592 -0.024565479 3.9531212 2039583
0.99923676 0.0099427309 3.9998958 2039583
1.024976 0.024719819 3.9778008 2039583
1.0531826 0.024569307 3.953583 2039583
0.2278759 0.080914482 3.9859126 10197915
0.27533957 0.080790177 3.9797888 10197915
0.32428756 0.080661975 3.9734735 10197915
0.37470317 0.080529898 3.9669681 10197915
0.4249559 0.080398284 3.9604845 10197915
0.47504291 0.080267102 3.9540222 10197915
0.50405812 0.080191091 3.9502776 10197915
1.0250731 0.064276494 3.9781759 2039583
1.0532812 0.063885115 3.953953 2039583
2.1925194 0.073849849 3.9612722 2039583
2.2245123 0.073768184 3.9568913 2039583
2.262521 0.073671155 3.9516869 2039583
2.8266096 0.071203582 3.9969702 2039583
2.8747022 0.071082547 3.9901769 2039583
2.9256227 0.07095439 3.9829824 2039583
2.9748721 0.070830457 3.9760261 2039583
3.023947 0.070706949 3.9690928 2039583
3.0743318 0.070580155 3.9619746 2039583
3.1215897 0.070461228 3.9552994 2039583
0.92684114 -1.8039327 4.041626 2039583
0.93337041 -1.775207 4.0362992 2039583
0.96179259 -1.7723397 4.011693 2039583
0.93461895 -1.7250242 4.0357976 2039583
0.96264225 -1.7243125 4.0115147 2039583
0.93473029 -1.6750642 4.0362821 2039583
0.96385974 -1.6748676 4.0110307 2039583
0.9349094 -1.6249428 4.0367064 2039583
0.96392035 -1.6248771 4.011559 2039583
0.93495476 -1.574808 4.0372486 2039583
0.96410853 -1.5748752 4.0119748 2039583
0.93528926 -1.5252302 4.0375338 2039583
0.96409649 -1.5248621 4.0125642 2039583
0.93657309 -1.475124 4.0369997 2039583
0.96476871 -1.4742537 4.0125685 2039583
0.93668509 -1.4251193 4.0374842 2039583
0.96574515 -1.4248419 4.0122938 2039583
0.93679738 -1.3751037 4.0379667 2039583
0.96589339 -1.3749868 4.0127459 2039583
0.93690896 -1.325076 4.0384493 2039583
0.96594226 -1.3249706 4.0132837 2039583
0.93719029 -1.2753509 4.0387826 2039583
0.96609062 -1.2750915 4.0137339 2039583
0.93861043 -1.2249908 4.0381355 2039583
0.9668299 -1.2246618 4.0136771 2039583
0.93864125 -1.1747568 4.038691 2039583
0.96767145 -1.1751386 4.0135221 2039583
0.93875337 -1.1246958 4.0391741 2039583
0.9678632 -1.1251153 4.0139337 2039583
0.93825555 -1.0754099 4.0401773 2039583
0.96732479 -1.0745243 4.0149865 2039583
0.93776476 -1.0252328 4.0411844 2039583
0.96666253 -1.0249184 4.0161381 2039583
0.93909401 -0.9749707 4.0406146 2039583
0.96743107 -0.97445768 4.0160556 2039583
0.93920624 -0.92486197 4.0410972 2039583
0.96826541 -0.92503464 4.0159054 2039583
0.93937141 -0.87497962 4.0415316 2039583
0.96847165 -0.87499058 4.0163064 2039583
0.93943036 -0.82508695 4.0420594 2039583
0.9684968 -0.82493287 4.0168653 2039583
0.93970406 -0.77539372 4.0424004 2039583
0.96861202 -0.77510124 4.0173426 2039583
0.94104987 -0.72504771 4.0418158 2039583
0.96940869 -0.72468191 4.0172372 2039583
0.94116271 -0.67489433 4.0423007 2039583
0.97021592 -0.67512238 4.0171113 2039583
0.94127518 -0.6247288 4.0427837 2039583
0.97035569 -0.62515855 4.0175691 2039583
0.94138771 -0.57455117 4.0432677 2039583
0.97056967 -0.57518357 4.0179634 2039583
0.94157839 -0.5246163 4.0436811 2039583
0.97056288 -0.52530783 4.018548 2039583
0.94300884 -0.47401839 4.0430284 2039583
0.97138655 -0.47491896 4.0184183 2039583
0.94304574 -0.42414287 4.0435743 2039583
0.97221816 -0.42523333 4.0182724 2039583
0.94319475 -0.37460643 4.0440192 2039583
0.97234589 -0.37512884 4.0187435 2039583
0.9433437 -0.32505956 4.0444636 2039583
0.9725582 -0.32490984 4.0191417 2039583
0.94356924 -0.27585146 4.0448403 2039583
0.9725154 -0.2747803 4.0197601 2039583
0.94496113 -0.22618762 4.044209 2039583
0.97338504 -0.22443643 4.019588 2039583
0.9450742 -0.17594464 4.044693 2039583
0.97411919 -0.1748499 4.019526 2039583
0.94518751 -0.12568966 4.0451779 2039583
0.97423518 -0.12490754 4.0200067 2039583
0.94530094 -0.075422622 4.0456624 2039583
0.97435099 -0.074953251 4.0204849 2039583
0.94548386 -0.025541283 4.046082 2039583
0.97446698 -0.024987057 4.0209646 2039583
0.94692165 0.025140049 4.0454226 2039583
0.97542572 0.025325473 4.0207171 2039583
0.64416772 0.078843497 4.0491667 2039583
0.67534262 0.078762814 4.0450234 2039583
0.72444648 0.078635797 4.0384998 2039583
0.77502018 0.078504972 4.0317807 2039583
0.82542735 0.078374535 4.0250826 2039583
0.8756659 0.078244582 4.0184083 2039583
0.93882841 0.06923984 4.0327024 2039583
0.97600204 0.064765312 4.0190616 2039583
2.4745126 0.07208968 4.0467114 2039583
2.525346 0.071961738 4.0395298 2039583
2.5760026 0.071834259 4.0323739 2039583
2.6249516 0.071711078 4.0254593 2039583
2.6752529 0.071584471 4.018352 2039583
2.7253804 0.071458332 4.0112715 2039583
2.7753284 0.071332633 4.0042148 2039583
2.8025062 0.0712642 4.0003738 2039583
0.89054936 -1.8113534 4.073 2039583
0.90744066 -1.8079263 4.0583982 2039583
0.89095402 -1.7751682 4.0730696 2039583
0.90822095 -1.774497 4.0581093 2039583
0.89106131 -1.7247533 4.0735607 2039583
0.9093473 -1.7252157 4.057704 2039583
0.89110315 -1.6748841 4.0741034 2039583
0.90953732 -1.6752222 4.0581193 2039583
0.89127409 -1.6250077 4.074533 2039583
0.90964669 -1.6249807 4.0586061 2039583
0.89142877 -1.5748372 4.0749803 2039583
0.90978241 -1.5749667 4.0590696 2039583
0.89151901 -1.5252185 4.0754771 2039583
0.91007549 -1.5245376 4.0593991 2039583
0.8915931 -1.475302 4.0759916 2039583
0.91134334 -1.4749076 4.058876 2039583
0.89168447 -1.4250969 4.0764947 2039583
0.91154677 -1.4250544 4.0592771 2039583
0.89180702 -1.3748763 4.0769701 2039583
0.91159683 -1.3749766 4.059814 2039583
0.89293242 -1.3255914 4.0765657 2039583
0.91177702 -1.3250989 4.0602345 2039583
0.89351863 -1.2748034 4.0766463 2039583
0.91202193 -1.2748213 4.060606 2039583
0.8934716 -1.2249613 4.0772657 2039583
0.9132455 -1.2248887 4.0601249 2039583
0.89361626 -1.175101 4.0777183 2039583
0.91345936 -1.174942 4.0605192 2039583
0.89376098 -1.1252301 4.0781693 2039583
0.91354775 -1.124797 4.0610223 2039583
0.89386851 -1.075011 4.0786591 2039583
0.91363555 -1.0748249 4.0615258 2039583
0.89401412 -1.0247805 4.0791154 2039583
0.91403508 -1.0247114 4.0617614 2039583
0.89415908 -0.9748767 4.0795684 2039583
0.91533643 -0.97519284 4.0612078 2039583
