# .PCD v0.7 - Point Cloud Data file format
VERSION 0.7
FIELDS x y z rgb
SIZE 4 4 4 4
TYPE F F F U
COUNT 1 1 1 1
WIDTH 1165
HEIGHT 1
VIEWPOINT 0 0 0 1 0 0 0
POINTS 1165
DATA ascii
0.57486522 0.11322777 1.3733851 10197915
0.62500584 0.11330897 1.3743702 10197915
0.67502356 0.11338992 1.3753525 10197915
0.72661388 0.11348559 1.3719913 10197915
0.77497822 0.11357008 1.3707135 10197915
0.82496804 0.11365101 1.3716903 10197915
0.87503052 0.11373249 1.3725184 10197915
0.92502016 0.11381347 1.3735286 10197915
0.97479045 0.11389343 1.3746948 10197915
1.0247794 0.11397471 1.3755956 10197915
1.0717648 0.1140433 1.3791767 10197915
1.1052471 0.11405253 1.396173 10197915
-1.1148943 -0.61456758 1.4444506 6447714
-1.0702968 -0.61455691 1.4352368 6447714
-1.1101011 -0.5752722 1.4428109 6447457
-1.0703444 -0.57501757 1.4353306 6447714
0.98901975 -0.56810123 1.4459581 11316396
1.0253239 -0.568097 1.43311 11645361
1.0753859 -0.56803513 1.4153917 11711154
1.107497 -0.56792861 1.4040271 11711154
-1.1100605 -0.52502501 1.4428846 6500914
-1.070456 -0.52500772 1.4354701 6505026
0.98907608 -0.52497089 1.4460326 6513507
1.0254 -0.52500689 1.433176 6579300
1.0754679 -0.5250079 1.4154553 6974058
1.107568 -0.5249117 1.4040955 7237230
-1.1101481 -0.47503668 1.4430044 6566193
-1.0706244 -0.47508806 1.4355263 6566193
0.98913801 -0.47499007 1.4461188 6513507
1.0254678 -0.47501484 1.43326 6513507
1.0755312 -0.4750067 1.4155414 6513507
1.1076214 -0.47491464 1.4041848 6513507
-1.1102374 -0.42503968 1.4431245 6446429
-1.0709789 -0.42498019 1.4354002 6446172
0.98925662 -0.42517182 1.4461838 6513507
1.0251626 -0.42510387 1.4334768 6513507
1.0752478 -0.42491895 1.4157506 6513507
1.1076884 -0.42491096 1.4042692 6513507
-1.1103462 -0.37498841 1.4432532 6447714
-1.0710903 -0.37499315 1.4355309 6447714
0.98974317 -0.3750166 1.4461204 6513507
1.0251245 -0.37500608 1.4335979 6513507
1.0749034 -0.37512076 1.41598 6513507
1.1074464 -0.37460276 1.404464 6513507
-1.1104283 -0.32492846 1.4433711 6447714
-1.0711987 -0.32501051 1.4356514 6447714
0.9897899 -0.32503802 1.4462123 6513507
1.025156 -0.32501033 1.4336956 6513507
1.0747949 -0.32502219 1.4161279 6513507
1.1073711 -0.32497817 1.4045979 6513507
-1.1105101 -0.27499804 1.443489 5855577
-1.0712829 -0.2749913 1.4357954 6381921
0.98984045 -0.2749981 1.4463031 6513507
1.0252451 -0.27500802 1.4337724 6513507
1.0748821 -0.27499723 1.4162047 6513507
1.107439 -0.2750192 1.4046822 6513507
-1.1106466 -0.22501343 1.443626 2697513
-1.0714135 -0.22501843 1.4359165 2829099
0.98971182 -0.22550215 1.4464557 6513507
1.0249345 -0.22490592 1.4339898 6513507
1.0749478 -0.22497627 1.4162905 6513507
1.1075259 -0.22512333 1.4047595 6513507
-1.110747 -0.17492765 1.4437512 6513507
-1.071479 -0.17503634 1.436066 6513507
0.98996365 -0.17498305 1.4464748 6513507
1.0248874 -0.17502332 1.4341156 6513507
1.0749701 -0.17496073 1.4163922 6513507
1.1075664 -0.17518604 1.4048531 6513507
-1.1108198 -0.12501779 1.4438655 6513507
-1.0715802 -0.12496217 1.4361756 6513507
0.98997545 -0.12483075 1.4465805 6513507
1.0249646 -0.12504536 1.4341967 6513507
1.0750728 -0.1249936 1.4164606 6513507
1.1076322 -0.12514031 1.4049385 6513507
-1.1108595 -0.075193912 1.4439679 6513507
-1.0718522 -0.075086646 1.436157 6513507
0.99013233 -0.075097591 1.4466325 6513507
1.0250427 -0.07497178 1.4342773 6513507
1.0750507 -0.075062893 1.4165781 6513507
1.1077002 -0.075088613 1.4050235 6513507
-1.1110071 -0.025127307 1.4441099 6513507
-1.0721273 -0.024988713 1.436147 6513507
0.99029809 -0.025457239 1.4466817 6513507
1.0250198 -0.024958352 1.4343941 6513507
1.0752677 -0.025053203 1.416608 6513507
1.1077666 -0.025030887 1.4051081 6513507
-1.1111037 0.025130156 1.4442334 7566195
-1.0722249 0.024991766 1.4362783 7500402
0.99068624 0.025172163 1.4466527 6513507
1.0250815 0.024960322 1.4344803 6513507
1.0753356 0.025044404 1.4166964 6513507
1.1078334 0.025032908 1.4051926 6513507
-1.1111348 0.075167947 1.4443336 10066329
-1.0723517 0.074938349 1.4363779 10066329
0.99078894 0.075080656 1.4467251 7105644
1.0252187 0.074974746 1.4345388 7105644
1.0752344 0.075055137 1.4168369 7171437
1.1079001 0.075102761 1.4052776 7171437
-1.1140472 0.10729931 1.4368846 10197915
-1.07278 0.10622569 1.432874 10197915
-1.0251526 0.11040773 1.4250023 10197915
-0.9750908 0.11048803 1.4262748 10197915
-0.92515081 0.11056895 1.4272009 10197915
-0.87513477 0.11065018 1.4281309 10197915
-0.824103 0.11075018 1.4228189 10197915
-0.7749362 0.11083197 1.423016 10197915
-0.72505927 0.11091284 1.4239678 10197915
-0.67496115 0.11099336 1.4251335 10197915
-0.62493873 0.11107476 1.4260019 10197915
-0.57498789 0.11115514 1.4271653 10197915
-0.52507848 0.11125575 1.4209856 10197915
-0.47519118 0.11133669 1.4219007 10197915
-0.42522943 0.11141744 1.4229323 10197915
-0.3753939 0.11149796 1.4239609 10197915
-0.32528636 0.11157872 1.4251097 10197915
-0.27510971 0.11166012 1.4260311 10197915
-0.22505659 0.11174104 1.4270647 10197915
-0.17473491 0.11182292 1.4278803 10197915
-0.12487897 0.11192328 1.4218074 10197915
-0.075010724 0.11200337 1.4229614 10197915
-0.025069181 0.11208425 1.4239445 10197915
0.025093371 0.11216539 1.4249746 10197915
0.07503029 0.11224632 1.4259121 10197915
0.1248933 0.11232661 1.4270673 10197915
0.17339912 0.11241722 1.4236611 10197915
0.22501965 0.11250835 1.4219346 10197915
0.27489433 0.11258934 1.422841 10197915
0.32523298 0.11267069 1.4238698 10197915
0.37525198 0.11275163 1.4248893 10197915
0.42514154 0.11283236 1.4259113 10197915
0.47510564 0.11291304 1.4269298 10197915
0.52591509 0.11299845 1.426792 10197915
0.57504803 0.11309496 1.4216802 10197915
0.62497133 0.11317487 1.4229511 10197915
0.67481804 0.11325599 1.4237505 10197915
0.72488797 0.11333704 1.4247687 10197915
0.77487642 0.11341737 1.4259998 10197915
0.82493716 0.11349889 1.4268034 10197915
0.87369984 0.1135821 1.4262303 10197915
0.92495418 0.11368021 1.421737 10197915
0.9849202 0.10932781 1.4381912 10197915
1.0249957 0.10785155 1.4324722 10197915
1.0750873 0.10739491 1.4165574 10197915
1.1079432 0.10712709 1.405332 10197915
-1.1565548 -0.61468458 1.4593207 6447714
-1.1406173 -0.61461687 1.4536322 6447714
-1.0525559 -0.6144948 1.4567919 6447714
-1.0436462 -0.61460316 1.4817541 6447714
-1.1660663 -0.59938252 1.4824967 6447714
-1.1403681 -0.59928548 1.4620292 6447714
-1.0524668 -0.57488233 1.457747 6447714
-1.046412 -0.5768069 1.4750344 6447714
0.84315968 -0.568313 1.4975817 9605778
0.87496436 -0.5683105 1.4863224 10000536
0.92482769 -0.56822091 1.4686767 10526880
0.96378005 -0.56819916 1.4548907 10987431
-1.0525421 -0.52499419 1.4576102 6506568
-1.04669 -0.52502161 1.4740061 6441546
0.84320617 -0.52505296 1.4976568 6513507
0.87505281 -0.52499479 1.486388 6513507
0.92491323 -0.52500111 1.4687392 6513507
0.96383554 -0.52501619 1.4549645 6513507
-1.0526928 -0.47472486 1.4576262 6501171
-1.0467857 -0.47503173 1.4741714 6502713
0.84324867 -0.47501606 1.4977535 6513507
0.87508935 -0.47498098 1.4864807 6513507
0.92494857 -0.47501087 1.4688355 6513507
0.96390569 -0.47499382 1.4550484 6513507
-1.0529531 -0.42504409 1.4573268 6447457
-1.0468967 -0.42507035 1.4742954 6447714
0.84378177 -0.42515719 1.4976692 6513507
0.87514406 -0.42497379 1.4865724 6513507
0.92500836 -0.42500389 1.4689218 6513507
0.96404356 -0.42487374 1.4551082 6513507
-1.052869 -0.37488204 1.4580001 6447714
-1.0468036 -0.37515372 1.4749897 6447714
0.84390831 -0.37498793 1.4977337 6513507
0.87520552 -0.37501034 1.4866585 6513507
0.92504966 -0.37499109 1.469017 6513507
0.96450299 -0.37502882 1.4550533 6513507
-1.0529598 -0.3249689 1.458178 6447714
-1.0468907 -0.32496655 1.4751825 6447714
0.84390384 -0.32505634 1.4978443 6513507
0.87523651 -0.32502893 1.4867564 6513507
0.92510861 -0.32499629 1.4691046 6513507
0.96454555 -0.32497513 1.4551464 6513507
-1.0530596 -0.27501643 1.4583324 6447714
-1.0470029 -0.27500176 1.4753031 6447714
0.84396285 -0.27501637 1.4979314 6513507
0.87531483 -0.2750161 1.4868361 6513507
0.92518431 -0.27497095 1.4691865 6513507
0.96462399 -0.27501577 1.4552274 6513507
-1.0531673 -0.22497319 1.4584656 3355443
-1.0470998 -0.22502765 1.4754683 3356734
0.84450752 -0.22510387 1.4978465 6513507
0.87538064 -0.22502148 1.486919 6513507
0.92523766 -0.22497694 1.4692752 6513507
0.96482658 -0.22483473 1.455264 6513507
-1.0530671 -0.17496954 1.4591821 6513507
-1.0469946 -0.17495096 1.4761965 5464946
0.84459603 -0.17500111 1.4979252 6513507
0.87541115 -0.17497173 1.4870179 6513507
0.92529416 -0.17504939 1.4693631 6513507
0.96517372 -0.17495346 1.4552506 6513507
-1.0531716 -0.12499631 1.4593247 6513507
-1.0471023 -0.12498932 1.4763278 5398896
0.84462547 -0.12524824 1.4980227 6513507
0.87547612 -0.12495293 1.4871032 6513507
0.92536819 -0.12504259 1.4694464 6513507
0.96534193 -0.12503885 1.4552965 6513507
-1.0533662 -0.074539244 1.4592168 6513507
-1.0472122 -0.075106859 1.4764556 5332846
0.8447184 -0.074986972 1.4980977 6513507
0.87540334 -0.075040735 1.4872366 6513507
0.92541122 -0.074957989 1.4695385 6513507
0.96523279 -0.074997969 1.4554458 6513507
-1.0535697 -0.024798846 1.4590819 6513507
-1.0472844 -0.025240341 1.4766858 5398381
0.84516853 -0.025177367 1.4980446 6513507
0.8756609 -0.025050815 1.4872544 6513507
0.92540383 -0.024962971 1.4696497 6513507
0.96562815 -0.024779843 1.4554133 6513507
-1.0534927 0.024931291 1.4597299 7434609
-1.0474085 0.025084632 1.4767754 6384501
0.84531736 0.024826076 1.4981017 6513507
0.87571269 0.025052825 1.4873437 6513507
0.92545956 0.024964945 1.4697382 6513507
0.96601248 0.024950163 1.455387 6513507
-1.0535848 0.074930027 1.4599038 10066329
-1.047523 0.075108185 1.4768901 9672344
0.84492594 0.07472942 1.4983466 6974058
0.87469631 0.074987486 1.4878135 6974058
0.92519099 0.075056687 1.4699422 7039851
0.9658888 0.074995913 1.4555368 7039851
-1.1671442 0.11000722 1.4840487 10197915
-1.1398592 0.11012546 1.4577364 10197915
-1.0535965 0.1053382 1.45989 10197915
-1.0347847 0.10795803 1.4733789 10197915
-0.97496933 0.11036242 1.471887 10197915
-0.92483598 0.11044361 1.4728389 10197915
-0.8748278 0.11052433 1.4739156 10197915
-0.82474959 0.11060518 1.4749937 10197915
-0.77479535 0.1106855 1.4761951 10197915
-0.72517884 0.11076627 1.4770072 10197915
-0.67507905 0.11084681 1.4782151 10197915
-0.62490982 0.11092738 1.4794216 10197915
-0.57487065 0.11100855 1.4803725 10197915
-0.52502531 0.11111079 1.4735285 10197915
-0.47500464 0.11119131 1.474697 10197915
-0.42558822 0.11127339 1.4749048 10197915
-0.37469581 0.11137481 1.4690237 10197915
-0.32482034 0.11145537 1.4700825 10197915
-0.27507803 0.11153572 1.4711454 10197915
-0.22505909 0.1116161 1.4723355 10197915
-0.17517187 0.11169734 1.473145 10197915
-0.12521303 0.11177731 1.4744617 10197915
-0.074976213 0.11185879 1.4754072 10197915
-0.024873385 0.11193966 1.4764714 10197915
0.024897195 0.11202006 1.4775311 10197915
0.074942335 0.11210048 1.4787252 10197915
0.12505718 0.11218215 1.4795377 10197915
0.17653155 0.1122802 1.4752212 10197915
0.22503799 0.11236491 1.4739603 10197915
0.27515826 0.11244509 1.4752584 10197915
0.32403195 0.11252937 1.4743545 10197915
0.37522897 0.1126285 1.4694952 10197915
0.42484257 0.11270862 1.4705411 10197915
0.47493875 0.11278921 1.4717231 10197915
0.52510566 0.11287062 1.4726541 10197915
0.57493269 0.11295108 1.4737041 10197915
0.62483418 0.1130317 1.4747553 10197915
0.67480403 0.11311243 1.4758089 10197915
0.72484821 0.11319324 1.4768634 10197915
0.77496088 0.11327419 1.4779201 10197915
0.83352101 0.11044945 1.4873908 10197915
0.87489295 0.10769696 1.4852268 10197915
0.92494816 0.1075555 1.4685446 10197915
0.96603906 0.10722762 1.4552714 10197915
-1.0283473 -0.61452127 1.5246179 6447714
-1.2111235 -0.59961098 1.5359584 6445401
-1.1874726 -0.59951156 1.5173475 6447714
-1.0632787 -0.59927273 1.5303631 6447714
-1.0377575 -0.59924787 1.5269736 6447714
0.69759715 -0.56835181 1.5490977 7895160
0.72507977 -0.5684942 1.5393708 8224125
0.77481079 -0.56843728 1.5217707 8816262
0.81821352 -0.56835121 1.506407 9276813
0.69767588 -0.52536482 1.5491632 6513507
0.72513795 -0.52498549 1.5394442 6513507
0.77485847 -0.52500367 1.5218477 6513507
0.81820703 -0.52497745 1.5065061 6513507
0.698237 -0.47522482 1.5490733 6513507
0.72519892 -0.47498378 1.5395328 6513507
0.77490145 -0.47500962 1.5219409 6513507
0.81826574 -0.47498628 1.5065948 6513507
0.6982792 -0.42519295 1.5491664 6513507
0.72524071 -0.42499131 1.5396235 6513507
0.77495867 -0.42502293 1.5220295 6513507
0.81880975 -0.42494437 1.5065104 6513507
0.69829893 -0.37577307 1.5492667 6513507
0.72521794 -0.37496784 1.5397418 6513507
0.77499563 -0.37501702 1.5221231 6513507
0.81891304 -0.37499937 1.5065796 6513507
-1.2100376 -0.31013179 1.5380284 6447714
0.69780964 -0.32547319 1.5495489 6513507
0.72479945 -0.32499462 1.5399983 6513507
0.77507204 -0.32500455 1.5222051 6513507
0.81895602 -0.32499903 1.5066752 6513507
-1.2114279 -0.29423094 1.5388008 6447714
0.69830453 -0.27670327 1.5494795 6513507
0.72478497 -0.27498299 1.5401099 6513507
0.77508664 -0.27498654 1.5223083 6513507
0.81898588 -0.27502763 1.5067741 6513507
0.69844782 -0.22532624 1.5495396 6513507
0.72488093 -0.22497924 1.5401864 6513507
0.7751807 -0.22497576 1.5223825 6513507
0.81951308 -0.22499157 1.506693 6513507
0.69849008 -0.17526427 1.5496336 6513507
0.72488946 -0.17497024 1.5402904 6513507
0.77515477 -0.17495838 1.522501 6513507
0.81963825 -0.17505512 1.5067551 6513507
0.69853216 -0.12519623 1.5497268 6513507
0.72491848 -0.12498152 1.5403877 6513507
0.77521235 -0.12496278 1.5225888 6513507
0.81970578 -0.12495615 1.5068445 6513507
0.69884771 -0.079291031 1.5497149 6513507
0.72508806 -0.074878238 1.5404384 6513507
0.77524817 -0.075094342 1.5226836 6513507
0.81968921 -0.074917451 1.5069555 6513507
0.69917035 -0.025038907 1.5497184 6513507
0.72498941 -0.024891278 1.540581 6513507
0.7753877 -0.02510174 1.5227435 6513507
0.82017142 -0.024876406 1.5068948 6513507
0.69921249 0.025040925 1.5498117 6513507
0.72503138 0.024893278 1.5406729 6513507
0.77544147 0.025090465 1.5228335 6513507
0.82030994 0.024972733 1.506952 6513507
0.69925487 0.07512679 1.5499052 6842472
0.72521394 0.07487838 1.5407183 6842472
0.77537477 0.075081468 1.5229647 6908265
0.82035899 0.074922279 1.5070436 6908265
-1.2125615 0.10977618 1.5402335 10197915
-1.189374 0.10986791 1.5210605 10197915
-1.0619136 0.11006942 1.525332 10197915
-1.0248996 0.11014812 1.5192604 10197915
-0.97504598 0.11022888 1.5202278 10197915
-0.92512006 0.11030897 1.5214788 10197915
-0.87512434 0.1103892 1.5227284 10197915
-0.82484484 0.11047062 1.5237088 10197915
-0.77469838 0.1105515 1.5248206 10197915
-0.72489631 0.11063138 1.5260699 10197915
-0.67502606 0.11071255 1.5268968 10197915
-0.62507778 0.11079229 1.5282891 10197915
-0.5750609 0.11087333 1.5292596 10197915
-0.52517706 0.11095376 1.5303687 10197915
-0.47501194 0.111035 1.5313451 10197915
-0.42537501 0.11112186 1.5299639 10197915
-0.3747856 0.11124226 1.5170132 10197915
-0.32474026 0.11132299 1.5181104 10197915
-0.27504191 0.11140275 1.5193441 10197915
-0.22506452 0.11148413 1.5201666 10197915
-0.17501287 0.11156445 1.5214034 10197915
-0.12488898 0.11164492 1.5226458 10197915
-0.074901029 0.11172593 1.5236056 10197915
-0.025054317 0.11180631 1.5247018 10197915
0.02507847 0.11188718 1.5258044 10197915
0.075069122 0.11196779 1.5269037 10197915
0.12492411 0.11204823 1.5280004 10197915
0.17505893 0.11212908 1.5291033 10197915
0.22505563 0.11220931 1.5303432 10197915
0.27491349 0.11229009 1.5312991 10197915
0.32682401 0.11238146 1.5296781 10197915
0.3745369 0.1124926 1.5183278 10197915
0.42515886 0.11257764 1.5182083 10197915
0.47497073 0.11265841 1.519155 10197915
0.52485836 0.11273888 1.5202403 10197915
0.57502568 0.11281984 1.5213319 10197915
0.62526846 0.11290091 1.5224249 10197915
0.67687422 0.11247414 1.5256021 10197915
0.7246778 0.10762563 1.5374012 10197915
0.77502054 0.10720982 1.522071 10197915
0.82041425 0.10674851 1.5070411 10197915
-1.0104882 -0.61468285 1.5746508 6447714
-1.2570127 -0.59985185 1.5908672 6566193
-1.2312906 -0.59974527 1.5711845 6502199
-1.108658 -0.59952044 1.5883667 6447714
-1.0743233 -0.59941101 1.5750067 6316128
-1.0291058 -0.59933221 1.5760452 6447714
0.57698303 -0.56866735 1.5917848 6579300
0.62494963 -0.56862408 1.5748082 7105644
0.67251074 -0.56857216 1.5579756 7631988
0.57705021 -0.52498454 1.5918553 6513507
0.62507224 -0.52499908 1.5748593 6513507
0.67264128 -0.52495444 1.5580242 6513507
0.57710904 -0.47499368 1.5919422 6513507
0.62507886 -0.47499651 1.5749662 6513507
0.67319834 -0.47499326 1.5579351 6513507
0.57712114 -0.42501426 1.5920478 6513507
0.6251272 -0.42500317 1.5750566 6513507
0.6732353 -0.42498943 1.5580306 6513507
0.57770014 -0.37502244 1.5919505 6513507
0.62516183 -0.37501809 1.5751524 6513507
0.67327398 -0.37497982 1.5581262 6513507
-1.2050412 -0.31010225 1.5521779 6447714
0.57779729 -0.3249892 1.5920254 6513507
0.62520254 -0.32504252 1.5752475 6513507
0.67329657 -0.32496423 1.5582252 6513507
-1.2576575 -0.29044026 1.5905552 6052956
-1.2268251 -0.29119867 1.5679816 6447714
0.57782942 -0.27500129 1.592121 6513507
0.62525511 -0.27503029 1.5753372 6513507
0.67385101 -0.27493304 1.5581378 6513507
0.57780969 -0.22497167 1.5922372 6513507
0.62523109 -0.22502825 1.5754536 6513507
0.67391932 -0.22500372 1.5582219 6513507
0.57822365 -0.17511001 1.5921979 6513507
0.62533826 -0.17500389 1.5755236 6513507
0.67403215 -0.1750309 1.5582896 6513507
0.57854599 -0.1250629 1.5921925 6513507
0.62527066 -0.12498916 1.5756553 6513507
0.67395312 -0.12503572 1.5584267 6513507
0.57854217 -0.075149909 1.5923027 6513507
0.62547898 -0.074835896 1.5756917 6513507
0.67455965 -0.075042009 1.5583197 6513507
0.57853311 -0.025069002 1.5924134 6513507
0.62539035 -0.024823098 1.575832 6513507
0.67463034 -0.025179245 1.5584028 6513507
0.57875061 0.024921687 1.5924456 6513507
0.62542844 0.024825076 1.5759252 6513507
0.67467183 0.025181266 1.5584978 6513507
0.57923257 0.075152859 1.592383 6776679
0.62558025 0.074820653 1.575981 6776679
0.67484891 0.075187691 1.5585423 6842472
-1.2546518 0.10958519 1.583919 10197915
-1.2333294 0.10964916 1.5736771 10197915
-1.107383 0.10983328 1.5833282 10197915
-1.0740018 0.10992368 1.5708157 10197915
-1.0251856 0.11000405 1.5712976 10197915
-0.97512841 0.11008549 1.5721426 10197915
-0.92499876 0.11016535 1.573602 10197915
-0.87500751 0.11024626 1.5745962 10197915
-0.82515806 0.11032693 1.5755897 10197915
-0.77502728 0.11040681 1.5770504 10197915
-0.72481668 0.11048806 1.5780492 10197915
-0.67496389 0.11056834 1.5791969 10197915
-0.62504256 0.11064871 1.5803443 10197915
-0.57677698 0.11073121 1.5797163 10197915
-0.52483392 0.1108346 1.57376 10197915
-0.47497484 0.11091487 1.5748999 10197915
-0.4229928 0.11100613 1.5733601 10197915
-0.37466621 0.1111011 1.5682458 10197915
-0.32487068 0.11118131 1.5693783 10197915
-0.27500677 0.11126165 1.5705113 10197915
-0.22506724 0.11134208 1.5716463 10197915
-0.17505911 0.11142263 1.5727842 10197915
-0.12519406 0.11150251 1.5740719 10197915
-0.075255089 0.11158342 1.5750527 10197915
-0.025029937 0.1116643 1.5761955 10197915
0.025054043 0.11174496 1.5773336 10197915
0.074990615 0.11182498 1.5786232 10197915
0.12499636 0.11190639 1.5794487 10197915
0.17507753 0.11198619 1.5808986 10197915
0.22284234 0.1120716 1.5789164 10197915
0.27521777 0.11217215 1.5742307 10197915
0.3253397 0.11225324 1.5752496 10197915
0.37616804 0.11235703 1.5684611 10197915
0.42483869 0.11243766 1.5687616 10197915
0.47500983 0.11251849 1.5698898 10197915
0.52503115 0.11259869 1.5711663 10197915
0.57804275 0.10786256 1.5871505 10197915
0.6244303 0.10723059 1.5745351 10197915
0.67370647 0.10674617 1.558754 10197915
-1.3039255 -0.60009193 1.6445428 6566193
-1.286846 -0.60003811 1.638118 6566193
-1.0005205 -0.61456996 1.6025782 6447714
-0.99169719 -0.6146968 1.6272956 6447714
-1.2683601 -0.59994167 1.6161953 6566193
-1.2471968 -0.59986883 1.6058651 6566193
-1.1536535 -0.59976268 1.6444896 6447714
-1.1215847 -0.59964812 1.6270971 5592405
-1.0750084 -0.59953827 1.6241847 5987163
-1.0245943 -0.59942997 1.6248115 6447714
-0.99405885 -0.59943998 1.6340727 6447714
0.43159008 -0.56887585 1.6432413 6513507
0.47540575 -0.568838 1.6277344 6513507
0.52559686 -0.56875437 1.6099713 6513507
0.55233753 -0.56891447 1.6005068 6513507
0.43163383 -0.52499413 1.6433212 6513507
0.4754566 -0.52500021 1.6278107 6513507
0.52527797 -0.52516043 1.6101769 6513507
0.55200034 -0.52346873 1.6007245 6513507
0.43165511 -0.47500545 1.6434225 6513507
0.4754715 -0.47497639 1.627915 6513507
0.52506381 -0.47503141 1.6103622 6513507
0.55180895 -0.47487441 1.6008977 6513507
0.43169862 -0.42503473 1.6435148 6513507
0.47547036 -0.42497927 1.6280223 6513507
0.52507627 -0.4250035 1.6104672 6513507
0.55182672 -0.42482281 1.6009996 6513507
0.43222034 -0.37512854 1.6434383 6513507
0.47552648 -0.3749927 1.6281122 6513507
0.52511293 -0.37498632 1.6105614 6513507
0.55246043 -0.37486571 1.6008841 6513507
0.43239239 -0.32503814 1.6434859 6513507
0.47557998 -0.32496727 1.6282016 6513507
0.52515978 -0.3250123 1.6106533 6513507
0.55249983 -0.32500002 1.6009777 6513507
-1.3029729 -0.29065749 1.6417751 2039583
-1.2746243 -0.29055986 1.623585 2960685
-1.2467785 -0.29046366 1.6056122 6447714
0.43237263 -0.27502227 1.6436015 6513507
0.47558659 -0.27496865 1.6283066 6513507
0.52517599 -0.27501553 1.6107559 6513507
0.55252057 -0.27473903 1.6010793 6513507
0.43242946 -0.22495192 1.6436902 6513507
0.47560433 -0.2250458 1.6284099 6513507
0.5251894 -0.22498012 1.6108601 6513507
0.5525791 -0.22500889 1.6011662 6513507
0.43271458 -0.17512828 1.6436969 6513507
0.475665 -0.17508483 1.6284961 6513507
0.52523518 -0.17498851 1.6109532 6513507
0.55299771 -0.17407763 1.6011282 6513507
0.4329876 -0.12490498 1.6437091 6513507
0.47540173 -0.12513098 1.6286968 6513507
0.52504212 -0.12491388 1.6111283 6513507
0.55322444 -0.12470761 1.6011555 6513507
0.43320113 -0.075154714 1.6437417 6513507
0.4750452 -0.074907862 1.6289328 6513507
0.52451825 -0.075003915 1.6114223 6513507
0.55325735 -0.074961618 1.6012508 6513507
0.43311676 -0.025198204 1.6438794 6513507
0.47507307 -0.024970606 1.62903 6513507
0.52485019 -0.024958208 1.6114128 6513507
0.55329055 -0.025209676 1.6013476 6513507
0.43314359 0.025200244 1.6439788 6513507
0.47510299 0.024972601 1.6291285 6513507
0.52487761 0.024944283 1.6115135 6513507
0.55353171 0.026072303 1.6013731 6513507
0.43387887 0.075118273 1.6438267 6645093
0.47513002 0.074921817 1.6292266 6645093
0.52463245 0.074986257 1.6117074 6710886
0.5539481 0.074965887 1.6013317 6710886
-1.3020434 0.10935263 1.6394606 10197915
-1.2737141 0.10944877 1.6218153 10197915
-1.2455382 0.10954896 1.6025881 10197915
-1.1537678 0.10959093 1.6430333 10197915
-1.1215689 0.10968732 1.6276333 10197915
-1.0748142 0.10977183 1.6253589 10197915
-1.0248288 0.10985173 1.6267148 10197915
-0.97499591 0.10993186 1.6279013 10197915
-0.9250868 0.1100121 1.6290895 10197915
-0.87683767 0.11009492 1.6283474 10197915
-0.82514727 0.11019901 1.6219848 10197915
-0.77531308 0.11027911 1.6231648 10197915
-0.72507697 0.11036026 1.6242266 10197915
-0.6750958 0.11044063 1.6254096 10197915
-0.62504572 0.11052042 1.6268483 10197915
-0.57279921 0.11061424 1.6245298 10197915
-0.52490932 0.11070819 1.619524 10197915
-0.47493392 0.1107886 1.6207005 10197915
-0.42510459 0.11086873 1.6218722 10197915
-0.37498394 0.11094935 1.6230527 10197915
-0.32478669 0.11103009 1.6242332 10197915
-0.27496532 0.11110978 1.6255738 10197915
-0.22507402 0.11119097 1.6264085 10197915
-0.17488436 0.11127121 1.6277609 10197915
-0.12484664 0.11135124 1.6291072 10197915
-0.074958257 0.11143246 1.6299386 10197915
-0.025499854 0.11153527 1.6226563 10197915
0.024882644 0.1116184 1.6230823 10197915
0.075029247 0.11169947 1.6241301 10197915
0.12525082 0.1117799 1.6254306 10197915
0.1748682 0.1118601 1.626462 10197915
0.22730125 0.11195777 1.6228648 10197915
0.27486253 0.11204626 1.6196415 10197915
0.32519457 0.11212774 1.6206446 10197915
0.37537575 0.11220849 1.6218076 10197915
0.4307822 0.107884 1.6372868 10197915
0.47516814 0.10707834 1.6267473 10197915
0.52474338 0.1067099 1.6112645 10197915
0.55396891 0.10615001 1.6013918 10197915
0.28018269 -0.7545985 1.696839 11711154
0.28045556 -0.72498792 1.6968101 11711154
0.28046608 -0.67512673 1.6969212 11711154
-1.3505732 -0.60033298 1.6987941 6566193
-1.3197994 -0.60021341 1.678414 6566193
-1.2927049 -0.60010451 1.6590769 6566193
-0.97479016 -0.61468345 1.6746627 6447714
0.27978534 -0.62500155 1.6968462 10526880
-1.1656846 -0.59987825 1.6793797 6118749
-1.1249845 -0.59977448 1.6736711 5460819
-1.0750239 -0.59966409 1.6733125 6447714
-1.0254519 -0.59955752 1.6740493 6447714
-0.98623896 -0.59949416 1.6771911 6447714
0.28466228 -0.57349187 1.6952325 6513507
0.32515395 -0.56900895 1.6809103 6513507
0.3754639 -0.56895411 1.6631051 6513507
0.40657598 -0.56891054 1.6520946 6513507
0.28577167 -0.52507246 1.6949445 6513507
0.32522133 -0.52498645 1.6809829 6513507
0.37554115 -0.52499187 1.6631736 6513507
0.4065792 -0.52499729 1.6521885 6513507
0.28585085 -0.47504494 1.6950253 6513507
0.32526731 -0.47498026 1.6810747 6513507
0.37554881 -0.47500318 1.6632783 6513507
0.40659526 -0.47498983 1.6522913 6513507
0.28580442 -0.42497718 1.6951498 6513507
0.32527748 -0.42500475 1.6811801 6513507
0.37557524 -0.42500901 1.6633782 6513507
0.40664899 -0.42497736 1.6523802 6513507
0.28583777 -0.37500489 1.6952463 6513507
0.3252677 -0.37498656 1.6812921 6513507
0.37560242 -0.3750264 1.6634766 6513507
0.40719298 -0.37477127 1.652297 6513507
-1.1600124 -0.31026876 1.6796907 4483214
0.28649777 -0.32504296 1.6951212 6513507
0.3253184 -0.32496259 1.6813811 6513507
0.37561712 -0.32505521 1.6635803 6513507
0.40734378 -0.32497758 1.6523513 6513507
-1.3186331 -0.29078245 1.6775585 2039583
-1.2919672 -0.29068276 1.657612 2039583
-1.1635514 -0.29393098 1.6820385 4482954
0.28662124 -0.274988 1.6951863 6513507
0.32533652 -0.27498645 1.6814835 6513507
0.37563646 -0.27506077 1.6636813 6513507
0.40728694 -0.27495652 1.6524799 6513507
0.28646177 -0.22499688 1.6953501 6513507
0.32529512 -0.22500403 1.6816064 6513507
0.37560144 -0.22502442 1.6638036 6513507
0.40739927 -0.22499856 1.6525486 6513507
0.28663072 -0.17510685 1.6953987 6513507
0.32467386 -0.17496963 1.6819355 6513507
0.37507808 -0.17499201 1.6640958 6513507
0.40761054 -0.1745057 1.652583 6513507
0.28684917 -0.12529892 1.6954297 6513507
0.32475841 -0.12504634 1.6820127 6513507
0.37497762 -0.12498145 1.664239 6513507
0.40807945 -0.12506109 1.6525242 6513507
0.2872619 -0.075154439 1.6953921 6513507
0.32479712 -0.07515455 1.6821064 6513507
0.37521785 -0.074829794 1.6642638 6513507
0.40800804 -0.075024039 1.6526579 6513507
0.28727889 -0.025286961 1.6954931 6513507
0.32472482 -0.025089331 1.6822423 6513507
0.37506598 -0.024823604 1.664425 6513507
0.40813309 -0.02505275 1.6527219 6513507
0.28731421 0.02525283 1.69559 6513507
0.32474399 0.025091352 1.6823425 6513507
0.37508905 0.02482558 1.6645252 6513507
0.40815771 0.025054766 1.6528219 6513507
0.2872963 0.075130746 1.6957057 6513507
0.32486832 0.075150371 1.6824079 6579300
0.37528589 0.074826621 1.6645638 6579300
0.40869164 0.075100519 1.6527407 6645093
-1.350809 0.10910651 1.6990907 10197915
-1.322253 0.10920027 1.6824387 10197915
-1.2931846 0.10931229 1.6594701 10197915
-1.1651211 0.10948297 1.6752911 10197915
-1.1253517 0.10955383 1.6737274 10197915
-1.0751795 0.10963478 1.6748192 10197915
-1.0249314 0.10971509 1.6761911 10197915
-0.97461063 0.10979628 1.677286 10197915
-0.92490172 0.10987571 1.6786454 10197915
-0.87297189 0.10996945 1.6761662 10197915
-0.8253606 0.11006377 1.6708556 10197915
-0.77539098 0.11014402 1.6720743 10197915
-0.72535253 0.11022442 1.6732941 10197915
-0.67523712 0.11030489 1.6745162 10197915
-0.62505245 0.1103855 1.6757398 10197915
-0.57501996 0.11046585 1.6769599 10197915
-0.52491856 0.11054581 1.6783646 10197915
-0.47721103 0.11063345 1.6755472 10197915
-0.42494002 0.11073451 1.6706166 10197915
-0.37503722 0.11081506 1.671689 10197915
-0.32505763 0.11089497 1.6730378 10197915
-0.27500886 0.11097576 1.6741134 10197915
-0.2248853 0.11105591 1.6754662 10197915
-0.17503439 0.111136 1.6766744 10197915
-0.12477065 0.11121713 1.6777545 10197915
-0.074774101 0.11129748 1.6789625 10197915
-0.024689043 0.11140441 1.6705799 10197915
0.025163399 0.11148556 1.6714135 10197915
0.075072154 0.11156578 1.6726114 10197915
0.124825 0.11164521 1.6739974 10197915
0.17487861 0.11172666 1.6748334 10197915
0.22500442 0.1118062 1.6764109 10197915
0.28228536 0.10806076 1.6879909 10197915
0.32448408 0.1069876 1.6799207 10197915
0.37453696 0.10646684 1.6644075 10197915
0.4087764 0.10613258 1.652778 10197915
0.13943285 -0.76561958 1.7462151 11711154
0.17396231 -0.76293385 1.734001 11711154
0.22343937 -0.75898212 1.7164979 11711154
0.26788116 -0.75662512 1.706031 11711154
0.30478975 -0.76376998 1.7384987 11711154
0.13962547 -0.72498786 1.7462351 11711154
0.17523944 -0.7250244 1.7336315 11711154
0.22535124 -0.72499651 1.7158952 11711154
0.26637152 -0.72497618 1.7053365 11711154
0.30461714 -0.72497904 1.7383009 11711154
0.13962577 -0.6750139 1.7463433 11711154
0.17525055 -0.67500925 1.7337358 11711154
0.22537267 -0.6750074 1.715995 11711154
0.26657158 -0.6748659 1.7054976 11711154
0.30477428 -0.67509407 1.7391187 11711154
-1.3644385 -0.60044926 1.7324147 6566193
-1.3391832 -0.60034811 1.7144895 6566193
-1.2103189 -0.60011792 1.7348533 6566193
-1.1809307 -0.6000452 1.7316535 5457478
-1.1463853 -0.60000592 1.7458217 6447714
-0.957959 -0.61474997 1.7218175 6447714
-0.94891387 -0.61476284 1.7471604 6447714
0.13966388 -0.62498671 1.7464379 9276813
0.1752919 -0.62502748 1.7338293 9605778
0.22536692 -0.62499177 1.7161068 10066329
0.26764026 -0.62495685 1.7054484 10263708
0.30477443 -0.62773639 1.7394739 9145227
-1.1657776 -0.59996545 1.7133687 5066061
-1.1246315 -0.59990084 1.7233769 6381921
-1.0749859 -0.59979248 1.7235029 6447714
-1.024994 -0.59968227 1.7232487 6447714
-0.97804934 -0.59958971 1.7244869 6447714
-0.949628 -0.59957474 1.7457675 6447714
0.1402804 -0.57514709 1.7463281 6513507
0.17525674 -0.57502025 1.7339474 6513507
0.22538771 -0.57499081 1.7162048 6513507
0.26174709 -0.57512218 1.703715 6513507
0.14035125 -0.52501476 1.7464114 6513507
0.17527641 -0.52500588 1.7340529 6513507
0.22540532 -0.52496374 1.7163103 6513507
0.26113182 -0.52498633 1.7036645 6513507
0.1403815 -0.47496411 1.7465093 6513507
0.17532811 -0.47502711 1.7341379 6513507
0.22540767 -0.47496933 1.7164166 6513507
0.26117331 -0.47499183 1.7037587 6513507
0.14035651 -0.42501357 1.7466266 6513507
0.17529196 -0.42500174 1.7342669 6513507
0.22544079 -0.42498785 1.7165109 6513507
0.26116586 -0.42499024 1.7038696 6513507
0.14055067 -0.37535661 1.7466652 6513507
0.17531754 -0.37498966 1.7343621 6513507
0.22544213 -0.37498167 1.7166218 6513507
0.2612249 -0.37502638 1.7039571 6513507
-1.1513979 -0.310197 1.7040873 3303064
-1.1428217 -0.3103365 1.7283732 2047067
0.14106588 -0.32500154 1.7465922 6513507
0.17533648 -0.32501265 1.7344681 6513507
0.2254329 -0.32498792 1.7167315 6513507
0.26182514 -0.32495296 1.7038534 6513507
-1.3632032 -0.29100257 1.7303271 2039583
-1.3404292 -0.2909185 1.7136667 2039583
-1.2093364 -0.29074958 1.7319543 5005172
-1.1705372 -0.2913641 1.7223229 3366796
-1.1430707 -0.29474819 1.7296504 1981274
0.14111494 -0.27503523 1.7466826 6513507
0.1753082 -0.27500793 1.7345837 6513507
0.22548285 -0.27496937 1.7168244 6513507
0.26196742 -0.27493542 1.7039107 6513507
0.14114514 -0.22495252 1.7467811 6513507
0.17538418 -0.2250383 1.7346584 6513507
0.22548598 -0.2249642 1.7169297 6513507
0.26183641 -0.22499329 1.7040653 6513507
0.14108457 -0.17502664 1.7469102 6513507
0.17532656 -0.17504293 1.7347913 6513507
0.22545354 -0.17499086 1.7170509 6513507
0.26198539 -0.17488325 1.7041212 6513507
0.14147276 -0.12559342 1.7468801 6513507
0.17532136 -0.12502015 1.7348989 6513507
0.22553307 -0.12493505 1.7171289 6513507
0.26221168 -0.12462331 1.7041503 6513507
0.14180647 -0.075141691 1.746871 6513507
0.17551677 -0.075174764 1.734942 6513507
0.22559057 -0.074836329 1.7172194 6513507
0.26261938 -0.074835077 1.7041146 6513507
0.14188311 -0.025212776 1.7469527 6513507
0.17535159 -0.02515894 1.7351065 6513507
0.22549415 -0.024901619 1.7173597 6513507
0.26263487 -0.024711045 1.7042162 6513507
0.14189166 0.025214823 1.7470586 6513507
0.17536233 0.025160979 1.7352078 6513507
0.22550815 0.02490364 1.7174652 6513507
0.26265067 0.024713011 1.7043185 6513507
0.14183217 0.07515572 1.7471882 6513507
0.17555155 0.075168952 1.7352554 6513507
0.22563089 0.074850328 1.7175308 6513507
0.26266652 0.074849151 1.704422 6513507
-1.3645461 0.10898619 1.7343823 10132122
-1.3415419 0.10906268 1.7206095 10197915
-1.2119567 0.10922963 1.7387018 10197915
-1.174527 0.10933059 1.7248129 10197915
-1.1246122 0.10941063 1.7260754 10197915
-1.0748619 0.10948986 1.7275361 10197915
-1.025818 0.10959642 1.7186513 10197915
-0.9753617 0.10967983 1.7190222 10197915
-0.92511886 0.10976001 1.7204365 10197915
-0.87480056 0.10984114 1.7215506 10197915
-0.8251161 0.10992043 1.7229508 10197915
-0.7753557 0.11000067 1.7240509 10197915
-0.72517002 0.11008034 1.7256151 10197915
-0.67491871 0.11016179 1.7265761 10197915
-0.62493616 0.11024153 1.727984 10197915
-0.57489216 0.11032224 1.7290908 10197915
-0.52476496 0.11040223 1.7305027 10197915
-0.47227982 0.11050428 1.7253581 10197915
-0.42500544 0.11059155 1.7224 10197915
-0.37509307 0.11067218 1.723447 10197915
-0.32487032 0.11075277 1.7247021 10197915
-0.27505353 0.11083273 1.7259408 10197915
-0.22516024 0.11091275 1.7271932 10197915
-0.17754801 0.11100344 1.7232145 10197915
-0.12534343 0.11110202 1.7191429 10197915
-0.075186945 0.11118292 1.7202398 10197915
-0.024960864 0.11126313 1.7216359 10197915
0.02498485 0.11134329 1.7228765 10197915
0.075002573 0.11142355 1.7241186 10197915
0.13479365 0.10813832 1.7378869 9934743
0.17473191 0.10663966 1.7334481 9934743
0.22513479 0.10612275 1.717495 10000536
0.26276398 0.10595426 1.7044547 10197915
0.32506424 -0.80187464 1.7954998 11711154
0.075056106 -0.77053881 1.7689954 11711154
0.11457914 -0.76762557 1.7550071 11711154
0.31829619 -0.77212638 1.7765985 11711154
0.075471587 -0.72500098 1.7689508 11711154
0.11485475 -0.72500104 1.755002 11711154
0.31773198 -0.72498411 1.7753577 11711154
0.075518161 -0.67501956 1.7690424 11711154
0.11490303 -0.67501891 1.7550939 11711154
0.31792513 -0.67500985 1.7762768 11711154
-1.4102414 -0.60068655 1.7859074 6566193
-1.3846335 -0.60058701 1.7689238 6566193
-1.25476 -0.60035866 1.7909079 6566193
-1.2223686 -0.60024971 1.776044 6105642
-1.1752825 -0.60014492 1.7753943 6246223
-1.1294128 -0.60005641 1.7800856 6447714
-1.0934805 -0.60001576 1.7949957 6447714
-0.93929976 -0.61485922 1.7740937 6447714
0.075486369 -0.62498915 1.7691627 8750469
0.11489135 -0.62503034 1.7552053 9079434
0.31707746 -0.63394153 1.7741898 7960953
-1.1132799 -0.59997058 1.7603931 6447714
-1.0735627 -0.5999161 1.7731352 6447714
-1.0249867 -0.59981269 1.7742776 6447714
-0.97500736 -0.59970236 1.7739253 6447714
-0.94306827 -0.59966552 1.7808236 6447714
0.075488769 -0.57499528 1.7692665 6513507
0.11554675 -0.57490182 1.7550824 6513507
0.075489275 -0.52501416 1.7693672 6513507
0.11562069 -0.52499795 1.7551645 6513507
0.075548254 -0.47500852 1.7694548 6513507
0.11565134 -0.47502652 1.7552615 6513507
0.075481564 -0.42501748 1.7695873 6513507
0.11558746 -0.42501426 1.7553926 6513507
0.075526156 -0.37506276 1.7696786 6513507
0.1157988 -0.37476698 1.7554268 6513507
-1.1272259 -0.3103677 1.7725369 5659230
0.075540088 -0.32505992 1.7697829 6513507
0.1163495 -0.3249988 1.7553402 6513507
-1.4113352 -0.29124215 1.7879709 2039583
-1.3840194 -0.29114154 1.7680764 2039583
-1.2557871 -0.2909961 1.7931558 2041131
-1.2225221 -0.29089126 1.7753552 3694986
-1.1669394 -0.27679694 1.767803 2112601
-1.1297681 -0.27461699 1.7724283 5199196
0.075520545 -0.27503085 1.7698981 6513507
0.11638994 -0.27503577 1.7554336 6513507
-1.1602424 -0.22508259 1.7679993 1717069
-1.1302154 -0.22491182 1.7726476 5067611
0.07549379 -0.22503647 1.7700163 6513507
0.11629207 -0.22500068 1.7555768 6513507
-1.1602854 -0.17485178 1.768123 1585741
-1.1302863 -0.1750495 1.7728263 5068124
0.075517684 -0.17503613 1.7701159 6513507
0.11647248 -0.17492798 1.7556212 6513507
-1.1603584 -0.12468599 1.7682599 1388876
-1.1304349 -0.12503172 1.7729186 5067867
0.075625613 -0.12490538 1.7701869 6513507
0.11670775 -0.12482949 1.7556463 6513507
-1.1597793 -0.074266933 1.7681636 1257290
-1.1301006 -0.075096376 1.773145 5067867
0.075520605 -0.074830778 1.770332 6513507
0.11708235 -0.074915051 1.7556226 6513507
-1.1596357 -0.024906442 1.7682202 1125448
-1.1299536 -0.024981154 1.7735229 5067867
0.075504586 -0.024937892 1.7704458 6513507
0.11708942 -0.024730578 1.7557279 6513507
-1.1597284 0.024909081 1.7683585 1059655
-1.1300403 0.0249837 1.7736571 5264990
0.075154208 0.024761792 1.7706774 6513507
0.11673265 0.024998382 1.7559626 6513507
-1.1598202 0.074732564 1.7685 3689053
-1.130206 0.074976183 1.7736183 8290952
0.049415842 0.086293414 1.7802829 6513507
0.074793354 0.074834384 1.7709138 6513507
0.11641063 0.074910007 1.7561849 6513507
-1.4091285 0.10877702 1.7831491 10000536
-1.3861011 0.1088488 1.7710937 10066329
-1.2555267 0.10901503 1.7900561 10197915
-1.2237478 0.1090957 1.7800837 10197915
-1.1678668 0.10609047 1.7709085 10197915
-1.1279833 0.1052934 1.7746925 10197915
-1.0752542 0.10933589 1.7830976 10197915
-1.0244778 0.10944744 1.7734674 10197915
-0.97496772 0.10952798 1.7743117 10197915
-0.92516255 0.10960777 1.7756041 10197915
-0.87774283 0.10969651 1.7721965 10197915
-0.82532084 0.10979919 1.7667781 10197915
-0.77501267 0.10987934 1.7682387 10197915
-0.72463626 0.10996051 1.769374 10197915
-0.67490816 0.11003976 1.77082 10197915
-0.62511045 0.11011999 1.7719396 10197915
-0.57523912 0.11019945 1.7733902 10197915
-0.52529532 0.11027993 1.7745134 10197915
-0.47528052 0.11035962 1.7759688 10197915
-0.42519012 0.11044033 1.7770952 10197915
-0.37503088 0.11052024 1.7785519 10197915
-0.32516122 0.11060015 1.7798384 10197915
-0.27485535 0.11068122 1.7809709 10197915
-0.22483933 0.11076138 1.7822558 10197915
-0.1726463 0.11086643 1.7758452 10197915
-0.12491132 0.11095193 1.7737985 10197915
-0.074996643 0.11103313 1.7746353 10197915
-0.025018398 0.11111207 1.7763584 10197915
0.024980409 0.11073085 1.77107 10132122
0.07481388 0.10629946 1.7693149 9605778
0.11638912 0.10616148 1.7561512 9803157
0.33805978 -0.80978423 1.83216 11711154
0.33596566 -0.77487928 1.8265039 11711154
0.33565101 -0.72593337 1.8259809 11711154
0.33467114 -0.67498416 1.8235945 10790052
-1.4571997 -0.60092986 1.8408313 6566193
-1.4284154 -0.60081822 1.8218148 6566193
-1.3981544 -0.60070193 1.8023167 6566193
-1.2679375 -0.60048217 1.8278689 6368814
-1.2258809 -0.60037887 1.8235768 6039849
-1.1753664 -0.6002714 1.8247917 6443088
-1.1249619 -0.60016048 1.824577 6447714
-1.0769684 -0.60006464 1.8282431 6447714
-1.0398394 -0.60002214 1.8433914 6447714
-0.92135721 -0.61484855 1.8243648 6447714
0.33342487 -0.64242631 1.820317 6513507
-1.0596769 -0.5999788 1.8095047 6447714
-1.0224116 -0.59993184 1.8230177 6447714
-0.97501642 -0.59983528 1.8258291 6447714
-0.93466806 -0.59975612 1.8281949 6513507
-1.4576366 -0.29146734 1.8415155 2039583
-1.4296063 -0.29137224 1.8240401 2039583
-1.2689803 -0.29111484 1.8281821 2837614
-1.2273077 -0.29101503 1.8172925 2905989
-1.1964269 -0.29093453 1.8068295 1914961
-1.453871 0.10856583 1.8325453 10197915
-1.4270216 0.10864589 1.8198382 10197915
-1.2688221 0.10888739 1.8282591 10197915
-1.2282284 0.10896586 1.824422 10197915
-1.1994363 0.10903966 1.8151566 10197915
-1.1204545 0.10912681 1.8314638 10197915
-1.0749867 0.10920472 1.830803 10197915
-1.0249316 0.10928576 1.8317822 10197915
-0.97479463 0.10936597 1.8331264 10197915
-0.92496324 0.10944521 1.8346438 10197915
-0.87265456 0.10955023 1.8282946 10197915
-0.82629865 0.10964029 1.8237808 10197915
-0.77502334 0.10975152 1.8145741 10197915
-0.72481465 0.10983235 1.8157254 10197915
-0.67489928 0.10991221 1.8170459 10197915
-0.62491614 0.10999128 1.8187238 10197915
-0.57486284 0.11007237 1.8196931 10197915
-0.52472895 0.11015254 1.8210191 10197915
-0.47490159 0.11023182 1.8225157 10197915
-0.42499888 0.11031223 1.823658 10197915
-0.37502831 0.11039171 1.8251584 10197915
-0.32497945 0.11047228 1.8263041 10197915
-0.27486497 0.11055199 1.8278091 10197915
-0.22504938 0.11063176 1.8291272 10197915
-0.17516187 0.11071157 1.8304473 10197915
-0.12483066 0.1107926 1.8316002 10197915
-0.074797012 0.11087271 1.8329183 10197915
-0.025076248 0.11095178 1.8344185 10197915
0.026761543 0.11106081 1.8263346 10197915
0.34708348 -0.81576091 1.8576119 11711154
0.35207474 -0.81880802 1.8716921 11711154
0.34720355 -0.77523988 1.8582547 11711154
0.35216227 -0.77523291 1.8722656 11711154
0.346553 -0.72080618 1.8568237 11711154
0.35226184 -0.72512925 1.8729227 11711154
0.3458508 -0.67521989 1.8551811 9605778
0.35234708 -0.67723221 1.8735214 9145227
-1.5032352 -0.60116768 1.8943741 6566193
-1.4731992 -0.60105366 1.8755338 6566193
-1.4444357 -0.60094351 1.8571056 6566193
-1.3115952 -0.60071349 1.8809484 4933729
-1.2749454 -0.6006133 1.8731636 4148846
-1.2241734 -0.60050517 1.8743576 5913920
-1.1746678 -0.60039765 1.8747398 6447457
-1.125038 -0.60028839 1.8745948 6447714
-1.0756038 -0.60018224 1.875347 6447714
-1.0262773 -0.60007983 1.877598 6447714
-0.987472 -0.60002697 1.8901768 6513507
-0.90604007 -0.61474258 1.8672799 6513507
-0.89706981 -0.61520481 1.8924073 6513507
0.34514245 -0.64843374 1.8533801 6513507
-1.0068978 -0.59998566 1.8573647 6513507
-0.97112012 -0.59994346 1.8714489 6513507
-0.92659163 -0.59985989 1.8766979 6513507
-0.89782125 -0.59985638 1.8943653 6513507
-1.5042783 -0.29169679 1.8963678 2039583
-1.474486 -0.29159507 1.8775817 2039583
-1.4454389 -0.29149568 1.8591671 2039583
-1.3025322 -0.29124466 1.8548824 2039583
-1.2932407 -0.29122886 1.8547816 2112087
-1.4716805 0.108428 1.8717015 10197915
-1.444522 0.10851232 1.857623 10197915
-1.3117086 0.10867298 1.8799306 10197915
-1.2750697 0.10874835 1.8748462 10197915
-1.241552 0.10882726 1.866586 10197915
-1.1616687 0.10891537 1.8830911 10197915
-1.1249073 0.1089877 1.8791792 10197915
-1.0747082 0.10906842 1.8803643 10197915
-1.0248142 0.10914812 1.8817388 10197915
-0.97485405 0.10922687 1.8835095 10197915
-0.92481983 0.10930786 1.8844926 10197915
-0.87470627 0.10938793 1.8858724 10197915
-0.82606661 0.10949423 1.8768523 10197915
-0.77503389 0.10961674 1.8634024 10197915
-0.72500247 0.10969726 1.8645693 10197915
-0.6748932 0.10977683 1.8661239 10197915
-0.62471378 0.10985757 1.8672942 10197915
-0.57484019 0.1099373 1.8686492 10197915
-0.52490211 0.11001605 1.8703933 10197915
-0.47488877 0.11009705 1.8713648 10197915
-0.42479718 0.11017714 1.8727258 10197915
-0.37502536 0.11025615 1.8742722 10197915
-0.32517532 0.11033638 1.8754326 10197915
-0.27526107 0.11041563 1.8769834 10197915
-0.22526523 0.1104961 1.8781474 10197915
-0.17520785 0.11057556 1.8797021 10197915
-0.12545876 0.11065511 1.8810537 10197915
-0.075249314 0.11073589 1.8822236 10197915
-0.024970744 0.11081574 1.8837847 10197915
0.02499474 0.11089558 1.8851424 10197915
0.050783344 0.11093682 1.885843 10197915
-1.5185443 -0.60129136 1.9296441 6566193
-1.4903821 -0.60118341 1.911541 6566193
-1.3572079 -0.60096288 1.9393872 5397096
-1.3236779 -0.60085189 1.9247248 5336722
-1.2749425 -0.60074133 1.9232 2704737
-1.2253568 -0.60063577 1.9244207 5658716
-1.1747351 -0.60052657 1.9251096 6447714
-1.1249051 -0.60041624 1.9246285 6447714
-1.0750067 -0.60030603 1.9242738 6447714
-1.0244902 -0.60019642 1.9247265 6513507
-0.97559619 -0.60009497 1.9269021 6513507
-0.93437612 -0.60003406 1.9384253 6513507
-0.88543314 -0.61502737 1.9250072 6513507
-0.9541136 -0.59999073 1.9045866 6513507
-0.91953957 -0.59995139 1.918821 6513507
-0.89160573 -0.59992218 1.9305708 6513507
-1.1029754 -0.31086779 1.9490039 6513507
-1.0794951 -0.31061837 1.94305 6513507
-1.5102806 -0.27161515 1.9188246 4605510
-1.4909928 -0.29171982 1.9127851 2039583
-1.1025015 -0.27280831 1.9489081 6513507
-1.0791469 -0.27526706 1.9430541 6513507
-1.5105433 -0.22495143 1.9190056 6513507
-1.1020809 -0.2252602 1.94885 6513507
-1.0786568 -0.22488353 1.9430358 6513507
-1.5106367 -0.17499511 1.9191185 6513507
-1.1021485 -0.17521307 1.9489682 6513507
-1.0787309 -0.17476691 1.9431701 6513507
-1.5107356 -0.12503214 1.9192133 6513507
-1.102216 -0.12515976 1.9490871 6513507
-1.0794322 -0.12480606 1.9430027 6513507
-1.510784 -0.074942686 1.9194528 6513507
-1.1022832 -0.07510034 1.9492079 6513507
-1.0795238 -0.074865706 1.9431176 6513507
-1.5109311 -0.024933312 1.9194059 6513507
-1.1015224 -0.02635297 1.9490305 6513507
-1.0795939 -0.024956696 1.9432445 6513507
-1.5110244 0.024935313 1.9195204 6645093
-1.1014078 0.025032248 1.949088 6513507
-1.0796645 0.02495886 1.9433727 6513507
-1.5110583 0.074956648 1.9197992 10066329
-1.1014751 0.075100824 1.9492064 10066329
-1.0797348 0.074880965 1.9435002 10066329
-1.5105579 0.1046408 1.9193693 10132122
-1.4899883 0.10829208 1.9098624 10197915
-1.3574345 0.10843414 1.9387861 10197915
-1.3242574 0.10852367 1.9264508 10197915
-1.2852498 0.10859822 1.9230872 10197915
-1.2051079 0.10867707 1.9431297 10197915
-1.1736995 0.10876258 1.9311805 10197915
-1.1220262 0.10821123 1.9342179 10197915
-1.0778449 0.10574328 1.9392443 10197915
-1.0250947 0.10900157 1.9347008 10197915
-0.97783363 0.1090839 1.9335251 10197915
-0.92460442 0.10919934 1.9239645 10197915
-0.87502235 0.10927846 1.9253583 10197915
-0.82231218 0.10939308 1.9157758 10197915
-0.77504522 0.10947451 1.914932 10197915
-0.72520047 0.10955468 1.9161136 10197915
-0.67527837 0.1096338 1.9177178 10197915
-0.6252867 0.10971417 1.918903 10197915
-0.5752207 0.10979353 1.9205122 10197915
-0.52508193 0.10987416 1.921701 10197915
-0.47487125 0.10995372 1.9233141 10197915
-0.42458442 0.11003459 1.9245073 10197915
-0.37502226 0.11011312 1.9261024 10197915
-0.32498607 0.11019301 1.9275 10197915
-0.27448392 0.1102742 1.9286984 10197915
-0.22470176 0.11035312 1.9303002 10197915
-0.17484902 0.11043327 1.9314805 10132122
-0.12492482 0.11051239 1.9330863 9605778
-0.074926294 0.11059279 1.9342705 9145227
-0.024859414 0.11067214 1.9358809 8553090
0.023964114 0.1107847 1.9246887 9539985
0.051029764 0.11083025 1.9246027 9276813
-1.5635524 -0.60152555 1.9826164 6447457
-1.5370489 -0.60142899 1.9675592 6446943
-1.4017102 -0.60120553 1.9961177 6447714
-1.3701631 -0.60108835 1.9773415 5402767
-1.3249731 -0.60098004 1.9736705 3627644
-1.2749519 -0.60086954 1.9733076 4279640
-1.224861 -0.60075849 1.9728258 6447714
-1.1743083 -0.60065061 1.9739537 6447714
-1.1251646 -0.6005457 1.9749612 6513507
-1.0750569 -0.60043472 1.9745278 6513507
-1.025592 -0.60032737 1.9748952 6513507
-0.97516626 -0.60022104 1.9765964 6513507
-0.9251374 -0.60011041 1.9761332 6513507
-0.87125087 -0.61162508 1.9771185 6513507
-0.88106155 -0.59998018 1.9629793 6513507
-1.2227793 -0.31071225 1.991533 6513507
-1.1746538 -0.31076702 1.9744503 6513507
-1.1273781 -0.31069842 1.9576671 6513507
-1.0575628 -0.31061989 1.9713491 6513507
-1.0486987 -0.31055704 1.9963187 6513507
-1.2215035 -0.29511395 1.9918453 6513507
-1.1735978 -0.29430082 1.9783779 6513507
-1.126334 -0.29132584 1.961712 6513507
-1.0599669 -0.27772304 1.9653441 6513507
-1.0487702 -0.29548007 1.9962301 6513507
-1.106124 -0.22542605 1.9502844 6513507
-1.0609637 -0.22495 1.9624079 6513507
-1.1061919 -0.17534207 1.9504046 6513507
-1.0610487 -0.17499608 1.9625425 6513507
-1.1062596 -0.1252519 1.9505235 6513507
-1.0614223 -0.12493095 1.9618655 6513507
-1.1063275 -0.075155661 1.9506427 6513507
-1.0615546 -0.075186841 1.9618621 6513507
-1.1054552 -0.023544695 1.9504315 6513507
-1.0615979 -0.025198972 1.9621147 6513507
-1.1054512 0.025050681 1.9505229 6513507
-1.0616786 0.025201533 1.9622631 6513507
-1.1055189 0.075156145 1.9506422 10066329
-1.0617952 0.075204559 1.9623083 10066329
-1.53468 0.10803571 1.9756689 10197915
-1.4017495 0.10820812 1.993821 10197915
-1.3715914 0.10828945 1.9826194 10197915
-1.3284572 0.10837273 1.9785959 10197915
-1.219251 0.10852856 1.9883592 10197915
-1.1782967 0.108632 1.9757085 10197915
-1.1250695 0.10717376 1.9652969 10197915
-1.061096 0.10473537 1.9638346 10197915
-1.0250109 0.10888725 1.9761641 10197915
-0.97164094 0.10898966 1.9714245 10197915
