# .PCD v0.7 - Point Cloud Data file format
VERSION 0.7
FIELDS x y z rgb
SIZE 4 4 4 4
TYPE F F F U
COUNT 1 1 1 1
WIDTH 1156
HEIGHT 1
VIEWPOINT 0 0 0 1 0 0 0
POINTS 1156
DATA ascii
-0.42499635 0.11410589 0.82463872 10197915
-0.37487075 0.11402027 0.8240034 10197915
-0.324853 0.11393471 0.82339144 10197915
-0.27453184 0.11384686 0.82337981 10197915
-0.22496986 0.11375668 0.8245585 10197915
-0.17499416 0.11367122 0.82395113 10197915
-0.12542619 0.11358085 0.82521546 10197915
-0.075004183 0.11349303 0.82513136 10197915
-0.025007827 0.11340751 0.82452416 10197915
0.024982661 0.11332204 0.8239029 10197915
0.074999087 0.11323661 0.82325321 10197915
0.1253202 0.11314926 0.82307589 10197915
0.17500275 0.11305831 0.82444489 10197915
0.22468671 0.11297195 0.82430345 10197915
0.27504736 0.11287985 0.82565987 10197915
0.32511735 0.11279424 0.82503891 10197915
0.37511271 0.11270878 0.82440883 10197915
0.42499724 0.11262348 0.82379347 10197915
0.47500977 0.11253822 0.82310897 10197915
0.52522558 0.11245137 0.82282108 10197915
0.57502174 0.11235978 0.82434726 10197915
0.6235534 0.11227043 0.82584673 10197915
0.65876639 0.11216794 0.83942169 10197915
-0.70600146 0.11438552 0.89461386 10197915
-0.67245859 0.11437771 0.87778455 10197915
-0.62500823 0.11430076 0.87582129 10197915
-0.575028 0.11421521 0.87524772 10197915
-0.52500027 0.11412995 0.87455058 10197915
-0.47496682 0.11404447 0.87389463 10197915
-0.42496759 0.1139591 0.87324923 10197915
-0.37488267 0.11387348 0.87258691 10197915
-0.32441977 0.11378144 0.873918 10197915
-0.27550539 0.113694 0.87457067 10197915
-0.22502787 0.11360119 0.87608933 10197915
-0.17501192 0.11351601 0.87536955 10197915
-0.12498984 0.1134304 0.87476432 10197915
-0.0749631 0.11334516 0.87408841 10197915
-0.024971353 0.11325978 0.87343031 10197915
0.024986485 0.11317453 0.87276387 10197915
0.07537403 0.11308672 0.87266695 10197915
0.1246752 0.11299486 0.87456757 10197915
0.17501689 0.11290171 0.87628794 10197915
0.22498477 0.11281652 0.87559915 10197915
0.27499804 0.11273109 0.87495625 10197915
0.32489479 0.11264589 0.87428409 10197915
0.37487736 0.11256066 0.87358987 10197915
0.42498305 0.11247493 0.8730042 10197915
0.4749729 0.11238977 0.87228882 10197915
0.52532494 0.11229761 0.87366253 10197915
0.57500881 0.11220229 0.8764987 10197915
0.62500632 0.11211716 0.87576163 10197915
0.67212081 0.11202926 0.87761629 10197915
0.70531273 0.11192287 0.89364606 10197915
-0.75221092 0.11430464 0.94813126 10197915
-0.71976817 0.11430277 0.92998517 10197915
-0.67513311 0.11423889 0.92531848 10197915
-0.62497318 0.11415336 0.92460966 10197915
-0.57493645 0.11406797 0.92395169 10197915
-0.52497429 0.11398269 0.92328572 10197915
-0.47499007 0.11389752 0.9225738 10197915
-0.42435139 0.11380482 0.92396724 10197915
-0.37489355 0.11371769 0.92419308 10197915
-0.32552513 0.11362717 0.92562509 10197915
-0.27497795 0.11353813 0.92587054 10197915
-0.22499268 0.11345296 0.92515802 10197915
-0.17498562 0.1133676 0.92446965 10197915
-0.12500615 0.11328243 0.92378515 10197915
-0.075005904 0.11319722 0.92308116 10197915
-0.024985651 0.11311189 0.92239618 10197915
0.025647977 0.11301921 0.92380291 10197915
0.074604392 0.1129314 0.92455643 10197915
0.12502022 0.11283768 0.92641562 10197915
0.17502213 0.11275239 0.92573351 10197915
0.22504373 0.11266732 0.92498142 10197915
0.27503768 0.11258195 0.92432737 10197915
0.325003 0.1124967 0.92362249 10197915
0.37498942 0.11241148 0.92292869 10197915
0.42494538 0.11232655 0.9221366 10197915
0.47563174 0.11223353 0.92364472 10197915
0.52433318 0.11214217 0.92573708 10197915
0.57498312 0.11205207 0.92627442 10197915
0.62496912 0.11196692 0.92553526 10197915
0.67502177 0.11188148 0.92487115 10197915
0.71903139 0.11179341 0.92858434 10197915
0.75122738 0.11168482 0.94590372 10197915
0.79444188 -0.42714396 0.9996708 2894892
0.79471117 -0.37519929 0.99961311 2894892
0.79481179 -0.32513097 0.99973977 2894892
0.79491258 -0.27504998 0.99986643 2894892
0.79499066 -0.23613571 0.99996465 2894892
-0.76493961 0.11423006 0.98019743 10197915
-0.72508097 0.11417951 0.97387844 10197915
-0.67506593 0.11409435 0.97313786 10197915
-0.62418526 0.11400194 0.97430474 10197915
-0.57502562 0.1139137 0.97508264 10197915
-0.5250479 0.11382875 0.97430128 10197915
-0.47504389 0.11374343 0.97362715 10197915
-0.42580628 0.11365315 0.97503197 10197915
-0.37492859 0.11356296 0.97546893 10197915
-0.32491687 0.11347769 0.9747684 10197915
-0.27498186 0.1133927 0.9740234 10197915
-0.22500533 0.11330751 0.97332257 10197915
-0.17482522 0.11322154 0.97276485 10197915
-0.12499833 0.11312712 0.97520685 10197915
-0.074994333 0.11304187 0.97452408 10197915
-0.024965163 0.11295677 0.97375357 10197915
0.02424496 0.11286637 0.97522497 10197915
0.075007796 0.11277631 0.97568923 10197915
0.1249785 0.11269128 0.97492403 10197915
0.17498894 0.11260601 0.97423351 10197915
0.2250385 0.11252081 0.97349787 10197915
0.27506974 0.11243571 0.97272861 10197915
0.32593656 0.11234276 0.9740625 10197915
0.37512285 0.11225516 0.97462034 10197915
0.42507243 0.11217 0.9739117 10197915
0.47422546 0.11207973 0.97537374 10197915
0.52494448 0.11198959 0.97588325 10197915
0.57498604 0.11190451 0.9751088 10197915
0.624951 0.11181932 0.97441447 10197915
0.67495465 0.11173412 0.97370571 10197915
0.72499639 0.11164914 0.97288507 10197915
0.76413453 0.11156358 0.97859758 10197915
0.76347595 -0.45659304 1.034996 2894892
0.77286941 -0.42486846 1.024388 2894892
0.77316743 -0.3749938 1.0242889 2894892
0.77326173 -0.32499596 1.0244282 2894892
0.77337098 -0.27500397 1.0245416 2894892
0.77378201 -0.2249331 1.0243062 2894892
0.77401686 -0.17499958 1.0242811 2894892
0.77410704 -0.12499933 1.0244257 2894892
0.77422398 -0.075004645 1.0245291 2894892
0.77449304 -0.025039848 1.0244584 2894892
0.77462202 0.025008272 1.0245575 2894892
0.77474391 0.075000234 1.0246627 2894892
-0.81193948 0.11414513 1.0355053 10197915
-0.7748794 0.11411458 1.0241678 10197915
-0.72506338 0.1140305 1.0232106 10197915
-0.67502123 0.11394536 1.0224476 10197915
-0.62600702 0.11385651 1.0235208 10197915
-0.57497829 0.11376382 1.0246937 10197915
-0.52491975 0.11367892 1.0238425 10197915
-0.47431365 0.11358384 1.0260577 10197915
-0.4250274 0.11349766 1.0260793 10197915
-0.37495071 0.11341264 1.0252547 10197915
-0.32494771 0.11332751 1.0245218 10197915
-0.2750209 0.11324265 1.0237373 10197915
-0.22498624 0.11315758 1.0229677 10197915
-0.17514025 0.11307217 1.0224169 10197915
-0.12494233 0.11297605 1.0251857 10197915
-0.074981101 0.11289115 1.0244267 10197915
-0.025024498 0.11280628 1.0236348 10197915
0.025585929 0.1127107 1.0260065 10197915
0.075039558 0.11262477 1.0258551 10197915
0.1250343 0.11253984 1.0250467 10197915
0.1750142 0.11245462 1.0243443 10197915
0.22497883 0.11236981 1.0235336 10197915
0.27498856 0.1122849 1.0227247 10197915
0.32397711 0.1121956 1.0239333 10197915
0.37487766 0.11210336 1.025019 10197915
0.42494568 0.11201812 1.0242842 10197915
0.4750061 0.11193351 1.0233471 10197915
0.52550298 0.11183763 1.0258859 10197915
0.57508367 0.11175176 1.0256488 10197915
0.62505203 0.11166687 1.0248504 10197915
0.67494369 0.111582 1.0240911 10197915
0.72493953 0.11149712 1.023275 10197915
0.77357984 0.10654565 1.0233239 7895160
0.72618771 -0.46608141 1.0776633 2894892
0.75038522 -0.45284107 1.0500083 2894892
0.72904211 -0.42509159 1.0745877 2894892
0.75040293 -0.42315444 1.0501313 2894892
0.72897583 -0.37500858 1.074901 2894892
0.7502957 -0.37492967 1.0504869 2894892
0.72908485 -0.32499635 1.075029 2894892
0.75038838 -0.32513869 1.0506219 2894892
0.72915822 -0.27500263 1.0751708 2894892
0.75048339 -0.27511862 1.0507547 2894892
0.72936612 -0.22507529 1.0751905 2894892
0.75081754 -0.22502714 1.0506134 2894892
0.72959298 -0.1750136 1.0751653 2894892
0.75090718 -0.17485395 1.050753 2894892
0.72943616 -0.1250087 1.0755801 2894892
0.75076765 -0.12498238 1.0511534 2894892
0.72954285 -0.074993208 1.0757153 2894892
0.7508629 -0.074911587 1.0512868 2894892
0.72963816 -0.02500736 1.0758299 2894892
0.75117409 -0.024274703 1.0511752 2894892
0.72997582 0.024990067 1.0756967 2894892
0.75129145 0.02482583 1.0512774 2894892
0.73006499 0.074987724 1.0758364 2894892
0.75138682 0.074921526 1.0514106 2894892
-0.85851556 0.11406327 1.0895663 10197915
-0.82395095 0.11404306 1.0762542 10197915
-0.77496409 0.11396263 1.0745546 10197915
-0.72493607 0.11387768 1.0737433 10197915
-0.6749804 0.11379297 1.0728805 10197915
-0.62495238 0.11370791 1.072118 10197915
-0.57492268 0.1136226 1.0714129 10197915
-0.52434611 0.1135271 1.0737787 10197915
-0.47570607 0.11343285 1.0768642 10197915
-0.42504123 0.11334372 1.0770611 10197915
-0.37500536 0.11325864 1.0762923 10197915
-0.32489365 0.11317344 1.0755196 10197915
-0.2749331 0.11308872 1.0746647 10197915
-0.22497246 0.11300389 1.0738456 10197915
-0.17501289 0.11291891 1.0730888 10197915
-0.12497953 0.11283375 1.0723556 10197915
-0.074946895 0.11274923 1.0713902 10197915
-0.024121784 0.11265797 1.072222 10197915
0.024368297 0.11255825 1.0772032 10197915
0.075051099 0.11246924 1.0773379 10197915
0.1250172 0.11238462 1.0764631 10197915
0.17498223 0.11229986 1.0756285 10197915
0.22502026 0.11221474 1.0748624 10197915
0.27505597 0.11212987 1.0740131 10197915
0.3249419 0.11204502 1.0732495 10197915
0.37497452 0.11196014 1.0724016 10197915
0.42507732 0.11187518 1.0715481 10197915
0.47503152 0.11179011 1.0708096 10197915
0.5247618 0.11168377 1.0772597 10197915
0.57493675 0.1115955 1.0774586 10197915
0.62490296 0.11151067 1.0766666 10197915
0.67501372 0.11142583 1.0757591 10197915
0.7279411 0.10661718 1.074973 8092539
0.75123763 0.10600629 1.0517325 7829367
0.67261463 -0.50475305 1.1388345 2894892
0.68180275 -0.47472185 1.1284555 2894892
0.70329231 -0.47194085 1.1038556 2894892
0.68204653 -0.42501804 1.1284173 2894892
0.70357949 -0.42451498 1.1037554 2894892
0.68186432 -0.37500289 1.1288666 2894892
0.70349485 -0.37501073 1.1040915 2894892
0.68203735 -0.3250787 1.1289101 2894892
0.70358884 -0.32503098 1.1042261 2894892
0.68231839 -0.27500585 1.1288314 2894892
0.70367622 -0.275038 1.1043676 2894892
0.68240088 -0.22500849 1.1289761 2894892
0.70386803 -0.22458623 1.1043905 2894892
0.68249774 -0.17501368 1.1291068 2894892
0.70411444 -0.17495354 1.1043475 2894892
0.68256044 -0.12501286 1.1292766 2894892
0.70419794 -0.12494881 1.1044928 2894892
0.68262011 -0.075072929 1.1294507 2894892
0.70402521 -0.075071454 1.1049329 2894892
0.68273199 -0.025009884 1.1295644 2894892
0.70414436 -0.024984973 1.1050397 2894892
0.68281853 0.025014061 1.1297048 2894892
0.70448452 0.025043098 1.1048919 2894892
0.68294168 0.075004011 1.129807 2894892
0.70455408 0.075053386 1.1050526 2894892
-0.90348971 0.11398737 1.1407216 10197915
-0.87148732 0.11397779 1.1253831 10197915
-0.82502437 0.11389258 1.1267128 10197915
-0.77496856 0.11380784 1.125815 10197915
-0.72483057 0.11372259 1.1250312 10197915
-0.67484397 0.11363796 1.1241505 10197915
-0.62493348 0.11355308 1.123383 10197915
-0.57501882 0.11346884 1.1224065 10197915
-0.5258739 0.11337496 1.125055 10197915
-0.47505653 0.11328545 1.1253008 10197915
-0.42504078 0.11320091 1.1243588 10197915
-0.37491462 0.11311545 1.1236484 10197915
-0.32454199 0.11302847 1.1233063 10197915
-0.27502364 0.11293288 1.1263236 10197915
-0.22499919 0.11284748 1.1256608 10197915
-0.174972 0.11276297 1.124703 10197915
-0.12502009 0.11267795 1.1239706 10197915
-0.075065248 0.11259378 1.1229447 10197915
-0.02605495 0.11250613 1.1236223 10197915
0.024998447 0.11241004 1.1259096 10197915
0.074942619 0.11232556 1.1249944 10197915
0.12499846 0.11224055 1.1241781 10197915
0.17497849 0.11215601 1.1232601 10197915
0.22568361 0.11206663 1.1235212 10197915
0.27502915 0.11197256 1.1261297 10197915
0.32501453 0.11188762 1.1253325 10197915
0.37500268 0.11180293 1.1244385 10197915
0.42499194 0.11171792 1.12367 10197915
0.47505781 0.11163356 1.1226496 10197915
0.52476257 0.11153638 1.126071 10197915
0.57505995 0.11145012 1.1255336 10197915
0.62494791 0.11136536 1.1247474 10197915
0.68025237 0.10682479 1.1279074 8355711
0.70457655 0.10578502 1.1051151 7829367
0.63361955 -0.51472819 1.1834509 2894892
0.65631253 -0.50892472 1.1574872 2894892
0.63482136 -0.47502491 1.1822692 2894892
0.65648901 -0.47490302 1.1574483 2894892
0.63487536 -0.42500335 1.1824428 2894892
0.65655941 -0.42499626 1.1576085 2894892
0.63495338 -0.37498608 1.1825982 2894892
0.65663666 -0.37502083 1.1577631 2894892
0.63522667 -0.3250964 1.1825273 2894892
0.65680504 -0.32479349 1.1578126 2894892
0.63542557 -0.27500185 1.1825391 2894892
0.65709233 -0.27498767 1.1577243 2894892
0.63549495 -0.22500929 1.1827015 2894892
0.65717411 -0.22499424 1.1578712 2894892
0.63558424 -0.17499347 1.182842 2894892
0.65726364 -0.17498897 1.1580108 2894892
0.63544905 -0.12508936 1.1832399 2894892
0.65712476 -0.12482983 1.1584113 2894892
0.63570446 -0.075033173 1.1831893 2894892
0.65737879 -0.074816845 1.1583594 2894892
0.63582736 -0.025002003 1.183288 2894892
0.65749067 -0.0249565 1.1584753 2894892
0.63590163 0.024995763 1.1834438 2894892
0.65757275 0.024960695 1.1586241 2894892
0.63597417 0.075002596 1.1836041 2894892
0.65769607 0.074981846 1.1587262 2894892
-0.91688871 0.11389684 1.1784455 10197915
-0.87518221 0.11383627 1.1743653 10197915
-0.82505941 0.11373705 1.178236 10197915
-0.77498388 0.11365212 1.1773955 10197915
-0.72478598 0.11356705 1.1765157 10197915
-0.67485809 0.11348236 1.1756763 10197915
-0.62510473 0.11339832 1.1747276 10197915
-0.57503241 0.11331349 1.1738493 10197915
-0.52493632 0.11322853 1.1730083 10197915
-0.47501305 0.11314414 1.1720555 10197915
-0.42497024 0.11305889 1.1713309 10197915
-0.3744016 0.11297155 1.1710154 10197915
-0.32537842 0.11287455 1.1747657 10197915
-0.27496076 0.11277552 1.178393 10197915
-0.224994 0.11269057 1.1776237 10197915
-0.17500564 0.11260634 1.1765877 10197915
-0.12499454 0.11252145 1.1757772 10197915
-0.075058348 0.11243699 1.1748551 10197915
-0.025003605 0.11235202 1.1740481 10197915
0.024978498 0.1122674 1.1731634 10197915
0.074979119 0.11218315 1.1721261 10197915
0.12500347 0.11209797 1.1713934 10197915
0.1750481 0.11201335 1.170471 10197915
0.22519812 0.11191414 1.1743034 10197915
0.27508909 0.1118144 1.178476 10197915
0.32513341 0.11172917 1.1777382 10197915
0.37500656 0.1116449 1.1767683 10197915
0.42490017 0.11156043 1.1758809 10197915
0.4749127 0.11147551 1.1750642 10197915
0.52494496 0.11139092 1.1741345 10197915
0.5749979 0.11130641 1.1731645 10197915
0.63199317 0.1072473 1.1795686 8684676
0.65761518 0.10595164 1.158587 8092539
0.58145064 -0.55314881 1.2430187 2894892
0.58803028 -0.52475929 1.2356204 2894892
0.60950494 -0.52089673 1.2110409 2894892
0.58805686 -0.47515494 1.2358292 2894892
0.60980946 -0.47477674 1.2109118 2894892
0.5879398 -0.42499337 1.2362058 2894892
0.60970503 -0.42498973 1.2112741 2894892
0.58801794 -0.37497935 1.2363576 2894892
0.60978413 -0.3750166 1.2114247 2894892
0.58815539 -0.32512009 1.2364407 2894892
0.61005998 -0.32483706 1.2113531 2894892
0.58849871 -0.27501166 1.2362891 2894892
0.61026639 -0.27498531 1.2113554 2894892
0.58856624 -0.22499266 1.2364519 2894892
0.61032736 -0.22498457 1.2115275 2894892
0.5886417 -0.17499022 1.2366087 2894892
0.61040688 -0.17500311 1.211678 2894892
0.58873504 -0.12500441 1.2367418 2894892
0.6105026 -0.1249933 1.2118112 2894892
0.58888233 -0.075161211 1.2368156 2894892
0.61085665 -0.074947059 1.2116467 2894892
0.58891141 -0.025084771 1.2370262 2894892
0.61067897 -0.024928549 1.2120931 2894892
0.58894312 0.025008578 1.2372292 2894892
0.61072195 0.024995012 1.2122866 2894892
0.58899838 0.075000525 1.237408 2894892
0.61078078 0.07500577 1.2124568 2894892
-0.96418697 0.1138251 1.2295672 10197915
-0.9265222 0.11377878 1.2231131 10197915
-0.87508422 0.11368304 1.2250595 10197915
-0.82498562 0.11359859 1.2240385 10197915
-0.77386343 0.11350703 1.2247785 10197915
-0.72472602 0.11341268 1.2276044 10197915
-0.67478824 0.11332833 1.2266425 10197915
-0.62502921 0.11324416 1.2257348 10197915
-0.57503533 0.11315916 1.2249488 10197915
-0.52511805 0.11307514 1.223905 10197915
-0.47506917 0.11299046 1.2229899 10197915
-0.42499426 0.11290548 1.2221602 10197915
-0.37554565 0.11282051 1.2216876 10197915
-0.32496169 0.1127205 1.2255477 10197915
-0.27499652 0.11263549 1.2247925 10197915
-0.22497936 0.11255144 1.2236823 10197915
-0.17359723 0.11245698 1.2252409 10197915
-0.12497792 0.11236616 1.2271948 10197915
-0.074993312 0.11228107 1.2264478 10197915
-0.024981609 0.11219694 1.2253923 10197915
0.024956541 0.11211248 1.2244697 10197915
0.075020105 0.11202755 1.2236336 10197915
0.12510981 0.11194295 1.2226664 10197915
0.17502229 0.1118587 1.2216982 10197915
0.2237597 0.11176481 1.2246001 10197915
0.27499291 0.11167352 1.2251782 10197915
0.32525051 0.11158822 1.2243533 10197915
0.37518293 0.11150367 1.2234261 10197915
0.42629781 0.11140738 1.2257484 10197915
0.47495645 0.11131914 1.2268213 10197915
0.52498162 0.11123405 1.2260642 10197915
0.58290607 0.10767913 1.2317721 8947848
0.61068636 0.1059914 1.2120879 8289918
0.54055399 -0.56357825 1.2898111 2894892
0.56110561 -0.5582155 1.2662979 2894892
0.5411011 -0.52502084 1.2893714 2894892
0.56304711 -0.52493399 1.264235 2894892
0.54118401 -0.47497651 1.2895175 2894892
0.5631184 -0.47498125 1.2643938 2894892
0.54124749 -0.42498323 1.2896867 2894892
0.56317937 -0.42500371 1.2645657 2894892
0.54130924 -0.3749983 1.2898574 2894892
0.56325448 -0.37499812 1.2647202 2894892
0.5415175 -0.32543495 1.2898574 2894892
0.56333303 -0.32477602 1.2648746 2894892
0.54145181 -0.27496696 1.2901767 2894892
0.56339902 -0.27499944 1.2650391 2894892
0.54152352 -0.22496158 1.2903354 2894892
0.56346262 -0.22499762 1.2652075 2894892
0.54158467 -0.17498921 1.2905079 2894892
0.56354231 -0.17500937 1.2653557 2894892
0.54165578 -0.12500493 1.2906671 2894892
0.56361902 -0.12498195 1.2655119 2894892
0.54189754 -0.075363331 1.2906306 2894892
0.56377357 -0.07481581 1.2655749 2894892
0.54215163 -0.025081117 1.2905827 2894892
0.56410944 -0.024981165 1.2654339 2894892
0.54222643 0.025061198 1.2907397 2894892
0.56418085 0.024985356 1.2655928 2894892
0.54229748 0.075067751 1.2908995 2894892
0.56423438 0.074962258 1.2657716 2894892
-1.0099472 0.11374764 1.2816929 10197915
-0.97357631 0.11370507 1.2747291 10197915
-0.92511779 0.11361836 1.2754359 10197915
-0.87510824 0.11353338 1.2746359 10197915
-0.82506615 0.11344892 1.2736388 10197915
-0.77601475 0.11336233 1.2739683 10197915
-0.7252301 0.11326271 1.2775675 10197915
-0.67523772 0.11317822 1.2766167 10197915
-0.62492293 0.11309329 1.275625 10197915
-0.57494968 0.11300918 1.2745813 10197915
-0.52504927 0.11292478 1.2736617 10197915
-0.47509298 0.11283976 1.2728934 10197915
-0.42507544 0.11275593 1.2717268 10197915
-0.37389943 0.11266385 1.2726256 10197915
-0.32502607 0.1125692 1.2756811 10197915
-0.27503633 0.11248474 1.2747264 10197915
-0.22501506 0.11240038 1.2737186 10197915
-0.1763881 0.11231212 1.2748241 10197915
-0.12505345 0.11221379 1.2776812 10197915
-0.075108476 0.11212973 1.2766267 10197915
-0.0251082 0.11204515 1.2757288 10197915
0.025082871 0.1119604 1.2747639 10197915
0.074932583 0.11187637 1.2737423 10197915
0.12484048 0.11179181 1.2728759 10197915
0.17493474 0.11170729 1.2718822 10197915
0.22495423 0.11162312 1.2708303 10197915
0.27534604 0.11152086 1.2755218 10197915
0.32501188 0.11143669 1.2746692 10197915
0.37500289 0.11135145 1.273948 10197915
0.42368808 0.11126086 1.275775 10197915
0.47509566 0.11116505 1.2777641 10197915
0.53409117 0.10796797 1.2842976 9211020
0.56387377 0.10589296 1.2656651 8421504
0.49050224 -0.60136747 1.3469564 2894892
0.49402636 -0.57478696 1.3430482 2894892
0.51525581 -0.57002652 1.3187555 2894892
0.49410409 -0.52525878 1.3431983 2894892
0.51636124 -0.52492172 1.3177071 2894892
0.49420515 -0.474996 1.3433261 2894892
0.51610005 -0.47497186 1.3182462 2894892
0.49425077 -0.42500228 1.3435148 2894892
0.51616925 -0.4249973 1.3184083 2894892
0.49431771 -0.37499514 1.3436801 2894892
0.51622057 -0.37499711 1.3185935 2894892
0.49438781 -0.32497591 1.3438408 2894892
0.51651573 -0.32484853 1.3184943 2894892
0.49446085 -0.27498391 1.3439994 2894892
0.51673836 -0.27501523 1.318485 2894892
0.49479294 -0.22534855 1.3438581 2894892
0.51680166 -0.2250137 1.3186524 2894892
0.49495891 -0.17499474 1.3439115 2894892
0.5168637 -0.1749872 1.3188219 2894892
0.49502805 -0.12503025 1.3440737 2894892
0.51692599 -0.12499754 1.3189938 2894892
0.49509579 -0.075096808 1.344237 2894892
0.51718313 -0.074824303 1.3189398 2894892
0.49514389 -0.025063518 1.3444242 2894892
0.5174365 -0.024964746 1.3188919 2894892
0.4953815 0.02456419 1.3443923 2894892
0.51750171 0.024968944 1.3190583 2894892
0.49567014 0.075140424 1.3443056 2894892
0.51757979 0.074961312 1.3192096 2894892
-1.0561336 0.11366639 1.3353257 10197915
-1.0222293 0.11364816 1.3217139 10197915
-0.97639489 0.11355095 1.3274468 10197915
-0.9249925 0.11345515 1.3294029 10197915
-0.87505019 0.11337112 1.3283477 10197915
-0.82490373 0.11328591 1.3275641 10197915
-0.77483082 0.11320195 1.3263661 10197915
-0.72511148 0.11311786 1.3254509 10197915
-0.6751864 0.11303359 1.3244671 10197915
-0.62506139 0.1129493 1.3234053 10197915
-0.57500941 0.1128646 1.3224864 10197915
-0.52489537 0.1127799 1.3215296 10197915
-0.47499347 0.1126962 1.320405 10197915
-0.42503071 0.11261131 1.3195893 10197915
-0.3748621 0.11251551 1.3222809 10197915
-0.32495719 0.11240494 1.3300499 10197915
-0.27488649 0.11232093 1.3289108 10197915
-0.22488761 0.11223612 1.3280529 10197915
-0.17496541 0.11215231 1.3269166 10197915
-0.12498028 0.11206767 1.3260244 10197915
-0.07493417 0.11198311 1.3250946 10197915
-0.024961626 0.11189899 1.3240287 10197915
0.024936605 0.11181489 1.3230329 10197915
0.075031117 0.11173055 1.3219666 10197915
0.12505184 0.11164601 1.3210346 10197915
0.17499605 0.11156193 1.3199718 10197915
0.22513643 0.11147673 1.3191742 10197915
0.2764357 0.11136223 1.3274276 10197915
0.32485753 0.1112709 1.3296695 10197915
0.3748399 0.11118685 1.3285592 10197915
0.42487982 0.11110224 1.327618 10197915
0.48251295 0.10887744 1.3331714 9605778
0.51688999 0.10602858 1.3189653 8684676
0.44714591 -0.61244464 1.3965623 2894892
0.46482089 -0.60788614 1.3763394 2894892
0.44726446 -0.57504612 1.3966075 2894892
0.46931773 -0.57498837 1.3713491 2894892
0.44730985 -0.52502209 1.3967973 2894892
0.46934426 -0.52493781 1.3715589 2894892
0.44737202 -0.47498545 1.3969678 2894892
0.46982229 -0.47496453 1.3712541 2894892
0.44777906 -0.42554897 1.3967406 2894892
0.46986508 -0.4250015 1.3714458 2894892
0.44755501 -0.37557882 1.3972387 2894892
0.46958941 -0.3749519 1.3720034 2894892
0.44754824 -0.32491603 1.3974915 2894892
0.46959263 -0.32501936 1.3722413 2894892
0.44759685 -0.27504387 1.3976763 2894892
0.46964562 -0.27501324 1.3724216 2894892
0.44764525 -0.22515808 1.3978616 2894892
0.4700115 -0.224916 1.3722446 2894892
0.44783032 -0.17626776 1.3978858 2894892
0.47017157 -0.17501329 1.3723028 2894892
0.44820079 -0.1247889 1.3977107 2894892
0.47025114 -0.12501019 1.3724525 2894892
0.44824788 -0.074707597 1.3978988 2894892
0.47027218 -0.074994139 1.3726708 2894892
0.44830441 -0.024905318 1.3980749 2894892
0.47035697 -0.024990723 1.3728157 2894892
0.44836065 0.024909502 1.3982511 2894892
0.47061598 0.02511484 1.3727614 2894892
0.44841719 0.074736856 1.3984264 2894892
0.470846 0.074988216 1.3727375 2894892
-1.1035038 0.11357903 1.3916483 10197915
-1.0705996 0.11357338 1.3744949 10197915
-1.0257578 0.11350688 1.3705586 10197915
-0.97523683 0.11340366 1.375518 10197915
-0.92515785 0.11331926 1.3744949 10197915
-0.87496382 0.11323469 1.3734685 10197915
-0.82438493 0.11313057 1.378692 10197915
-0.77505302 0.11304609 1.3781322 10197915
-0.72512907 0.11296222 1.3770266 10197915
-0.67527479 0.11287785 1.3760824 10197915
-0.62506557 0.11279322 1.3750894 10197915
-0.57493269 0.11270896 1.3739456 10197915
-0.52501637 0.11262461 1.3729953 10197915
-0.47503296 0.1125405 1.3720076 10197915
-0.42497882 0.11245657 1.3708283 10197915
-0.37655389 0.11236893 1.3718381 10197915
-0.32502735 0.1122676 1.3755639 10197915
-0.27505058 0.1121831 1.3746361 10197915
-0.22515117 0.11209929 1.3735023 10197915
-0.17341362 0.11199874 1.3768626 10197915
-0.12490339 0.11190982 1.3782443 10197915
-0.074885532 0.11182603 1.3770536 10197915
-0.024946706 0.11174157 1.3761718 10197915
0.025063904 0.11165763 1.3750196 10197915
0.074996166 0.11157309 1.374177 10197915
0.12499489 0.11148958 1.3729094 10197915
0.17506194 0.1114049 1.3719091 10197915
0.22490978 0.11132035 1.3711051 10197915
0.27320322 0.11123059 1.3729095 10197915
0.32503277 0.11113174 1.375614 10197915
0.37490225 0.11104783 1.3745763 10197915
0.4301835 0.10968949 1.3790256 9803157
0.47019786 0.10601737 1.3721042 8882055
0.43479282 -0.61557591 1.4106957 2894892
0.43528384 -0.57501471 1.4103287 2894892
0.4353503 -0.5249995 1.4104941 2894892
0.43539685 -0.47500068 1.4106834 2894892
0.43581215 -0.42486557 1.4104506 2894892
0.43594667 -0.37500644 1.4105358 2894892
0.43599567 -0.32500392 1.410724 2894892
0.4360542 -0.27498928 1.4108984 2894892
0.43611005 -0.22498839 1.411074 2894892
0.43631455 -0.17473938 1.4110844 2894892
0.43663809 -0.12498882 1.4109559 2894892
0.43670848 -0.075058185 1.411116 2894892
0.4367581 -0.025065638 1.4112974 2894892
0.43681404 0.02506987 1.4114763 2894892
0.43729252 0.07502003 1.4111695 2894892
-1.1517017 0.11348885 1.4494025 10197915
-1.1195198 0.11348366 1.4324976 10197915
-1.0750346 0.11342602 1.4258422 10197915
-1.025097 0.11334135 1.424998 10197915
-0.97522759 0.11325725 1.4239868 10197915
-0.9251374 0.11317364 1.422714 10197915
-0.87497002 0.11308891 1.4217354 10197915
-0.82566696 0.11298768 1.4267455 10197915
-0.77492809 0.11289866 1.4268681 10197915
-0.72513145 0.11281521 1.4256929 10197915
-0.67500997 0.11273087 1.4246294 10197915
-0.62496614 0.11264667 1.4235626 10197915
-0.57519263 0.11256255 1.4226195 10197915
-0.52509886 0.11247858 1.4214416 10197915
-0.47417355 0.11237439 1.4264852 10197915
-0.42507443 0.1122881 1.4266642 10197915
-0.37500271 0.11220448 1.4253792 10197915
-0.32500258 0.11211994 1.4244413 10197915
-0.27493423 0.11203623 1.4231985 10197915
-0.22493714 0.1119516 1.4223025 10197915
-0.17670888 0.11185896 1.4250742 10197915
-0.12497041 0.11176213 1.4272128 10197915
-0.075047031 0.11167745 1.4263703 10197915
-0.024999339 0.1115936 1.4251823 10197915
0.024974255 0.11150961 1.4241089 10197915
0.075065777 0.11142534 1.4230329 10197915
0.12508483 0.11134123 1.4219582 10197915
0.17554294 0.11125426 1.4215513 10197915
0.22496012 0.11115116 1.4271137 10197915
0.27500498 0.11106671 1.4261189 10197915
0.32497567 0.11098292 1.4249537 10197915
0.37487182 0.11089901 1.4238759 10197915
0.43031016 0.10746398 1.4148347 9342606
-1.1612223 -0.65811735 1.4889555 6447714
-1.1492237 -0.66033775 1.4994452 6447714
-1.1625221 -0.62501359 1.4878653 6447714
-1.1492484 -0.62494248 1.4994768 6447714
-1.1625735 -0.57499301 1.4878985 6447714
-1.149282 -0.57526225 1.499521 6447714
-1.1626152 -0.52500588 1.4879389 6447714
-1.1493164 -0.52495801 1.4995661 6447714
-1.1626285 -0.47499782 1.4879959 6447714
-1.149351 -0.47465077 1.4996109 6447714
-1.1626673 -0.42498654 1.4880363 6447714
-1.1493986 -0.42585373 1.4996418 6447714
-1.1627008 -0.37500936 1.4880871 6447714
-1.149791 -0.37518829 1.4993745 6447714
-1.1627535 -0.3250469 1.4881151 6447714
-1.1498255 -0.32488298 1.4994195 6447714
-1.1627648 -0.27502647 1.4881707 6447714
-1.14986 -0.27457473 1.4994643 6447714
-1.1628155 -0.22498567 1.4882116 6447714
-1.1498939 -0.2248846 1.4995086 6447714
-1.1628578 -0.17497796 1.4882495 6447714
-1.1499283 -0.17519149 1.499553 6447714
-1.1628959 -0.12502162 1.4882902 6447714
-1.1499625 -0.12487423 1.4995981 6447714
-1.1627069 -0.074885294 1.4885414 6447714
-1.1499902 -0.084494106 1.4996341 6447714
-1.1626389 -0.025024537 1.4886782 6447714
-1.1626731 0.025008066 1.4887257 6447714
-1.1626287 0.075022958 1.4889292 7171437
-1.1625679 0.10726766 1.4877923 10197915
-1.1249527 0.11335328 1.4788165 10197915
-1.0751424 0.11326879 1.4779804 10197915
-1.0251946 0.11318521 1.4767588 10197915
-0.97491121 0.11310069 1.4756563 10197915
-0.92490524 0.11301627 1.4746857 10197915
-0.87497658 0.11293275 1.4734643 10197915
-0.82491678 0.11284858 1.4723666 10197915
-0.77492827 0.11276458 1.4712706 10197915
-0.72501761 0.11268068 1.4701756 10197915
-0.67382944 0.11258817 1.4711978 10197915
-0.62495941 0.11248907 1.475734 10197915
-0.57485753 0.11240532 1.4744891 10197915
-0.52498287 0.11232121 1.4734826 10197915
-0.47614035 0.11222088 1.4784601 10197915
-0.42503396 0.11212998 1.4789805 10197915
-0.37512356 0.11204614 1.4778748 10197915
-0.32507944 0.11196206 1.4767655 10197915
-0.27511191 0.1118777 1.4757867 10197915
-0.22501712 0.11179432 1.4744238 10197915
-0.17499524 0.11170989 1.4734397 10197915
-0.12504923 0.1116256 1.47246 10197915
-0.074972197 0.11154221 1.471099 10197915
-0.024976393 0.11145748 1.4702424 10197915
0.025153119 0.1113737 1.4690087 10197915
0.075040959 0.11126594 1.4758329 10197915
0.12492395 0.11118289 1.4744834 10197915
0.1744619 0.1110981 1.4739012 10197915
0.2250441 0.1109905 1.4802629 10197915
0.27491644 0.11090715 1.4790168 10197915
0.32491371 0.11082317 1.4778997 10197915
0.375043 0.11073859 1.4769028 10197915
0.42201599 0.11065698 1.4767202 10197915
-1.1222117 -0.66572267 1.5230598 6447714
-1.0958455 -0.67085689 1.5461099 6447714
-1.1247257 -0.62499827 1.5209236 6447714
-1.0959562 -0.62498081 1.5460823 6447714
-1.1247702 -0.57498747 1.5209581 6447714
-1.0959721 -0.57503653 1.5461417 6447714
-1.1247877 -0.52498323 1.5210205 6447714
-1.096007 -0.52503121 1.546186 6447714
-1.1247808 -0.47496119 1.5210972 6447714
-1.0960002 -0.4752346 1.5462661 6447714
-1.1245164 -0.42497116 1.5214049 6447714
-1.0956892 -0.42507192 1.5466133 6447714
-1.1249031 -0.37499404 1.5211383 6447714
-1.0957075 -0.37510473 1.5466719 6447714
-1.1249248 -0.32498568 1.5211964 6447714
-1.0957476 -0.32507044 1.546712 6447714
-1.1249672 -0.27501348 1.5212333 6447714
-1.0957822 -0.2749694 1.5467561 6447714
-1.1249914 -0.22503766 1.5212864 6447714
-1.0958058 -0.22492942 1.5468098 6447714
-1.1250231 -0.17502044 1.5213351 6447714
-1.0958387 -0.17495029 1.5468558 6447714
-1.1250734 -0.12498111 1.5213636 6447714
-1.0962445 -0.12507631 1.5465748 6447714
-1.1250621 -0.07496763 1.5214491 6447714
-1.0963 -0.074966297 1.5466014 6447714
-1.1251531 -0.024991045 1.5214398 6447714
-1.0963327 -0.024989432 1.5466474 6447714
-1.1251882 0.024992023 1.5214877 6447714
-1.0963651 0.024990415 1.5466937 6447714
-1.1251608 0.074964881 1.5215857 7171437
-1.0963975 0.074973233 1.5467397 7237230
-1.1246864 0.10701728 1.5211699 10197915
-1.0843172 0.11018968 1.5347965 10197915
-1.0251639 0.11304154 1.524317 10197915
-0.97518307 0.11295763 1.5231892 10197915
-0.92505944 0.11287307 1.5221924 10197915
-0.87501305 0.11278947 1.5209217 10197915
-0.82504046 0.11270601 1.5196491 10197915
-0.77514362 0.1126214 1.5187978 10197915
-0.72510767 0.11253782 1.5175282 10197915
-0.67507023 0.11242896 1.5246228 10197915
-0.6250633 0.11232065 1.5315658 10197915
-0.57513452 0.11223601 1.530707 10197915
-0.52507001 0.11215241 1.5294209 10197915
-0.47486725 0.11206862 1.5281309 10197915
-0.42495462 0.11198404 1.5272703 10197915
-0.37511393 0.11190081 1.5259899 10197915
-0.32513452 0.11181694 1.5248464 10197915
-0.2750223 0.11173286 1.5236998 10197915
-0.22498174 0.11164892 1.5225543 10197915
-0.17501995 0.11156508 1.5214114 10197915
-0.12491924 0.11148102 1.520265 10197915
-0.074898489 0.11139666 1.5192608 10197915
-0.024949957 0.11131325 1.5179777 10197915
0.025496326 0.11122621 1.5176524 10197915
0.075117581 0.11109525 1.5323197 10197915
0.1251764 0.11101127 1.5311611 10197915
0.17515583 0.11092748 1.5300059 10197915
0.22506371 0.11084376 1.5288509 10197915
0.27489254 0.11076016 1.5276986 10197915
0.32506612 0.1106756 1.5266788 10197915
0.3751677 0.11059199 1.5253789 10197915
0.42498198 0.11050792 1.524367 10197915
0.45501977 0.11043988 1.5295188 9539985
-1.0583208 -0.70316476 1.578878 11711154
-1.0414338 -0.70654464 1.5936408 11711154
-1.0706463 -0.67436486 1.5681406 10790052
-1.0421431 -0.67503434 1.5930674 11711154
-1.0710878 -0.6250177 1.5678335 10724259
-1.0421593 -0.62499774 1.5931287 11711154
-1.0711143 -0.57500821 1.5678836 7237230
-1.0421866 -0.57495821 1.5931792 7434609
-1.0711385 -0.52500838 1.5679328 6447714
-1.0422279 -0.52495009 1.5932189 6447714
-1.071179 -0.47500536 1.5679703 6447714
-1.0422537 -0.47497398 1.593267 6447714
-1.0712119 -0.42499921 1.5680193 6447714
-1.0422823 -0.42499521 1.5933218 6447714
-1.0712517 -0.37499002 1.5680623 6447714
-1.0425258 -0.37531275 1.5931821 6447714
-1.0712613 -0.32499069 1.5681275 6447714
-1.0427681 -0.32496616 1.5930389 6447714
-1.0713112 -0.2749759 1.5681556 6447714
-1.0428061 -0.27503633 1.5930867 6447714
-1.0713309 -0.22497073 1.5682099 6447714
-1.0428177 -0.22502945 1.5931479 6447714
-1.0713626 -0.17497523 1.568258 6447714
-1.0428523 -0.17498292 1.5931954 6447714
-1.0715864 -0.12485237 1.5681434 6447714
-1.042715 -0.12544353 1.5933869 6447714
-1.0714037 -0.075002834 1.568377 6447714
-1.0425129 -0.075189471 1.5936379 6447714
-1.0715189 -0.024998989 1.5683484 6447714
-1.042524 -0.025089465 1.5937028 6447714
-1.0715498 0.025000021 1.5683903 6447714
-1.0425555 0.025090463 1.5937532 6447714
-1.0715054 0.074997537 1.5685078 7237230
-1.0426056 0.07519643 1.5937834 7303023
-1.0710356 0.1068982 1.5682181 10197915
-1.0352641 0.1090589 1.5859884 10197915
-0.97525293 0.11280465 1.5738783 10197915
-0.92522395 0.11272034 1.572863 10197915
-0.87505335 0.11263715 1.5713836 10197915
-0.82495546 0.11255222 1.5705174 10197915
-0.77493089 0.11246932 1.5690416 10197915
-0.72498584 0.11238468 1.5681792 10197915
-0.67699623 0.11228637 1.5729644 10197915
-0.62521011 0.11219163 1.5743818 10197915
-0.57269764 0.11208894 1.578002 10197915
-0.52505744 0.11199698 1.5808876 10197915
-0.47514445 0.11191288 1.5798638 10197915
-0.42508361 0.11182995 1.5783691 10197915
-0.37510461 0.11174522 1.5774972 10197915
-0.32497463 0.11166173 1.5761578 10197915
-0.27492237 0.11157738 1.575128 10197915
-0.22494815 0.11149459 1.5736369 10197915
-0.17482845 0.11141015 1.5726063 10197915
-0.1250021 0.1113262 1.5715809 10197915
-0.075031698 0.11124291 1.5702463 10197915
-0.024922775 0.11115894 1.5690613 10197915
0.024502395 0.11107481 1.5683552 10197915
0.075060003 0.11096461 1.5756058 10197915
0.12490331 0.11088146 1.5743055 10197915
0.17722665 0.11078298 1.5766543 10197915
0.22508006 0.11068662 1.5808848 10197915
0.27508658 0.11060284 1.5796896 10197915
0.32523051 0.11051887 1.5784891 10197915
0.37530228 0.11043499 1.5772917 10197915
0.42529392 0.11035118 1.5760944 7829367
0.46244758 0.11028047 1.5780076 3092271
-1.0152953 -0.71162814 1.6164908 11711154
-0.99277663 -0.7160446 1.6361784 11711154
-1.0170103 -0.6749959 1.6150448 11711154
-0.99297768 -0.67499924 1.6360644 11711154
-1.0170456 -0.62499982 1.6150894 11711154
-0.99300933 -0.62499619 1.6361107 11711154
-1.0170763 -0.57500106 1.6151425 7500402
-0.98935002 -0.57293195 1.6393882 7171437
-1.0171198 -0.52499896 1.6151752 6447714
-0.98863482 -0.52501297 1.640087 6447714
-1.0171283 -0.47499427 1.6152391 6447714
-0.98864609 -0.47499064 1.6401504 6447714
-1.0171801 -0.42498621 1.6152692 6447714
-0.98869491 -0.42499307 1.6401815 6447714
-1.0174154 -0.37483722 1.6151444 6447714
-0.98870486 -0.37501937 1.6402458 6447714
-1.0176808 -0.32500699 1.6149869 6447714
-0.98875672 -0.32504269 1.6402773 6447714
-1.0176915 -0.27499774 1.6150413 6447714
-0.98877078 -0.27503607 1.6403402 6447714
-1.0177051 -0.22498547 1.6151053 6447714
-0.98880661 -0.22502606 1.6403822 6447714
-1.017753 -0.17500313 1.6151464 6447714
-0.98883343 -0.17504117 1.6404339 6447714
-1.0178055 -0.12496872 1.6151739 6447714
-0.98884088 -0.12502445 1.6405045 6447714
-1.0177635 -0.074914277 1.6152809 6447714
-0.9889456 -0.075143725 1.6404847 6447714
-1.0178837 -0.024957763 1.6152495 6447714
-0.98890126 -0.025148043 1.6405993 6447714
-1.0179201 0.024958733 1.615298 6447714
-0.98936552 0.025115548 1.6402676 6447714
-1.0178591 0.074921153 1.6154256 7303023
-0.98947829 0.075148754 1.6402439 7368816
-1.0176716 0.1066561 1.615219 10197915
-0.98428041 0.10823866 1.6359208 10197915
-0.92494708 0.11255684 1.6268414 10197915
-0.87509412 0.11247339 1.6256359 10197915
-0.82509029 0.1123902 1.6242585 10197915
-0.77493566 0.11230523 1.6233824 10197915
-0.72485405 0.1122219 1.6220006 10197915
-0.67507112 0.11213855 1.6207962 10197915
-0.62491477 0.11205459 1.6195871 10197915
-0.57729429 0.11196477 1.6217811 10197915
-0.52493352 0.11185883 1.626578 10197915
-0.47471017 0.11177476 1.6253557 10197915
-0.42490128 0.11169182 1.6240152 10197915
-0.37516934 0.11160817 1.6229333 10197915
-0.3227149 0.11150838 1.6256343 10197915
-0.27482128 0.11141259 1.6296479 10197915
-0.22490768 0.11132858 1.6285945 10197915
-0.17507383 0.11124466 1.6275474 10197915
-0.12486418 0.11116117 1.6261495 10197915
-0.074951552 0.11107766 1.6249241 10197915
-0.025118053 0.11099427 1.6237088 10197915
0.025092736 0.11091035 1.6224808 10197915
0.075002462 0.11082637 1.6214273 10197915
0.1248338 0.110744 1.6198704 10197915
0.17285 0.11065705 1.6208853 10197915
0.22480223 0.11054786 1.6269877 10197915
0.2748073 0.11046381 1.625883 10197915
0.32507828 0.11037973 1.6246454 10197915
0.37527305 0.11029577 1.6234094 9276813
0.42505357 0.1102128 1.6220564 3289650
0.47232756 0.11010725 1.6296368 2894892
-0.9638021 -0.56876272 1.661739 6447714
-0.93508351 -0.56882036 1.6868534 6447714
-0.96384096 -0.5250144 1.6617713 6447714
-0.93508255 -0.52500355 1.6869199 6447714
-0.96386033 -0.47502407 1.6618249 6447714
-0.93511379 -0.47498295 1.6869657 6447714
-0.96388668 -0.42503038 1.6618819 6447714
-0.93514299 -0.42498145 1.6870148 6447714
-0.96392274 -0.3750107 1.6619202 6447714
-0.93516618 -0.3749983 1.6870716 6447714
-0.96395522 -0.32498875 1.6619698 6447714
-0.93521333 -0.32501224 1.6871029 6447714
-0.96396548 -0.27498618 1.662034 6447714
-0.93570697 -0.27501255 1.6867473 6447714
-0.96400785 -0.22498097 1.6620735 6447714
-0.93569875 -0.22502093 1.6868272 6447714
-0.96403086 -0.17497209 1.6621251 6447714
-0.93577957 -0.17504908 1.6868318 6447714
-0.96405429 -0.12498442 1.6621827 6447714
-0.9357394 -0.12505157 1.6869411 6447714
-0.9641062 -0.074877806 1.6622066 6447714
-0.93587363 -0.075164944 1.6868998 6447714
-0.9641344 -0.024884891 1.6622603 6447714
-0.935799 -0.025161006 1.6870391 6447714
-0.96461201 0.024920911 1.6619159 6447714
-0.93582785 0.025162011 1.6870892 6447714
-0.96464151 0.074894682 1.6619653 7368816
-0.9359563 0.075171888 1.6870503 7434609
-0.96434361 0.10638797 1.662147 10197915
-0.93340892 0.10735831 1.6846861 10197915
-0.87540519 0.11232907 1.6736044 10197915
-0.82521123 0.11224474 1.6724932 10197915
-0.77509111 0.11216136 1.6711061 10197915
-0.72253299 0.11205657 1.6754016 10197915
-0.67503047 0.11196397 1.6785803 10197915
-0.62519193 0.11188068 1.677332 10197915
-0.57495636 0.11179617 1.6762601 10197915
-0.52479833 0.11171291 1.6748161 10197915
-0.47494754 0.11163015 1.6733835 10197915
-0.42494151 0.11154544 1.6725004 10197915
-0.37500724 0.11146255 1.6710632 10197915
-0.32705992 0.11137507 1.672289 10197915
-0.27503762 0.11126553 1.6784803 10197915
-0.22514623 0.11118172 1.6773635 10197915
-0.17498055 0.11109789 1.6760989 10197915
-0.12524422 0.11101522 1.674704 10197915
-0.075227775 0.11093162 1.6734471 10197915
-0.024944674 0.1108472 1.672317 10197915
0.024919696 0.1107639 1.6710601 10197915
0.077303357 0.11066474 1.6736054 10197915
0.12516719 0.11056583 1.6786697 10197915
0.17510158 0.11048354 1.6770296 10197915
0.22496155 0.11039914 1.6761385 10197915
0.27497843 0.11031616 1.674686 10197915
0.32514989 0.11023287 1.6732268 10132122
0.37500864 0.11014849 1.6723334 4276545
0.42479891 0.11006581 1.6708858 2894892
0.47256228 0.10996834 1.6755027 2894892
0.50350362 0.10988164 1.686326 2894892
-0.90978587 -0.56879932 1.7089771 6513507
-0.88133591 -0.56893772 1.7338589 6645093
-0.90982115 -0.52498394 1.7090101 6447714
-0.88138634 -0.52499878 1.7338772 6447714
-0.90983838 -0.47499838 1.7090702 6447714
-0.88140917 -0.47500169 1.7339314 6447714
-0.90985286 -0.42497557 1.7091345 6447714
-0.88143635 -0.4250021 1.7339876 6447714
-0.90990794 -0.37498364 1.7091582 6447714
-0.88146681 -0.37499896 1.7340287 6447714
-0.90993035 -0.32498965 1.7092148 6447714
-0.88148856 -0.32499364 1.7340875 6447714
-0.910456 -0.27500856 1.7088277 6447714
-0.88153553 -0.27500409 1.7341199 6447714
-0.9104495 -0.22504017 1.7089102 6447714
-0.88167459 -0.22511086 1.734073 6447714
-0.9104954 -0.17500399 1.7089432 6447714
-0.8820821 -0.1749645 1.7337924 6447714
-0.91045994 -0.12496509 1.7090483 6447714
-0.88205498 -0.12498716 1.7338867 6447714
-0.91058904 -0.07479652 1.7090124 6447714
-0.88217616 -0.075106546 1.7338612 6447714
-0.91054821 -0.024782287 1.7091204 6447714
-0.88210595 -0.02512338 1.7339934 6447714
-0.91057479 0.024783265 1.7091724 6447714
-0.88213158 0.025124369 1.7340475 6447714
-0.91066998 0.074803427 1.7091625 7434609
-0.88225418 0.075113557 1.734013 7434609
-0.91041017 0.10648797 1.7090399 10197915
-0.87994027 0.10731468 1.7309576 10197915
-0.82485491 0.11209071 1.7232932 10197915
-0.77477902 0.1120065 1.7222118 10197915
-0.72724003 0.11191642 1.7245433 10197915
-0.67479295 0.11180856 1.7299144 10197915
-0.62487262 0.1117243 1.7289325 10197915
-0.57503319 0.11164204 1.7273384 10197915
-0.52525854 0.11155899 1.726053 10197915
-0.47520208 0.111475 1.7249138 10197915
-0.42485878 0.11139088 1.7236135 10197915
-0.37495518 0.11130809 1.7221714 10197915
-0.32512048 0.11122449 1.7210377 10197915
-0.27500308 0.11114081 1.7197436 10197915
-0.22403406 0.11105265 1.7194574 10197915
-0.17512561 0.11094248 1.7276495 10197915
-0.1251675 0.11085846 1.7265567 10197915
-0.075042255 0.11077604 1.7248495 10197915
-0.025000613 0.11069133 1.7239538 10197915
0.02497551 0.11060802 1.7226549 10197915
0.072832361 0.11052208 1.723433 10197915
0.12474602 0.11040969 1.7306192 10197915
0.17515677 0.11032605 1.7291501 10197915
0.22549129 0.11024164 1.727985 10197915
0.27503794 0.11015943 1.7265344 10197915
0.32450777 0.1100765 1.725396 10066329
0.37461746 0.10999334 1.7239352 3750201
0.4246462 0.10990941 1.7227772 2894892
0.4749572 0.10982538 1.7214603 2894892
0.50922483 0.10976284 1.722342 2894892
-0.85617346 -0.56896132 1.7558619 6710886
-0.82772958 -0.56904024 1.7807369 6776679
-0.85620826 -0.52499306 1.7558974 6447714
-0.82777196 -0.52501732 1.7807636 6447714
-0.85623759 -0.47503775 1.7559451 6447714
-0.82778198 -0.475005 1.7808325 6447714
-0.85624361 -0.4249666 1.7560155 6447714
-0.82778287 -0.42500606 1.7809032 6447714
-0.8562935 -0.3749494 1.7560464 6447714
-0.82786781 -0.37500584 1.7809066 6447714
-0.85631436 -0.32503918 1.7561016 6447714
-0.82810634 -0.32513481 1.780771 6447714
-0.85632622 -0.27501634 1.7561666 6447714
-0.82839805 -0.27497247 1.7805907 6447714
-0.85649514 -0.2246023 1.7560936 6447714
-0.82841599 -0.22499692 1.7806505 6447714
-0.85693812 -0.17494412 1.7557807 6447714
-0.82847548 -0.17503697 1.7806714 6447714
-0.85691154 -0.12511945 1.7558788 6447714
-0.82849067 -0.12496595 1.7807339 6447714
-0.85693723 -0.074928388 1.7559311 6447714
-0.82856876 -0.075018413 1.7807386 6447714
-0.85696292 -0.02473429 1.7559832 6447714
-0.82845539 -0.025085449 1.7809129 6447714
-0.85698795 0.024735261 1.7560338 6447714
-0.82847989 0.025086446 1.7809671 6447714
-0.85702729 0.074884064 1.7560755 7500402
-0.82864243 0.075025342 1.7808975 7500402
-0.85697091 0.10616574 1.7561715 10197915
-0.82761914 0.10657973 1.7799258 10197915
-0.77518767 0.11184478 1.7760084 10197915
-0.72497839 0.11176056 1.7748454 10197915
-0.67484003 0.11167747 1.7733517 10197915
-0.62478262 0.11159352 1.7721925 10197915
-0.57479233 0.11151069 1.7707036 10197915
-0.52488601 0.11142699 1.7695478 10197915
-0.47467837 0.11134329 1.7682183 10197915
-0.42491484 0.11126084 1.7667357 10197915
-0.3746796 0.11114459 1.7761611 10197915
-0.32509142 0.1110599 1.7755234 10197915
-0.27487496 0.11097754 1.7737457 10197915
-0.22540678 0.11089171 1.7735429 10197915
-0.17465945 0.11077603 1.782491 10197915
-0.12471709 0.1106923 1.7813212 10197915
-0.074847847 0.11060974 1.7798153 10197915
-0.025056833 0.11052626 1.7786491 10197915
0.02503163 0.11044284 1.7773064 10197915
0.075044565 0.11035958 1.7759665 10197915
0.12497565 0.11027741 1.7742963 10197915
0.17483504 0.11019334 1.7732915 10197915
0.22462228 0.11011039 1.7719564 10197915
0.27469867 0.11002743 1.7704505 10132122
0.32469678 0.10994364 1.7692732 10000536
0.37462321 0.10986094 1.7677721 5000268
0.4251959 0.10977621 1.7665784 2894892
0.47608468 0.10966036 1.7754517 2894892
0.51725775 0.10957944 1.7784398 2894892
-0.80278271 -0.56904292 1.8025528 6908265
-0.77551395 -0.56917906 1.8263988 6974058
-0.74929816 -0.56925219 1.8493261 7105644
-0.80280381 -0.524997 1.8026 6447714
-0.77558821 -0.52500421 1.8264052 6447714
-0.74931794 -0.52482915 1.849375 6447714
-0.80282784 -0.47497576 1.802654 6447714
-0.77559257 -0.47501138 1.8264692 6447714
-0.74934018 -0.47504187 1.8494301 6447714
-0.80286455 -0.42510206 1.802696 6447714
-0.77562392 -0.42499882 1.8265127 6447714
-0.74939835 -0.42667794 1.8494512 6447714
-0.80286294 -0.37507272 1.8027725 6447714
-0.77565634 -0.37500042 1.826563 6447714
-0.74995077 -0.3745923 1.8490456 6447714
-0.80319464 -0.32387334 1.8025582 6447714
-0.77565509 -0.3249993 1.8266479 6447714
-0.74997306 -0.3248094 1.8491008 6447714
-0.80343902 -0.27503654 1.8024178 6447714
-0.77553385 -0.27488351 1.8268241 6447714
-0.74999219 -0.2819173 1.8491474 6447714
-0.80350572 -0.22501831 1.8024336 6447714
-0.77519286 -0.22502504 1.8271871 6447714
-0.80348706 -0.1749865 1.8025254 6447714
-0.7751565 -0.17501934 1.8272986 6447714
-0.80355364 -0.12496427 1.8025413 6447714
-0.77519339 -0.12500954 1.827347 6447714
-0.80353457 -0.074924536 1.8026327 6447714
-0.77535862 -0.074999578 1.8272772 6447714
-0.80360138 -0.024898458 1.8026483 6447714
-0.77515233 -0.02498493 1.8275248 6447714
-0.80361718 0.024773311 1.8027092 6447714
-0.77517581 0.024985913 1.8275765 6447714
-0.8036142 0.074808657 1.8027861 7566195
-0.77544218 0.074990138 1.8274235 7566195
-0.80364257 0.10605723 1.8028082 10197915
-0.77457112 0.1064575 1.8264667 10197915
-0.72479558 0.1116222 1.8205613 10197915
-0.6748895 0.11153965 1.819026 10197915
-0.62506413 0.11145614 1.8178532 10197915
-0.57492763 0.11137266 1.8164912 10197915
-0.5248661 0.11128931 1.8151321 10197915
-0.47422567 0.11117285 1.8243941 10197915
-0.42495942 0.1110871 1.8242941 10197915
-0.37578496 0.11097344 1.8334823 10197915
-0.32506388 0.11088532 1.8333197 10197915
-0.27511272 0.11080275 1.8317612 10197915
-0.22523348 0.11071919 1.8305731 10197915
-0.17504799 0.1106357 1.8291924 10197915
-0.1249413 0.11055341 1.8274528 10197915
-0.074913599 0.11046907 1.8264378 10197915
-0.024954487 0.11038595 1.8250636 10197915
0.024929479 0.11030293 1.8236907 10197915
0.075111359 0.11022006 1.8221346 10197915
0.12522087 0.11013615 1.8209333 10197915
0.17525256 0.11005345 1.8193798 10197915
0.22520918 0.10996977 1.8181827 10197915
0.27509141 0.10988731 1.8166336 10066329
0.32489589 0.1098039 1.8154405 10000536
0.37708965 0.10970092 1.8193419 5855577
0.42504796 0.10960161 1.8244811 2894892
0.47393465 0.1094896 1.8332404 2894892
0.52460009 0.10939863 1.8340592 2894892
0.55269486 0.10931586 1.8452057 2894892
-0.72411656 -0.5692398 1.8713473 7171437
-0.69534278 -0.56929511 1.8965105 7303023
-0.72411317 -0.52498859 1.8714156 6447714
-0.69536644 -0.52508706 1.8965561 6447714
-0.72416931 -0.47497702 1.8714441 6447714
-0.69537646 -0.47515121 1.8966225 6447714
-0.72422755 -0.42491701 1.8714662 6447714
-0.69540226 -0.42510054 1.8966739 6447714
-0.72479463 -0.37499702 1.8710463 6447714
-0.69542867 -0.37504694 1.8967249 6447714
-0.7247954 -0.32499948 1.8711181 6447714
-0.69547063 -0.32510415 1.8967636 6447714
-0.7247985 -0.27501777 1.8711905 6447714
-0.69546479 -0.27504379 1.8968432 6447714
-0.72489661 -0.22501422 1.8711807 6447714
-0.69603801 -0.22494292 1.8964165 6447714
-0.7248131 -0.17502657 1.8713279 6447714
-0.69607681 -0.17467691 1.8964579 6447714
-0.72488052 -0.12501782 1.8713412 6447714
-0.69614726 -0.12519097 1.8964697 6447714
-0.72489613 -0.074932829 1.8714039 6447714
-0.69614297 -0.075428747 1.8965477 6447714
-0.72493291 -0.024938287 1.8714472 6447714
