# .PCD v0.7 - Point Cloud Data file format
VERSION 0.7
FIELDS x y z rgb
SIZE 4 4 4 4
TYPE F F F U
COUNT 1 1 1 1
WIDTH 1154
HEIGHT 1
VIEWPOINT 0 0 0 1 0 0 0
POINTS 1154
DATA ascii
-0.70487928 0.10805219 1.0561204 10197915
-0.68272585 0.10944915 1.0789151 10197915
-0.62502813 0.11564972 1.0735919 10197915
-0.57501596 0.11562563 1.0735022 10197915
-0.52502543 0.11560172 1.0731946 10197915
-0.47498092 0.11557776 1.0730208 10197915
-0.42495719 0.11555371 1.0728233 10197915
-0.37480694 0.11552978 1.0725039 10197915
-0.3248232 0.11550578 1.0723525 10197915
-0.27501053 0.11548188 1.0721312 10197915
-0.22507006 0.11545805 1.0718604 10197915
-0.17507599 0.11543406 1.0716274 10197915
-0.12502828 0.11541004 1.0714523 10197915
-0.075001739 0.11538609 1.0712074 10197915
-0.024996724 0.11536211 1.0710071 10132122
0.024989797 0.11533821 1.0707849 9934743
0.075426713 0.11531081 1.0741247 9934743
0.1250149 0.11528659 1.0744473 9934743
0.174574 0.11526236 1.0746859 10000536
0.22503439 0.11523481 1.0781326 10000536
0.275002 0.115211 1.077808 10000536
0.32502359 0.11518704 1.0775747 9934743
0.37502193 0.11516297 1.077485 9934743
0.42492765 0.11513904 1.0772619 8947848
0.47503468 0.11511509 1.0769995 2960685
0.52504683 0.11509115 1.0767508 2894892
0.56336421 0.11506889 1.0809151 2894892
-0.6526109 -0.50135207 1.1239341 6447714
-0.63983941 -0.50519073 1.1405245 6447714
-0.66030937 -0.47378048 1.1139418 6447714
-0.64144337 -0.47503728 1.1384476 6447714
-0.66062051 -0.42499945 1.1135479 6447714
-0.64144212 -0.42498681 1.1384629 6447714
-0.66063046 -0.37500516 1.1135476 6447714
-0.64144856 -0.3749944 1.1384648 6447714
-0.66062671 -0.32498738 1.1135652 6447714
-0.64145333 -0.32501578 1.1384721 6447714
-0.66063946 -0.27500388 1.1135633 6447714
-0.64145309 -0.27500746 1.1384845 6447714
-0.66064304 -0.22501926 1.1135777 6447714
-0.64145362 -0.22498339 1.1384981 6447714
-0.660653 -0.17499959 1.1135778 6447714
-0.64147323 -0.1749882 1.1384901 6447714
-0.66063958 -0.12499059 1.1136075 6447714
-0.64146286 -0.12500727 1.1385181 6447714
-0.66066188 -0.075027235 1.1135865 6447714
-0.64150214 -0.075010546 1.1384821 6447714
-0.66065538 -0.025040651 1.1136112 6447714
-0.64146185 -0.024999665 1.1385493 6447714
-0.66065937 0.025040867 1.1136185 6447714
-0.64146793 0.024999883 1.1385586 6447714
-0.66067624 0.075028807 1.1136097 6776679
-0.64151371 0.074997447 1.1385087 6776679
-0.66047615 0.10823366 1.1133581 10197915
-0.63497412 0.11057868 1.1331635 10197915
-0.57494664 0.11557943 1.1249471 10197915
-0.52489281 0.11555545 1.1246709 10197915
-0.47493795 0.11553146 1.12455 10197915
-0.42500359 0.11550767 1.124177 10197915
-0.37485737 0.1154836 1.1239873 10197915
-0.32488573 0.11545961 1.1237929 10197915
-0.27509174 0.11543583 1.1235496 10197915
-0.22500733 0.11541189 1.1232179 10197915
-0.17494383 0.1153878 1.1230826 10197915
-0.1249787 0.11536384 1.1229322 10197915
-0.07503368 0.11534008 1.1225042 10197915
-0.025033204 0.115316 1.1223978 10197915
0.02502626 0.11529204 1.1221644 10066329
0.074327871 0.11526517 1.1255487 9934743
0.12485059 0.11524019 1.1262155 9934743
0.1749225 0.11521618 1.1259482 10000536
0.2249734 0.1151921 1.1257461 10000536
0.27500421 0.11516821 1.1254454 9934743
0.32482681 0.11514436 1.1252099 9934743
0.37481683 0.11512041 1.124979 10000536
0.42506298 0.11509633 1.1247431 10000536
0.47501087 0.11507236 1.1245759 4671303
0.52493697 0.11504846 1.1243097 2894892
0.57360792 0.11502437 1.1249955 2894892
0.60393536 0.11499695 1.139185 2894892
-0.61431158 -0.51254147 1.1736876 6447714
-0.59673887 -0.51774418 1.1965132 6447714
-0.61652416 -0.47497818 1.1708119 6447714
-0.59679788 -0.4750559 1.1964481 6447714
-0.61651647 -0.42500299 1.1708357 6447714
-0.5967961 -0.42499551 1.1964642 6447714
-0.61652237 -0.37500149 1.1708437 6447714
-0.59681588 -0.37512472 1.1964517 6447714
-0.61652189 -0.32499039 1.170858 6447714
-0.59711361 -0.32495382 1.1960778 6447714
-0.6165399 -0.27499509 1.1708487 6447714
-0.59710813 -0.27501801 1.1960987 6447714
-0.61653066 -0.22500876 1.1708733 6447714
-0.59711564 -0.22502616 1.1961027 6447714
-0.61654538 -0.17500414 1.1708713 6447714
-0.59711391 -0.17497869 1.1961186 6447714
-0.6165331 -0.12499871 1.1709049 6447714
-0.59713286 -0.12504131 1.1961068 6447714
-0.61657691 -0.074993156 1.170861 6447714
-0.59711254 -0.074990563 1.1961473 6447714
-0.61653346 -0.024995688 1.1709362 6447714
-0.59714109 -0.024944015 1.1961243 6447714
-0.61653715 0.024995949 1.1709536 6447714
-0.59714478 0.024944237 1.1961322 6447714
-0.61658865 0.07499481 1.1708972 6842472
-0.59712523 0.07499218 1.1961703 6842472
-0.61611438 0.10829396 1.1706324 10197915
-0.58270073 0.11277599 1.1834651 10197915
-0.52500623 0.11550903 1.1764393 10197915
-0.47509861 0.11548516 1.1761945 10197915
-0.4251124 0.11546131 1.1758376 10197915
-0.37485605 0.11543711 1.1757455 10197915
-0.32481274 0.1154132 1.1754621 10197915
-0.27498782 0.11538932 1.1752203 10197915
-0.22498801 0.11536543 1.174937 10197915
-0.1750081 0.11534149 1.1746933 10197915
-0.12504999 0.11531758 1.1744903 10197915
-0.075014584 0.11529364 1.1742058 10197915
-0.025001166 0.11526961 1.1740394 10197915
0.024994239 0.11524568 1.1737959 10132122
0.075062908 0.11522186 1.1733993 10000536
0.12511292 0.11519771 1.1733075 9934743
0.17504424 0.11517387 1.1729859 9934743
0.22495435 0.11514992 1.1727827 9934743
0.27494124 0.11512589 1.1725757 9934743
0.32480976 0.11510212 1.172255 10000536
0.37475643 0.11507818 1.1720144 10000536
0.4249717 0.11505404 1.171882 10000536
0.47506866 0.11503014 1.1715254 7368816
0.52504808 0.11500629 1.1712413 2894892
0.57500786 0.11498233 1.1710384 2894892
0.61346179 0.11496009 1.1750939 2894892
-0.56073684 -0.55313927 1.243274 6447714
-0.57394475 -0.52327055 1.226127 6447714
-0.57495314 -0.47500792 1.2248333 6447714
-0.57493073 -0.42500594 1.2248735 6447714
-0.5749656 -0.37497285 1.2248427 6447714
-0.57525718 -0.32500491 1.2244729 6447714
-0.57528502 -0.27500647 1.2244493 6447714
-0.57525641 -0.2249997 1.2244998 6447714
-0.57527226 -0.17499977 1.2244946 6447714
-0.57528216 -0.12500776 1.2244972 6447714
-0.57527208 -0.075006887 1.2245226 6447714
-0.5755927 -0.025000084 1.2241176 6447714
-0.57559645 0.025000343 1.2241236 6447714
-0.57560128 0.075007051 1.2241284 6908265
-0.57441145 0.10858583 1.223703 10197915
-0.52502686 0.11546299 1.227775 10197915
-0.47497851 0.11543909 1.227433 10197915
-0.42495221 0.1154151 1.2272662 10197915
-0.37484503 0.11539107 1.227056 10197915
-0.32485789 0.11536721 1.2267121 10197915
-0.27499592 0.11534341 1.2264596 10197915
-0.22494933 0.1153193 1.2263364 10197915
-0.17492518 0.11529544 1.2259502 10197915
-0.12492014 0.11527157 1.2256521 10197915
-0.074937604 0.11524751 1.2255728 10197915
-0.024975171 0.11522373 1.2251869 10197915
0.024968274 0.11519978 1.224933 10197915
0.07499069 0.11517575 1.2248093 10132122
0.12499211 0.11515194 1.2244242 9934743
0.1749732 0.11512801 1.2241287 10000536
0.22503503 0.11510394 1.2239138 10066329
0.27497426 0.11507994 1.223791 10000536
0.32479113 0.11505622 1.223406 10000536
0.37489322 0.11503222 1.2231544 10000536
0.42497188 0.11500825 1.2228963 10000536
0.47493035 0.11498428 1.2227298 9737364
0.52506942 0.11496034 1.2223905 3487029
0.5750863 0.11493643 1.2221329 2894892
0.62380266 0.11491218 1.2229626 2894892
0.65518075 0.11488369 1.2377647 2894892
-0.55254161 -0.55555034 1.2539198 6447714
-0.53140485 -0.56164944 1.2813766 7631988
-0.55266404 -0.52494037 1.253767 6447714
-0.53380257 -0.52502441 1.2782751 6447714
-0.55266601 -0.47488412 1.2537817 6447714
-0.53380948 -0.47502759 1.2782761 6447714
-0.55267209 -0.42495728 1.253786 6447714
-0.53381711 -0.42499626 1.2782773 6447714
-0.55267715 -0.3749648 1.2537906 6447714
-0.53381592 -0.37498781 1.278293 6447714
-0.55268019 -0.32490718 1.253801 6447714
-0.53382725 -0.32501042 1.2782907 6447714
-0.55268145 -0.27491325 1.2538161 6447714
-0.53381425 -0.27501073 1.2783203 6447714
-0.55268371 -0.2249835 1.2538238 6447714
-0.53383702 -0.22498833 1.2783082 6447714
-0.55268878 -0.17498814 1.2538295 6447714
-0.53382599 -0.17499836 1.2783419 6447714
-0.55270457 -0.12486355 1.2538241 6447714
-0.53384179 -0.1249965 1.2783324 6447714
-0.55269635 -0.07480146 1.2538499 6447714
-0.53384167 -0.075026885 1.2783432 6447714
-0.5530293 -0.024925455 1.2534273 6447714
-0.53384799 -0.025024856 1.2783494 6447714
-0.55303234 0.024925677 1.2534364 6447714
-0.53385085 0.025025055 1.2783569 6447714
-0.55304283 0.074835636 1.2534399 6974058
-0.5338521 0.075028636 1.2783676 6974058
-0.55301964 0.10754937 1.2534779 10197915
-0.53148144 0.10891324 1.2776995 10197915
-0.47494286 0.11539394 1.2777264 10197915
-0.42496455 0.11537012 1.2773681 10197915
-0.37487632 0.11534607 1.2771659 10197915
-0.32480651 0.1153222 1.2768377 10197915
-0.27489188 0.1152982 1.276727 10197915
-0.2249977 0.11527446 1.2763089 10197915
-0.17512363 0.11525049 1.2761383 10197915
-0.12500629 0.11522654 1.2758421 10197915
-0.075040825 0.1152027 1.2755146 10197915
-0.025097737 0.11517874 1.275313 10197915
0.025090752 0.11515476 1.2750472 10197915
0.074992351 0.11513092 1.2747198 10197915
0.12487492 0.11510701 1.2745185 10132122
0.17499919 0.11508291 1.2743131 10132122
0.22510256 0.11505896 1.2739865 10132122
0.27505508 0.11503513 1.2736287 10066329
0.32485226 0.11501119 1.2734886 10000536
0.37476358 0.11498735 1.2731938 10000536
0.42504656 0.11496336 1.2728685 10000536
0.47517899 0.11493932 1.2726923 10000536
0.52502584 0.11491548 1.2723978 6184542
0.57511532 0.11489149 1.2721629 2894892
0.62505364 0.11486773 1.2717752 2894892
0.66502374 0.11484569 1.2747997 2894892
-0.50835884 -0.56710142 1.3113143 9145227
-0.48930463 -0.56731367 1.3360652 9342606
-0.50844485 -0.52497405 1.311214 6447714
-0.48932701 -0.52499253 1.3360455 6447714
-0.50845861 -0.47497863 1.3112102 6447714
-0.48930082 -0.47498167 1.3360933 6447714
-0.50845754 -0.42500544 1.3112254 6447714
-0.48931566 -0.42500943 1.336089 6447714
-0.50845826 -0.37498584 1.3112364 6447714
-0.48931769 -0.37499669 1.3361007 6447714
-0.50847119 -0.32496569 1.3112336 6447714
-0.48933542 -0.3249636 1.3360914 6447714
-0.50846279 -0.27501285 1.3112582 6447714
-0.4893201 -0.27500916 1.3361285 6447714
-0.50848168 -0.2250367 1.3112464 6447714
-0.48933297 -0.22501433 1.3361294 6447714
-0.50846624 -0.17501479 1.3112773 6447714
-0.4893218 -0.17499915 1.3361548 6447714
-0.50847381 -0.12501429 1.3112832 6447714
-0.48935264 -0.12502305 1.3361279 6447714
-0.50851452 -0.074991733 1.3112454 6447714
-0.48934016 -0.075006358 1.3361578 6447714
-0.50846201 -0.02499029 1.3113283 6447714
-0.48933735 -0.024990071 1.3361747 6447714
-0.50846511 0.024990499 1.3113354 6447714
-0.48934087 0.024990294 1.3361807 6447714
-0.50852573 0.074993327 1.3112723 7039851
-0.48935729 0.074988239 1.3361692 7039851
-0.50837189 0.10796332 1.3112693 10197915
-0.48448697 0.10990189 1.3325082 10197915
-0.42506278 0.11532684 1.3255987 10197915
-0.37487361 0.11530282 1.325357 10197915
-0.32483932 0.11527892 1.3250823 10197915
-0.2751047 0.11525523 1.3246694 10197915
-0.22511275 0.11523119 1.3245339 10197915
-0.17500623 0.11520728 1.3242242 10197915
-0.12505673 0.11518342 1.3238821 10197915
-0.074992247 0.11515941 1.3237083 10197915
-0.024947509 0.11513553 1.3233992 10197915
0.024940614 0.11511164 1.3231251 10197915
0.075079814 0.1150877 1.3227832 10197915
0.12519993 0.11506372 1.322574 10197915
0.17502396 0.11503973 1.3223675 10197915
0.22482744 0.11501595 1.3220248 10197915
0.27488503 0.11499206 1.3216835 10132122
0.32492021 0.11496806 1.3214748 10000536
0.37493697 0.11494419 1.3211336 10000536
0.42492986 0.11492023 1.320925 10000536
0.47490531 0.11489625 1.3207873 10000536
0.52499288 0.11487249 1.3202745 8947848
0.57492489 0.11484852 1.3201348 2960685
0.62497294 0.11482466 1.3197595 2894892
0.6742397 0.11480058 1.3200748 2894892
0.70545703 0.114774 1.3328757 2894892
-0.4647406 -0.56732601 1.367978 9539985
-0.44510099 -0.56740326 1.3934922 9737364
-0.4647201 -0.52502775 1.3680162 6447714
-0.44510317 -0.52499664 1.3935019 6447714
-0.46474248 -0.47503114 1.3680027 6447714
-0.44510865 -0.47499558 1.3935078 6447714
-0.46474952 -0.42498738 1.3680044 6447714
-0.44511566 -0.42499459 1.3935114 6447714
-0.46473116 -0.37500507 1.3680416 6447714
-0.44511032 -0.3749924 1.3935331 6447714
-0.46473989 -0.32503819 1.3680462 6447714
-0.44512296 -0.32503438 1.3935291 6447714
-0.46475831 -0.27499163 1.3680336 6447714
-0.44512409 -0.27507496 1.3935426 6447714
-0.46474478 -0.22497593 1.3680649 6447714
-0.44511938 -0.22507115 1.3935609 6447714
-0.46442002 -0.17490906 1.3685004 6447714
-0.44479519 -0.17527846 1.3939967 6447714
-0.46436569 -0.1249829 1.3685826 6447714
-0.44470263 -0.12499359 1.3941299 6447714
-0.46437845 -0.075011387 1.368578 6447714
-0.44474518 -0.074843965 1.394088 6447714
-0.46435678 -0.025025703 1.3686262 6447714
-0.44472089 -0.024835605 1.3941334 6447714
-0.46436036 0.025025951 1.3686348 6447714
-0.4447234 0.024835836 1.3941429 6447714
-0.46439055 0.075012997 1.3686064 7105644
-0.44506863 0.074484356 1.3937075 7171437
-0.46406311 0.10812812 1.3683037 10197915
-0.43384719 0.11174557 1.3846122 10197915
-0.37487009 0.11525629 1.3771785 10197915
-0.32487553 0.11523231 1.376968 10197915
-0.27490452 0.11520854 1.3766075 10197915
-0.22495238 0.11518457 1.376397 10197915
-0.17516485 0.11516073 1.3761514 10197915
-0.1249705 0.11513671 1.3758675 10197915
-0.074937403 0.11511288 1.3755403 10197915
-0.025070887 0.11508907 1.3751806 10197915
0.025063902 0.11506512 1.3748943 10197915
0.07503251 0.1150411 1.3748008 10197915
0.12498038 0.11501736 1.3743235 10197915
0.1750508 0.11499326 1.3741117 10197915
0.22510037 0.1149694 1.3737502 10197915
0.27512825 0.1149454 1.3735427 10197915
0.32499281 0.11492154 1.3732928 10066329
0.37483996 0.11489782 1.372895 10000536
0.42508802 0.11487374 1.3726863 10000536
0.47517642 0.11484977 1.3724352 10000536
0.52495855 0.11482599 1.3721156 10000536
0.57500458 0.11480217 1.3717146 4934475
0.62502867 0.11477801 1.3716954 2894892
0.6748898 0.11475439 1.3711815 2894892
0.71667868 0.11473098 1.3747694 2894892
-0.42089894 -0.56738555 1.4249343 9934743
-0.42092723 -0.52497697 1.4249071 6447714
-0.4208959 -0.47499844 1.424961 6447714
-0.42090705 -0.4250195 1.4249613 6447714
-0.42091182 -0.37502679 1.424968 6447714
-0.42093742 -0.32500666 1.4249476 6447714
-0.42089954 -0.27498668 1.4250116 6447714
-0.42093349 -0.22499169 1.4249802 6447714
-0.42091608 -0.17499621 1.4250141 6447714
-0.42093211 -0.12499998 1.4250083 6447714
-0.42094007 -0.075029664 1.4250166 6447714
-0.42093343 -0.025032749 1.4250358 6447714
-0.42093655 0.025032965 1.4250479 6447714
-0.42128724 0.07511919 1.4246043 7171437
-0.42062822 0.10820487 1.4242276 10197915
-0.37478626 0.11521233 1.4261231 10197915
-0.32488963 0.11518837 1.4259415 10197915
-0.27521658 0.11516484 1.4254179 10197915
-0.22516412 0.11514083 1.4252385 10197915
-0.17493948 0.11511682 1.4249414 10197915
-0.12512818 0.1150929 1.42476 10197915
-0.075139366 0.11506914 1.4243509 10197915
-0.024977297 0.11504517 1.4240541 10197915
0.024970377 0.1150213 1.4237589 10197915
0.075090751 0.11499734 1.4234624 10197915
0.12519337 0.11497341 1.4231665 10197915
0.17507602 0.11494937 1.4229823 10197915
0.22493801 0.1149256 1.4225745 10197915
0.27497825 0.1149017 1.4222786 10197915
0.32499444 0.1148778 1.4219824 10132122
0.37499306 0.11485393 1.4216869 10000536
0.42496774 0.11483004 1.4213912 10000536
0.47492471 0.11480619 1.4210961 10000536
0.52485794 0.11478231 1.4208008 10000536
0.5762679 0.11475278 1.4259905 8026746
0.62494087 0.11472794 1.4275213 2894892
0.67491966 0.11470407 1.4271814 2894892
0.72502673 0.11468014 1.4268833 2894892
0.75900865 0.11465276 1.4391037 2894892
-0.40047282 -0.56734627 1.4514699 10066329
-0.3815746 -0.5674237 1.4760214 10263708
-0.4004882 -0.52525902 1.4514613 6447714
-0.38156572 -0.52500433 1.476045 6447714
-0.40048549 -0.4750506 1.4514779 6447714
-0.38158453 -0.47498658 1.4760333 6447714
-0.40048304 -0.42484087 1.4514946 6447714
-0.38158706 -0.42499903 1.4760427 6447714
-0.40049624 -0.37493601 1.4514908 6447714
-0.38158646 -0.37502655 1.476056 6447714
-0.40048844 -0.32502329 1.4515146 6447714
-0.38157707 -0.32502186 1.4760814 6447714
-0.40050185 -0.27511817 1.4515104 6447714
-0.38160768 -0.2750012 1.4760529 6447714
-0.40049919 -0.22490504 1.451528 6447714
-0.38157234 -0.22499585 1.4761178 6447714
-0.400502 -0.17499417 1.4515375 6447714
-0.38161501 -0.17498925 1.4760758 6447714
-0.40050465 -0.12508263 1.4515475 6447714
-0.38158637 -0.12501301 1.476124 6447714
-0.40050748 -0.075170346 1.4515573 6447714
-0.3816157 -0.074989676 1.4760997 6447714
-0.40051007 -0.025257383 1.4515674 6447714
-0.38158733 -0.024967635 1.4761502 6447714
-0.40051296 0.025257625 1.4515773 6447714
-0.38158935 0.024967877 1.4761624 6447714
-0.40051568 0.075171925 1.4515872 7237230
-0.38162345 0.074991301 1.4761362 7237230
-0.40051743 0.10764662 1.4515936 10197915
-0.37969702 0.10875849 1.4748471 10197915
-0.32493347 0.11514834 1.4705768 10197915
-0.27491945 0.11512443 1.4702746 10197915
-0.2249229 0.11510054 1.4699664 10197915
-0.17495039 0.11507668 1.4696649 10197915
-0.12479408 0.11505259 1.4694823 10197915
-0.075063176 0.11502896 1.4690526 10197915
-0.025152769 0.11500511 1.468751 10197915
0.025074566 0.11497428 1.476102 10197915
0.074899435 0.11495038 1.4758896 10197915
0.12486015 0.11492644 1.4756348 10197915
0.17495027 0.11490241 1.475322 10197915
0.22502103 0.11487866 1.4748284 10197915
0.27506983 0.11485448 1.4748048 10197915
0.32494465 0.1148309 1.474262 10197915
0.37495494 0.11480698 1.4739554 10132122
0.42494151 0.11478289 1.473933 10000536
0.47490558 0.11475932 1.4732478 10000536
0.52500474 0.11473518 1.473178 10000536
0.57338697 0.11470763 1.4778414 10000536
0.62491763 0.11468069 1.4801425 4144959
0.67506123 0.11465651 1.4800872 2894892
0.72498584 0.11463276 1.4796505 2894892
0.7701748 0.1146092 1.4815983 2894892
-0.35631719 -0.56740987 1.5088317 10461087
-0.33736959 -0.56745154 1.5334492 10592673
-0.35630277 -0.52495128 1.508864 6447714
-0.33735985 -0.52501577 1.5334713 6447714
-0.35630485 -0.47494605 1.5088739 6447714
-0.33732191 -0.47500885 1.533533 6447714
-0.35631153 -0.42498511 1.508878 6447714
-0.33735436 -0.42500013 1.5335073 6447714
0.74703932 -0.41771179 1.547765 2894892
0.775617 -0.41771099 1.5257661 2894892
0.80159634 -0.41774794 1.5057695 2894892
-0.35632256 -0.37497893 1.5088769 6447714
-0.337356 -0.37501571 1.5335184 6447714
0.74705428 -0.37503454 1.5478076 2894892
0.77562368 -0.37500158 1.5258143 2894892
0.8016271 -0.37513226 1.5057997 2894892
-0.35631979 -0.32497227 1.5088938 6447714
-0.33737284 -0.32500529 1.5335062 6447714
0.74752027 -0.32514942 1.5475125 2894892
0.77564347 -0.3250038 1.5258644 2894892
0.80165142 -0.32502723 1.5058447 2894892
-0.35631135 -0.27500916 1.5089176 6447714
-0.33733743 -0.27499533 1.5335692 6447714
0.74755645 -0.27504492 1.5475476 2894892
0.7756595 -0.27500355 1.5259167 2894892
0.80168277 -0.27471396 1.5058845 2894892
-0.35632166 -0.22504546 1.50892 6447714
-0.33735952 -0.22500923 1.5335538 6447714
0.74757886 -0.22504342 1.5475938 2894892
0.7756952 -0.22500019 1.5259533 2894892
0.80169964 -0.2246006 1.5059352 2894892
-0.35632721 -0.17503642 1.5089254 6447714
-0.33736607 -0.17499703 1.5335563 6447714
0.74760097 -0.17503898 1.5476404 2894892
0.77569669 -0.1750052 1.5260142 2894892
0.8017236 -0.17469454 1.5059798 2894892
-0.35635519 -0.12502766 1.508902 6447714
-0.33738151 -0.12495857 1.5335498 6447714
0.74762362 -0.12503156 1.5476865 2894892
0.77573472 -0.12500748 1.5260457 2894892
0.80174744 -0.12478551 1.5060252 2894892
-0.35631689 -0.075017557 1.5089658 6447714
-0.33732888 -0.074944988 1.5336335 6447714
0.74764568 -0.075021133 1.5477331 2894892
0.77551663 -0.075122885 1.5262784 2894892
0.80152977 -0.073090166 1.5062581 2894892
-0.35631898 -0.025005985 1.5089754 6447714
-0.33739549 -0.024983436 1.5335605 6447714
0.74736315 -0.026013967 1.5480124 2894892
0.77506471 -0.024908379 1.5266901 2894892
0.8013522 -0.02496415 1.5064557 2894892
-0.35632175 0.025006223 1.5089855 6447714
-0.33739713 0.024983665 1.533571 6447714
0.74722344 0.025014516 1.5481849 2894892
0.77495062 0.025005203 1.5268434 2894892
0.80137622 0.024965145 1.5065008 2894892
-0.35632405 0.075019076 1.508997 7303023
-0.33733866 0.07492099 1.5336592 7303023
0.74724585 0.075045526 1.5482316 2894892
0.77489734 0.075002015 1.5269477 2894892
0.8014003 0.074897401 1.506546 2894892
-0.35634115 0.10799478 1.5085794 10197915
-0.33360049 0.1094884 1.5291467 10197915
-0.27523363 0.1150818 1.5179145 10197915
-0.22508611 0.11505772 1.5177376 10197915
-0.17496084 0.11503392 1.5172831 10197915
-0.12506558 0.11501023 1.516832 10197915
-0.074984051 0.11498607 1.5167915 10197915
-0.024950672 0.11495487 1.5246071 10197915
0.02497427 0.1149236 1.5325785 10197915
0.07511694 0.11489967 1.5322589 10197915
0.12503044 0.1148757 1.5320822 10197915
0.17492136 0.11485187 1.5316221 10197915
0.22500153 0.11482795 1.5313033 10197915
0.27506441 0.11480404 1.5309845 10197915
0.32510296 0.11478017 1.5306658 10197915
0.37491307 0.1147564 1.5303483 10197915
0.4249101 0.11473252 1.5300306 10066329
0.47510067 0.11470856 1.5297108 10000536
0.52505594 0.11468473 1.5293925 10000536
0.57499409 0.11466088 1.5290747 10000536
0.6251176 0.11463682 1.5288975 6974058
0.67522287 0.11461303 1.5284368 2894892
0.73214424 0.11221405 1.5345224 2894892
0.77429086 0.10789075 1.5262892 2894892
0.80141568 0.10735485 1.5065751 2894892
-0.31262583 -0.56750298 1.5655941 10790052
-0.2932595 -0.56747139 1.5907501 10921638
-0.31262329 -0.52504903 1.5656087 6447714
-0.29326603 -0.52494234 1.5907539 6447714
-0.31262755 -0.4750281 1.5656134 6447714
-0.29327652 -0.47501138 1.5907537 6447714
-0.31263801 -0.42497969 1.565612 6447714
-0.29325917 -0.42502907 1.5907903 6447714
0.68930423 -0.4177025 1.5922062 2960685
0.72195321 -0.41771999 1.5670756 2960685
-0.31263778 -0.3749848 1.5656266 6447714
-0.29327819 -0.37499505 1.5907775 6447714
0.68933529 -0.37499282 1.5922371 2960685
0.72195405 -0.37499371 1.5671289 2960685
-0.31262979 -0.32501581 1.565649 6447714
-0.29327384 -0.32501125 1.5907968 6447714
0.68936461 -0.32496381 1.592278 2960685
0.72246367 -0.3249824 1.5668107 2894892
-0.31264538 -0.27499253 1.5656451 6447714
-0.293291 -0.27502725 1.590789 6447714
0.68950373 -0.2751897 1.5922351 2960685
0.72246689 -0.27499518 1.5668694 2894892
-0.31264561 -0.22496825 1.5656582 6447714
-0.2932671 -0.22499168 1.590834 6447714
0.68987387 -0.22497167 1.5920118 2960685
0.7225014 -0.22499132 1.5668925 2894892
-0.31264034 -0.17499743 1.5656803 6447714
-0.29329276 -0.17495522 1.5908136 6447714
0.68989938 -0.17498292 1.5920556 2960685
0.72249663 -0.17499864 1.5669512 2894892
-0.31263667 -0.12502611 1.5657008 6447714
-0.29329047 -0.12501986 1.5908293 6447714
0.68994367 -0.12505777 1.592086 2960685
0.72253978 -0.12500264 1.5669942 2894892
-0.31262156 -0.075026937 1.5657324 6447714
-0.29328611 -0.075084217 1.5908487 6447714
0.68995684 -0.075130135 1.5921392 2960685
0.72252494 -0.075003788 1.5670786 2894892
-0.31268811 -0.0250019 1.5656587 6447714
-0.29327512 -0.025045048 1.5908765 6447714
0.68995351 -0.025065893 1.5922053 2960685
0.72265166 -0.02500359 1.5670481 2894892
-0.3126905 0.025002128 1.5656697 6447714
-0.29327688 0.025045285 1.5908881 6447714
0.68997395 0.02506689 1.5922533 2960685
0.72267169 0.025004568 1.567082 2894892
-0.31262866 0.075028472 1.5657619 7368816
-0.29329193 0.075085804 1.5908819 7434609
0.69001848 0.075137094 1.5922828 2960685
0.7225886 0.075010806 1.5672009 2894892
-0.31236061 0.10818775 1.5650063 10197915
-0.28502005 0.11081023 1.5810417 10197915
-0.22482608 0.11501196 1.5685699 10197915
-0.1749731 0.1149883 1.5680938 10197915
-0.12492571 0.11496441 1.567768 10197915
-0.075111948 0.11494063 1.5674435 10197915
-0.025138557 0.11490893 1.5758705 10197915
0.025131559 0.11488494 1.5755415 10197915
0.075049102 0.11486101 1.5753295 10197915
0.12495192 0.11483729 1.574888 10197915
0.1748267 0.11481327 1.5746745 10197915
0.22501197 0.11478929 1.5743456 10197915
0.27517658 0.11476533 1.5740175 10197915
0.32499024 0.11474168 1.5735767 10197915
0.37511423 0.11471774 1.5732486 10197915
0.42661783 0.11468675 1.5800749 10132122
0.47481093 0.11466217 1.5815179 10000536
0.52515036 0.11463815 1.5811863 10000536
0.57503515 0.11461422 1.581013 10000536
0.62490016 0.11459053 1.5805299 9671571
0.68461251 0.10966841 1.5877085 3092271
0.72213954 0.10763734 1.5671395 2894892
-0.26830503 -0.56751305 1.6231707 11119017
-0.24861832 -0.56727034 1.648744 11316396
-0.26829287 -0.52492678 1.6231949 6447714
-0.24863878 -0.52492744 1.648729 6447714
-0.26833352 -0.47492343 1.6231546 6447714
-0.24862483 -0.47506464 1.6487609 6447714
-0.26830435 -0.42500117 1.6232039 6447714
-0.24864225 -0.42520815 1.6487516 6447714
0.63236207 -0.41776812 1.6360373 2894892
0.66478866 -0.41772959 1.6110774 2894892
-0.26832685 -0.37501642 1.6231889 6447714
-0.2486361 -0.37500378 1.6487731 6447714
0.63200581 -0.37514672 1.6363655 2894892
0.66439897 -0.37482587 1.6114317 2894892
-0.26830935 -0.32497033 1.6232246 6447714
-0.24862994 -0.32479772 1.6487944 6447714
0.63189274 -0.32501686 1.6365179 2894892
0.66431558 -0.32498494 1.6115586 2894892
-0.26831979 -0.27498451 1.6232295 6447714
-0.24864727 -0.27494103 1.6487855 6447714
0.63189429 -0.27499333 1.636579 2894892
0.66448581 -0.27478004 1.6114914 2894892
-0.26833779 -0.22503904 1.6232221 6447714
-0.24864116 -0.22473361 1.6488069 6447714
0.63224286 -0.22517145 1.6363723 2894892
0.66485471 -0.22495712 1.6112715 2894892
-0.26830584 -0.17503151 1.623278 6447714
-0.24864292 -0.17486992 1.6488184 6447714
0.63247561 -0.17499733 1.636259 2894892
0.66489536 -0.1750313 1.6113026 2894892
-0.26834252 -0.1249826 1.6232438 6447714
-0.24864452 -0.12500551 1.6488293 6447714
0.63247448 -0.12496042 1.6363233 2894892
0.6649121 -0.12501293 1.6113536 2894892
-0.26833043 -0.074994147 1.6232717 6447714
-0.24864629 -0.075140439 1.6488407 6447714
0.63255036 -0.075065702 1.6363264 2894892
0.66483152 -0.074947 1.61148 2894892
-0.26832268 -0.025026865 1.6232944 6447714
-0.24864797 -0.02527466 1.6488518 6447714
0.6324774 -0.02508443 1.6364484 2894892
0.66499943 -0.024970852 1.6114137 2894892
-0.2683247 0.025027106 1.6233023 6447714
-0.24864967 0.025274891 1.6488633 6447714
0.63249671 0.025085425 1.6364959 2894892
0.66501951 0.024971845 1.6114622 2894892
-0.26833543 0.074995711 1.6232994 7434609
-0.24865133 0.075142033 1.6488744 7434609
0.63261265 0.075052068 1.6364692 2894892
0.66489017 0.074953981 1.6116236 2894892
-0.26785922 0.10821399 1.622229 10197915
-0.22888003 0.11369678 1.6270512 10197915
-0.17498678 0.11493936 1.6225928 10197915
-0.12499585 0.11491585 1.62192 10197915
-0.075029209 0.11489172 1.6219196 10197915
-0.025080323 0.11486803 1.6214164 10197915
0.025073351 0.11484407 1.6210787 10197915
0.074980743 0.11482012 1.620909 10197915
0.12486444 0.11479664 1.6202375 10197915
0.17495373 0.11477244 1.6200675 10197915
0.22479843 0.11474851 1.6198976 10197915
0.27484739 0.11472479 1.6193949 10197915
0.32509542 0.11470082 1.6190561 10197915
0.37510327 0.11467694 1.6187192 10197915
0.42305541 0.1146486 1.6244762 10197915
0.47533813 0.11462061 1.6275195 10132122
0.52512473 0.11459687 1.6271824 10000536
0.57522076 0.11457308 1.6267172 10000536
0.63100845 0.10831512 1.6347735 9342606
0.6648621 0.10735831 1.6116269 5789784
-0.22831495 -0.56754947 1.6751217 11447982
-0.22852427 -0.52524871 1.6748607 6447714
-0.22893114 -0.47507787 1.6743448 6447714
-0.22890297 -0.4250069 1.6743958 6447714
0.54989415 -0.4175252 1.6995175 2894892
0.57550442 -0.41775131 1.6798069 2894892
0.60699463 -0.41769999 1.6555643 2894892
-0.22892268 -0.37499976 1.6743835 6447714
0.54990798 -0.3752892 1.6995604 2894892
0.57555354 -0.37500095 1.6798202 2894892
0.60700375 -0.37502629 1.6556119 2894892
-0.22890989 -0.32503498 1.6744113 6447714
0.54992449 -0.32530731 1.6996112 2894892
0.57553226 -0.32499552 1.6798998 2894892
0.60703695 -0.32501891 1.6556486 2894892
-0.22892055 -0.27502659 1.674412 6447714
0.54994088 -0.27532241 1.6996621 2894892
0.57558972 -0.2750341 1.6799183 2829099
0.60705101 -0.27500752 1.6557004 2894892
-0.22891927 -0.22499584 1.6744285 6447714
0.54995728 -0.22533448 1.6997128 2894892
0.57557845 -0.2250233 1.6799892 2894892
0.60740173 -0.22458604 1.6554966 2894892
-0.22893231 -0.17500736 1.6744245 6447714
0.54997385 -0.17534359 1.6997635 2894892
0.57561588 -0.17502502 1.6800274 2894892
0.60760945 -0.17492926 1.6553997 2894892
-0.22889465 -0.1250187 1.6744857 6447714
0.54999018 -0.12534976 1.6998144 2894892
0.57560843 -0.12500811 1.680095 2894892
0.60767692 -0.12501785 1.6554109 2894892
-0.2290037 -0.075028837 1.6743581 6447714
0.54999924 -0.097887188 1.6998425 2894892
0.57522768 -0.074985586 1.6804529 2894892
0.60761052 -0.074950747 1.6555245 2894892
-0.22886412 -0.025018772 1.6745557 6447714
0.5750255 -0.025051124 1.680675 2894892
0.60771316 -0.024890076 1.6555098 2894892
-0.228866 0.025018992 1.6745661 6447714
0.57504249 0.025052117 1.6807213 2894892
0.6077311 0.024891082 1.6555591 2894892
-0.22900827 0.075030327 1.6743923 7500402
0.57572353 0.074958488 1.6802616 2894892
0.6076653 0.074957691 1.6556753 2894892
-0.22745866 0.10836101 1.673857 10197915
-0.17511596 0.11489623 1.6707479 10197915
-0.12525374 0.11487246 1.6704021 10197915
-0.075066797 0.11484864 1.6699181 10197915
-0.022551669 0.11481757 1.6762692 10197915
0.025047017 0.1147917 1.6794466 10197915
0.075117841 0.11476817 1.6787254 10197915
0.12517537 0.11474396 1.6787481 10197915
0.1752079 0.11472029 1.6780248 10197915
0.22522013 0.11469609 1.6780478 10197915
0.27498236 0.11467256 1.6775122 10197915
0.32495171 0.11464871 1.6771687 10197915
0.37490466 0.11462489 1.6768152 10197915
0.42483246 0.11460108 1.6764719 10197915
0.47497463 0.11457703 1.6763054 10132122
0.52486145 0.11455355 1.6755859 10066329
0.57499969 0.10810766 1.6785994 9474192
0.60772598 0.10763574 1.6555322 9408399
-0.20429909 -0.56754738 1.7063202 11645361
-0.18568103 -0.56755626 1.7305043 11645361
-0.20454228 -0.52424246 1.7060145 6447714
-0.18567806 -0.52494949 1.7305223 6513507
-0.20491332 -0.47500363 1.7055469 6447714
-0.18568619 -0.47498497 1.7305256 6447714
-0.20490402 -0.42492816 1.7055718 6447714
-0.18568361 -0.42502132 1.7305421 6447714
0.49203143 -0.41779286 1.7440574 2894892
0.52481741 -0.41774812 1.7188203 2894892
-0.20492722 -0.37493873 1.7055545 6447714
-0.18570387 -0.37499383 1.7305293 6447714
0.49206474 -0.37506172 1.7440852 2894892
0.52481222 -0.37498239 1.7188792 2894892
-0.20490895 -0.32503766 1.7055939 6447714
-0.18568316 -0.3249658 1.7305689 6447714
0.49207398 -0.32499325 1.7441416 2894892
0.52484 -0.3249954 1.7189213 2894892
-0.20491672 -0.27495855 1.7055955 6447714
-0.18569912 -0.27503014 1.7305592 6447714
0.49210474 -0.27497557 1.744182 2894892
0.52488124 -0.27502209 1.7189503 2894892
-0.20490333 -0.22487974 1.7056268 6447714
-0.18567166 -0.22506298 1.730612 6447714
0.49207461 -0.22501294 1.7442703 2894892
0.52482736 -0.22501279 1.719058 2894892
-0.20494752 -0.17488849 1.705584 6447714
-0.18572965 -0.17503271 1.7305487 6447714
0.49214724 -0.17510198 1.7442769 2894892
0.52491456 -0.17496718 1.7190546 2894892
-0.20491473 -0.12507275 1.7056379 6447714
-0.18568318 -0.12497129 1.7306219 6447714
0.49214101 -0.12496594 1.7443458 2894892
0.52489799 -0.12500151 1.7191286 2894892
-0.20491603 -0.074902795 1.7056524 6447714
-0.18573904 -0.075033449 1.7305629 6447714
0.49212372 -0.075102672 1.7444196 2894892
0.52500367 -0.074967511 1.7191112 2894892
-0.20491739 -0.024732221 1.7056621 6447714
-0.18564533 -0.025095249 1.7306991 6447714
0.4921703 -0.025240215 1.7444479 2894892
0.52484173 -0.024929883 1.7193007 2894892
-0.20491895 0.024732446 1.7056739 6447714
-0.18564671 0.02509548 1.7307113 6447714
0.49254927 0.024828272 1.7442212 2894892
0.52485746 0.024930879 1.7193501 2894892
-0.20492014 0.074904412 1.7056875 7566195
-0.18574297 0.075035051 1.7306 7566195
0.49277881 0.075146645 1.7441094 2894892
0.52505082 0.074974507 1.7192645 2894892
0.55005711 0.078177236 1.7000211 2894892
-0.20493378 0.10801093 1.7053226 10197915
-0.1819682 0.10930482 1.7271543 10197915
-0.12481295 0.11482619 1.7216969 10197915
-0.074869826 0.11480269 1.7209377 10197915
-0.027512915 0.11477534 1.7259446 10197915
0.025100626 0.11474527 1.7311281 10197915
0.074925832 0.11472166 1.7306149 10197915
0.12473337 0.11469778 1.7304115 10197915
0.17487885 0.11467371 1.7300483 10197915
0.22500055 0.11465006 1.7293829 10197915
0.27509865 0.11462593 1.7293278 10197915
0.32518172 0.11460205 1.7289677 10197915
0.37524399 0.11457821 1.7286074 10197915
0.42492405 0.11455465 1.7280953 10197915
0.4860824 0.10973748 1.7381541 9737364
0.52436894 0.10765634 1.7193438 9605778
0.55006665 0.10705523 1.7000507 9474192
0.4347969 -0.61773694 1.7878599 3552822
0.46861112 -0.6177482 1.7755474 5460819
-0.16068451 -0.56759787 1.7629789 11711154
-0.14146315 -0.56761831 1.78795 11711154
0.43480417 -0.57493997 1.7879106 4144959
0.46856409 -0.57494795 1.7755878 5460819
-0.16067718 -0.52496475 1.7630028 6645093
-0.14150271 -0.52500105 1.7879087 6776679
0.43482304 -0.52494234 1.7879556 6316128
0.46858418 -0.52496654 1.7756164 6118749
-0.16069137 -0.47489101 1.7629968 6447714
-0.1414454 -0.4750348 1.7879976 6447714
0.43480331 -0.47500229 1.7880366 5329233
0.46857551 -0.47507286 1.775648 5197647
-0.16067599 -0.42495307 1.7630291 6447714
-0.14147395 -0.42500973 1.7879755 6447714
0.4348436 -0.42502797 1.7880677 2894892
0.46688733 -0.42363036 1.7652538 2894892
-0.16070193 -0.37496984 1.763006 6447714
-0.14149636 -0.37498453 1.7879598 6447714
0.43485686 -0.37499282 1.7881215 2894892
0.46746048 -0.37498271 1.7630244 2894892
-0.16067697 -0.32493919 1.7630539 6447714
-0.14148803 -0.32495782 1.787982 6447714
0.43483958 -0.32495376 1.7881992 2894892
0.46746439 -0.32501218 1.7630856 2894892
-0.1607006 -0.27495399 1.7630384 6447714
-0.14147067 -0.27498907 1.7880181 6447714
0.43489397 -0.2750015 1.7882185 2894892
0.46748981 -0.27498657 1.7631283 2894892
-0.1606708 -0.22501373 1.7630907 6447714
-0.14146861 -0.22501768 1.7880348 6447714
0.43486777 -0.22501545 1.7883055 2894892
0.4674724 -0.22498353 1.7632056 2894892
-0.16071683 -0.17498156 1.7630432 6447714
-0.1415035 -0.17504738 1.788004 6447714
0.43492484 -0.17505725 1.7883214 2894892
0.46754411 -0.17495213 1.7632159 2894892
-0.16066346 -0.12494823 1.7631234 6447714
-0.14145823 -0.12501757 1.788076 6447714
0.43515387 -0.12531975 1.7882097 2894892
0.46748173 -0.12494292 1.7633264 2894892
-0.16074267 -0.074824661 1.7630357 6447714
-0.14153317 -0.075161293 1.787991 6447714
0.43563133 -0.075186126 1.7879049 2894892
0.46761975 -0.074828573 1.7632837 2894892
-0.16066921 -0.024835281 1.763147 6447714
-0.14146946 -0.025186606 1.7880874 6447714
0.43553206 -0.025185917 1.7880467 2894892
0.46751258 -0.024839196 1.7634279 2894892
-0.16067031 0.024835493 1.7631588 6447714
-0.14147048 0.025186829 1.7881002 6447714
0.43554524 0.025186926 1.7880988 2894892
0.46792236 0.02503241 1.7631779 2894892
-0.16074599 0.074826285 1.7630732 7631988
-0.14153615 0.075162821 1.7880299 7697781
0.43567032 0.075193077 1.7880683 2894892
0.46826991 0.074830011 1.7629727 2894892
-0.16047049 0.10764057 1.7632425 10197915
-0.13558163 0.10977882 1.7837584 10197915
-0.075035185 0.11475372 1.77565 10197915
-0.025007108 0.11472987 1.7752811 10197915
0.025000187 0.11470603 1.7749121 10197915
0.074986711 0.11468226 1.7745439 10197915
0.1249462 0.11465872 1.7738453 10197915
0.17488796 0.11463444 1.7738042 10197915
0.22481218 0.11461063 1.7734365 10197915
0.27508155 0.11458682 1.772903 10197915
0.32532722 0.11456278 1.7726951 10197915
0.37518904 0.114539 1.7723274 10197915
0.43288723 0.1087772 1.7846177 9803157
0.46775365 0.10762734 1.762982 9671571
0.37725711 -0.61775148 1.8321503 5000268
0.40956438 -0.61775774 1.8072829 2894892
0.49703658 -0.61765784 1.8041863 6447714
0.51591665 -0.61781824 1.8287147 11579568
-0.11685301 -0.56763721 1.8199191 11711154
-0.097126015 -0.56763977 1.8455487 11711154
0.37724179 -0.5749349 1.832216 6381921
0.40957442 -0.57494462 1.8073292 5460819
0.49709767 -0.57505798 1.8042769 6447714
0.51596373 -0.57504654 1.8287851 11645361
-0.11686474 -0.52505809 1.8199134 6908265
-0.097093143 -0.52497709 1.8456018 6974058
0.37726831 -0.52493918 1.8322604 6447714
0.40959197 -0.5249936 1.8073792 6447714
0.49705717 -0.52498454 1.8042378 6447714
0.51594698 -0.52504861 1.8287786 9868950
-0.11686877 -0.47503653 1.8199246 6447714
-0.097111359 -0.47512931 1.8455931 6447714
0.37727219 -0.47502762 1.8323207 5197647
0.40957898 -0.47498894 1.8074535 5263440
0.49710929 -0.47490531 1.8043196 4473924
0.51520312 -0.47820991 1.8278245 4013373
-0.11686075 -0.42498243 1.8199487 6447714
-0.097103223 -0.42512596 1.8456156 6447714
0.37728783 -0.42500409 1.832372 2894892
0.40960664 -0.4249821 1.8074967 2894892
0.49553677 -0.44924274 1.8022829 2894892
-0.11688321 -0.37499261 1.8199345 6447714
-0.097112663 -0.37496936 1.8456178 6447714
0.37729174 -0.37499946 1.8324317 2894892
0.40962845 -0.37502187 1.8075421 2894892
-0.11685684 -0.32503584 1.8199834 6447714
-0.097104609 -0.32496604 1.8456421 6447714
0.37733099 -0.32499188 1.8324656 2894892
0.40963572 -0.32505894 1.8075994 2894892
-0.11686663 -0.27501124 1.8199841 6447714
-0.097096495 -0.27496091 1.8456659 6447714
0.37729681 -0.27495974 1.8325552 2894892
0.40963486 -0.2750417 1.8076636 2894892
-0.11686226 -0.22495434 1.8200035 6447714
-0.097132415 -0.22511031 1.845633 6447714
0.37733865 -0.22501107 1.8325872 2894892
0.40963486 -0.2249739 1.807727 2894892
-0.11688863 -0.17496184 1.8199803 6447714
-0.097106576 -0.17510319 1.8456786 6447714
0.37734437 -0.17501622 1.8326452 2894892
0.40970817 -0.17495134 1.807734 2894892
-0.11687547 -0.12503527 1.8200104 6447714
-0.097089805 -0.12478805 1.8457158 6447714
0.37790421 -0.12505522 1.8322783 2894892
0.41000259 -0.12471207 1.8075705 2894892
-0.11690601 -0.07497558 1.8199815 6447714
-0.097125679 -0.075091489 1.8456813 6447714
0.37806389 -0.074993804 1.8322191 2894892
0.41028193 -0.074969873 1.8074194 2894892
-0.11683248 -0.024916774 1.820091 6447714
-0.097108595 -0.025233705 1.845717 6447714
0.37796408 -0.025050992 1.8323594 2894892
0.41036078 -0.024805773 1.8074201 2894892
-0.1168332 0.024916995 1.8201067 6447714
-0.097109221 0.025233934 1.8457313 6447714
0.37797442 0.025051987 1.8324153 2894892
0.410373 0.024806745 1.8074756 2894892
-0.11690826 0.074977241 1.8200225 7697781
-0.097127669 0.075093068 1.8457189 7697781
0.37809771 0.075000748 1.8323824 2894892
0.410337 0.074930646 1.8075683 2894892
-0.11645724 0.10803637 1.8195263 10197915
-0.084367797 0.11153859 1.8318038 10197915
-0.024901386 0.11468846 1.8213451 10197915
0.024894523 0.11466473 1.8209686 10197915
0.075042747 0.114641 1.8204126 10197915
0.12517336 0.11461695 1.8202097 10197915
0.17528106 0.11459303 1.8196516 10197915
0.22536835 0.11456904 1.8194485 10197915
0.27506074 0.11454538 1.8190727 10197915
0.32510304 0.11452169 1.8185183 10197915
0.37723655 0.10823181 1.8300062 9868950
0.41031241 0.10772888 1.8073788 9934743
0.29452893 -0.61778682 1.8958308 2894892
0.32499686 -0.61776966 1.8723775 4408131
0.35208291 -0.6174885 1.8515292 6447714
0.54029644 -0.61779249 1.8603857 11711154
0.5603776 -0.61802006 1.8864745 11711154
-0.074589908 -0.56770003 1.8748255 11711154
0.29454273 -0.57516611 1.8958741 2894892
0.32504934 -0.5750159 1.872393 4408131
0.35207835 -0.57480085 1.8515866 6447714
0.54027969 -0.57507765 1.8603761 11711154
0.56035143 -0.5750407 1.8864518 11711154
-0.074543089 -0.52501321 1.8749002 7105644
0.2945452 -0.52513778 1.8959357 2894892
0.32500866 -0.52502966 1.8724865 4408131
0.35211623 -0.52496016 1.8516204 6447714
0.54027534 -0.52498621 1.8603832 10132122
0.56036621 -0.52494162 1.8864833 10000536
-0.074588709 -0.47497627 1.8748531 6447714
0.2945478 -0.47499478 1.8959974 2894892
0.32504016 -0.47501907 1.8725256 3815994
0.35211292 -0.47485456 1.8516867 5066061
0.54003298 -0.48331344 1.86008 3223857
0.55964303 -0.48770958 1.8855541 2894892
-0.074544601 -0.42499915 1.874922 6447714
0.29456288 -0.42496032 1.8960494 2894892
0.32505396 -0.42500517 1.8725784 2894892
0.35212341 -0.42500365 1.8517423 2894892
-0.074579984 -0.37499133 1.8748866 6447714
0.29459053 -0.37503585 1.8960915 2894892
0.32507494 -0.37498865 1.8726276 2894892
0.35213396 -0.37514979 1.8517972 2894892
-0.074568503 -0.32498282 1.8749141 6447714
0.29459932 -0.32510871 1.8961481 2894892
0.32506716 -0.32499051 1.8726971 2894892
0.35213062 -0.32503361 1.8518633 2894892
-0.074570417 -0.27503332 1.8749273 6447714
0.29458931 -0.27495331 1.8962196 2894892
0.32509255 -0.27498835 1.8727392 2894892
0.35216874 -0.27518079 1.8518977 2894892
-0.074564494 -0.22499339 1.8749501 6447714
0.29457933 -0.22479351 1.8962909 2894892
0.32510859 -0.2250264 1.8727913 2894892
0.35216558 -0.22480306 1.8519639 2894892
-0.074574642 -0.17498252 1.8749505 6447714
0.29458794 -0.17485593 1.8963479 2894892
0.32509756 -0.17501821 1.8728625 2894892
0.35217604 -0.17493726 1.8520193 2894892
-0.074591868 -0.12506178 1.874947 6447714
0.29465395 -0.12525895 1.8963603 2894892
0.32508117 -0.12500823 1.8729397 2894892
0.3527433 -0.12392376 1.8516474 2894892
-0.07457079 -0.074989267 1.8749856 6447714
0.2946246 -0.075424656 1.8964456 2894892
0.32517147 -0.074910484 1.8729342 2894892
0.3528657 -0.075175881 1.8516147 2894892
-0.074547231 -0.024948627 1.8750296 6447714
0.29463324 -0.025142228 1.8965025 2894892
0.32510281 -0.024895398 1.8730494 2894892
0.35287634 -0.025314989 1.8516704 2894892
-0.074547715 0.024948874 1.8750407 6447714
0.29464221 0.025143234 1.8965594 2894892
0.32511279 0.024896407 1.8731039 2894892
0.35288712 0.025316013 1.8517259 2894892
-0.074572109 0.074990928 1.8750197 7763574
0.29465106 0.075431712 1.8966172 2960685
0.32520053 0.074917443 1.8731025 2894892
0.35289752 0.07518287 1.851781 2894892
-0.073505536 0.10833884 1.8736498 10197915
-0.024790036 0.11464481 1.8698633 10197915
0.024783228 0.11462121 1.8694779 10197915
0.07471884 0.11459758 1.868899 10197915
0.12502649 0.11457364 1.8685077 10197915
0.174917 0.11454957 1.8683099 10197915
0.22479872 0.11452599 1.8677312 10197915
0.2846919 0.11112902 1.8819627 10197915
0.32456225 0.10801468 1.8718705 10000536
0.35290435 0.10740601 1.8518171 9803157
0.23930378 -0.61776054 1.9383405 2894892
0.26973465 -0.6177761 1.914916 2894892
0.58626086 -0.61772412 1.9200991 11711154
0.60496205 -0.61784774 1.9443945 11711154
-0.052823849 -0.56767058 1.9031013 11711154
-0.033530194 -0.56769657 1.9281675 11711154
0.2393107 -0.57504225 1.9383899 2894892
0.26974395 -0.57503599 1.9149607 2894892
0.58629662 -0.57491899 1.9201568 11711154
0.60496807 -0.57489139 1.9444143 11711154
-0.052840188 -0.52483547 1.9030918 7237230
-0.033575501 -0.52492678 1.9281174 7368816
0.23932947 -0.52498204 1.9384383 2894892
0.2697511 -0.52504194 1.9150218 2894892
0.58628869 -0.5250262 1.9201624 8816262
0.60497528 -0.5249536 1.944437 7434609
-0.052808519 -0.47490439 1.9031469 6447714
-0.033543192 -0.47493234 1.9281728 6447714
0.23931499 -0.47491893 1.9385138 2894892
0.26975909 -0.47501677 1.9150794 2894892
0.5840022 -0.49273106 1.9171991 2894892
0.60470879 -0.49726367 1.9440982 2894892
-0.052824888 -0.42497268 1.9031386 6447714
-0.033539992 -0.42500937 1.9281905 6447714
0.23932558 -0.42502445 1.9385686 2894892
0.26974386 -0.42501751 1.9151517 2894892
-0.052841287 -0.37504196 1.9031311 6447714
-0.03356947 -0.37497631 1.9281659 6447714
0.23933928 -0.3750124 1.9386208 2894892
0.26976785 -0.37498698 1.9152009 2894892
-0.052825611 -0.32484484 1.9031649 6447714
-0.03353136 -0.32494333 1.928231 6447714
0.23936319 -0.32488328 1.9386667 2894892
0.26980388 -0.32500926 1.9152306 2894892
-0.052809782 -0.27490816 1.9031984 6447714
-0.033551965 -0.27498189 1.9282184 6447714
0.23933354 -0.27486521 1.9387529 2894892
0.26975876 -0.27500084 1.9153372 2894892
-0.052842382 -0.22524214 1.9031699 6447714
-0.033549782 -0.22501904 1.9282329 6447714
0.239344 -0.22495846 1.9388086 2894892
0.26978335 -0.22496144 1.9153734 2894892
-0.052826699 -0.1750413 1.903204 6447714
-0.033535443 -0.17502058 1.9282663 6447714
0.23935959 -0.17499174 1.9388595 2894892
0.26982883 -0.17497554 1.9154114 2894892
-0.052827064 -0.12457982 1.9032167 6447714
-0.033564724 -0.1249846 1.9282438 6447714
0.23943514 -0.12479537 1.9388646 2894892
0.26991624 -0.12498534 1.9153975 2894892
-0.052827422 -0.074906088 1.9032297 6447714
-0.033526037 -0.074910462 1.9283042 6447714
0.23936723 -0.074706495 1.9389808 2894892
0.26960608 -0.074992239 1.9157079 2894892
-0.05282779 -0.025231682 1.9032427 6447714
-0.033582378 -0.024948684 1.928244 6447714
0.23937441 -0.024902817 1.9390383 2894892
0.26993239 -0.0250022 1.9155135 2894892
-0.052828152 0.025231907 1.9032558 6447714
-0.03358265 0.024948914 1.9282559 6447714
0.23938145 0.024903802 1.939097 2894892
0.26994058 0.0250032 1.9155763 2894892
-0.052828498 0.074907675 1.9032685 7763574
-0.033526819 0.074912108 1.9283428 7763574
0.23938864 0.074713357 1.9391544 2894892
0.26963013 0.074999161 1.9158733 2894892
-0.052828744 0.10723667 1.903277 10197915
-0.031040918 0.1086769 1.9262176 10197915
0.025064507 0.11457536 1.9204324 10197915
0.074773937 0.11455151 1.9202445 10197915
0.12486653 0.11452762 1.9198445 10197915
0.17533259 0.11450361 1.9192303 10197915
0.23464102 0.1093662 1.9325466 10066329
0.26980686 0.10783038 1.9147928 10066329
0.62833023 -0.61778373 1.9747531 11711154
-0.0081253666 -0.56776798 1.9611695 11711154
0.010707592 -0.56766927 1.9856348 11711154
0.62832206 -0.5749554 1.9747531 11711154
-0.0081185233 -0.52511477 1.9611892 7500402
0.010706488 -0.5250234 1.9856433 7631988
0.62729806 -0.52720958 1.9734371 5921370
-0.0081343194 -0.47506881 1.9611826 6447714
0.010673323 -0.47509915 1.9856161 6447714
0.61176789 -0.49847692 1.9532685 2894892
-0.0081107039 -0.42494029 1.9612265 6447714
0.010689927 -0.42504826 1.9856522 6447714
-0.008142326 -0.37489209 1.9612002 6447714
0.010711106 -0.37499702 1.9856931 6447714
-0.0081109302 -0.32500663 1.9612539 6447714
0.010702756 -0.32500792 1.9856929 6447714
-0.0081187487 -0.27503842 1.9612569 6447714
0.010698657 -0.27501863 1.9857019 6447714
-0.0081241904 -0.22498849 1.9612626 6447714
0.010669389 -0.22496507 1.9856795 6447714
-0.008121605 -0.17502016 1.9612801 6447714
0.010694323 -0.17503655 1.9857255 6447714
-0.0081030903 -0.12504876 1.9613183 6447714
0.010703355 -0.12510894 1.9857497 6447714
-0.0081746038 -0.075244419 1.9612383 6447714
0.01073624 -0.074925534 1.9858046 6447714
-0.0081112189 -0.025189241 1.9613333 6447714
0.010656885 -0.024873348 1.985715 6447714
-0.0081112683 0.02518948 1.9613469 6447714
0.010656957 0.024873588 1.9857321 6447714
-0.0081747668 0.075246021 1.9612786 7829367
0.010736463 0.074927114 1.9858475 7829367
-0.0079044374 0.10772263 1.9613409 10197915
0.016027184 0.10961451 1.9814245 10197915
0.075241834 0.1145028 1.9742744 10197915
0.12510891 0.11447904 1.9738643 10197915
0.17454359 0.1144555 1.9732276 10197915
0.21583271 0.11443502 1.9738108 10197915
0.64951134 -0.61798966 2.0022697 11711154
0.6683293 -0.61799806 2.0267155 11711154
0.03597397 -0.56769109 2.0184579 11711154
0.055007894 -0.56781524 2.0431857 11711154
0.64951771 -0.57569003 2.0022893 11711154
0.66840082 -0.57504034 2.0268223 11184810
0.035962217 -0.52499807 2.0184519 7763574
0.055013213 -0.52515632 2.0432045 7895160
0.64952433 -0.53173059 2.0023098 4605510
0.66692972 -0.53542322 2.0249214 3223857
0.035932317 -0.47502479 2.01843 6447714
0.055013631 -0.47504643 2.0432181 6447714
0.035959519 -0.42495286 2.0184808 6447714
0.055037707 -0.42510876 2.0432639 6447714
0.035973087 -0.37497798 2.0185108 6447714
0.055014398 -0.37516683 2.043246 6447714
0.035963111 -0.3250525 2.0185087 6447714
0.05502655 -0.32505709 2.0432765 6447714
0.035967048 -0.27497774 2.0185273 6447714
0.055027027 -0.27511513 2.0432901 6447714
0.035932925 -0.2250012 2.0184994 6447714
0.055003744 -0.22500475 2.0432732 6447714
0.035951119 -0.17497541 2.0185373 6447714
0.055063512 -0.17488791 2.043364 6447714
0.035974428 -0.12489828 2.0185778 6447714
0.054992516 -0.12495094 2.0432856 6447714
0.035916634 -0.075069129 2.0185151 6447714
0.055064291 -0.074997075 2.0433919 6447714
0.036005177 -0.025088996 2.0186481 6447714
0.054993261 -0.025063273 2.0433133 6447714
0.03600543 0.02508923 2.0186617 6447714
