# .PCD v0.7 - Point Cloud Data file format
VERSION 0.7
FIELDS x y z rgb
SIZE 4 4 4 4
TYPE F F F U
COUNT 1 1 1 1
WIDTH 1160
HEIGHT 1
VIEWPOINT 0 0 0 1 0 0 0
POINTS 1160
DATA ascii
0.4754293 -0.17493774 1.0221878 6447714
0.50092775 -0.1749924 1.0009363 6447714
0.44603318 -0.12547439 1.0469424 6447714
0.47531593 -0.12500589 1.0225432 6447714
0.50101602 -0.12514959 1.0011225 6447714
0.44632369 -0.075076699 1.0469633 6447714
0.47538623 -0.075005546 1.0227395 6447714
0.50140089 -0.074820749 1.0010638 6447714
0.44640711 -0.025122084 1.047155 6447714
0.47549224 -0.02500302 1.0229204 6447714
0.50149685 -0.024887459 1.0012447 6447714
0.44668543 0.024558552 1.0471826 6447714
0.47557828 0.024998823 1.0231013 6447714
0.50169498 0.025903137 1.0013452 6447714
0.44688192 0.07501711 1.0472814 6447714
0.47564825 0.074996948 1.0233071 6447714
0.5019806 0.074883215 1.0013632 6447714
-0.81222808 0.11088087 1.036752 10197915
-0.77482134 0.11091367 1.0257877 10197915
-0.7250576 0.11088881 1.0255219 10197915
-0.67501277 0.11086354 1.0253092 10197915
-0.62499201 0.1108384 1.0250751 10197915
-0.57505375 0.11081357 1.0247885 10197915
-0.5250172 0.11078805 1.0246297 10197915
-0.47494227 0.11076313 1.0243415 10197915
-0.42495084 0.11073801 1.0241094 10197915
-0.37516475 0.11071289 1.0238951 10197915
-0.32521784 0.1106877 1.023683 10197915
-0.27505213 0.1106627 1.0233959 10197915
-0.22496973 0.11063732 1.0232162 10197915
-0.17497052 0.11061203 1.0230021 10197915
-0.12499402 0.11058695 1.0227699 10197915
-0.07497967 0.11056246 1.0223923 10197915
-0.024988813 0.11053666 1.0223048 10197915
0.024055071 0.11050519 1.0234979 10197915
0.074990235 0.11046866 1.0255451 10197915
0.12502667 0.11044355 1.0253009 10197915
0.17504007 0.11041814 1.025121 10197915
0.22503126 0.1103933 1.0248343 10197915
0.27499932 0.11036789 1.0246542 10197915
0.32501486 0.11034275 1.0244211 9342606
0.37507966 0.11031774 1.0241554 7171437
0.43059069 0.10895487 1.0299122 6513507
0.47455052 0.10592797 1.0221473 6513507
0.50199419 0.10517209 1.0015093 6513507
0.39069301 -0.46911165 1.0912681 6447714
0.4187631 -0.46389389 1.0679022 6447714
0.39071667 -0.42504123 1.0914785 6447714
0.42032912 -0.42497838 1.0668005 6447714
0.39077362 -0.37498909 1.0916929 6447714
0.42070824 -0.37498209 1.0667446 6447714
0.39083201 -0.32500243 1.0919042 6447714
0.42079529 -0.32500243 1.0669332 6447714
0.39091006 -0.27501553 1.0921003 6447714
0.42094564 -0.27493414 1.06707 6447714
0.39099103 -0.22499219 1.0922946 6447714
0.42128778 -0.22499588 1.0670463 6447714
0.39105144 -0.17500277 1.0925051 6447714
0.42136168 -0.17499071 1.0672443 6447714
0.39131999 -0.12526464 1.0925404 6447714
0.42157096 -0.12489898 1.0673321 6447714
0.39155155 -0.074959069 1.0926101 6447714
0.42188305 -0.074999526 1.0673332 6447714
0.3916178 -0.024954874 1.0928171 6447714
0.4219062 -0.024995249 1.0675743 6447714
0.3917048 0.024442503 1.093002 6447714
0.42198929 0.025174962 1.0677662 6447714
0.39177731 0.074946992 1.0932047 6447714
0.42211634 0.074994005 1.0679212 6447714
-0.8589552 0.11064578 1.0910368 10197915
-0.82421744 0.11068892 1.0782011 10197915
-0.77512485 0.11066832 1.0771213 10197915
-0.72512978 0.11064311 1.0769013 10197915
-0.6751582 0.11061829 1.0766075 10197915
-0.62505943 0.11059292 1.0764128 10197915
-0.57505828 0.11056801 1.0761319 10197915
-0.52500474 0.11054264 1.0759372 10197915
-0.47497487 0.11051758 1.0756924 10197915
-0.42504069 0.11049268 1.0754119 10197915
-0.37483367 0.11046766 1.0751317 10197915
-0.32479572 0.11044228 1.0749468 10197915
-0.27500552 0.11041745 1.0746793 10197915
-0.22501437 0.11039217 1.0744725 10197915
-0.17497131 0.1103673 1.0741791 10197915
-0.12502602 0.11034183 1.0740206 10197915
-0.075028166 0.11031743 1.0736306 10197915
-0.024980333 0.11029182 1.0734956 10197915
0.024972769 0.11026675 1.0732518 10197915
0.074975088 0.11024221 1.0728985 10197915
0.12503003 0.11021622 1.0728256 10197915
0.17498758 0.11019172 1.0724698 10197915
0.22499643 0.11016674 1.0722029 9737364
0.27498257 0.11014137 1.072031 7829367
0.32509327 0.11011615 1.0717885 6513507
0.38207865 0.10788743 1.0807288 6513507
0.4212122 0.10579751 1.0668702 6447714
0.38207322 -0.11443942 1.1005262 6447714
0.38212842 -0.075239308 1.1006849 6447714
0.38219884 -0.025083888 1.1008879 6447714
0.3825241 0.027148888 1.1008335 6447714
0.38267335 0.075258449 1.1009418 6447714
-0.90419888 0.11042711 1.1417298 10000536
-0.8719601 0.11047863 1.1274158 10066329
-0.82480788 0.11046497 1.1251012 10132122
-0.77485222 0.11044026 1.1247778 10197915
-0.72482777 0.11041518 1.1245252 10197915
-0.67482376 0.11039022 1.1242679 10197915
-0.62493777 0.1103649 1.124082 10197915
-0.57488674 0.11034014 1.1237603 10197915
-0.52495122 0.11031515 1.1235033 10197915
-0.47503915 0.11029015 1.1232512 10197915
-0.42496365 0.11026461 1.1230963 10197915
-0.37481713 0.11023998 1.1227404 10197915
-0.32487825 0.11021467 1.1225523 10197915
-0.27391455 0.11017928 1.1243587 10197915
-0.22503227 0.11014309 1.1265602 10197915
-0.17505461 0.11011844 1.1262205 10197915
-0.12502193 0.11009317 1.1260091 10197915
-0.075012088 0.110068 1.125792 10197915
-0.025025679 0.110043 1.125525 10197915
0.025018081 0.11001796 1.1252687 10197915
0.075036533 0.10999304 1.124982 10197915
0.12503316 0.1099679 1.1247568 10197915
0.17500728 0.1099432 1.1244429 8158332
0.22495836 0.109918 1.1242172 6645093
0.2749643 0.10989277 1.1240034 6513507
0.3249481 0.10986836 1.1236197 6513507
0.37133539 0.10931961 1.1228787 6513507
-0.81639898 -0.51443696 1.1814187 4329231
-0.76808441 -0.51344109 1.1775627 4329231
-0.74938977 -0.51813668 1.1987312 4329231
-0.81554335 -0.47503781 1.1808883 4329231
-0.77035522 -0.47500253 1.1753494 4329231
-0.74920875 -0.4756431 1.1991515 4329231
-0.81581855 -0.42483884 1.181357 4329231
-0.77041036 -0.42504901 1.1755495 4329231
-0.74926805 -0.42506546 1.1993237 4329231
-0.81512427 -0.37500522 1.1810133 5316126
-0.77015221 -0.37499177 1.1758195 5710884
-0.74935991 -0.374928 1.1994553 6500400
-0.81556237 -0.32507727 1.1816158 6504255
-0.77026594 -0.32498831 1.175988 6506568
-0.74944568 -0.32526815 1.1995916 6444887
-0.81593424 -0.27506682 1.1821671 6447714
-0.77038169 -0.27501854 1.176157 6447714
-0.74981338 -0.27527896 1.1993932 6447714
-0.81564564 -0.22548567 1.1821594 5789784
-0.77048218 -0.22502114 1.1763366 5263440
-0.74989974 -0.22511852 1.1995312 4408131
-0.81554854 -0.17509013 1.1823168 2960685
-0.77051628 -0.17491868 1.1766129 2960685
-0.74997169 -0.18339245 1.1996461 3421236
-0.8157652 -0.12482043 1.1827368 2039583
-0.77037942 -0.12504528 1.1770136 2370353
-0.81514466 -0.075019993 1.1824535 2039583
-0.77014631 -0.07505241 1.1772665 2238769
-0.81557477 -0.024994986 1.1830516 2039583
-0.77053601 -0.025017776 1.1771278 2107183
-0.81596249 0.025010804 1.1836139 3092271
-0.77064818 0.02501571 1.1773007 3160127
-0.81565535 0.074531928 1.1835914 10000536
-0.77072698 0.075019829 1.1774991 9869208
-0.91836786 0.11026402 1.17739 10132122
-0.87502617 0.11026449 1.1725382 10000536
-0.82307571 0.10823915 1.1747459 10066329
-0.77065569 0.10596754 1.175246 10066329
-0.72482622 0.11018975 1.1716621 10197915
-0.67496532 0.11016487 1.1713972 10197915
-0.62503213 0.11013939 1.171248 10197915
-0.57492608 0.11011492 1.170869 10197915
-0.52494025 0.11008988 1.1705999 10197915
-0.47497708 0.11006457 1.1704127 10197915
-0.42503563 0.11004 1.1700695 10197915
-0.37391111 0.11000266 1.1722642 10197915
-0.3249523 0.10996615 1.1745219 10197915
-0.27618033 0.10993318 1.1760632 10197915
-0.2249634 0.10989241 1.1789713 10197915
-0.17491023 0.10986758 1.1786621 10197915
-0.12497701 0.10984303 1.1783167 10197915
-0.074970275 0.1098173 1.1782064 10197915
-0.024985559 0.1097929 1.1778207 10197915
0.024977989 0.10976793 1.1775528 10197915
0.075014807 0.10974238 1.1774014 10197915
0.12502854 0.10971802 1.1770167 10197915
0.17501998 0.10969319 1.1767124 6974058
0.22498892 0.10966804 1.1764815 6513507
0.27493483 0.10964254 1.1763307 6513507
0.32485744 0.10961817 1.1759462 6513507
0.37495381 0.10959315 1.1756804 6447714
0.40532213 0.10953084 1.1853725 6513507
-0.74767929 -0.51868618 1.2007692 4329231
-0.74776369 -0.4749577 1.2008795 4329231
-0.74784565 -0.42492342 1.2010218 4395024
-0.74792761 -0.37504277 1.2011636 6566193
-0.95773005 -0.30996436 1.222548 4198159
-0.94265264 -0.31000966 1.2406656 3151382
-0.74802524 -0.32482705 1.2012892 6445144
-0.96196067 -0.29286921 1.2285702 2235678
-0.94292253 -0.29452705 1.2410176 2039583
-0.74839419 -0.27492377 1.2010884 6447714
-0.748285 -0.22371297 1.2014649 4144959
-0.7482698 -0.17514384 1.201717 2895408
-0.74836046 -0.1249752 1.2018499 1718873
-0.75019747 -0.052200615 1.2000074 2183303
-0.74845141 -0.074795663 1.2019824 1455703
-0.75024444 -0.024858523 1.2000829 2316170
-0.74853235 -0.024900848 1.2021257 1323861
-0.75033015 0.024862312 1.2002198 1920643
-0.74861813 0.02490464 1.2022632 1192273
-0.75041664 0.075091869 1.200358 8686741
-0.74870354 0.074721485 1.2024006 8554381
-0.96503013 0.11002687 1.2320795 10066329
-0.92498088 0.11004455 1.2239922 10197915
-0.87674063 0.11002821 1.2221128 10066329
-0.84379148 0.11008702 1.2061974 10000536
-0.75720739 0.10912951 1.2299217 10132122
-0.72918928 0.10904773 1.2194115 10132122
-0.67501795 0.10991929 1.222738 10197915
-0.62493128 0.10989457 1.2224151 10197915
-0.57496881 0.10986988 1.2220951 10197915
-0.52502871 0.10984475 1.2218629 10197915
-0.47511131 0.10982025 1.2214988 10197915
-0.42501405 0.10979469 1.2213516 10197915
-0.37633517 0.10976049 1.2231566 10197915
-0.32496771 0.10971924 1.2261411 10197915
-0.27487248 0.10969482 1.2257516 10197915
-0.22492452 0.10966899 1.2256655 10197915
-0.17500116 0.10964503 1.2251955 10197915
-0.1249731 0.10961956 1.2250272 10197915
-0.074966073 0.10959516 1.2246385 10197915
-0.0249849 0.10956975 1.2244705 10197915
0.025103627 0.10954492 1.2241639 10197915
0.075040288 0.10952027 1.22383 10197915
0.12495577 0.10949517 1.223608 10197915
0.17497429 0.1094701 1.2233567 7368816
0.22497025 0.10944555 1.2229955 6513507
0.27494279 0.10942028 1.2227999 6513507
0.32604536 0.10937619 1.2264103 6447714
0.37492526 0.10934495 1.227572 6447714
0.41304597 0.10931029 1.2306393 6447714
-0.91787869 -0.31009391 1.2704353 3749944
-0.8998456 -0.30994081 1.2921053 6447714
-1.0118387 -0.29021677 1.2871743 2039583
-0.97528201 -0.29017419 1.2742436 2039583
-0.92273015 -0.29333925 1.2730632 3355443
-0.89986926 -0.29496011 1.2921392 6447714
-1.0109897 0.10980045 1.2844791 9934743
-0.97513026 0.10982897 1.2745762 9934743
-0.9250226 0.10980463 1.2741628 10066329
-0.88963145 0.10982239 1.2665687 10197915
-0.80077124 0.10965806 1.2911725 10066329
-0.77081436 0.10971533 1.2759079 9934743
-0.72521406 0.10970509 1.2730399 10132122
-0.67521799 0.10967992 1.2728143 10197915
-0.62511319 0.10965486 1.2725556 10197915
-0.57503217 0.10963039 1.2721739 10197915
-0.52497345 0.10960504 1.2719778 10197915
-0.47493729 0.10958032 1.2716582 10197915
-0.42492256 0.10955586 1.2712762 10197915
-0.37506574 0.10953049 1.2711123 10197915
-0.3250958 0.10950577 1.270793 10197915
-0.27425954 0.10947517 1.2716103 10197915
-0.22498971 0.10942838 1.2759836 10197915
-0.17504624 0.10940331 1.2757449 10197915
-0.12512593 0.10937897 1.2753562 10197915
-0.075016759 0.10935333 1.2752142 10197915
-0.024930783 0.10932891 1.2748232 10197915
0.024923252 0.10930412 1.2745343 10197915
0.074963629 0.10927877 1.2743442 10197915
0.12508731 0.10925407 1.274006 10197915
0.175082 0.10922945 1.2736635 7895160
0.22505511 0.10920411 1.2734743 6447714
0.27500537 0.10918023 1.2729878 6447714
0.32376155 0.10913738 1.2765945 6447714
0.37497142 0.10910216 1.2783358 6447714
0.42146397 0.10907189 1.2795582 6447714
-1.0140777 -0.60122979 1.3466481 4329231
-0.62447262 -0.60136563 1.347411 6447714
-1.0070227 -0.59997153 1.3466346 4329231
-0.97494674 -0.59996659 1.3459048 4329231
-0.94370216 -0.59996372 1.3454041 4329231
-0.81815886 -0.59996307 1.3460191 4329231
-0.77490288 -0.59996152 1.3458701 4263695
-0.7248587 -0.59995949 1.3458887 2104862
-0.67481238 -0.5999586 1.3459089 2039583
-0.63765925 -0.59995866 1.3460741 3947580
-1.057434 -0.29043925 1.3387146 2039583
-1.02379 -0.29039621 1.3260016 2039583
-0.97450519 -0.29040894 1.3232684 2171169
-0.9335779 -0.29040325 1.3175741 5197647
-1.0572301 0.10956695 1.3383815 9934743
-1.0233231 0.1096162 1.3243576 9080725
-0.97501814 0.10959903 1.3226395 8357002
-0.93266791 0.1095975 1.3183163 9934743
-0.81201267 0.10948872 1.3278172 10197915
-0.7749818 0.10949926 1.3215462 10066329
-0.72499442 0.10947412 1.3213155 9934743
-0.67503321 0.10945065 1.3207415 10132122
-0.62509143 0.10942485 1.3206483 10197915
-0.57503468 0.10939986 1.3203828 10197915
-0.52500218 0.10937517 1.3200487 10197915
-0.47512835 0.10935073 1.3196826 10197915
-0.42514184 0.10932542 1.3194848 10197915
-0.37517682 0.10930081 1.319151 10197915
-0.32509604 0.10927626 1.3187848 10197915
-0.27589664 0.10924799 1.3192942 10197915
-0.22516057 0.10919651 1.3244909 10197915
-0.17501307 0.10914093 1.3306025 10197915
-0.12482401 0.10911638 1.3302292 10197915
-0.074932255 0.10909196 1.3298556 10197915
-0.025064932 0.1090669 1.3296263 10197915
0.025057321 0.10904204 1.3293232 10197915
0.075017989 0.1090171 1.3290554 10197915
0.12495471 0.10899282 1.3286479 10197915
0.17500781 0.10896763 1.3284161 8421504
0.22489978 0.10894271 1.3281493 6447714
0.27490792 0.10891857 1.3277093 6447714
0.32516527 0.10889298 1.3275428 6447714
0.37526569 0.10886829 1.3272049 6447714
0.42492875 0.108844 1.3268328 6447714
0.45576558 0.10879403 1.3338929 6447714
-1.0622029 -0.60633874 1.390299 4329231
-1.0239334 -0.60071164 1.3778653 4329231
-0.97880465 -0.60010207 1.3742011 4329231
-0.94728166 -0.60002035 1.3572071 4329231
-0.85687768 -0.60017389 1.3899416 4329231
-0.82439375 -0.60011286 1.3774796 4329231
-0.77501512 -0.60011047 1.3769177 4329231
-0.72503513 -0.60010725 1.3769077 2889752
-0.67522329 -0.6001066 1.3771056 2302755
-0.62170374 -0.60163707 1.3758115 6250335
-0.58981133 -0.6093896 1.3898531 6447714
-1.0106416 -0.59999853 1.3522544 4329231
-0.97534621 -0.59999752 1.3522519 4329231
-0.94565296 -0.59999657 1.35225 4329231
-0.82015824 -0.59999293 1.3522416 4329231
-0.77477884 -0.59999156 1.3522381 4329231
-0.72491783 -0.59998965 1.3522348 2235677
-0.67249995 -0.59998989 1.3525319 2039583
-0.6347394 -0.59999347 1.3535546 4934475
-0.82735294 -0.31038347 1.3792146 2697513
-1.1038976 -0.29067123 1.3923173 2039583
-1.0711144 -0.29060987 1.375872 2105893
-1.0250342 -0.2906189 1.3727322 2107442
-0.9781152 -0.29063275 1.3704543 4342338
-0.94624752 -0.29057348 1.3545494 6447714
-0.85625184 -0.29078093 1.3880656 5197647
-0.82963496 -0.29427427 1.3803269 2697513
-1.1053072 0.1093161 1.3961108 9934743
-1.0717374 0.10938309 1.3784193 9343638
-1.0251042 0.10937475 1.3750449 3033449
-0.97775108 0.10936376 1.3721434 6318452
-0.94503146 0.1094306 1.354571 9934743
-0.85653424 0.10921381 1.3901905 10197915
-0.82372653 0.10927001 1.3748348 10197915
-0.7748577 0.10925022 1.3736042 10132122
-0.72476196 0.10922635 1.3731004 10132122
-0.67483032 0.10920125 1.3728644 10197915
-0.62492329 0.1091769 1.3724788 10197915
-0.5748952 0.10915159 1.3722805 10197915
-0.52489084 0.10912698 1.3719338 10197915
-0.47490948 0.10910206 1.3716581 10197915
-0.4249483 0.10907788 1.3712338 10197915
-0.37515482 0.10905284 1.3709985 10197915
-0.32509708 0.10902806 1.3706901 10197915
-0.27478004 0.10900348 1.3702986 10197915
-0.22491039 0.10897825 1.3701013 10197915
-0.17507379 0.10892104 1.376595 10197915
-0.1252427 0.10889686 1.3761781 10197915
-0.075051695 0.108872 1.3758667 10197915
-0.02488648 0.10884719 1.3755504 10197915
0.024878971 0.10882252 1.3752391 10197915
0.074998543 0.10879771 1.3749278 10197915
0.12509826 0.1087729 1.374612 10197915
0.17498304 0.10874771 1.374404 8816262
0.22503601 0.10872392 1.3738848 6447714
0.27506447 0.10869818 1.3737779 6447714
0.32526091 0.1086738 1.3733619 6447714
0.37524647 0.10864908 1.3730468 6447714
0.42520642 0.10862433 1.3727362 6447714
0.46314591 0.1085972 1.3742435 6447714
-1.1165318 -0.60981256 1.4362124 4329231
-1.0767839 -0.60340261 1.422863 4329231
-1.0254891 -0.60034329 1.4244039 4329231
-0.99164319 -0.60028815 1.4129286 4329231
-0.86879891 -0.6003558 1.428228 4329231
-0.82503712 -0.60034001 1.424852 4329231
-0.77499789 -0.60033876 1.4248954 4329231
-0.72495967 -0.60033643 1.4248368 4001808
-0.67495632 -0.60033643 1.4248461 4144702
-0.62484908 -0.60033333 1.42484 6447714
-0.57017761 -0.60965407 1.4220324 6447714
-0.54421401 -0.61466426 1.4433382 6447714
-0.80503708 -0.310435 1.4060316 2039583
-0.78464705 -0.31050593 1.4305335 2039583
-1.1510516 -0.29091197 1.4478296 2039583
-1.1183912 -0.29084113 1.4294349 2039583
-1.0749916 -0.29083797 1.424028 2901084
-1.0255244 -0.29086158 1.4235158 3490900
-0.99091452 -0.29081807 1.410602 6381921
-0.86880755 -0.29096839 1.4286252 4934475
-0.82086778 -0.29199666 1.4209369 2039583
-0.7856549 -0.29455242 1.4321641 2039583
-1.1177801 0.1091704 1.4279438 9934743
-1.0749345 0.1091653 1.4243103 4480635
-1.0251349 0.10914066 1.4239923 3951454
-0.99135143 0.10916405 1.4153924 9934743
-0.8674202 0.10905062 1.4255025 10066329
-0.82518303 0.10904131 1.4228152 10197915
-0.77510142 0.1090171 1.4223795 10197915
-0.72484863 0.10899227 1.4220558 10197915
-0.67481297 0.10896754 1.4217334 10197915
-0.62480158 0.10894228 1.4215235 10197915
-0.57481444 0.10891811 1.4210881 10197915
-0.52484673 0.10889344 1.4207665 10197915
-0.47316337 0.10884561 1.4250946 10197915
-0.42488942 0.10880917 1.4274137 10197915
-0.37512976 0.10878376 1.4272629 10197915
-0.32524827 0.10876057 1.4266363 10197915
-0.27508831 0.10873473 1.4265298 10197915
-0.22495541 0.108711 1.4259871 10197915
-0.1749911 0.10868551 1.4258376 10197915
-0.12490264 0.10866096 1.4254701 10197915
-0.074983239 0.10863671 1.4250584 10197915
-0.025088625 0.10861166 1.424824 10197915
0.025080979 0.10858685 1.4244983 10197915
0.074930266 0.10856267 1.424086 10197915
0.1249065 0.10853733 1.4238936 10197915
0.17500545 0.1085126 1.4235692 9342606
0.22493468 0.10848812 1.4232031 6447714
0.2749902 0.10846341 1.4228785 6447714
0.3248744 0.10843978 1.4223398 6447714
0.37488088 0.10841384 1.422274 6447714
0.42501423 0.10838927 1.4219067 6447714
0.47153097 0.10835581 1.4237952 6447714
-1.1660235 -0.60813504 1.4808328 4329231
-1.1261923 -0.60207766 1.4733776 4329231
-1.0749506 -0.60058409 1.4747437 4329231
-1.0359479 -0.60055244 1.4682242 4329231
-0.91085863 -0.6006214 1.4832797 4329231
-0.87501085 -0.60057682 1.4746917 4329231
-0.82494479 -0.60057759 1.4747025 4329231
-0.77498817 -0.60057646 1.4747658 4329231
-0.72503072 -0.60057586 1.4747083 4395024
-0.67500216 -0.60057408 1.4747679 6244167
-0.62497532 -0.60057193 1.4746592 6447714
-0.57501614 -0.60056871 1.4747713 6184542
-0.52284133 -0.61126506 1.4750204 6381921
-0.4982087 -0.61612898 1.4980602 6447714
-0.75946182 -0.31057566 1.4607966 4276545
-0.73863965 -0.31066665 1.4858181 6447714
-1.1646361 -0.29107299 1.4829898 2039583
-1.1248782 -0.29105964 1.4758376 2899793
-1.0749884 -0.29108715 1.4760908 3163224
-1.0364853 -0.29107714 1.4697686 5790558
-0.91119939 -0.29121116 1.4840447 6184542
-0.87496156 -0.29119486 1.4766672 2763306
-0.82494819 -0.29122174 1.4767714 2039583
-0.77021569 -0.29286927 1.4716783 3750201
-0.73592597 -0.27862948 1.4924418 4079166
-0.73409772 -0.22524314 1.4956183 2039583
-0.7336334 -0.17495425 1.4956067 2039583
-0.73373747 -0.12513833 1.4958798 2039583
-0.73398799 -0.075292051 1.4960401 2039583
-0.73424506 -0.025200961 1.4959769 2039583
-0.73380351 0.024791392 1.4959843 2697513
-0.7339133 0.074902438 1.4962075 10066329
-1.1619269 0.1089623 1.4762931 9934743
-1.1248605 0.10897537 1.4694909 7043981
-1.0753078 0.10895093 1.4691614 1651280
-1.033888 0.10894761 1.4653125 8422280
-0.91163099 0.10877478 1.4880245 6387340
-0.87495303 0.10881561 1.4754642 8882830
-0.82494414 0.10879002 1.4753187 10132122
-0.7749548 0.1087663 1.4747956 10197915
-0.7277599 0.10726348 1.4813427 10132122
-0.67504919 0.10871613 1.4743166 10197915
-0.62513202 0.10869243 1.4737941 10197915
-0.57508177 0.10866615 1.4737924 10197915
-0.52490264 0.10864279 1.4731723 10197915
-0.47681329 0.1085995 1.4769362 10197915
-0.42522854 0.10855597 1.480377 10197915
-0.37485293 0.10853112 1.4800415 10197915
-0.32470173 0.10850642 1.4797015 10197915
-0.27498567 0.10848191 1.4793671 10197915
-0.22488052 0.10845659 1.4791596 10197915
-0.17479929 0.10843255 1.4786936 10197915
-0.12515095 0.10840808 1.4783603 10197915
-0.075113378 0.10838339 1.478027 10197915
-0.024897773 0.10835866 1.4776862 10197915
0.024890248 0.10833412 1.4773517 10197915
0.075060129 0.10830937 1.4770174 10197915
0.12521052 0.10828467 1.4766777 10197915
0.1751316 0.10825945 1.4764706 9803157
0.22503136 0.10823608 1.4758794 6447714
0.27490652 0.10821027 1.4758 6447714
0.32476053 0.1081863 1.4753363 6447714
0.37479696 0.10816164 1.4750028 6447714
0.42480737 0.108137 1.4746637 6447714
0.47479814 0.10811234 1.4743308 6447714
0.50618458 0.10807041 1.4796567 6447714
-1.2111186 -0.60088128 1.5359522 4329231
-1.1749289 -0.60082811 1.5253021 4329231
-1.1249965 -0.60082644 1.5249598 4329231
-1.0798397 -0.60081017 1.5215918 4329231
-1.0483072 -0.60072333 1.5038531 4329231
-0.95432782 -0.6009056 1.5426401 4329231
-0.92284304 -0.60082889 1.5266013 4329231
-0.8750096 -0.60081863 1.524976 4329231
-0.82501322 -0.60081738 1.524999 4329231
-0.77501678 -0.60081583 1.5249126 4329231
-0.72502083 -0.60081464 1.524991 5250333
-0.67502505 -0.6008119 1.5249617 6501171
-0.6251139 -0.600811 1.5249285 6446686
-0.57511681 -0.60080934 1.5249394 5263440
-0.52508062 -0.60081011 1.5249586 6381921
-0.47795591 -0.61260808 1.525986 6447714
-0.71788484 -0.31071165 1.5107567 6447714
-1.2105092 -0.29129872 1.5352335 1845557
-1.1747444 -0.29126951 1.525193 2634300
-1.1250117 -0.29129565 1.5251876 3033186
-1.0796767 -0.29130647 1.5224749 5002331
-1.048965 -0.29124057 1.5053329 6447714
-0.95369083 -0.29147145 1.5431405 6447714
-0.92274398 -0.29141164 1.5272384 4079682
-0.87483436 -0.29143077 1.5259671 2039583
-0.82478619 -0.29145724 1.5260344 2039583
-0.76846397 -0.27952802 1.5153569 2631720
-0.71995056 -0.27471074 1.5102633 3618615
-0.75785488 -0.22492962 1.5105537 1908772
-0.72066993 -0.22486499 1.510195 2368548
-0.75806361 -0.17500645 1.5109879 1584966
-0.72146523 -0.17502345 1.5100691 3421236
-0.7582798 -0.12514424 1.5114281 1519174
-0.72159427 -0.12494149 1.5102048 3421236
-0.75817895 -0.074430332 1.5116082 1321281
-0.7213589 -0.075013459 1.5103549 3421236
-0.75689876 -0.025685402 1.5107977 1387069
-0.72106916 -0.02482878 1.5102841 3421236
-0.75682914 0.025040885 1.5110042 1452349
-0.72173828 0.025026433 1.5101804 4013373
-0.75705367 0.075142473 1.5114527 5989746
-0.72183251 0.075033672 1.5103362 10066329
-1.2085516 0.10873013 1.5299569 9934743
-1.1743425 0.10876776 1.5183265 8686740
-1.1253957 0.10874715 1.5172713 1784155
-1.0778028 0.10873203 1.5152005 6318196
-1.0462087 0.10878582 1.5004857 10000536
-0.95544052 0.10851085 1.5480163 4680336
-0.92377335 0.10856269 1.5337026 2245222
-0.8751269 0.10854452 1.5321581 7567745
-0.82479429 0.10851978 1.5318091 10066329
-0.77294195 0.10684153 1.5211016 10132122
-0.7194137 0.10486443 1.5142345 10132122
-0.67519844 0.10844623 1.5307704 10197915
-0.62495703 0.10842149 1.5304215 10197915
-0.57494742 0.10839625 1.530216 10197915
-0.52517307 0.10837241 1.529729 10197915
-0.47499985 0.10834775 1.529381 10197915
-0.4248459 0.10832307 1.5290325 10197915
-0.37471837 0.10829841 1.5286845 10197915
-0.32482052 0.10827321 1.5284793 10197915
-0.27494949 0.10824935 1.5279917 10197915
-0.22489016 0.10822473 1.5276444 10197915
-0.17506106 0.10820021 1.5272983 10197915
-0.12504716 0.10817563 1.5269511 10197915
-0.075052299 0.10815103 1.5266042 10197915
-0.025083832 0.10812646 1.5262573 10197915
0.025076201 0.10810181 1.5259093 10197915
0.074999228 0.10807723 1.525562 10197915
0.12490309 0.1080527 1.5252161 10197915
0.17499194 0.1080274 1.5250103 10197915
0.22505747 0.10800344 1.5245209 6579300
0.27510351 0.10797883 1.5241733 6447714
0.32491297 0.10795433 1.5238276 6447714
0.37470341 0.10792986 1.5234816 6447714
0.42509755 0.10790504 1.5231352 6447714
0.47526237 0.10788042 1.5227835 6447714
0.51405954 0.10784958 1.524964 6447714
-1.2579499 -0.60114884 1.5916191 4329231
-1.2232475 -0.60107702 1.5767543 4329231
-1.1747692 -0.60106945 1.5753953 4329231
-1.1262184 -0.60106087 1.57399 4329231
-1.092882 -0.60099268 1.559954 4329231
-0.96592999 -0.60108453 1.5800499 4329231
-0.92497569 -0.6010617 1.575336 4329231
-0.87498367 -0.60105944 1.5752331 4329231
-0.82499093 -0.6010586 1.5752572 4329231
-0.77499902 -0.60105675 1.5752273 4395024
-0.72496319 -0.60105526 1.5753033 6237228
-0.67497146 -0.60105038 1.5752388 6566193
-0.62519979 -0.60105133 1.5752361 6505797
-0.57520562 -0.60104984 1.575227 5197647
-0.52499825 -0.60104734 1.5752674 6447714
-0.47123837 -0.60357851 1.5716141 6447714
-0.43244889 -0.61336285 1.5792353 6447714
-1.2210257 -0.29147714 1.5736947 2239026
-1.1752367 -0.2915028 1.57402 3231080
-1.1260172 -0.29152602 1.5734886 4213848
-1.0922506 -0.29147959 1.5600475 6447714
-0.96504295 -0.29163927 1.5794739 3430526
-0.9249649 -0.29163814 1.5748309 2043454
-0.8748101 -0.29166514 1.5749768 2039583
-0.82534289 -0.29168954 1.5746404 2039583
-0.79416674 -0.29164624 1.5621711 2039583
-1.2564249 0.10848251 1.586987 10000536
-1.2228099 0.10854043 1.5711849 9474966
-1.1751766 0.10852771 1.5686125 2902636
-1.1253123 0.10850398 1.5681024 4280418
-1.0903753 0.10854136 1.5564517 10000536
-0.96454799 0.10837285 1.5778731 3036546
-0.92499965 0.10836345 1.5754992 3228505
-0.87519217 0.10833786 1.5753775 10132122
-0.82540375 0.10831343 1.5750219 10000536
-0.79552025 0.10832577 1.5691643 10132122
-0.71635395 0.1082546 1.5753522 10197915
-0.67519504 0.10824026 1.5738347 10197915
-0.6251744 0.10821515 1.5735927 10197915
-0.57516986 0.10819114 1.5731205 10197915
-0.52411294 0.10812647 1.5810404 10197915
-0.47498032 0.10809989 1.5812004 10197915
-0.4248772 0.10807385 1.5811532 10197915
-0.37479314 0.10804999 1.5806384 10197915
-0.32494909 0.10802557 1.5802768 10197915
-0.27513152 0.1080011 1.579923 10197915
-0.22511494 0.10797582 1.5797192 10197915
-0.17512232 0.10795203 1.579205 10197915
-0.12493391 0.10792815 1.5786875 10197915
-0.074989408 0.10790216 1.5786417 10197915
-0.025064584 0.10787839 1.5781281 10197915
0.025056969 0.10785379 1.5777684 10197915
0.075154148 0.10782846 1.5775623 10197915
0.1252251 0.10780466 1.5770497 10197915
0.17505983 0.10778094 1.5765328 10197915
0.22487229 0.10775573 1.5763339 7105644
0.27487555 0.10773049 1.5761284 6447714
0.32485846 0.1077067 1.5756165 6447714
0.37482059 0.10768217 1.5752578 6447714
0.42497331 0.10765756 1.5748979 6447714
0.47510684 0.10763294 1.5745379 6447714
0.52262098 0.1076023 1.5757351 6447714
0.55073875 0.10750948 1.5920502 6447714
-1.3040264 -0.601403 1.6446301 4329231
-1.2714984 -0.60132313 1.6281548 4329231
-1.2250462 -0.60130888 1.6253194 4329231
-1.1750051 -0.60130686 1.6254472 4329231
-1.1382195 -0.60127109 1.6180717 4329231
-1.0083399 -0.60135305 1.6360289 4329231
-0.97481287 -0.60130078 1.6254566 4329231
-0.92492062 -0.60130018 1.6253008 4329231
-0.87493473 -0.60129726 1.62532 4329231
-0.82495046 -0.60129625 1.625308 4987161
-0.77496475 -0.60129529 1.6253247 6237228
-0.7250331 -0.60129434 1.625299 6566193
-0.67499655 -0.60129219 1.6252968 6566193
-0.6251145 -0.60128951 1.6253643 6237228
-0.5751335 -0.60128909 1.6251343 5919571
-0.52494162 -0.60128766 1.6253121 6447714
-0.47495818 -0.6012851 1.6252911 6447714
-0.4185929 -0.60675466 1.619243 6447714
-0.38618326 -0.61428869 1.6332668 6447714
-0.61344612 -0.31113967 1.6433609 2046033
-1.2098227 -0.2916638 1.6114861 3693180
-1.1737596 -0.29174864 1.625271 3425621
-1.1370896 -0.29173231 1.6178313 6316129
-1.0071656 -0.29188022 1.6344771 4022920
-0.97463101 -0.29184461 1.6234589 3099753
-0.92503875 -0.29186994 1.623314 1909544
-0.87520248 -0.29189488 1.623062 2039583
-0.8346554 -0.29187098 1.6136086 2039583
-0.61349767 -0.27501231 1.6435573 1848655
-0.61358517 -0.2249437 1.6437749 1520205
-0.61351073 -0.1750977 1.6439338 1520462
-0.61294943 -0.12485825 1.6439615 1454668
-0.61310476 -0.07531815 1.6440693 1388875
-0.6136753 -0.02520036 1.6440421 1191241
-0.61376345 0.025205143 1.6442763 1059911
-0.61343533 0.074774958 1.6442956 1125190
-1.3036286 0.1082386 1.6431707 10197915
-1.2708763 0.10829556 1.6276619 9934744
-1.2248329 0.108292 1.6233515 3954809
-1.1747954 0.10826587 1.6233233 2768469
-1.1357919 0.10828205 1.6156589 9277329
-1.0073879 0.10811754 1.6359638 3760525
-0.97401071 0.10816585 1.6221975 1652829
-0.9249357 0.10814348 1.6214876 7896709
-0.87503123 0.10812064 1.6207831 10197915
-0.83234686 0.10811489 1.6173011 10132122
-0.75505197 0.1079866 1.6356397 10000536
-0.72440803 0.1080427 1.6205429 10132122
-0.67519218 0.10802194 1.6194873 9278361
-0.61949408 0.10609037 1.6304927 3821415
-0.57473677 0.10797192 1.6189157 9737622
-0.52641755 0.10791273 1.6259868 10197915
-0.47534236 0.10787855 1.627528 10197915
-0.42501292 0.1078545 1.6270298 10197915
-0.37470952 0.10782926 1.6267848 10197915
-0.32476297 0.1078048 1.6264158 10197915
-0.27517939 0.10778115 1.6259195 10197915
-0.22527681 0.10775668 1.6255546 10197915
-0.1750671 0.10773151 1.6253098 10197915
-0.12521106 0.10770709 1.6249413 10197915
-0.075041652 0.10768313 1.6244448 10197915
-0.024897752 0.10765797 1.6242003 10197915
0.024890235 0.10763358 1.6238326 10197915
0.074988522 0.10760964 1.6233363 10197915
0.12506671 0.10758454 1.6230923 10197915
0.17512053 0.10756061 1.6225966 10197915
0.22515188 0.10753552 1.622353 7566195
0.27516133 0.10751163 1.6218575 6447714
0.32514599 0.10748656 1.6216143 6447714
0.37760854 0.1074397 1.6256508 6447714
0.42506507 0.10739256 1.6303 6447714
0.47494054 0.10736811 1.6299341 6447714
0.52501541 0.10734279 1.6297313 6447714
0.558119 0.1073009 1.6348578 6447714
-1.3503965 -0.6016618 1.6985719 4329231
-1.3180851 -0.60157174 1.6800041 4329231
-1.2749279 -0.60154587 1.6747262 4329231
-1.2250785 -0.60154474 1.6747094 4329231
-1.1814669 -0.6015228 1.6704723 4329231
-1.0523545 -0.60164636 1.6972071 4329231
-1.0209123 -0.60155231 1.6776655 4329231
-0.97502166 -0.60153645 1.6747239 4329231
-0.92506492 -0.60153592 1.6747409 4329231
-0.87505549 -0.60153371 1.6746812 5250333
-0.82499158 -0.60153317 1.6747465 6566193
-0.77498245 -0.60153043 1.6746724 6566193
-0.72497261 -0.60152882 1.6746691 6566193
-0.67501801 -0.60152662 1.6747161 6043712
-0.62474316 -0.60152543 1.674638 5187629
-0.57473171 -0.60152328 1.6746416 6446172
-0.52499193 -0.60152346 1.6747541 6447714
-0.47503704 -0.60152066 1.6746222 6447714
-0.42508283 -0.60151941 1.6746908 6447714
-0.36876318 -0.60898513 1.6697057 6447714
-0.34005618 -0.61489224 1.687718 6447714
-0.66870445 -0.31116503 1.6830715 4025501
-0.63009208 -0.3111161 1.6566085 2049647
-0.58060521 -0.31118551 1.6764801 5133659
-1.1666764 -0.2919277 1.6619239 6184542
-1.0525037 -0.29216656 1.699339 2310496
-1.0204252 -0.29208341 1.6784282 3758974
-0.97508425 -0.29208931 1.674674 2306110
-0.92724377 -0.2921029 1.6722705 2039583
-0.88687462 -0.29205713 1.6582649 2039583
-0.66718245 -0.29518816 1.6839335 3828636
-0.62798178 -0.27565244 1.6556886 1785447
-0.58881861 -0.28076321 1.6676314 3556435
-0.62689841 -0.22547646 1.6554601 1653860
-0.5938406 -0.22501589 1.6609867 2307660
-0.62597173 -0.17462304 1.6551228 1654371
-0.59393358 -0.17506255 1.6610862 2439758
-0.62598485 -0.12510185 1.6549901 1522784
-0.59390759 -0.12504765 1.6613225 2505550
-0.62609279 -0.074738681 1.655305 1522527
-0.59403312 -0.074814834 1.6613821 2505550
-0.6243605 -0.024974154 1.6551318 1390427
-0.59404892 -0.024780909 1.6615698 2373708
-0.62446988 0.024979938 1.6554189 1390426
-0.59410042 0.02478379 1.6617162 2373451
-0.62491757 0.07554087 1.6555583 1125972
-0.59418887 0.074835196 1.6618176 2965076
-1.3162961 0.10809077 1.6754712 10197915
-1.2751873 0.10808438 1.6722966 6321549
-1.2250212 0.10805983 1.671921 1059658
-1.1794813 0.10804545 1.669932 8356744
-1.0188626 0.10795029 1.6721915 2378358
-0.97489285 0.10793691 1.6701659 3885662
-0.92423689 0.10790951 1.6703342 10197915
-0.87585539 0.10784478 1.6785592 10132122
-0.8439545 0.10789856 1.6638108 10197915
-0.76614332 0.10776719 1.6827383 10000536
-0.72493476 0.10776633 1.6783937 10066329
-0.67600894 0.10774904 1.6766361 5402514
-0.626625 0.10453167 1.6557429 1389657
-0.58192927 0.10608182 1.6707542 6844538
-0.52514964 0.10767049 1.6765007 10132122
-0.47502899 0.10764421 1.6764916 10197915
-0.42515931 0.10762075 1.6759236 10197915
-0.3750844 0.10759628 1.6755475 10197915
-0.32502815 0.10757183 1.6751615 10197915
-0.27499896 0.10754735 1.6747857 10197915
-0.22475742 0.10752191 1.6745872 10197915
-0.17477217 0.10749929 1.6738347 10197915
-0.12481017 0.10747309 1.6738268 10197915
-0.075099207 0.1074497 1.67326 10197915
-0.025183462 0.10742529 1.6728851 10197915
0.025175763 0.10740066 1.6725019 10197915
0.07504607 0.10737632 1.6721172 10197915
0.12489787 0.10735196 1.6717427 10197915
0.1749544 0.10732661 1.6715455 10197915
0.22498977 0.10730393 1.6707951 8026746
0.27499986 0.10727774 1.670784 6447714
0.32498932 0.10725418 1.6702205 6447714
0.37285987 0.10721686 1.6727729 6447714
0.42479932 0.10715747 1.6794869 6447714
0.47479346 0.10713303 1.6791081 6447714
0.52510494 0.10710779 1.678862 6447714
0.56588596 0.10708247 1.6796762 6447714
-1.3640314 -0.6018247 1.732559 4329231
-1.3250172 -0.60178822 1.7251558 4329231
-1.2750443 -0.60178643 1.7251668 4329231
-1.2271593 -0.6017772 1.7234939 4329231
-1.194963 -0.60170615 1.7088199 4329231
-1.0628346 -0.60180724 1.7309251 4329231
-1.024942 -0.60177863 1.7251431 4329231
-0.97490942 -0.60177618 1.7251148 4329231
-0.92487955 -0.60177636 1.7251276 4395024
-0.87496686 -0.60177511 1.7251354 6303021
-0.82505506 -0.6017732 1.7251036 6566193
-0.77502507 -0.60177088 1.7251027 6566193
-0.72499448 -0.60177034 1.725119 6239545
-0.67496389 -0.60176837 1.7250978 3825285
-0.62481713 -0.60176724 1.7250832 3817807
-0.5747841 -0.60176468 1.7250721 6447714
-0.52499485 -0.60176408 1.7251192 6447714
-0.4749659 -0.60176188 1.7250713 6447714
-0.4249962 -0.6017608 1.7251472 6447714
-0.37508714 -0.60175961 1.7250304 6447714
-0.32102045 -0.61177415 1.718995 6447714
-0.29375166 -0.61588269 1.742036 6447714
-0.32039648 -0.57497853 1.733996 6447714
-0.29374826 -0.5749954 1.7422373 6447714
-0.31977451 -0.52508831 1.7337757 6447714
-0.29380727 -0.52499115 1.7424071 6447714
-0.31962657 -0.47501072 1.7339038 6447714
-0.29383159 -0.47497427 1.7426194 6447714
-0.31974682 -0.42500266 1.7341979 6447714
-0.29422367 -0.42557034 1.7423887 6447714
-0.3197816 -0.37500611 1.7344435 6447714
-0.29451299 -0.37505415 1.7422857 6447714
-0.72337121 -0.31130835 1.7287188 5592405
-0.69404167 -0.31122208 1.7042286 3823739
-0.55513018 -0.31128806 1.7069889 6447714
-0.53445172 -0.3113395 1.7317541 6447714
-0.31979406 -0.32502171 1.7346915 6447714
-0.29451731 -0.32506964 1.7425216 6447714
-1.0616342 -0.29230607 1.7295121 4417935
-1.0251367 -0.29230404 1.7250668 2769498
-0.97823143 -0.29231685 1.7225946 1908771
-0.94279176 -0.29227841 1.7106669 2039583
-0.72022492 -0.29486507 1.7312797 2106665
-0.68470454 -0.29319352 1.7179843 3367312
-0.60511005 -0.292656 1.7336457 6447714
-0.57103086 -0.29343122 1.7199217 6447714
-0.5356856 -0.29554158 1.7328262 6447714
-0.3192133 -0.27521414 1.7345136 6447714
-0.29456842 -0.27500159 1.7427006 6447714
-0.318959 -0.22486275 1.7346655 6447714
-0.29448199 -0.22540723 1.7430431 6447714
-0.31839553 -0.17500629 1.7349484 6447714
-0.29405102 -0.17507182 1.7437984 6447714
-0.3185218 -0.12505727 1.7352251 6447714
-0.2940771 -0.12491733 1.7440093 6447714
-0.31844395 -0.075173758 1.7354196 6447714
-0.29432595 -0.075834416 1.7439479 6447714
-0.31808296 -0.025367033 1.7354001 6447714
-0.29473174 -0.025283407 1.7437066 6447714
-0.3178165 0.025164749 1.7354462 6447714
-0.29476577 0.02528731 1.7439097 6447714
-0.31774625 0.075227842 1.7356207 9079434
-0.29479972 0.075147048 1.744109 9013641
-1.3651198 0.10783024 1.7353103 10197915
-1.3248259 0.10786232 1.7241778 7898515
-1.2747712 0.10783693 1.7239925 1455447
-1.2263294 0.10782284 1.7216182 6121331
-1.1920115 0.10788421 1.7050211 10000536
-1.0626143 0.10768669 1.7321198 2971268
-1.0250843 0.10771516 1.7220457 1717590
-0.97493148 0.10769264 1.7212512 8817037
-0.92524934 0.1076645 1.7216768 10132122
-0.88534707 0.10760734 1.7292442 10000536
-0.80466616 0.10751737 1.7392013 10000536
-0.7746672 0.10754337 1.7304772 10000536
-0.72467709 0.10751823 1.7302405 9015189
-0.68412423 0.10750578 1.7283925 2774667
-0.60504675 0.10744023 1.7334189 10132122
-0.5748316 0.10744595 1.7289093 10000536
-0.52493483 0.10742088 1.7286733 10000536
-0.47469482 0.10739637 1.7282788 10132122
-0.42483658 0.10737281 1.7277328 10197915
-0.37500462 0.10734778 1.7274972 10197915
-0.3210049 0.10478234 1.7323571 10197915
-0.28230178 0.10584419 1.7330396 10197915
-0.22527845 0.10727477 1.7263227 10197915
-0.17517491 0.10725036 1.7259291 10197915
-0.12509693 0.1072274 1.7252312 10197915
-0.075045146 0.10720154 1.7251437 10197915
-0.02500998 0.10717717 1.724751 10197915
0.025002398 0.10715277 1.724359 10197915
0.074992031 0.10712842 1.723967 10197915
0.12495282 0.10710551 1.7232701 10197915
0.17489426 0.10707971 1.723183 10197915
0.22481577 0.10705537 1.7227914 8553090
0.27506977 0.10703158 1.722247 6447714
0.32529861 0.10700638 1.7220033 6447714
0.37515169 0.10698206 1.7216121 6447714
0.4253338 0.10695832 1.7210681 6447714
0.47549716 0.10693315 1.7208247 6447714
0.52492374 0.10690979 1.7202828 6447714
0.57269877 0.10688185 1.7208811 6447714
-1.4101485 -0.60207915 1.7856776 4329231
-1.3746166 -0.60202509 1.7746403 4329231
-1.3249973 -0.60202283 1.7742534 4329231
-1.2750096 -0.60202235 1.7743198 4329231
-1.2393715 -0.60197717 1.7653766 4329231
-1.1059585 -0.60208625 1.7889961 4789782
-1.0738754 -0.60201991 1.7752588 4329231
-1.0250067 -0.60201293 1.7742723 4329231
-0.97502011 -0.6020124 1.7742426 4329231
-0.92503428 -0.60201025 1.7742277 5316126
-0.87498087 -0.60200918 1.7742715 6566193
-0.82492834 -0.60200709 1.7743182 6566193
-0.77494353 -0.60200542 1.774158 6566193
-0.72495759 -0.60200483 1.7743138 5919333
-0.67503977 -0.60200161 1.7741822 3297390
-0.62492311 -0.60200113 1.77424 4542297
-0.57480186 -0.60200047 1.7743392 6447714
-0.52488476 -0.60199815 1.7740895 6447714
-0.47496939 -0.60199755 1.7742711 6447714
-0.42491782 -0.60199589 1.7741829 6447714
-0.37836242 -0.60197216 1.7727619 6447714
-0.34774798 -0.60124755 1.7532837 6447714
-0.27919817 -0.61604333 1.7594042 6447714
-0.3533524 -0.57483268 1.7585834 6447714
-0.34722587 -0.57497549 1.7534491 6447714
-0.27919632 -0.57510936 1.7596043 6447714
-0.35339275 -0.52489078 1.7588542 6447714
-0.34651971 -0.5243057 1.7530978 6447714
-0.27922028 -0.52498227 1.7598155 6447714
-0.35348415 -0.47493044 1.7591681 6447714
-0.34649172 -0.47490096 1.7533087 6447714
-0.27927184 -0.47501218 1.7599944 6447714
-0.35271493 -0.42445615 1.7587632 6447714
-0.34576529 -0.42548165 1.7529347 6447714
-0.2796815 -0.42459935 1.75975 6447714
-0.3526808 -0.37493077 1.7589698 6447714
-0.34569705 -0.3751359 1.7531165 6447714
-0.27994993 -0.37502465 1.7596663 6447714
-0.80461127 -0.31159827 1.7965525 2039583
-0.77530688 -0.31137151 1.7720838 3026478
-0.74896723 -0.3117674 1.7500888 4408131
-0.50941926 -0.31144485 1.7617327 6447714
-0.48851851 -0.31148556 1.7867637 6447714
-0.35276341 -0.32506502 1.7592757 6447714
-0.34580365 -0.32507154 1.7534444 6447714
-0.27997306 -0.32502022 1.7598785 6447714
-1.0668105 -0.27492696 1.7649436 2377834
-1.0359166 -0.27321342 1.7674183 2504520
-0.99406916 -0.29245725 1.7536972 2039583
-0.80435771 -0.29573041 1.7971106 2039583
-0.77214897 -0.29454803 1.7787867 2039583
-0.72547847 -0.29289526 1.7751456 2637656
-0.69264871 -0.29277992 1.7676327 3236245
-0.61339736 -0.29286388 1.779539 6447714
-0.57530135 -0.29286242 1.7761679 6447714
-0.52135384 -0.29403308 1.7727859 6447714
-0.48925629 -0.29567742 1.7882658 6447714
-0.35284576 -0.27518129 1.7595818 6447714
-0.34512573 -0.27392954 1.7531184 6447714
-0.28000274 -0.27495268 1.7600842 6447714
-1.0656744 -0.22499785 1.7667186 1982819
-1.037328 -0.22496942 1.7682223 2373193
-0.35285264 -0.2249238 1.7598259 6447714
-0.3450419 -0.22502293 1.75328 6447714
-0.28001717 -0.22497739 1.7603076 6447714
-1.0653865 -0.17438088 1.7667456 1719648
-1.0372097 -0.1752622 1.7685773 2044743
-0.35293511 -0.17500773 1.7601316 6447714
-0.34505758 -0.17493567 1.7535316 6447714
-0.28009251 -0.17499122 1.7604584 6447714
-1.0648887 -0.12494864 1.76659 1521757
-1.036858 -0.12491375 1.7691976 1715780
-0.35301119 -0.12525682 1.7604321 6447714
-0.34513348 -0.1249731 1.7538327 6447714
-0.2800661 -0.12499249 1.7607296 6447714
-1.065135 -0.074872635 1.7670555 1522013
-1.0366981 -0.074976668 1.7695994 1584450
-0.35303065 -0.074952081 1.7606872 6447714
-0.34518942 -0.074850418 1.7541176 6447714
-0.28045207 -0.074388415 1.7605125 6447714
-1.0648808 -0.025483027 1.7671006 1456475
-1.0366951 -0.024928879 1.7698087 1518914
-0.35310704 -0.024804268 1.7609892 6447714
-0.34467387 -0.023668544 1.7539284 6447714
-0.28076002 -0.024795927 1.7603824 6447714
-1.064382 0.024890106 1.7669494 1389911
-1.0367677 0.024931151 1.7699296 1387072
-0.35316372 0.024809584 1.7612723 6447714
-0.34443229 0.024706516 1.7539551 6447714
-0.28079203 0.024799697 1.7605846 6447714
-1.0646081 0.074909925 1.7673975 1324117
-1.0369056 0.07496839 1.7699707 2571346
-0.35319555 0.074808463 1.7615364 9013641
-0.34448811 0.074857049 1.7542402 9013641
-0.28089049 0.074796513 1.7607064 8947848
-1.410418 0.10760833 1.7866838 10197915
-1.375172 0.10762542 1.7792382 9081240
-1.3251067 0.10760026 1.7790041 1785186
-1.2750775 0.10757674 1.7784334 4477796
-1.2404747 0.10758736 1.772411 10197915
-1.1047705 0.10743911 1.7885125 3628168
-1.0719359 0.1052395 1.7696319 1522018
-1.0326149 0.10464237 1.7708498 3754590
-0.97533756 0.10743088 1.7760223 10066329
-0.92545944 0.10740583 1.7757894 10000536
-0.89464194 0.10744473 1.7642715 10000536
-0.81373841 0.10734251 1.7767684 10000536
-0.77485937 0.10733253 1.7745777 10000536
-0.724702 0.10730814 1.7741743 6387601
-0.69227588 0.10731032 1.7701602 2182276
-0.61262643 0.10724546 1.7749782 10197915
-0.5751074 0.10723536 1.7729712 10132122
-0.52504075 0.10721099 1.7725683 10000536
-0.47499898 0.10718825 1.7718351 10000536
-0.42498472 0.1071623 1.7717636 10132122
-0.37183177 0.10625604 1.7682149 10132122
-0.3445206 0.10393659 1.7544056 10197915
-0.27522197 0.10475685 1.7635841 10197915
-0.22513251 0.10706667 1.7698251 10197915
-0.17522825 0.10704079 1.7697542 10197915
-0.12534299 0.10701656 1.7693529 10197915
-0.0751146 0.10699285 1.768786 10197915
-0.0249123 0.10696766 1.7685447 10197915
0.024904771 0.10694342 1.7681439 10197915
0.075061381 0.1069198 1.7675782 10197915
0.12519832 0.1068946 1.7673376 10197915
0.17494741 0.10687038 1.7669374 10197915
0.22503242 0.10684683 1.766372 9013641
0.27510414 0.10682167 1.7661315 6447714
0.32729906 0.10675732 1.7738576 6447714
0.37511292 0.10671958 1.7765003 6447714
0.42506182 0.10669525 1.7761018 6447714
0.47523731 0.10666984 1.7759154 6447714
0.52514011 0.10664769 1.7750665 6447714
0.57502365 0.10662133 1.775107 6447714
0.6086815 0.10656878 1.7823932 6447714
-1.4571015 -0.60234344 1.8406661 4329231
-1.4231211 -0.60226989 1.8257171 4329231
-1.3750269 -0.60226136 1.824064 4329231
-1.3250127 -0.60226083 1.8239982 4329231
-1.2830436 -0.60223478 1.819021 4329231
-1.1179534 -0.60227209 1.8279586 5052954
-1.0750141 -0.60225278 1.8240095 4329231
-1.0250012 -0.60225016 1.8239195 4329231
-0.97498786 -0.60224909 1.8239779 4395024
-0.92504466 -0.60224867 1.8240101 6368814
-0.87503296 -0.60224634 1.8239154 6566193
-0.82502091 -0.60224402 1.8239003 6501685
-0.7750091 -0.60224384 1.8240085 6442318
-0.72499788 -0.60224104 1.8239409 4943505
-0.6749869 -0.60223895 1.8238221 2637397
-0.62497807 -0.60223907 1.8239832 5987679
-0.57503283 -0.60223693 1.8240409 6447714
-0.52502298 -0.60223579 1.8238202 6447714
-0.47501427 -0.60223347 1.8239548 6447714
-0.42500451 -0.60223132 1.8238634 6447714
-0.38419825 -0.60222459 1.8225106 6447714
-0.85318941 -0.311288 1.8371172 2039583
-0.82861829 -0.31152764 1.816599 2039583
-0.46358246 -0.31154427 1.8166282 6447714
-0.44260535 -0.31163731 1.8417499 6447714
-0.85361838 -0.2950545 1.8403327 2039583
-0.82381558 -0.29439116 1.8258183 2039583
-0.77504086 -0.29302555 1.8276892 2039584
-0.72916126 -0.29303443 1.8259408 2971781
-0.62202722 -0.29309008 1.8294526 6447714
-0.57484221 -0.29310179 1.8282223 6447714
-0.52503926 -0.29312018 1.828221 6447714
-0.47165781 -0.29464021 1.8244956 6447714
-0.44280338 -0.29605013 1.8426613 6447714
-1.456176 0.10738537 1.8383304 10197915
-1.4231458 0.10742254 1.8269298 10197915
-1.3746821 0.10740355 1.8255794 3232632
-1.3248463 0.10737847 1.8253515 2045519
-1.283044 0.10737346 1.8218175 9277330
-1.1195089 0.10727704 1.8240166 2643078
-1.0754454 0.10725738 1.8232913 5795210
-1.0225114 0.10722495 1.8242646 10000536
-0.97469735 0.10720847 1.8224612 10000536
-0.93318659 0.10719911 1.8198583 10000536
-0.8521809 0.10709225 1.8333126 10000536
-0.82368487 0.10713051 1.8221871 10000536
-0.77505249 0.10711239 1.8206362 10000536
-0.72676456 0.10709377 1.8192291 3365256
-0.62057155 0.10703024 1.820855 10132122
-0.57501745 0.10701612 1.818803 10197915
-0.52516145 0.10699021 1.8187507 10132122
-0.47532377 0.10696599 1.8183393 10000536
-0.42513195 0.10694245 1.8177487 10000536
-0.38355228 0.10692539 1.816756 10132122
-0.26420695 0.10686051 1.8172196 10197915
-0.22497673 0.10684444 1.816273 10197915
-0.17490061 0.10682097 1.8156829 10197915
-0.12484757 0.10679583 1.8154467 10197915
-0.074815564 0.1067724 1.8148572 10197915
-0.024809526 0.10674726 1.8146207 10197915
0.024802076 0.10672318 1.8142111 10197915
0.075961061 0.1066494 1.8240227 10197915
0.12476607 0.10661715 1.8254057 10197915
0.17488424 0.10659394 1.8247511 10197915
0.22497992 0.1065708 1.8240893 9539985
0.27505046 0.10654422 1.8241546 6447714
0.32289711 0.10649036 1.8301688 6447714
0.37519851 0.10643957 1.8350399 6447714
0.42489728 0.10641459 1.8348104 6447714
0.47495806 0.10639033 1.8343917 6447714
0.52499616 0.10636605 1.8339735 6447714
0.57500643 0.10634355 1.8331884 6447714
0.61766958 0.10631354 1.8347763 6447714
-1.503661 -0.60260201 1.8945628 4329231
-1.4709288 -0.60251892 1.8774366 4329231
-1.4249643 -0.60250169 1.8741143 4329231
-1.3749589 -0.60250026 1.8741533 4329231
-1.3277822 -0.60248834 1.8718526 4329231
-1.2959061 -0.60241073 1.8558145 4329231
-1.1599295 -0.60253263 1.8821707 5776677
-1.1250168 -0.60249263 1.8741883 4395024
-1.075012 -0.6024909 1.8740597 4329231
-1.0250084 -0.60249072 1.8741601 4329231
-0.97500628 -0.6024878 1.8739586 5381919
-0.92492646 -0.60248691 1.8740531 6500914
-0.87492317 -0.60248452 1.8741096 6506311
-0.82499915 -0.60248345 1.8740629 6446943
-0.77499723 -0.6024822 1.87401 5727345
-0.72499561 -0.60248154 1.8740675 3890817
-0.67499417 -0.60247886 1.8739569 3688278
-0.62507248 -0.60247707 1.8740678 6447714
-0.57514524 -0.60247588 1.8740134 6447714
-0.52506983 -0.60247409 1.8740577 6447714
-0.47491318 -0.60247314 1.8740128 6447714
-0.42727041 -0.60246086 1.8716054 6447714
-0.39012551 -0.60239697 1.858569 6447714
-1.4620569 -0.31138444 1.8671782 1844011
-1.4423008 -0.31142572 1.8909198 3096916
-0.41788399 -0.31166372 1.8713564 6447714
-0.39679751 -0.31193969 1.8966091 6447714
-1.5035909 -0.29286653 1.8952153 2039583
-1.467068 -0.2948907 1.8737949 1974048
-1.442346 -0.29612246 1.8914279 3096916
-0.86269349 -0.29323986 1.881341 2039583
-0.82463688 -0.29323599 1.8774552 2039583
-0.77490824 -0.29325491 1.877579 2241092
-0.73828363 -0.29325178 1.8739824 3235988
-0.65665734 -0.29332969 1.8843757 6447714
-0.62489992 -0.29331237 1.8780705 6447714
-0.57483548 -0.29332989 1.8778743 6447714
-0.52491832 -0.29335013 1.8782499 6447714
-0.47514799 -0.29336864 1.8783075 6447714
-0.42379314 -0.29508078 1.8769338 6447714
-0.39677191 -0.29643366 1.8971114 6447714
-1.5011666 0.10717031 1.8882153 10066329
-1.4713649 0.10720343 1.878024 10132122
-1.42459 0.10719324 1.8750246 5533065
-1.3745641 0.10716901 1.8746005 1125707
-1.3273227 0.10715467 1.8724101 7568002
-1.2970935 0.10719144 1.8614138 10197915
-1.1584208 0.10702683 1.8805954 3497610
-1.1406425 0.10708897 1.8656622 1854596
