# .PCD v0.7 - Point Cloud Data file format
VERSION 0.7
FIELDS x y z rgb
SIZE 4 4 4 4
TYPE F F F U
COUNT 1 1 1 1
WIDTH 1170
HEIGHT 1
VIEWPOINT 0 0 0 1 0 0 0
POINTS 1170
DATA ascii
-0.27440608 0.024871327 2.0700426 1191496
-0.22504665 0.025008788 2.0814834 1257289
-0.17513531 0.02514782 2.0930529 1257289
-0.14729965 0.02277959 2.0994771 1323082
-1.6248244 0.086829543 2.0751226 10197915
-1.5753176 0.086944059 2.0778596 10197915
-1.524175 0.087085217 2.0786958 10197915
-1.4748513 0.087359384 2.0674725 10197915
-1.4245044 0.087476097 2.0702348 10197915
-1.3748505 0.087591194 2.0729594 10197915
-1.3250755 0.087712668 2.0751562 10197915
-1.2751631 0.087822281 2.0784276 10197915
-1.2251151 0.087938294 2.0811737 10197915
-1.1792957 0.088105999 2.0783298 10197915
-1.1254351 0.088353969 2.0705533 10197915
-1.0753802 0.088470235 2.0732782 10197915
-1.0251935 0.088586815 2.0760105 10197915
-0.9748739 0.088703714 2.0787497 10197915
-0.94798827 0.08876618 2.0802135 10197915
-0.70696372 0.071587466 2.0798066 2039583
-0.67530549 0.089580745 2.0792689 2039583
-0.64153433 0.08971981 2.0758257 2039583
-0.3567332 0.070239238 2.0514829 861763
-0.32493845 0.070756681 2.0585549 861507
-0.27448776 0.07114251 2.0699072 992836
-0.22509474 0.071574092 2.0809467 860994
-0.17518981 0.071871661 2.0921018 992580
-0.13300781 0.083132409 2.0847814 992836
-0.074968234 0.091340631 2.0801108 860993
-0.025017802 0.091457382 2.0827694 926529
0.022785729 0.091714561 2.0726395 992836
0.074703038 0.091869675 2.0724592 1058884
0.12466007 0.091986641 2.0750976 1124934
0.1747445 0.092103928 2.0777433 993349
0.2291629 0.092345074 2.0707047 927300
0.27498195 0.092513464 2.0677996 993093
0.32464084 0.092633054 2.0701356 992836
0.37443396 0.09274675 2.0730143 927556
0.42478615 0.092864901 2.0756545 1059141
0.47481897 0.092985354 2.0780096 1125446
0.52455622 0.093102038 2.0806172 1519433
0.57400239 0.093221255 2.0829301 2965846
0.62542021 0.093511976 2.0708008 7173502
0.67516381 0.093628891 2.0733898 9540244
0.72503239 0.093746103 2.0759857 10197915
0.77502567 0.093863606 2.0785878 10197915
0.8255704 0.094151609 2.0664766 10197915
0.87546235 0.094275124 2.0685282 10197915
0.9250263 0.09438882 2.071353 10197915
0.97471911 0.094508871 2.0736566 10197915
1.0245266 0.094623104 2.0764945 10197915
1.074908 0.094741739 2.0790982 10197915
1.1254154 0.094860666 2.0817082 10197915
1.172613 0.095003724 2.0813656 10197915
1.2256488 0.095270634 2.0717323 4938346
1.2752782 0.095387697 2.0742784 928069
1.3250303 0.095505066 2.0768306 1059911
1.3793602 0.09574081 2.0702417 1125191
1.4249803 0.095910616 2.0671604 1190983
1.472134 0.095997781 2.0716789 1257033
1.5046116 0.095928699 2.0860426 1125704
-0.72082669 -0.95332152 2.1392477 2039583
-0.71778095 -0.92373788 2.1260667 2039583
-0.71763831 -0.87498832 2.1253903 2039583
-0.71772921 -0.82514673 2.1257207 2039583
-0.71777594 -0.77499914 2.1258593 2039583
-0.10270373 -0.75461423 2.1008911 2039583
-0.075217672 -0.75457293 2.1072621 2039583
-0.025432404 -0.75447959 2.1188014 2039583
0.024685849 -0.75450397 2.1304166 2039583
0.074620128 -0.75456816 2.1419888 2039583
0.10415868 -0.75403249 2.1488411 2039583
-0.71777719 -0.72455621 2.125802 2039583
-0.10372086 -0.7237916 2.1010084 2039583
-0.075049229 -0.72503877 2.1076403 2039583
-0.025489625 -0.72501892 2.1191263 2039583
0.024667161 -0.72495627 2.1307516 2039583
0.074559838 -0.72498828 2.1423142 2039583
0.103742 -0.72611839 2.1490648 2039583
-0.71786815 -0.67468882 2.1261325 2039583
-0.10491812 -0.67382938 2.1013057 2107441
-0.075094171 -0.6750446 2.1082029 2107440
-0.025405355 -0.67503816 2.1197193 2238768
0.024798183 -0.67494869 2.131356 2304561
0.07459107 -0.67496121 2.1428957 2370098
0.10260519 -0.67682797 2.1493666 2435632
-0.71786875 -0.62510848 2.1260724 2039583
-0.10614644 -0.62407357 2.1015909 2045519
-0.075190052 -0.62505472 2.1087546 2308176
-0.02556878 -0.62499988 2.120255 2571090
0.024669059 -0.62497634 2.1318994 2834003
0.074588664 -0.62497044 2.1434684 3096661
0.10133071 -0.62866002 2.1496241 3491417
-0.71795964 -0.57523298 2.1264026 2039583
-0.10752436 -0.57456923 2.1018405 2242898
-0.075160533 -0.57497644 2.1093364 2374226
-0.025389401 -0.57499439 2.1208723 2637140
0.024773762 -0.57503927 2.1324964 2768468
0.074567959 -0.57495344 2.1440384 3096661
0.10064628 -0.59140807 2.149893 3294552
-0.71796066 -0.5253486 2.1263447 2039583
-0.10860662 -0.52464676 2.1021621 2243155
-0.075131342 -0.52493197 2.1099174 2308948
-0.025534088 -0.52502447 2.1214108 2571861
0.024729311 -0.52501267 2.13306 2702676
0.0736662 -0.52520871 2.1443999 2899540
-0.71805239 -0.47487107 2.1266778 2039583
-0.10994986 -0.47446355 2.1024275 1980498
-0.075205788 -0.47505021 2.1104724 2111827
-0.025487686 -0.47499371 2.1219962 2309204
0.024769232 -0.47496065 2.1336446 2505812
0.07243593 -0.47533652 2.1446877 2768469
-0.71809864 -0.42467821 2.1268146 2039583
-0.11113372 -0.42450029 2.102726 1717327
-0.075184673 -0.42501372 2.1110518 1848656
-0.025465127 -0.42497042 2.122575 2046034
0.024707491 -0.42503583 2.134203 2242898
0.07118044 -0.4252916 2.1449709 2505812
-0.71809888 -0.3750684 2.1267543 2039583
-0.11254124 -0.37471586 2.102972 1849426
-0.074767292 -0.37478009 2.1117251 1915219
-0.025013698 -0.37518212 2.1232507 2046291
0.024767296 -0.37502375 2.1347904 2111827
0.069947369 -0.37529227 2.1452589 2243412
-0.71819001 -0.32515842 2.127085 2039583
-0.11370351 -0.32463488 2.103276 1651792
-0.074214958 -0.32500643 2.1124244 1652048
-0.024486976 -0.32496905 2.12395 1783120
0.024882138 -0.32498363 2.135391 1914705
0.068894781 -0.32544824 2.1455863 1914192
-0.71819103 -0.27524453 2.1270275 2039583
-0.11479724 -0.27448618 2.1035988 1454670
-0.074486032 -0.27507696 2.1129346 1520463
-0.024833921 -0.27498409 2.1244435 1585999
0.024688719 -0.27491716 2.1359215 1520206
0.067612097 -0.275491 2.1458623 1651278
-0.7182377 -0.22502135 2.1271658 2039583
-0.11636083 -0.22490343 2.1038051 1520719
-0.07450743 -0.2249105 2.1135044 1520720
-0.024422258 -0.22502944 2.1251123 1586256
0.024698054 -0.22495048 2.1364968 1652048
0.066307507 -0.22534537 2.1461353 1717840
-0.71837425 -0.17480537 2.1276932 2039583
-0.11737966 -0.17493895 2.1041422 1454926
-0.074259982 -0.1749537 2.1141355 1454670
-0.024840642 -0.17490046 2.1255898 1454926
0.024871465 -0.17523816 2.1371071 1520719
0.065024324 -0.17492414 2.1464174 1520719
-0.71832967 -0.12486766 2.1274371 2039583
-0.11877526 -0.12440578 2.1043987 1586511
-0.074604087 -0.12506986 2.1146286 1586511
-0.024642149 -0.12508135 2.1262078 1586511
0.024951113 -0.12508784 2.1377022 1586511
0.0637981 -0.12483248 2.146708 1586510
-0.71842045 -0.074923448 2.127768 2039583
-0.1199493 -0.074733652 2.1046963 1323340
-0.0742625 -0.075054079 2.1152813 1388876
-0.024648791 -0.074892327 2.1267812 1322827
0.024634715 -0.074699908 2.1382065 1322826
0.062666081 -0.075138748 2.1470153 1322827
-0.71842164 -0.024979735 2.1277103 2039583
-0.12118106 -0.02502447 2.1049817 1389132
-0.074682407 -0.025122443 2.115757 1454925
-0.024655437 -0.024676409 2.1273563 1191241
0.024832763 -0.024809409 2.1388242 1059656
0.061406661 -0.025377475 2.1472945 1125449
-0.71846771 0.024981869 2.1278462 2039583
-0.12248559 0.025530409 2.1052594 1257290
-0.074722163 0.025041344 2.1163242 1323082
-0.024662001 0.02468513 2.1279213 1125192
0.024839414 0.024818251 2.139395 1059399
0.060141839 0.024385273 2.1475728 1125191
-1.6704539 0.086090252 2.127825 10197915
-1.6244481 0.086263813 2.124517 10197915
-1.5750291 0.086374089 2.1276011 10197915
-1.5250493 0.086488955 2.1304309 10197915
-1.4787607 0.086678788 2.1257756 10197915
-1.4248602 0.086914189 2.1191077 10197915
-1.3748811 0.087029293 2.1219144 10197915
-1.3247702 0.087144718 2.1247287 10197915
-1.2753782 0.087258466 2.1275022 10197915
-1.2250023 0.087374486 2.1303313 10197915
-1.1701834 0.087630503 2.1221054 10197915
-1.124681 0.08779604 2.1193688 10197915
-1.0747281 0.087914586 2.1218705 10197915
-1.0246464 0.088026971 2.124943 10197915
-0.98302686 0.088169552 2.1232085 10197915
-0.71718079 0.072153002 2.1278188 2039583
-0.67431808 0.089028336 2.127671 2039583
-0.12358575 0.070809461 2.1055245 1058628
-0.074255817 0.070637114 2.1169546 992836
-0.024668029 0.070543334 2.1284306 1058885
0.024953937 0.071675301 2.1382027 1124935
0.062051442 0.073908813 2.1425254 1124935
0.1248633 0.091443352 2.1225019 1058884
0.17520884 0.091560543 2.1252224 993092
0.22523065 0.091680214 2.1276412 1058886
0.27539307 0.091793731 2.130635 993092
0.32156661 0.091941647 2.129607 860994
0.37499964 0.092211679 2.1197968 1059141
0.42560118 0.092329718 2.1225102 993605
0.47544146 0.092445955 2.1251824 993348
0.52540755 0.092562497 2.1278615 1058628
0.57703978 0.092707135 2.1285195 1059397
0.62542158 0.092977472 2.1173866 993091
0.6749382 0.09309651 2.1197336 1058884
0.72458661 0.093209222 2.122664 1649736
0.77480716 0.093326569 2.1253369 2965077
0.82469225 0.093446486 2.1277022 4280162
0.87471908 0.093560062 2.1306543 5398125
0.92247611 0.093697861 2.1309156 6845052
0.97491223 0.093977526 2.1200099 10197915
1.0253847 0.094095707 2.1226754 10197915
1.0750788 0.094212085 2.1253009 10197915
1.1248974 0.094328716 2.1279323 10197915
1.1785716 0.094528072 2.1243465 10197915
1.2246436 0.094741337 2.1175959 9408915
1.2749119 0.094862498 2.1199474 1782348
1.3248605 0.094979726 2.1225657 1059911
1.3749235 0.095090635 2.1257601 1125703
1.4251099 0.095214866 2.1278217 1125191
1.4749727 0.095328614 2.1307216 1191240
1.5188981 0.095409639 2.1349425 1191497
-0.73026645 -0.96289873 2.1799977 2039583
-0.72947305 -0.92511475 2.1765273 2039583
-0.72947127 -0.8749736 2.1764572 2039583
-0.72956717 -0.82513595 2.1768074 2039583
-0.72961372 -0.77498406 2.1769466 2039583
0.12937373 -0.75449479 2.1546793 2039583
0.17494284 -0.75446963 2.165241 2039583
0.2245694 -0.75446939 2.1767426 2039583
0.27468318 -0.75450414 2.1883569 2039583
0.31206119 -0.75435609 2.197022 2039583
-0.72961187 -0.7248311 2.1768768 2039583
0.12898289 -0.72477371 2.1549296 2039583
0.17495371 -0.72501522 2.1655807 2039583
0.22460513 -0.72499186 2.1770899 2039583
0.27480194 -0.72503465 2.1887219 2039583
0.3118397 -0.72541487 2.1973019 2039583
-0.7297076 -0.67466617 2.1772268 2039583
0.12780286 -0.67481154 2.1552308 2501683
0.17499848 -0.67502213 2.1661661 2633268
0.22463363 -0.67499906 2.1776686 2764853
0.27479899 -0.67497569 2.189297 2896438
0.31051892 -0.67544627 2.1975694 2961973
-0.72970515 -0.62479568 2.1771545 2039583
0.12647729 -0.62480241 2.1554964 3623002
0.17501904 -0.62503505 2.1667442 3885915
0.22463496 -0.62504733 2.1782424 4280412
0.27484044 -0.62492371 2.1898804 4543325
0.3093974 -0.62559187 2.1978822 4674909
-0.72980118 -0.5749234 2.1775053 2039583
0.1253437 -0.574781 2.1558077 3425624
0.1750685 -0.57508773 2.1673284 3754330
0.22478718 -0.57500017 2.1788549 4083035
0.27504247 -0.5749439 2.1904998 4280412
0.30813646 -0.57576853 2.1981611 4412253
-0.72979933 -0.52474201 2.1774352 2039583
0.098592974 -0.5207805 2.1502278 3031124
0.12501086 -0.52492982 2.1563022 3228246
0.17513768 -0.52511334 2.1679192 3491159
0.2248307 -0.52489239 2.1794395 3754073
0.27501106 -0.52504075 2.1910658 3951450
0.30703649 -0.52591056 2.1984782 4017242
-0.72989511 -0.47455382 2.1777866 2039583
0.097519755 -0.47290945 2.1505287 2900053
0.12510544 -0.47487161 2.1568995 2965589
0.175219 -0.47507888 2.1685104 3162711
0.22487096 -0.47499245 2.1800196 3491417
0.27511093 -0.47497356 2.1916625 3623002
0.30572131 -0.47607821 2.1987457 3754330
-0.72989261 -0.42465535 2.1777136 2039583
0.096341215 -0.42333508 2.1508243 2637397
0.12515754 -0.4248817 2.1574852 2768469
0.17525658 -0.42501616 2.1690948 2900054
0.22501078 -0.4250665 2.1806257 3162711
0.2751818 -0.42498097 2.1922541 3228760
0.30470207 -0.42632645 2.1990802 3294296
-0.72998875 -0.37475979 2.1780658 2039583
0.094978057 -0.37339845 2.151082 2374740
0.12517855 -0.37496045 2.1580634 2440276
0.17527719 -0.3749938 2.1696734 2637140
0.2250299 -0.37501097 2.1812057 2702932
0.27535203 -0.37502897 2.1928663 2768468
0.30337089 -0.37694606 2.1993384 2834260
-0.73003519 -0.3248508 2.1782036 2039583
0.093905896 -0.32353219 2.1514049 1979984
0.12522489 -0.32501274 2.158648 2111569
0.1752633 -0.32504457 2.1702435 2308690
0.22487906 -0.32506421 2.1817443 2308690
0.27514219 -0.32494938 2.1933932 2374226
0.30228546 -0.32923278 2.1996343 2374483
-0.73008198 -0.27523604 2.178344 2039583
0.092614293 -0.27380556 2.1516762 1585741
0.12522624 -0.27506995 2.1592205 1848399
0.17528355 -0.27506912 2.1708219 1782605
0.22526394 -0.27498847 2.1824076 1848398
0.27566704 -0.27497461 2.194088 1979984
0.30167267 -0.29255855 2.1999135 1914448
-0.73007977 -0.22532399 2.1782718 2039583
0.091393143 -0.22400983 2.1519651 1783377
0.12522604 -0.2251965 2.1597924 1848912
0.17544316 -0.22489884 2.171433 1848655
0.22531649 -0.22495225 2.1829927 1783375
0.27418974 -0.22523704 2.1943159 1848911
-0.73017567 -0.17509012 2.1786237 2039583
0.09026847 -0.1743295 2.1522748 1586255
0.12523863 -0.17532878 2.1603675 1717839
0.17560264 -0.17469929 2.1720471 1783632
0.2250531 -0.17512995 2.1835024 1717840
0.27345595 -0.17523839 2.19472 1783632
-0.73017389 -0.12485953 2.1785531 2039583
0.088911593 -0.12443221 2.1525333 1586511
0.12535962 -0.12533581 2.16097 1652303
0.17563432 -0.12490739 2.1726277 1652303
0.22533302 -0.12487025 2.184145 1586767
0.27189276 -0.1252344 2.1949315 1586767
-0.73026991 -0.074918464 2.1789048 2039583
0.087777361 -0.074468173 2.152843 1322827
0.12539351 -0.075221315 2.1615527 1322827
0.17537546 -0.075298004 2.1731346 1322827
0.22539352 -0.075122803 2.1847286 1322826
0.27095473 -0.075146392 2.1952887 1322827
-0.73026729 -0.024978304 2.1788316 2039583
0.086514734 -0.024568073 2.1531229 1125449
0.12533294 -0.025165783 2.1621125 1125705
0.17553064 -0.025125729 2.1737463 1191241
0.22545375 -0.02534865 2.1853156 1125705
0.26950157 -0.025213905 2.1955252 1125705
-0.73031414 0.024980435 2.1789715 2039583
0.085256591 0.025352521 2.1534047 1125448
0.12455148 0.025086386 2.1625078 1125448
0.17476353 0.025221374 2.1741476 1190984
0.22551535 0.025357882 2.1859105 1125448
0.26836404 0.024527416 2.1958325 1125448
-1.7137407 0.085462213 2.1714416 10197915
-1.6758482 0.085548706 2.1736391 10197915
-1.6257869 0.085662954 2.1765418 10197915
-1.5755919 0.085777514 2.1794527 10197915
-1.525262 0.085892372 2.1823709 10197915
-1.4708205 0.086165294 2.1725709 10197915
-1.4247978 0.08632654 2.1703405 10197915
-1.374913 0.086437128 2.1735179 10197915
-1.3248861 0.086555101 2.1760869 10197915
-1.2747378 0.086666279 2.1792803 10197915
-1.2287489 0.086826704 2.1771128 10197915
-1.1753457 0.087096319 2.1673334 10197915
-1.1247634 0.087212309 2.1702197 10197915
-1.0749218 0.087326594 2.1730633 10197915
-1.0249491 0.087441161 2.1759145 10197915
-0.99508381 0.087509654 2.1776187 10197915
-0.72507012 0.075718231 2.1789572 2039583
-0.68177283 0.088456698 2.1755657 2039583
0.084217101 0.070765302 2.1536849 1190984
0.12458209 0.070794396 2.1630404 1191240
0.17480166 0.071173109 2.1746271 1257033
0.22552872 0.071543753 2.1860485 1191497
0.26791796 0.071471483 2.1951072 1191497
0.3288019 0.091444649 2.1747725 794688
0.37468678 0.091646843 2.1689415 1059142
0.42509264 0.09176717 2.1714025 1059398
0.47471997 0.091878742 2.1744289 1058885
0.52447027 0.091997549 2.1768539 1124933
0.57480931 0.09211427 2.1796148 1059654
0.6218487 0.092253394 2.1795728 993861
0.67470717 0.092535704 2.1685512 993092
0.72503471 0.092652626 2.1712911 860736
0.77548873 0.092769817 2.1740379 860737
0.82515001 0.092885174 2.1767414 860737
0.87493545 0.093000844 2.1794515 926530
0.92838264 0.093193635 2.1763783 1388104
0.97465849 0.093421407 2.1684148 3097432
1.024894 0.093541779 2.1708293 4346468
1.07526 0.093655579 2.1738505 5463918
1.124823 0.093774535 2.1762164 6450295
1.1745076 0.093886606 2.1792128 7568002
1.2247846 0.094003625 2.1819286 9211536
1.2737064 0.094294243 2.169168 6581881
1.3246768 0.094426721 2.1707168 993605
1.3749443 0.094543964 2.1734118 1125447
1.4253365 0.094661489 2.1761138 1191496
1.4749173 0.094777122 2.1787722 1124678
1.5274347 0.094947606 2.1774068 1257033
1.5631175 0.095041573 2.1783836 1191497
-0.74606967 -1.0031424 2.2482495 2039583
-0.74212837 -0.97300363 2.2312024 2039583
-0.74189204 -0.9247961 2.2301221 2039583
-0.74193943 -0.8749609 2.2302654 2039583
-0.74193561 -0.82481414 2.2301857 2039583
-0.74203503 -0.77466035 2.2305522 2039583
0.33688882 -0.75448114 2.2027738 2039583
0.37499207 -0.75434959 2.2116067 2039583
0.42545265 -0.75441253 2.2233005 2039583
0.47500852 -0.75448513 2.2347856 2039583
0.51993573 -0.75444931 2.245198 2039583
-0.74202883 -0.72511894 2.2304642 2039583
0.33633623 -0.72452158 2.2029898 2039583
0.37482819 -0.72501141 2.2119052 2039583
0.4256359 -0.72501647 2.2236807 2039583
0.47503135 -0.72500956 2.2351284 2039583
0.51934415 -0.72530198 2.2453952 2039583
-0.74212933 -0.67556572 2.2308354 2039583
0.33502504 -0.67472059 2.2032573 2962230
0.37479305 -0.67503113 2.2124701 2961974
0.42567053 -0.67499125 2.2242622 2896438
0.47514597 -0.67496639 2.2357292 2699062
0.51809227 -0.67534482 2.2456787 2567476
-0.74212551 -0.62539089 2.2307565 2039583
0.33389458 -0.62473142 2.2035685 4740445
0.37507203 -0.62502348 2.2131093 4543325
0.4252384 -0.6252228 2.2247338 4214620
0.47464296 -0.62468791 2.2361889 3885658
0.5169692 -0.62539828 2.2459917 3556952
-0.74222499 -0.57521427 2.231123 2039583
0.33264521 -0.57465047 2.2038543 4477789
0.37478378 -0.57519644 2.2136142 4346204
0.42465881 -0.5748558 2.2251763 4148828
0.47439739 -0.57487512 2.2367043 3820122
0.51586187 -0.57536942 2.246309 3359831
-0.7422725 -0.52502632 2.231266 2039583
0.33149064 -0.5246793 2.2041597 4083035
0.37424782 -0.52495527 2.2140667 4017499
0.42418578 -0.52510631 2.2256389 3754073
0.47460213 -0.52487093 2.2373254 3425367
0.51457208 -0.52538347 2.2465837 3162710
-0.74226934 -0.47453153 2.2311888 2039583
0.33029127 -0.47468629 2.2044561 3754330
0.37431598 -0.47505456 2.2146549 3623002
0.42420509 -0.47501889 2.2262173 3491417
0.47472 -0.47491083 2.2379265 3294296
0.51343006 -0.4755713 2.2468903 3031381
-0.74231541 -0.42463359 2.2313247 2039583
0.32901984 -0.42473698 2.2047346 3228503
0.37440541 -0.42502534 2.2152498 3162967
0.42442217 -0.42494017 2.2268424 3031639
0.47484773 -0.42495909 2.238529 2900054
0.51228452 -0.42569727 2.2471976 2702931
-0.74051529 -0.37560678 2.2234957 2039583
0.32802218 -0.3747898 2.2050772 2768724
0.37466389 -0.37496805 2.2158837 2702932
0.42454588 -0.37497428 2.2274451 2637396
0.47497541 -0.37498069 2.2391324 2505811
0.51110131 -0.37574372 2.2474966 2440275
-0.74033511 -0.32504156 2.2226558 2039583
0.32653224 -0.32469392 2.2053058 2374226
0.37464592 -0.32498872 2.2164538 2308690
0.42463425 -0.32498205 2.2280397 2177361
0.47509396 -0.32501087 2.239733 2177105
0.50996667 -0.32563508 2.2478087 2046033
-0.74034458 -0.27488115 2.2226336 2039583
0.3256205 -0.27481189 2.2056673 1980240
0.37457502 -0.27491412 2.2170119 1979983
0.42470515 -0.27492768 2.228631 1848398
0.47520372 -0.27508613 2.2403324 1717070
0.50886726 -0.27542514 2.2481298 1651534
-0.74043053 -0.22470488 2.2229421 2039583
0.29955333 -0.22081892 2.2002454 1783376
0.32550225 -0.22501595 2.2062116 1783376
0.37486923 -0.22509189 2.2176521 1783376
0.42472172 -0.22477709 2.2292085 1717839
0.47529653 -0.22520611 2.240926 1519948
0.50759304 -0.22528964 2.2484105 1585998
-0.74047786 -0.17498544 2.2230837 2039583
0.29830804 -0.17432514 2.2004905 1718096
0.32505247 -0.17471866 2.2066844 1718096
0.3751494 -0.17527525 2.2182887 1652304
0.42490152 -0.17466855 2.2298269 1652560
0.47529283 -0.17543697 2.2414961 1322571
0.50638747 -0.17536607 2.2487032 1388363
-0.74052519 -0.12525956 2.2232256 2039583
0.29639778 -0.12307853 2.2006359 1586767
0.32463336 -0.12527139 2.2071548 1586511
0.37495854 -0.1248411 2.218822 1454925
0.42508155 -0.12474494 2.2304413 1454926
0.47463664 -0.12538686 2.2419188 1389133
0.50433689 -0.12637529 2.2487917 1389133
-0.74053448 -0.075071506 2.2232034 2039583
0.29512307 -0.07355205 2.2009087 1257291
0.32472107 -0.074999765 2.207752 1322827
0.37510806 -0.074550167 2.2194345 1257290
0.42519563 -0.07486663 2.2310395 1257034
0.47476453 -0.075252011 2.2425239 1257034
0.50318325 -0.076901071 2.2490907 1257034
-0.74062037 -0.024871448 2.2235117 2039583
0.2940107 -0.023527604 2.2012246 1125449
0.3248089 -0.024701025 2.208349 1125705
0.37527364 -0.024831805 2.2200437 1125705
0.42531002 -0.024961479 2.2316387 1125705
0.4748928 -0.025089996 2.243129 1125705
0.50199735 -0.027503625 2.249383 1257033
-0.74066758 0.024873557 2.2236538 2039583
0.29284185 0.025410786 2.2015157 1125448
0.32489532 0.024709756 2.208936 1125448
0.37537408 0.024840651 2.2206373 1125448
0.42542431 0.024970429 2.2322381 1125448
0.47502062 0.025099048 2.2437351 1125704
0.50096279 0.020971058 2.2496994 1125705
-1.7648246 0.0845498 2.2378414 10197915
-1.7252653 0.084813617 2.2250102 10197915
-1.6754106 0.084922835 2.2283001 10197915
-1.6293262 0.085095324 2.225106 10197915
-1.5751026 0.08536426 2.2155969 10197915
-1.5248195 0.085478455 2.2185612 10197915
-1.4744023 0.085592978 2.2215328 10197915
-1.4247378 0.085705772 2.2244604 10197915
-1.3749417 0.085818872 2.2273962 10197915
-1.3250144 0.085932262 2.2303393 10197915
-1.2749548 0.086045936 2.2332902 10197915
-1.2205497 0.086295053 2.2255571 10197915
-1.1748894 0.086482629 2.2209392 10197915
-1.1253024 0.086599313 2.2235062 10197915
-1.0751235 0.086713441 2.2264507 10197915
-1.0310781 0.086858585 2.2251177 10197915
-0.73366803 0.075498514 2.2255118 2039583
-0.69036716 0.087797821 2.2307851 2039583
0.29167765 0.070671491 2.2017651 1191496
0.32497528 0.07048358 2.2094803 1059398
0.37545308 0.070853814 2.2211077 1191497
0.42548457 0.07124272 2.2323408 1191753
0.47512594 0.071629204 2.2434192 1257289
0.52287936 0.087578669 2.2307625 1059654
0.57501215 0.091520444 2.2314162 1059397
0.62867236 0.091735154 2.22649 993091
0.67445958 0.091952704 2.2192905 861506
0.72456712 0.092064604 2.2224107 860736
0.77479488 0.092184313 2.2248807 860736
0.82515246 0.092296779 2.2280149 860480
0.87516654 0.092412226 2.2308021 860480
0.92238623 0.092681773 2.219439 795457
0.97533077 0.092844374 2.2188699 993605
1.0253263 0.092960015 2.2216334 1059140
1.0745002 0.093073793 2.2243524 993091
1.1247442 0.093190014 2.2271299 1058882
1.1751128 0.093306512 2.2299147 1058112
1.2246543 0.093421139 2.2326536 1978182
1.2750639 0.093730189 2.2186725 8355711
1.3249644 0.093849696 2.2210751 2176331
1.3754456 0.09396673 2.2238445 1059655
1.4250934 0.094089374 2.225908 1125447
1.4748557 0.094197184 2.2292984 1191240
1.5222617 0.094332837 2.2296534 1125191
1.5746596 0.094626278 2.2175434 1257289
1.6023873 0.094690703 2.2190533 1190984
-0.75306237 -1.0096182 2.2784355 2039583
-0.75269586 -0.97475594 2.2768097 2039583
-0.75266063 -0.9248367 2.2765963 2039583
-0.75270885 -0.87489086 2.2767415 2039583
-0.75284064 -0.82495886 2.2772479 2039583
-0.75280547 -0.77500838 2.2770333 2039583
0.54558408 -0.75449049 2.2511415 2039583
0.57563978 -0.75448054 2.2581077 2039583
0.62570852 -0.75443888 2.2697122 2039583
0.67534626 -0.75444299 2.2812169 2039583
0.72515935 -0.75438672 2.292762 2039583
0.75349444 -0.75444669 2.2993283 2039583
-0.75293708 -0.72504747 2.2775395 2039583
0.54494327 -0.72379112 2.2513447 2039583
0.57541919 -0.72499591 2.2583945 2039583
0.62539083 -0.7250278 2.2699769 2039583
0.6748274 -0.72506487 2.2814331 2039583
0.72477341 -0.72501707 2.2930098 2039583
0.7528702 -0.72742242 2.2994936 2039583
-0.75290173 -0.67510015 2.2773254 2039583
0.54370159 -0.67394465 2.2516305 2567734
0.57552934 -0.67502862 2.2589939 2501941
0.62547541 -0.67506683 2.2705688 2370612
0.67502278 -0.6749956 2.2820537 2304820
0.72510207 -0.67500246 2.293659 2173492
0.75173384 -0.6802755 2.2997713 2106924
-0.75295025 -0.62512249 2.2774715 2039583
0.54254955 -0.62415874 2.2519333 3425879
0.57568753 -0.62507278 2.2596033 3294295
0.62577981 -0.62500226 2.271215 3031381
0.67521232 -0.62501663 2.282671 2768211
0.72468966 -0.62520695 2.2941358 2636882
-0.75308204 -0.57515413 2.2779779 2039583
0.54041404 -0.57461441 2.2520084 3294295
0.57489234 -0.57495111 2.2599943 3162710
0.62494791 -0.57511526 2.2715936 2900052
0.67445606 -0.57492578 2.2830713 2702675
0.72369367 -0.57526678 2.2944782 2439760
-0.75304669 -0.52517563 2.2777636 2039583
0.53914386 -0.52477771 2.2522855 3228246
0.57470649 -0.52512515 2.2605233 2965332
0.62468809 -0.52482486 2.2721112 2768211
0.67456084 -0.52500647 2.2836673 2571603
0.72234821 -0.52526426 2.2947404 2373969
-0.75313717 -0.47471619 2.2780917 2039583
0.53804177 -0.47446918 2.2526083 3031381
0.57416803 -0.47501776 2.2609732 2834260
0.62413925 -0.47496545 2.2725558 2637139
0.67478621 -0.47503009 2.2842934 2505811
0.72147149 -0.47521961 2.2951109 2308690
-0.75318569 -0.42472282 2.2782376 2039583
0.53698474 -0.42433649 2.2529366 2636883
0.57443047 -0.42507428 2.2616081 2505554
0.62448579 -0.42499426 2.2732093 2374226
0.67493719 -0.42498738 2.2849033 2177361
0.72023159 -0.42525798 2.2953978 2111569
-0.75319177 -0.3751938 2.2782025 2039583
-0.74667251 -0.37380216 2.2500665 2039583
0.53576475 -0.3744702 2.2532272 2374483
0.57448441 -0.3750295 2.2621949 2111312
0.6245268 -0.37503064 2.2737925 2045776
0.67509502 -0.37503183 2.2855127 1980240
0.71897578 -0.37526417 2.29568 1914448
-0.75332367 -0.32518953 2.2787089 2039583
-0.74671894 -0.32534924 2.2502062 2039583
0.53451622 -0.32476282 2.2535083 1980240
0.57449263 -0.3250342 2.2627709 1848398
0.62463808 -0.324929 2.2743933 1848655
0.67537177 -0.32497334 2.2861512 1848655
0.717951 -0.32550979 2.2960131 1783118
-0.75328857 -0.27518287 2.2784948 2039583
-0.7467674 -0.27502638 2.2503517 2039583
0.53338134 -0.27494809 2.2538164 1651534
0.57498443 -0.27493355 2.2634597 1651534
0.62505883 -0.27494794 2.2750657 1717070
0.6750989 -0.27519178 2.286659 1717326
0.71666145 -0.27517885 2.2962921 1717070
-0.75337911 -0.2246889 2.2788222 2039583
-0.74681556 -0.22469702 2.2504969 2039583
0.53219068 -0.22475274 2.2541182 1520205
0.57504523 -0.22499549 2.2640467 1388619
0.62485981 -0.22498445 2.2755921 1388107
0.67489064 -0.22507279 2.2871864 1388363
0.71460861 -0.22506405 2.2963915 1454412
-0.75342751 -0.17466345 2.2789686 2039583
-0.74686378 -0.17436115 2.2506425 2039583
0.53102052 -0.17433374 2.2544241 1256778
0.57494169 -0.17514822 2.2645955 1190472
0.62548053 -0.17498146 2.2763093 1124423
0.67461514 -0.17490944 2.2876976 1190472
0.71341568 -0.17539223 2.2966855 1256777
-0.75343347 -0.12510455 2.2789333 2039583
-0.74691099 -0.12495118 2.2507849 2039583
0.53016102 -0.12449568 2.2547975 1388876
0.57530099 -0.12481519 2.2652562 1388876
0.62518024 -0.12504517 2.2768121 1323083
0.67502475 -0.12514041 2.2883644 1257291
0.71242881 -0.12586607 2.2970238 1389389
-0.75356531 -0.075064257 2.2794399 2039583
-0.74695843 -0.07553485 2.2509274 2039583
0.52854872 -0.07503593 2.2549925 1191241
0.57545471 -0.075096518 2.2658613 1191241
0.62581652 -0.074945584 2.2775366 1190985
0.67520678 -0.074914381 2.2889819 1191241
0.71120781 -0.075451486 2.2973204 1389388
-0.7535302 -0.025029445 2.2792263 2039583
-0.74700665 -0.025179731 2.2510729 2039583
0.52753872 -0.024966918 2.2553303 1125961
0.57560915 -0.02535104 2.2664683 1059656
0.62513959 -0.025198296 2.2779491 1191497
0.67498946 -0.024421586 2.289511 1191497
0.71005416 -0.025250066 2.2976289 1257033
-0.7535786 0.025031589 2.2793722 2039583
-0.74705482 0.025181899 2.2512186 2039583
0.52644098 0.02545915 2.2556543 1125704
0.57576609 0.025360286 2.2670867 1124935
0.62469447 0.024904914 2.2784216 1059398
0.67455196 0.024667505 2.289974 1059399
0.70890534 0.024072602 2.297929 1124934
-1.8059111 0.083973922 2.2774668 10197915
-1.77528 0.084042802 2.2793343 10197915
-1.7247282 0.084156439 2.2824166 10197915
-1.6749463 0.084268332 2.2854514 10197915
-1.6209588 0.084530078 2.2765131 10197915
-1.5752423 0.084718071 2.2718749 10197915
-1.5250309 0.084827222 2.2752616 10197915
-1.4746935 0.084944718 2.2779529 10197915
-1.4281778 0.085179001 2.2694857 10197915
-1.3746616 0.085388891 2.2649443 10197915
-1.3247985 0.085501559 2.2679331 10197915
-1.2748045 0.085614532 2.2709301 10197915
-1.2246771 0.085727818 2.2739348 10197915
-1.1744181 0.085841402 2.2769475 10197915
-1.1249424 0.085953198 2.2799129 10197915
-1.0753379 0.086065292 2.2828863 10197915
-1.0449653 0.086133935 2.2847073 10197915
-0.75371927 0.068465605 2.2799242 2039583
-0.73472756 0.079517834 2.2595778 2039583
-0.69606775 0.087360747 2.2674148 2039583
0.52490813 0.070919372 2.2558217 1191753
0.57538456 0.071595572 2.2674687 1191239
0.62528247 0.071216978 2.2786546 860994
0.67469501 0.071175516 2.2897367 794945
0.71010906 0.072729014 2.2951391 860480
0.7740702 0.09156625 2.278564 860737
0.82419038 0.091681167 2.2814238 860480
0.8744365 0.091796361 2.2842906 860223
0.92630768 0.09210977 2.2703018 728637
0.97507513 0.0922345 2.2719579 861249
1.0248107 0.092352875 2.2744184 993604
1.0746758 0.092463404 2.2775958 993604
1.1246626 0.092582375 2.2800701 993347
1.1748885 0.092902131 2.2651036 1058626
1.2252123 0.093018048 2.2679296 992320
1.2756617 0.093134232 2.2707627 5462109
1.3252633 0.093248479 2.2735484 5790816
1.3749877 0.093363002 2.2763407 927812
1.4248332 0.093477823 2.2791398 1060167
1.4748025 0.09359289 2.2819462 1125703
1.5285614 0.093795598 2.2780895 1190983
1.5749953 0.094027631 2.2697973 1257033
1.6216367 0.094090432 2.2763035 1257290
1.6541247 0.094005927 2.292016 1190984
-0.76449823 -1.0207678 2.3278031 2039583
-0.76395762 -0.9749068 2.325412 2039583
-0.76400691 -0.92487031 2.325562 2039583
-0.76405591 -0.87482685 2.325711 2039583
-0.76404452 -0.82510066 2.3256009 2039583
-0.76409554 -0.77504724 2.3257585 2039583
0.77810431 -0.75437844 2.305033 2039583
0.82555866 -0.75437784 2.3160307 2039583
0.87593246 -0.75436932 2.3277056 2039583
0.92612499 -0.75437772 2.3393385 2039583
0.96141201 -0.75425535 2.3475177 2039583
-0.76420325 -0.7246691 2.3261595 2039583
0.77756608 -0.72473478 2.305248 2039583
0.825216 -0.724949 2.3162885 2039583
0.87479115 -0.72509921 2.327775 2039583
0.92468172 -0.72493601 2.3393419 2039583
0.96039164 -0.72581953 2.3476083 2039583
-0.76425225 -0.67460024 2.3263087 2039583
0.77637064 -0.67482579 2.3055437 2107957
0.82548052 -0.67495161 2.3169246 2042420
0.8749299 -0.67498106 2.3283794 1976628
0.92479366 -0.67507285 2.3399396 1911092
0.95944124 -0.67572469 2.3479629 1845299
-0.7642411 -0.62484562 2.3261986 2039583
0.74994969 -0.61177582 2.3001442 2440018
0.77575719 -0.62498629 2.3059738 2374225
0.82573587 -0.62504631 2.3175573 2111568
0.87513441 -0.62494797 2.3290069 1979983
0.92503417 -0.62511551 2.3405688 1914703
0.95825613 -0.6254493 2.3482649 1783118
-0.76434982 -0.57509041 2.3266063 2039583
0.74816722 -0.56961375 2.3002148 2374224
0.77486539 -0.57486391 2.3063416 2242640
0.8251071 -0.57525998 2.317982 1979726
0.87448913 -0.57475275 2.3294311 1848398
0.92510629 -0.57527411 2.3411574 1783117
0.95685148 -0.57516295 2.3485169 1717325
-0.76439911 -0.52500218 2.3267555 2039583
0.74698335 -0.52246135 2.3004813 2242640
0.7744233 -0.52509326 2.3068109 2045519
0.82433981 -0.52492017 2.3183835 1979726
0.87455738 -0.5249207 2.3300238 1848654
0.9244982 -0.52498841 2.3415947 1717325
0.95498395 -0.52641422 2.3486433 1651276
-0.76439035 -0.47459444 2.3266547 2039583
0.74591899 -0.47295764 2.3008032 2242897
0.77429396 -0.47500595 2.3073556 2111825
0.82425499 -0.47510949 2.318933 2046032
0.87475693 -0.47497407 2.3306377 1914704
0.92471546 -0.47492459 2.3422213 1782862
0.95395905 -0.47596109 2.348985 1519691
-0.76443762 -0.42448786 2.3267968 2039583
0.74486715 -0.42391244 2.3011222 2111568
0.77442515 -0.42505437 2.3079596 2045776
0.82447928 -0.4250676 2.3195596 2046032
0.87497938 -0.42504078 2.3312657 1914704
0.9248957 -0.42496076 2.3428345 1783119
0.95269531 -0.42633304 2.3492608 1519691
-0.76454657 -0.37503088 2.3272059 2039583
0.74378455 -0.37450039 2.3014383 1848911
0.7745924 -0.37507713 2.3085721 1848655
0.82464981 -0.37499863 2.3201742 1783119
0.87529051 -0.37499952 2.331908 1717583
0.92536485 -0.37496975 2.3435154 1717583
0.95172721 -0.3789382 2.349581 1717583
-0.76459515 -0.32523817 2.3273523 2039583
0.74243259 -0.32412478 2.3017027 1585227
0.77506524 -0.32511088 2.3092549 1585227
0.82497746 -0.32498249 2.3208241 1519692
0.87544072 -0.32499576 2.3325148 1454155
0.92548615 -0.32484061 2.3441198 1454155
0.95113707 -0.34073469 2.3498826 1651790
-0.76458377 -0.27544454 2.3272419 2039583
0.74144953 -0.27394682 2.3020511 1322056
0.77522117 -0.27511778 2.3098645 1321800
0.82519895 -0.27505881 2.3214467 1322056
0.87475568 -0.27482045 2.3329406 1256264
0.92364514 -0.27532282 2.3442616 1256264
-0.76469272 -0.22563905 2.3276503 2039583
0.74038982 -0.22465602 2.3023713 1454155
0.77537084 -0.22501928 2.3104746 1519948
0.82542145 -0.22510849 2.3220727 1520204
0.87499148 -0.22483243 2.3335667 1520204
0.92238712 -0.22540136 2.3445413 1520204
-0.76468408 -0.17518446 2.327549 2039583
0.73908377 -0.17513503 2.3026369 1322826
0.77536958 -0.17469861 2.3110504 1388619
0.8256436 -0.17513119 2.3226998 1388619
0.87518406 -0.17498657 2.3341801 1388619
0.92150241 -0.17516974 2.3449135 1454668
-0.76479191 -0.12472875 2.3279514 2039583
0.73799282 -0.12447014 2.3029654 1389389
0.77573216 -0.12454304 2.3117104 1389389
0.82522851 -0.12537296 2.3231745 1388876
0.87451607 -0.1251191 2.3346 1389132
0.9205873 -0.12489241 2.3452795 1389132
-0.76478046 -0.074906826 2.327841 2039583
0.73616934 -0.074355781 2.3031182 1389132
0.77509719 -0.074607573 2.3121364 1389132
0.82495445 -0.075010762 2.3236899 1323339
0.8745845 -0.075459123 2.3351872 1323083
0.91908389 -0.075338811 2.3454993 1323339
-0.76488978 -0.025078438 2.3282495 2039583
0.73469001 -0.024455303 2.3033478 1257289
0.77410948 -0.024907723 2.3124778 1322825
0.82421261 -0.025032755 2.3240888 1256776
0.87482083 -0.025159096 2.3358173 1190983
0.91808724 -0.025611043 2.3458397 1059655
-0.76493859 0.025080582 2.3283992 2039583
0.7335403 0.025195982 2.3036509 1125191
0.77431673 0.024916617 2.3130984 1191240
0.82443434 0.025041766 2.3247144 1190983
0.87505782 0.025168158 2.3364482 1125190
0.91706342 0.024866141 2.34618 1059398
-1.8203731 0.083485939 2.316283 10197915
-1.7745657 0.083588354 2.3191249 10197915
-1.7249684 0.083699241 2.3222013 10197915
-1.6752393 0.083810426 2.3252866 10197915
-1.6253785 0.083921917 2.3283794 10197915
-1.5753845 0.08403369 2.3314803 10197915
-1.5252572 0.084145777 2.3345904 10197915
-1.4749961 0.084258147 2.337708 10197915
-1.4220155 0.084572516 2.3239195 10197915
-1.3751516 0.084716178 2.3234367 10197915
-1.3253901 0.0848234 2.3268764 10197915
-1.2795855 0.085014984 2.3219457 10197915
-1.2255162 0.085278682 2.3128533 10197915
-1.1753269 0.085391521 2.3159137 10197915
-1.1250048 0.085504629 2.3189812 10197915
-1.0782927 0.085609652 2.3218296 10197915
-0.76345211 0.071833812 2.3279936 2039583
-0.72913092 0.086652033 2.3206844 2039583
0.73252678 0.070947535 2.3039405 860737
0.77454984 0.070969425 2.3136611 926787
0.82465982 0.071313553 2.324965 860737
0.87527096 0.071694389 2.3362603 794944
0.9167546 0.072273888 2.3447766 794687
0.97480279 0.091598205 2.3273463 860480
1.0242733 0.091711111 2.330215 860993
1.0748594 0.091826558 2.3331485 927298
1.1255724 0.091942303 2.3360889 992834
1.1750287 0.092274606 2.3198314 1059138
1.2250928 0.09238492 2.3230793 1124418
1.2752703 0.092503943 2.325597 2109767
1.3255799 0.092614785 2.3288598 6513764
1.3712589 0.09284097 2.3208821 3490643
1.4246558 0.093057975 2.3156853 1059654
1.4744296 0.093172118 2.3185253 1059654
1.5243258 0.093286537 2.3213723 1257289
1.5743451 0.093401216 2.3242264 1124934
1.624487 0.093516178 2.3270872 1322826
1.6677054 0.093615294 2.3295531 1257033
-0.77656597 -1.0574877 2.3799281 2039583
-0.77562511 -1.0251914 2.3758271 2039583
-0.77576917 -0.97504932 2.3763874 2039583
-0.77572489 -0.92491418 2.3761325 2039583
-0.77582145 -0.87524801 2.3764877 2039583
-0.77587157 -0.82508904 2.3766413 2039583
-0.77587461 -0.77443492 2.3765919 2039583
0.98593014 -0.75432616 2.3532 5066061
1.0249337 -0.75434172 2.3622386 6710886
1.0749273 -0.75430274 2.3738263 6710886
1.1241306 -0.75432748 2.3852296 6710886
1.1680819 -0.75438446 2.3954148 6710886
-0.77597147 -0.724756 2.3769474 2039583
0.98510599 -0.72447145 2.3533516 4934475
1.0247058 -0.72501361 2.3625219 6710886
1.0750865 -0.72495592 2.3742001 6710886
1.1248584 -0.72501373 2.3857346 6710886
1.1678133 -0.72532469 2.3956866 6710886
-0.7759735 -0.67506224 2.376895 2039583
0.98423195 -0.6746313 2.3537207 3292747
1.0251266 -0.67493659 2.3631952 4279898
1.0753074 -0.67501748 2.3748245 4279898
1.1250024 -0.67492646 2.3863425 4214105
1.1667819 -0.67541677 2.3960197 4214105
-0.77611804 -0.62489229 2.3774557 2039583
0.98297584 -0.6246863 2.3540032 1717068
1.0252699 -0.62500644 2.3638012 1651532
1.0754962 -0.62518144 2.3754389 1454154
1.125168 -0.62480778 2.3869572 1322312
1.1656638 -0.62529385 2.3963361 1322568
-0.77607369 -0.57469481 2.3772006 2039583
0.9817518 -0.57462335 2.3542936 1717325
1.0256245 -0.57500356 2.3644576 1783374
1.0748667 -0.57500547 2.3758698 1717581
1.1245787 -0.57503259 2.3873916 1585996
1.1644143 -0.57535166 2.3966198 1585739
-0.77617037 -0.52499247 2.3775566 2039583
0.98087829 -0.52463883 2.3546643 1585740
1.025653 -0.52515435 2.3650353 1914703
1.0748912 -0.52484941 2.3764515 1783374
1.1249055 -0.52494949 2.3880417 1717324
1.163546 -0.5257206 2.3969877 1717067
-0.77622026 -0.47478834 2.3777096 2039583
0.97896904 -0.47502163 2.3547926 1519691
1.0243206 -0.47482854 2.3653049 1585740
1.0744132 -0.47497654 2.3769116 1519947
1.1251853 -0.47496402 2.3886793 1453898
1.1625326 -0.47583181 2.3973258 1453897
-0.77627027 -0.42457795 2.3778629 2039583
0.97718644 -0.42481872 2.3549547 1454412
1.0240742 -0.42499906 2.3658199 1519948
1.0744307 -0.42504033 2.3774896 1454411
1.1247948 -0.42524987 2.3891594 1322569
1.1608125 -0.42462105 2.3975146 1322826
-0.77627277 -0.3748523 2.3778107 2039583
0.97656929 -0.37472725 2.3553867 1651790
1.0247551 -0.37502721 2.3665509 1454668
1.0751232 -0.37503564 2.3782244 1388362
1.1248614 -0.37499389 2.3897519 1256776
1.158995 -0.37504819 2.3976617 1322313
-0.77636957 -0.32512656 2.378166 2039583
0.97530776 -0.32478255 2.3556681 1454155
1.0245814 -0.32507339 2.367084 1256777
1.0750602 -0.32491994 2.3787837 1124422
1.1250572 -0.32499459 2.3903711 1124165
1.1580579 -0.32561255 2.3980122 1058629
-0.7764194 -0.27489677 2.3783202 2039583
0.94917637 -0.26905987 2.3502505 1321800
0.97500551 -0.27502039 2.3561685 1256264
1.0253251 -0.27500084 2.3678308 1190728
1.0754699 -0.27507529 2.379451 1124935
1.1250651 -0.27479306 2.3909495 1124935
1.1570321 -0.27617845 2.3983419 1124678
-0.77646959 -0.22466047 2.3784733 2039583
0.94812185 -0.22279453 2.3505371 1454667
0.97565997 -0.2248673 2.3568957 1454411
1.0251552 -0.22503977 2.3683643 1388875
1.0752038 -0.22531112 2.379961 1388618
1.1247925 -0.22468074 2.3914609 1322825
1.1559952 -0.22644342 2.3986726 1257032
-0.77647191 -0.17490715 2.3784213 2039583
0.94712222 -0.17349035 2.3508711 1389131
0.97550917 -0.17512517 2.3574317 1389131
1.0258443 -0.17495216 2.3690996 1388875
1.0747761 -0.17487597 2.380441 1454667
1.1248327 -0.17535958 2.3920369 1388874
1.1547692 -0.17621116 2.3989644 1257545
-0.77656877 -0.12515812 2.3787768 2039583
0.94519717 -0.12412477 2.3509912 1389132
0.97506231 -0.12489762 2.3579037 1389131
1.0253146 -0.12519784 2.3695478 1323338
1.0748208 -0.12501177 2.3810232 1323338
1.1252216 -0.12506562 2.3927038 1323081
1.1537665 -0.12641862 2.3993034 1257545
-0.7766189 -0.074902453 2.3789301 2039583
0.94381976 -0.074138701 2.3512461 1257289
0.97439146 -0.075441703 2.3583174 1257290
1.0244547 -0.074563131 2.3699293 1191497
1.0744605 -0.074982896 2.3815138 1257032
1.1249685 -0.074781694 2.3932209 1125447
1.1524166 -0.07550551 2.399575 1191239
-0.77666885 -0.024640387 2.3790832 2039583
0.94267368 -0.024425805 2.3515511 1059399
0.97434199 -0.025407474 2.3588784 1059398
1.0241594 -0.024726005 2.3704333 993605
1.0747532 -0.024671426 2.3821588 993605
1.1245881 -0.024791012 2.393708 993605
1.1506374 -0.028509604 2.3997021 993605
-0.77671796 0.024642466 2.3792336 2039583
0.94165301 0.026169069 2.3518949 1059398
0.97460866 0.025416747 2.3595245 1059398
1.0244952 0.024647133 2.3710768 993861
1.0750377 0.024680138 2.3827915 1059141
1.124714 0.024646429 2.3943036 1059140
1.1503868 0.00099428417 2.3999829 1060167
-1.9028263 0.08234337 2.3946836 10197915
-1.8711045 0.082563661 2.3836312 10197915
-1.8286874 0.082814038 2.3727083 10197915
-1.7747588 0.083115704 2.3602703 10197915
-1.7252172 0.083225839 2.3633978 10197915
-1.6755438 0.083336271 2.366534 10197915
-1.6247969 0.083449088 2.3697379 10197915
-1.574857 0.083560124 2.3728907 10197915
-1.524783 0.083671436 2.3760519 10197915
-1.4745762 0.083783068 2.3792219 10197915
-1.4251862 0.083892874 2.38234 10197915
-1.3756664 0.084002972 2.3854663 10197915
-1.3250601 0.084115475 2.3886611 10197915
-1.2707508 0.084403746 2.3774881 10197915
-1.2249311 0.084582187 2.3737078 10197915
-1.1748376 0.084689341 2.3772366 10197915
-1.1266073 0.08500398 2.3622053 10197915
-1.0870612 0.085125521 2.3617725 10197915
-0.77314252 0.07255616 2.3798368 2039583
-0.73858136 0.085904658 2.3833897 2039583
0.94063121 0.07161662 2.3521798 794687
0.9748497 0.071377538 2.3601074 794944
1.0249497 0.070902817 2.371552 794688
1.0752856 0.071113616 2.3828268 794944
1.1238799 0.071430601 2.3935504 728893
1.1751852 0.091610841 2.3777244 992577
1.2249626 0.091723889 2.3806584 1124674
1.274864 0.091837242 2.3836005 1189953
1.324888 0.091950856 2.3865492 3753041
1.3778852 0.092252143 2.3739047 5856609
1.4248818 0.092406251 2.3725469 1519175
1.4748712 0.092520051 2.375469 1059911
1.5249808 0.092625007 2.3791959 1059654
1.573707 0.092947796 2.3635805 1256776
1.6245135 0.093081027 2.3650219 1256520
1.674577 0.093195267 2.3679247 1257290
1.7073328 0.093270026 2.3698242 1190984
-0.78574473 -1.0662843 2.4195499 2039583
-0.78547454 -1.0249118 2.4183335 2039583
-0.78552473 -0.97487998 2.4184878 2039583
-0.78557509 -0.92484152 2.4186428 2039583
-0.78562546 -0.87479693 2.4187984 2039583
-0.78567618 -0.82474601 2.4189532 2039583
-0.78567505 -0.77519268 2.4188876 2039583
1.193615 -0.75429046 2.4013343 6710886
1.2253222 -0.7543205 2.4086821 6710886
1.2758344 -0.75439185 2.4203885 6710886
1.3251324 -0.75432622 2.4318147 6710886
1.3742287 -0.75433791 2.443193 6710886
1.4018943 -0.75564682 2.44959 6710886
-0.7857759 -0.72563064 2.4192615 2039583
1.1935408 -0.72440624 2.40166 6710886
1.225561 -0.72490543 2.4090757 6710886
1.2756288 -0.72501969 2.4206774 6710886
1.3249375 -0.72508562 2.4321048 6710886
1.374827 -0.72495586 2.4436681 6710886
1.4015919 -0.73377991 2.4497709 6710886
-0.78582644 -0.67556036 2.4194164 2039583
1.1921495 -0.67537391 2.4018981 4148312
1.2254655 -0.67467105 2.4096291 4016728
1.2752942 -0.67525727 2.4211712 4082520
1.3246721 -0.67478895 2.4326205 3950935
1.3746232 -0.67518103 2.4441926 6316644
-0.78587693 -0.62548381 2.4195721 2039583
1.1903942 -0.62455195 2.4020777 1322569
1.2242631 -0.62516689 2.4099185 1388361
1.2742178 -0.62479204 2.4215002 1322568
1.3245727 -0.62497824 2.4331686 1257031
1.3735561 -0.62528425 2.4445181 5922401
-0.78592753 -0.57540083 2.4197276 2039583
1.1890782 -0.57442814 2.4023464 1454410
1.2243431 -0.57503718 2.410512 1454410
1.2743685 -0.5750218 2.4221065 1454153
1.3249141 -0.57491487 2.4338229 1388616
1.3726482 -0.57527459 2.4448812 5922401
-0.78592968 -0.52481604 2.4196739 2039583
1.1880355 -0.52420402 2.4026811 1717324
1.2246569 -0.52506495 2.4111588 1783116
1.2747067 -0.52508235 2.4227579 1585738
1.3252324 -0.52487022 2.4344709 1454409
1.3713137 -0.52529508 2.4451449 5856609
-0.78602946 -0.47421801 2.4200416 2039583
1.1870742 -0.47436044 2.4030304 1454154
1.2249711 -0.47506577 2.4118056 1454154
1.2750118 -0.47507054 2.4234042 1388361
1.3251896 -0.47520158 2.4350312 1322311
1.3698977 -0.47500288 2.4453948 5659488
-0.7860285 -0.42461088 2.4199755 2039583
1.1860517 -0.4248454 2.403362 1388362
1.2252463 -0.42499441 2.4124434 1322569
1.2754347 -0.4249855 2.4240756 1388360
1.3249209 -0.42498365 2.4355452 1322311
1.3683774 -0.42520055 2.4456136 5462110
-0.78612959 -0.37501326 2.4203498 2039583
1.1848408 -0.37506485 2.4036534 1190727
1.2256386 -0.37494165 2.4131083 1256519
1.2757702 -0.37496164 2.4247282 1388361
1.3252532 -0.37487671 2.4361966 1322311
1.3671879 -0.37535217 2.4459102 5396574
-0.7861802 -0.32489812 2.4205058 2039583
1.183406 -0.32534745 2.4038894 1058629
1.2254153 -0.32474476 2.4136336 1190726
1.2749602 -0.32480624 2.4251153 1190470
1.3244182 -0.32499257 2.4365759 1190469
1.3659735 -0.3254281 2.4462018 5265245
-0.7862308 -0.27477649 2.4206617 2039583
1.1816994 -0.27472445 2.4040756 1058629
1.2240759 -0.2750119 2.4138937 1058885
1.2742199 -0.27487195 2.4255171 1059141
1.324558 -0.27519384 2.4371793 1058884
1.3649865 -0.27511352 2.4465506 5133404
-0.78628135 -0.22464839 2.4208174 2039583
1.1805531 -0.22454487 2.4043863 1257288
1.2244045 -0.22507 2.4145427 1257032
1.2745535 -0.22491769 2.4261665 1190982
1.3250754 -0.22518045 2.4378736 1190725
1.3639815 -0.22557332 2.4468856 5002075
-0.78633195 -0.17451383 2.4209723 2039583
1.1792471 -0.17429003 2.4046593 1322824
1.2247338 -0.17510135 2.4151924 1257288
1.2748129 -0.17512119 2.4268 1257031
1.3254789 -0.17477383 2.4385452 1256517
1.363018 -0.17596081 2.4472313 4804954
-0.78633112 -0.12487539 2.4209077 2039583
1.1783533 -0.12424974 2.4050264 1257288
1.225064 -0.12510568 2.4158428 1257287
1.2750019 -0.12543829 2.4274132 1191238
1.3250082 -0.12474757 2.4390104 1125189
1.3608642 -0.1249591 2.4473181 4213591
-0.78643227 -0.075232819 2.4212816 2039583
1.1773224 -0.074439362 2.4053602 1190982
1.2253939 -0.075083211 2.4164939 1190725
1.2755471 -0.075444236 2.428113 1124932
1.3247983 -0.075182624 2.4395304 1124675
1.3595952 -0.075492516 2.4475913 3819092
-0.78648263 -0.025079038 2.421437 2039583
1.1762944 -0.024706746 2.4056923 993348
1.2257233 -0.02503372 2.4171438 993603
1.2753531 -0.02544524 2.4286416 1058883
1.3248225 -0.024978613 2.4401121 1058882
1.3585831 -0.026153795 2.4479234 3359056
-0.78653336 0.025081191 2.4215927 2039583
1.1484265 0.045738228 2.4000421 860992
1.17474 0.024684597 2.405899 1058883
1.2251898 0.025093555 2.4175954 1058882
1.2747605 0.025397476 2.4290867 1058625
1.3245934 0.025279311 2.4406354 1058111
1.3576097 0.024387568 2.448278 2767179
-1.9188223 0.081802562 2.437696 10197915
-1.8745883 0.081899725 2.4405916 10197915
-1.8204697 0.082159422 2.4318645 10197915
-1.7750583 0.082381807 2.4241502 10197915
-1.7291723 0.08258608 2.4181366 10197915
-1.6749033 0.082847089 2.4093328 10197915
-1.6251528 0.082957059 2.4125307 10197915
-1.5752704 0.083067305 2.4157369 10197915
-1.5252551 0.083177835 2.4189513 10197915
-1.4751072 0.083288699 2.4221747 10197915
-1.4248246 0.08339981 2.4254065 10197915
-1.3744081 0.083511241 2.428647 10197915
-1.3248302 0.083620816 2.4318337 10197915
-1.2751216 0.083730668 2.4350286 10197915
-1.2252828 0.083840825 2.4382322 10197915
-1.1753118 0.083951265 2.4414439 10197915
-1.1261612 0.084337741 2.4203861 10197915
-1.096135 0.084624417 2.4031141 10197915
-0.78005683 0.073928177 2.4222627 2039583
-0.74453998 0.085406095 2.4253116 2039583
1.148239 0.073309153 2.400315 728637
1.1743908 0.07078217 2.4063475 728380
1.2241386 0.071164362 2.41787 728636
1.2743094 0.071538374 2.4291935 794171
1.3249273 0.071867183 2.4404864 793657
1.3600212 0.074155696 2.445102 2634567
1.4251288 0.091715895 2.4327683 5067868
1.475329 0.091829322 2.4357777 927556
1.5256535 0.091943055 2.4387944 1059911
1.5759641 0.092288919 2.4215801 1191239
1.625073 0.092400163 2.4244988 1190984
1.6753488 0.092514098 2.4274881 1256777
1.7188896 0.092742197 2.4187949 1257034
-0.80339605 -1.1084176 2.49578 2039583
-0.79813641 -1.1034569 2.4730747 2039583
1.434473 -1.1061072 2.4859915 6710886
1.4861058 -1.1013267 2.4649956 1257291
1.5270673 -1.1035495 2.4744663 1125194
1.5761226 -1.1060488 2.4858105 1257292
1.6195318 -1.1084468 2.4958467 1257548
-0.80343008 -1.0753759 2.4958856 2039583
-0.79568917 -1.0740553 2.4624767 2039583
1.4378812 -1.0748644 2.473947 6710886
1.4742281 -1.0749601 2.4625692 1454411
1.5242046 -1.0749936 2.4741571 1059914
1.5746719 -1.0750251 2.4858603 1191499
1.6177299 -1.0753351 2.4958408 1125450
-0.80348128 -1.0258086 2.4960449 2039583
-0.79557925 -1.024615 2.4619403 2039583
