# .PCD v0.7 - Point Cloud Data file format
VERSION 0.7
FIELDS x y z rgb
SIZE 4 4 4 4
TYPE F F F U
COUNT 1 1 1 1
WIDTH 1170
HEIGHT 1
VIEWPOINT 0 0 0 1 0 0 0
POINTS 1170
DATA ascii
-0.57496101 0.11487087 1.0231092 10197915
-0.52500683 0.11483168 1.0227972 10197915
-0.47502577 0.11479252 1.0224307 10197915
-0.42501816 0.11475329 1.0221187 10197915
-0.37576821 0.11471063 1.024189 10197915
-0.32489619 0.11466865 1.0250958 10197915
-0.27504143 0.11462951 1.024801 10197915
-0.22500889 0.11459036 1.0244082 10197915
-0.17501016 0.11455125 1.0240359 10197915
-0.12497492 0.11451199 1.0237182 10197915
-0.074974246 0.11447275 1.0234213 10197915
-0.024806542 0.11442751 1.026567 10197915
0.025027268 0.11438809 1.0264429 10197915
0.075057149 0.11434896 1.0260714 10197915
0.12505335 0.11430977 1.0257401 10197915
0.17501524 0.11427079 1.0252976 10197915
0.22500369 0.11423147 1.025019 10197915
0.27501842 0.11419224 1.0247043 10197915
0.32487804 0.11415332 1.0242616 10197915
0.37488407 0.11411398 1.0240198 10197915
0.42503756 0.11407474 1.0236312 10197915
0.47503594 0.11403561 1.0232443 10197915
0.52506 0.11399638 1.0229105 10197915
0.57504988 0.11395726 1.022541 10197915
0.62500566 0.11391807 1.0222249 10197915
0.67450529 0.11387416 1.0249311 10197915
0.72504961 0.11383341 1.0252473 10197915
0.77511501 0.11379428 1.0248642 10197915
0.8111347 0.11375087 1.0336002 10197915
0.19206136 -0.4712913 1.0995665 6513507
0.22500111 -0.47057799 1.0978346 6513507
0.27486742 -0.46998388 1.0952098 6513507
0.32490411 -0.46944448 1.0925773 6513507
0.37465426 -0.46885073 1.0899599 6513507
0.4246231 -0.46824688 1.0873314 6513507
0.47482958 -0.46763739 1.0846893 6513507
0.524822 -0.46703982 1.082059 6513507
0.57496202 -0.46651101 1.079421 6513507
0.62481302 -0.46590212 1.0767983 6513507
0.67445982 -0.46529821 1.0741864 6513507
0.72477978 -0.46468243 1.0715392 6513507
0.77482074 -0.46414217 1.0689064 6513507
0.82328349 -0.46357238 1.0663567 6513507
0.19286332 -0.42545009 1.0996032 6513507
0.22514282 -0.42497754 1.0979042 6513507
0.27494761 -0.42497224 1.0952835 6513507
0.32499504 -0.42501748 1.0926502 6513507
0.37484023 -0.42500591 1.0900264 6513507
0.42488313 -0.42499021 1.0873922 6513507
0.47507817 -0.42499053 1.0847498 6513507
0.52498686 -0.42498299 1.0821232 6513507
0.57510656 -0.42504892 1.0794859 6513507
0.62502939 -0.42502016 1.0768582 6513507
0.6746859 -0.42499614 1.074244 6513507
0.72492725 -0.42497316 1.0715997 6513507
0.77495587 -0.42501479 1.0689663 6513507
0.82350856 -0.42501229 1.0664111 6513507
0.19367805 -0.3755053 1.0996467 6513507
0.22516397 -0.37499803 1.0979899 6513507
0.27497375 -0.37499842 1.0953693 6513507
0.32499757 -0.3749938 1.0927366 6513507
0.37478343 -0.37498987 1.0901147 6513507
0.42476684 -0.37498254 1.0874844 6513507
0.47497058 -0.3750025 1.084842 6513507
0.5249573 -0.37500551 1.0822119 6513507
0.57514787 -0.37501293 1.0795697 6513507
0.62509 -0.37499678 1.0769403 6513507
0.67477781 -0.37499586 1.0743254 6513507
0.72507733 -0.37500107 1.0716788 6513507
0.77512294 -0.37499267 1.0690447 6513507
0.82365936 -0.37497631 1.0664896 6513507
0.19449507 -0.32550594 1.0996898 6513507
0.22519164 -0.32503569 1.0980756 6513507
0.27500561 -0.32500064 1.0954535 6513507
0.32508546 -0.32497925 1.0928169 6513507
0.37497616 -0.32495815 1.0901916 6513507
0.42498255 -0.32503912 1.0875604 6513507
0.47509912 -0.32501408 1.0849221 6513507
0.52502596 -0.32499713 1.0822939 6513507
0.57515317 -0.32501936 1.079656 6513507
0.62510794 -0.32492271 1.0770266 6513507
0.6748445 -0.3250033 1.0744097 6513507
0.72507083 -0.3250218 1.0717646 6513507
0.77505398 -0.3250095 1.0691335 6513507
0.82354057 -0.32497898 1.0665827 6513507
0.19531511 -0.27542868 1.0997332 6513507
0.22521977 -0.27509043 1.0981594 6513507
0.27504346 -0.27497888 1.0955377 6513507
0.32516846 -0.2749491 1.0929 6513507
0.37483287 -0.27500662 1.0902864 6513507
0.42480272 -0.27502346 1.0876559 6513507
0.47520059 -0.27498683 1.0850024 6513507
0.52514267 -0.27505165 1.0823739 6513507
0.57479811 -0.27496722 1.0797614 6513507
0.62476617 -0.27492416 1.0771309 6513507
0.67480868 -0.27507192 1.0744959 6513507
0.7250126 -0.27507064 1.0718545 6513507
0.77519548 -0.27489826 1.0692135 6513507
0.8238042 -0.27506199 1.0666546 6513507
0.1961333 -0.22537935 1.0997767 6513507
0.22526067 -0.22516227 1.0982436 6513507
0.2751101 -0.22490115 1.095621 6513507
0.32510895 -0.22504744 1.0929892 6513507
0.374899 -0.22499911 1.0903682 6513507
0.42504239 -0.22502558 1.0877289 6513507
0.4750472 -0.22494249 1.0850973 6513507
0.52517956 -0.22505932 1.082459 6513507
0.57485086 -0.2249935 1.0798445 6513507
0.62477803 -0.22492376 1.0772163 6513507
0.67482662 -0.22510158 1.0745821 6513507
0.72486627 -0.2249205 1.0719486 6513507
0.77477771 -0.22501674 1.0693215 6513507
0.82374501 -0.22497013 1.0667437 6513507
0.19686553 -0.17677534 1.0998222 6513507
0.22506212 -0.17508136 1.0983418 6513507
0.27512681 -0.17482348 1.0957067 6513507
0.32505813 -0.17515375 1.0930779 6513507
0.37503594 -0.17494492 1.0904477 6513507
0.42488095 -0.17498529 1.0878241 6513507
0.47529814 -0.17505898 1.0851709 6513507
0.52516657 -0.17490909 1.0825455 6513507
0.57494694 -0.1750986 1.0799251 6513507
0.62482637 -0.17495427 1.0773005 6513507
0.67493033 -0.17500916 1.0746635 6513507
0.72481591 -0.17498787 1.0720377 6513507
0.77491152 -0.17495608 1.0694011 6513507
0.82383555 -0.17502891 1.0668262 6513507
0.19733863 -0.12705943 1.0998834 6513507
0.22479495 -0.1251442 1.0984409 6513507
0.2750985 -0.12484264 1.0957938 6513507
0.32518616 -0.12495499 1.0931586 6513507
0.37498087 -0.12514719 1.090537 6513507
0.42509732 -0.1249726 1.0878994 6513507
0.47522756 -0.12499133 1.0852599 6513507
0.52509969 -0.1248679 1.0826356 6513507
0.57500875 -0.12520398 1.0800091 6513507
0.62487626 -0.12497687 1.0773835 6513507
0.67509943 -0.12484097 1.0747402 6513507
0.72478515 -0.12513876 1.0721251 6513507
0.77492476 -0.12494697 1.0694865 6513507
0.82390749 -0.1250722 1.0669078 6513507
0.19813126 -0.078057796 1.0999259 6513507
0.22481248 -0.075092264 1.0985264 6513507
0.27511978 -0.074911304 1.0958798 6513507
0.32523444 -0.074788429 1.0932423 6513507
0.37500989 -0.075003646 1.090621 6513507
0.42495733 -0.074924178 1.0879925 6513507
0.47526506 -0.07509052 1.0853451 6513507
0.52535588 -0.075090885 1.0827086 6513507
0.57499027 -0.075174779 1.0800949 6513507
0.62492353 -0.074991904 1.0774673 6513507
0.67504847 -0.074808255 1.0748302 6513507
0.72501034 -0.074955955 1.0722009 6513507
0.77499217 -0.074885279 1.0695697 6513507
0.82392198 -0.075106852 1.0669942 6513507
0.19888198 -0.031248085 1.0999676 6513507
0.22482978 -0.025032464 1.0986129 6513507
0.27514124 -0.024972159 1.0959647 6513507
0.32521033 -0.024912115 1.0933287 6513507
0.37503916 -0.02485233 1.0907068 6513507
0.42515093 -0.024896406 1.08807 6513507
0.47530195 -0.025181787 1.0854293 6513507
0.52528912 -0.025120724 1.0827976 6513507
0.57503468 -0.025060048 1.0801803 6513507
0.62497342 -0.024999028 1.0775524 6513507
0.67509961 -0.024937803 1.0749141 6513507
0.72498387 -0.024876924 1.0722876 6513507
0.77504456 -0.024815749 1.0696527 6513507
0.82405591 -0.025159165 1.0670738 6513507
0.22508298 0.02492216 1.098685 6513507
0.27516228 0.024974763 1.0960495 6513507
0.32523522 0.024914706 1.0934142 6513507
0.37506852 0.024854898 1.0907913 6513507
0.42516476 0.024867019 1.0881543 6513507
0.47533879 0.025184417 1.0855136 6513507
0.52533031 0.025123378 1.0828828 6513507
0.57507896 0.02506263 1.0802648 6513507
0.62502134 0.02500161 1.0776354 6513507
0.67515355 0.024940409 1.074996 6513507
0.72503781 0.024879457 1.0723704 6513507
0.77511299 0.024818273 1.0697361 6513507
0.82414097 0.025130508 1.0671551 6513507
0.22594433 0.074984469 1.0987259 6513507
0.27518323 0.074929394 1.0961351 6513507
0.32526082 0.074749172 1.0934991 6513507
0.37509754 0.075021915 1.0908755 6513507
0.42507726 0.074910991 1.0882456 6513507
0.4753758 0.075108655 1.0855985 6513507
0.5254612 0.075053722 1.0829625 6513507
0.57512474 0.075192988 1.0803483 6513507
0.62506992 0.075009957 1.0777191 6513507
0.67520487 0.07482639 1.0750804 6513507
0.7252003 0.074920669 1.0724498 6579300
0.77516603 0.074903369 1.0698186 6645093
0.82409227 0.075093061 1.0672441 6645093
-0.85849673 0.11498378 1.0898671 10197915
-0.82395786 0.11497866 1.0766327 10197915
-0.77504241 0.1149419 1.0753771 10197915
-0.72504669 0.11490278 1.0749868 10197915
-0.6749357 0.11486352 1.07462 10000536
-0.62493366 0.11482431 1.0743147 8026746
-0.57496578 0.11478526 1.0738877 8355711
-0.52495742 0.11474611 1.0735453 8816262
-0.47498322 0.11470708 1.0731302 9211020
-0.42496854 0.11466771 1.0728508 9605778
-0.3747662 0.11462859 1.0723869 10000536
-0.32474464 0.1145893 1.0720912 10197915
-0.27498162 0.11455037 1.0717155 10197915
-0.22502953 0.11451131 1.0713242 10197915
-0.17496344 0.11447216 1.0709351 10197915
-0.12402511 0.1144283 1.0729301 10197915
-0.074966542 0.11438691 1.0743397 10197915
-0.025219895 0.11434142 1.0778399 10197915
0.025002543 0.1143017 1.0777192 10197915
0.074983716 0.11426245 1.0774244 10197915
0.1249302 0.1142235 1.0769571 10197915
0.17499197 0.11418435 1.0765893 10197915
0.2260337 0.10909557 1.0920188 8750469
0.27513444 0.10883698 1.0903575 8816262
0.32516792 0.10862715 1.0882595 8947848
0.37504891 0.10886297 1.0858977 9211020
0.42510113 0.10862654 1.0839318 9342606
0.47513616 0.10841952 1.0817369 9474192
0.52491015 0.10834184 1.0796003 9605778
0.57513148 0.1084253 1.0772601 9868950
0.62508559 0.10819528 1.0751517 10000536
0.67521918 0.10798599 1.0728645 10132122
0.72480822 0.10800827 1.0705746 10197915
0.77515876 0.10794504 1.0682598 10197915
0.82379055 0.10762177 1.0662425 10197915
-0.41527051 -0.50308919 1.1314881 6513507
-0.37580571 -0.50266975 1.1294001 6513507
-0.32626194 -0.50206268 1.1267933 6513507
-0.27666816 -0.5014568 1.124184 6513507
-0.22743356 -0.50092518 1.1215938 6513507
-0.18409999 -0.50035226 1.1193143 6513507
-0.41441667 -0.47509471 1.1314822 6513507
-0.37475711 -0.47499168 1.1293932 6513507
-0.32484275 -0.47498426 1.1267653 6513507
-0.27522579 -0.47499385 1.1241543 6513507
-0.22489552 -0.47504511 1.121505 6513507
-0.17476368 -0.47501573 1.1188668 6513507
-0.1249874 -0.47470883 1.116248 6513507
-0.074857906 -0.47410819 1.1136085 6513507
-0.024948159 -0.47351128 1.1109849 6513507
0.025176385 -0.47294846 1.1083471 6513507
0.075034581 -0.47237995 1.105724 6513507
0.12463366 -0.47178668 1.1031145 6513507
0.1666888 -0.47112861 1.1009021 6513507
-0.41447383 -0.42505485 1.1315701 6513507
-0.37486315 -0.42497811 1.1294848 6513507
-0.32499173 -0.42498875 1.12686 6513507
-0.27532545 -0.42502779 1.1242464 6513507
-0.22492559 -0.42501909 1.1215922 6513507
-0.17477655 -0.42500493 1.1189545 6513507
-0.12487738 -0.42499408 1.1163274 6513507
-0.074764252 -0.42498928 1.1136893 6513507
-0.024901245 -0.42497602 1.1110656 6513507
0.025193119 -0.42500049 1.1084286 6513507
0.075083666 -0.42502475 1.1058029 6513507
0.12475346 -0.42501125 1.1031893 6513507
0.16754897 -0.42479986 1.1009369 6513507
-0.4143939 -0.37492442 1.131652 6513507
-0.3747386 -0.37502688 1.1295646 6513507
-0.32490182 -0.37502065 1.1269414 6513507
-0.27527866 -0.37501854 1.1243291 6513507
-0.22492537 -0.37500235 1.1216789 6513507
-0.17479107 -0.37499458 1.1190419 6513507
-0.12487921 -0.37498984 1.1164144 6513507
-0.074725538 -0.37499201 1.1137731 6513507
-0.024792118 -0.37497756 1.1111437 6513507
0.025281576 -0.37504569 1.1085113 6513507
0.075154088 -0.37495527 1.1058867 6513507
0.1248379 -0.37501591 1.1032705 6513507
0.16840142 -0.37482718 1.1009778 6513507
-0.41448212 -0.32492507 1.1317422 6513507
-0.37499872 -0.32502347 1.1296644 6513507
-0.32498971 -0.32498196 1.1270314 6513507
-0.27522206 -0.3250199 1.1244134 6513507
-0.22489154 -0.3250384 1.1217639 6513507
-0.17480329 -0.3249943 1.1191275 6513507
-0.1248711 -0.32496041 1.1164998 6513507
-0.074686669 -0.32497025 1.1138586 6513507
-0.024869956 -0.32502234 1.111236 6513507
0.024683712 -0.32499728 1.1086297 6513507
0.074587069 -0.32499757 1.1060017 6513507
0.12480922 -0.32497099 1.1033584 6513507
0.16926965 -0.32490611 1.1010199 6513507
-0.4145706 -0.27510446 1.1318336 6513507
-0.37479225 -0.27496958 1.1297399 6513507
-0.32502532 -0.27500731 1.1271214 6513507
-0.27540949 -0.27494988 1.1245095 6513507
-0.22489357 -0.27506664 1.1218501 6513507
-0.17480898 -0.27502149 1.1192136 6513507
-0.12485033 -0.27488938 1.1165873 6513507
-0.074772187 -0.27505112 1.1139479 6513507
-0.024947505 -0.27504164 1.1113276 6513507
0.024901664 -0.2749573 1.1087029 6513507
0.074749909 -0.27505046 1.1060796 6513507
0.12469858 -0.27493411 1.1034513 6513507
0.17001994 -0.27488714 1.1010656 6513507
-0.41449085 -0.22495161 1.1319159 6513507
-0.37502709 -0.22502904 1.1298394 6513507
-0.32495701 -0.22498974 1.1272032 6513507
-0.2753751 -0.22500533 1.1245936 6513507
-0.22497632 -0.22496632 1.1219412 6513507
-0.17480198 -0.22508433 1.1192995 6513507
-0.12490214 -0.22485293 1.1166764 6513507
-0.074847639 -0.22514109 1.1140386 6513507
-0.024759693 -0.22491869 1.1114043 6513507
0.024744149 -0.22502626 1.1087978 6513507
0.074719131 -0.22497848 1.1061682 6513507
0.12487752 -0.22507402 1.1035277 6513507
0.17084573 -0.2247604 1.101109 6513507
-0.41457859 -0.1749281 1.132007 6513507
-0.37488145 -0.17496 1.1299174 6513507
-0.32514995 -0.17500724 1.1272995 6513507
-0.27529454 -0.17508017 1.1246765 6513507
-0.22502615 -0.17481489 1.1220305 6513507
-0.17476223 -0.17519264 1.1193849 6513507
-0.12492852 -0.17488562 1.1167624 6513507
-0.074828729 -0.17506129 1.1141243 6513507
-0.024875756 -0.174982 1.1114955 6513507
0.024848673 -0.17497066 1.1088792 6513507
0.07463675 -0.17500623 1.1062583 6513507
0.12484059 -0.17508024 1.1036158 6513507
0.1716468 -0.17467788 1.101154 6513507
-0.41461086 -0.1252262 1.1320944 6513507
-0.37499735 -0.12499557 1.1300104 6513507
-0.32499358 -0.12504733 1.1273786 6513507
-0.27540267 -0.12488178 1.1247683 6513507
-0.22507794 -0.12494785 1.1221193 6513507
-0.17485653 -0.12522167 1.1194767 6513507
-0.12493829 -0.12492805 1.1168491 6513507
-0.074675508 -0.12484773 1.1142037 6513507
-0.024956945 -0.1251564 1.1115859 6513507
0.024799658 -0.1249652 1.1089681 6513507
0.074757196 -0.12506156 1.1063381 6513507
0.12481967 -0.12482924 1.1037047 6513507
0.17255281 -0.12488703 1.1011913 6513507
-0.4146457 -0.075047955 1.1321886 6513507
-0.37502688 -0.074909434 1.1300982 6513507
-0.32515046 -0.074985124 1.1274725 6513507
-0.27536282 -0.075081348 1.1248522 6513507
-0.22493026 -0.075179547 1.1221985 6513507
-0.17487034 -0.075138733 1.1195632 6513507
-0.12494785 -0.074962422 1.1169358 6513507
-0.074795514 -0.074785307 1.1142957 6513507
-0.024800954 -0.074968264 1.1116657 6513507
0.024801517 -0.07489299 1.1090552 6513507
0.074626528 -0.075072713 1.106432 6513507
0.1248292 -0.074994676 1.1037889 6513507
0.17337452 -0.075065084 1.1012344 6513507
-0.41468033 -0.024861537 1.1322832 6513507
-0.37505597 -0.024815438 1.1301858 6513507
-0.3245559 -0.025067408 1.1275277 6513507
-0.27497253 -0.025165807 1.1249186 6513507
-0.22504641 -0.025107032 1.1222897 6513507
-0.1748838 -0.025047977 1.1196512 6513507
-0.12495761 -0.024989191 1.1170211 6513507
-0.074801192 -0.024930174 1.1143833 6513507
-0.024881542 -0.024871398 1.1117572 6513507
0.024803441 -0.024812859 1.1091406 6513507
0.0747898 -0.025113739 1.1065094 6513507
0.12483909 -0.025152395 1.103875 6513507
0.17415561 -0.024946803 1.1012801 6513507
-0.41471189 0.024864079 1.1323707 6513507
-0.37508509 0.024818052 1.1302738 6513507
-0.32457384 0.025043663 1.1276156 6513507
-0.27499411 0.025168454 1.1250054 6513507
-0.2250641 0.025109675 1.1223776 6513507
-0.17489766 0.025050592 1.1197375 6513507
-0.12496741 0.024991797 1.1171116 6513507
-0.074807011 0.024932737 1.1144682 6513507
-0.024883395 0.024873935 1.1118423 6513507
0.024805387 0.024815446 1.1092272 6513507
0.074808836 0.025091531 1.106596 6513507
0.1248488 0.025155049 1.1039618 6513507
0.17474149 0.025095152 1.1013347 6513507
0.20006388 0.036913924 1.1000229 6513507
-0.41473588 0.075051181 1.1324587 6513507
-0.37511423 0.074927621 1.1303624 6513507
-0.32482353 0.075031929 1.1277144 6513507
-0.2745443 0.075042814 1.1250678 6513507
-0.22449842 0.075141065 1.1224344 6513507
-0.17491113 0.075157017 1.1198258 6513507
-0.12497721 0.074980594 1.1171983 6513507
-0.074812941 0.07480336 1.1145557 6513507
-0.024781412 0.074927054 1.1119225 6513507
0.024807367 0.074911028 1.1093132 6513507
0.074631482 0.075065643 1.1066909 6513507
0.12485839 0.075012796 1.1040469 6513507
0.17483264 0.075192221 1.101416 6513507
0.2007606 0.077924892 1.100057 6513507
-0.90349996 0.11493386 1.1407347 10197915
-0.87156719 0.11493412 1.1255229 10197915
-0.82496655 0.11490146 1.1229043 10197915
-0.77393574 0.11485694 1.1252487 10197915
-0.72499061 0.11481573 1.1265973 10197915
-0.67497426 0.11477661 1.1262133 8224125
-0.62499458 0.11473757 1.1258039 6513507
-0.57504809 0.11469845 1.1254466 6513507
-0.52505732 0.11465943 1.1250221 6513507
-0.47502264 0.11462005 1.1247501 6513507
-0.41931513 0.10999565 1.1277313 6513507
-0.37507257 0.10881855 1.1270971 6513507
-0.32474771 0.10858691 1.1249516 6579300
-0.27464646 0.10838223 1.1226554 6710886
-0.22502296 0.10842624 1.1203402 6842472
-0.17494369 0.10840417 1.118047 7039851
-0.1253529 0.10797609 1.1162797 7039851
-0.074818291 0.10756165 1.1142344 7105644
-0.025227955 0.10760701 1.1117539 7303023
0.024806563 0.10753422 1.1092542 7434609
0.074726738 0.10729059 1.1067342 7566195
0.12486454 0.10703541 1.104102 7763574
0.17448477 0.10713379 1.1014905 7960953
0.20126124 0.10758297 1.100082 8289918
-0.9166019 0.11488348 1.176826 10197915
-0.8750329 0.11485402 1.1746945 10197915
-0.82503068 0.11481488 1.1743119 10197915
-0.77614766 0.11477217 1.1765738 10197915
-0.72498792 0.11472837 1.178431 9539985
-0.67495906 0.11468926 1.1780297 6513507
-0.62496734 0.11465034 1.1775516 6513507
-0.57500744 0.11461111 1.1772277 6513507
-0.52498513 0.11457202 1.1768271 6513507
-0.47527647 0.11453357 1.1761888 6513507
-0.44549581 0.11452928 1.1646901 6513507
-0.96409106 0.1148325 1.2294456 10197915
-0.9259885 0.11481466 1.2220579 10197915
-0.8749795 0.11476792 1.2257235 10197915
-0.82505876 0.11472896 1.2252796 10197915
-0.77504569 0.1146896 1.2250254 10197915
-0.72493893 0.1146507 1.2244719 7500402
-0.67499191 0.1146117 1.2240552 6513507
-0.62495375 0.11457238 1.2237731 6513507
-0.57494956 0.11453352 1.2232205 6513507
-0.52363545 0.11448871 1.2256001 6513507
-0.48195785 0.114456 1.225336 6513507
-1.0096974 0.11478127 1.2813764 10197915
-0.97338259 0.11476592 1.2733452 10197915
-0.92497367 0.11472283 1.2760708 10197915
-0.87508696 0.1146838 1.2756875 10197915
-0.82502067 0.11464481 1.2752041 10197915
-0.77498937 0.11460558 1.2748687 9013641
-0.72499281 0.11456671 1.2743354 6513507
-0.67492175 0.11452764 1.2739012 6513507
-0.62499291 0.1144885 1.273566 6513507
-0.57499206 0.11444964 1.2730334 6513507
-0.5264107 0.11440768 1.2749968 6513507
-0.49130264 0.11438118 1.2741631 6513507
-1.055719 0.11472776 1.3348016 10197915
-1.0227449 0.1147258 1.3204201 10197915
-0.9760235 0.11467954 1.3258384 10197915
-0.92518288 0.11463155 1.3303113 10197915
-0.87500834 0.11459266 1.3297172 10197915
-0.82500762 0.11455324 1.3295075 9934743
-0.775038 0.11451469 1.3288124 6842472
-0.7249679 0.11447538 1.328499 6513507
-0.67492771 0.11443637 1.328046 6513507
-0.62492567 0.11439758 1.3274534 6513507
-0.57495427 0.11435837 1.3271408 6513507
-0.52649975 0.11432258 1.3255066 6513507
-0.49741328 0.1143292 1.3078933 6513507
-1.1029137 0.11467075 1.3909041 10197915
-1.0702344 0.11467319 1.3740278 10197915
-1.0247016 0.11464387 1.3699348 10197915
-0.97539753 0.11459555 1.3753499 10197915
-0.92479753 0.11455479 1.3756558 10197915
-0.87491864 0.11451592 1.3751891 10197915
-0.82487965 0.11447693 1.3747206 8224125
-0.77487832 0.11443778 1.3743562 6513507
-0.72490853 0.11439901 1.3737849 6513507
-0.6749714 0.11436006 1.3733175 6513507
-0.62411159 0.11431824 1.3741372 6513507
-0.57492685 0.11427093 1.3790178 6513507
-0.5353393 0.11424514 1.3756394 6513507
-1.1509205 0.114612 1.4484193 10197915
-1.119141 0.11461455 1.4319122 10197915
-1.0748694 0.11458995 1.4256268 10197915
-1.0249082 0.11455058 1.4253995 10197915
-0.97512519 0.11451214 1.424702 10197915
-0.92507869 0.11447305 1.4243474 10197915
-0.87506831 0.11443409 1.4238167 9605778
-0.8250922 0.11439518 1.4233783 6645093
-0.77499932 0.11435642 1.4227209 6513507
-0.72494423 0.11431703 1.4224077 6513507
-0.67491925 0.11427809 1.4219228 6513507
-0.62573296 0.11423881 1.422051 6513507
-0.57508397 0.11418813 1.4282089 6513507
-0.54432964 0.11417437 1.4218712 6513507
-1.1652141 0.11456406 1.4835907 10197915
-1.1249915 0.11454078 1.478462 10197915
-1.0752194 0.11450177 1.4780889 10197915
-1.0252706 0.11446289 1.4775875 10197915
-0.97495049 0.11442398 1.4769546 10197915
-0.92507428 0.11438518 1.4764533 10197915
-0.87502468 0.11434628 1.4758267 7434609
-0.82480401 0.11430707 1.4754462 6513507
-0.77482623 0.11426808 1.4750723 6513507
-0.72487986 0.11422937 1.4744424 6513507
-0.67496586 0.11419046 1.473941 6513507
-0.62508696 0.1141515 1.4735674 6513507
-0.57865244 0.11411803 1.471469 6513507
-1.2113776 0.11451017 1.5373317 10197915
-1.1749325 0.11449878 1.5269113 10197915
-1.1247834 0.11445977 1.5263914 10197915
-1.0750968 0.11442111 1.5258722 10197915
-1.0252279 0.11438231 1.5253587 10197915
-0.97497272 0.11434323 1.5248374 10197915
-0.9249599 0.11430432 1.5243186 9013641
-0.8749842 0.11426523 1.5239383 6513507
-0.82504249 0.11422664 1.5232828 6513507
-0.77513176 0.11418781 1.5227646 6513507
-0.72504681 0.11414887 1.5222454 6513507
-0.67499292 0.11410992 1.521726 6513507
-0.62497663 0.11407101 1.5212071 6513507
-0.58731192 0.11404638 1.5180719 6513507
-1.25836 0.11445481 1.5923651 10197915
-1.2237847 0.11444855 1.5797359 10197915
-1.1750729 0.11441288 1.5779181 10197915
-1.1250041 0.11437349 1.5776902 10197915
-1.0751865 0.11433501 1.577 10197915
-1.0251821 0.11429617 1.5764679 10197915
-0.97521532 0.11425732 1.5759286 10000536
-0.92527854 0.1142185 1.5753965 6908265
-0.87494177 0.11417915 1.5750085 6513507
-0.8248558 0.11414072 1.574164 6513507
-0.77502501 0.11410146 1.5739386 6513507
-0.72500765 0.11406288 1.5732499 6513507
-0.67480433 0.11402386 1.5727119 6513507
-0.62528747 0.11398566 1.5720184 6513507
-0.59547091 0.11398241 1.5598632 6513507
-1.271624 0.11440835 1.6261742 10197915
-1.2248218 0.114375 1.6239002 10197915
-1.1749735 0.11433604 1.6234783 10197915
-1.1248186 0.11429709 1.6229252 10197915
-1.0750418 0.11425865 1.6222488 10197915
-1.0238674 0.11421567 1.6236084 10197915
-0.97479606 0.1141652 1.6303915 7960953
-0.92471319 0.11412606 1.6300021 6513507
-0.87489557 0.11408705 1.6296241 6513507
-0.82511145 0.11404869 1.6288986 6513507
-0.77513152 0.11401019 1.6281766 6513507
-0.72496617 0.11397064 1.6279601 6513507
-0.67505366 0.11393217 1.6272335 6513507
-0.6325801 0.11390347 1.6242146 6513507
-1.3182707 0.11435506 1.6798176 10197915
-1.2749847 0.11433259 1.6727273 10197915
-1.2249089 0.11429401 1.6719723 10197915
-1.1751 0.11425569 1.6712257 10197915
-1.1250931 0.11421625 1.6710254 10197915
-1.0751184 0.11417778 1.670272 10197915
-1.0260091 0.11413808 1.670657 9671571
-0.97492701 0.11408337 1.6790148 6513507
-0.92487359 0.11404429 1.6785839 6513507
-0.87485534 0.11400572 1.6778722 6513507
-0.82487124 0.11396669 1.6774417 6513507
-0.77491951 0.11392816 1.6767308 6513507
-0.72500509 0.1138892 1.6763015 6513507
-0.67477196 0.11385021 1.6757276 6513507
-0.64153475 0.11382902 1.6726292 6513507
-1.3626901 0.11430768 1.7288374 10197915
-1.3253622 0.11428607 1.7240433 10197915
-1.2752841 0.11424697 1.7236097 10197915
-1.2252425 0.11420842 1.7228719 10197915
-1.1752337 0.1141694 1.7224389 10197915
-1.124898 0.11413036 1.72185 10197915
-1.0749615 0.11409188 1.7211139 10197915
-1.0250518 0.11405291 1.7206818 7697781
-0.97518134 0.11401452 1.7199465 6513507
-0.92534125 0.11397559 1.7195152 6513507
-0.87517619 0.11393669 1.7189286 6513507
-0.82471162 0.11389729 1.7184927 6513507
-0.77493525 0.11384101 1.7283987 6513507
-0.7248075 0.11380249 1.727604 6513507
-0.67731315 0.11376879 1.725197 6513507
-0.64804095 0.11377817 1.7058101 6513507
-1.407961 0.1142586 1.7793229 10197915
-1.3747015 0.11425087 1.7682116 10197915
-1.3251638 0.11421305 1.7672828 10197915
-1.2749492 0.11417468 1.7663565 10197915
-1.2241583 0.11411741 1.7763765 10197915
-1.1748798 0.11407803 1.7764757 10197915
-1.1249452 0.11403899 1.7760969 10197915
-1.0750408 0.11400069 1.7752707 8947848
-1.0251677 0.11396204 1.7746689 6513507
-0.97508389 0.11392285 1.7742862 6513507
-0.92503798 0.11388481 1.773243 6513507
-0.87502122 0.11384531 1.7730788 6513507
-0.8252809 0.11380677 1.7724766 6513507
-0.77519512 0.11374956 1.782799 6513507
-0.72509176 0.11371044 1.782359 6513507
-0.68689048 0.1136842 1.7799057 6513507
-1.4600015 0.11418402 1.8481315 10197915
-1.4231941 0.11418816 1.8283051 10197915
-1.3751601 0.11415551 1.8250175 10197915
-1.324819 0.11411732 1.8239187 10197915
-1.2747532 0.11407815 1.8235333 10197915
-1.2259507 0.11402258 1.8335028 10197915
-1.175149 0.11398123 1.8340614 10197915
-1.1249889 0.11394205 1.8336196 9803157
-1.0748717 0.11390356 1.8328122 6710886
-1.0251634 0.11386508 1.8321928 6513507
-0.97511387 0.11382604 1.8317523 6513507
-0.92471099 0.11378702 1.8311239 6513507
-0.87472707 0.11374862 1.8303186 6513507
-0.82477665 0.11370966 1.8298794 6513507
-0.77485847 0.11367129 1.8290746 6513507
-0.72497773 0.11363236 1.8286357 6513507
-0.69471204 0.11362092 1.8211387 6513507
-1.5049745 0.11413249 1.8999356 10197915
-1.4729548 0.11412671 1.8882502 10197915
-1.4249808 0.11409213 1.8861361 10197915
-1.3748876 0.11405304 1.885695 10197915
-1.3248351 0.11401466 1.8848554 10197915
-1.2748116 0.11397561 1.8844148 10197915
-1.2248251 0.11393728 1.8835758 10197915
-1.1748719 0.11389828 1.8831366 10197915
-1.124951 0.11386 1.8822987 7829367
-1.0750674 0.11382107 1.8818601 6513507
-1.0248206 0.1137822 1.8812171 6513507
-0.97500503 0.11374399 1.8803811 6513507
-0.92521936 0.11370513 1.8799427 6513507
-0.87507504 0.11366635 1.8793014 6513507
-0.82496858 0.11362823 1.8782693 6513507
-0.77489942 0.11358884 1.8780199 6513507
-0.73003882 0.11355667 1.8759453 6513507
-1.5157217 0.11409933 1.924683 10197915
-1.4748785 0.11406566 1.9253801 10197915
-1.4249408 0.11402705 1.9247286 10197915
-1.3750372 0.11398848 1.924077 10197915
-1.3214586 0.11393064 1.9331183 10197915
-1.2752382 0.11388896 1.9360291 10197915
-1.2250926 0.11385021 1.9353698 10197915
-1.1749854 0.11381219 1.9342841 9276813
-1.1249143 0.11377274 1.9340535 6513507
-1.0748708 0.11373407 1.9333959 6513507
-1.0248616 0.11369539 1.9327384 6513507
-0.97488606 0.11365678 1.9320818 6513507
-0.92495221 0.11361887 1.930999 6513507
-0.8750481 0.11357958 1.9307699 6513507
-0.82517439 0.11354104 1.9301146 6513507
-0.77493364 0.11350253 1.9292444 6513507
-0.739335 0.11348023 1.9256846 6513507
-1.5616524 0.11404741 1.9771639 10197915
-1.5252428 0.11403723 1.9660157 10197915
-1.4750588 0.11399772 1.9657942 10197915
-1.4249046 0.11395971 1.9646786 10197915
-1.3747791 0.11392096 1.9640111 10197915
-1.3294061 0.11387569 1.9694707 10197915
-1.2749547 0.11382049 1.976529 10197915
-1.2245858 0.11378158 1.9758533 10197915
-1.1750762 0.11374331 1.9751893 7434609
-1.1247756 0.11370447 1.9745145 6513507
-1.0745093 0.11366562 1.97384 6513507
-1.0251008 0.11362745 1.9731772 6513507
-0.97490263 0.11358865 1.9725034 6513507
-0.922777 0.11352693 1.9845101 6513507
-0.87500781 0.11348789 1.9851357 6513507
-0.82497907 0.11344961 1.9842302 6513507
-0.77653944 0.1134135 1.982808 6513507
-0.7482028 0.11341351 1.9694619 6513507
-1.6109737 0.11398397 2.0380161 10197915
-1.5743718 0.11397965 2.0233123 10197915
-1.5248125 0.1139418 2.0223882 10197915
-1.4753053 0.11390398 2.0214648 10197915
-1.424988 0.1138647 2.0210195 10197915
-1.3746998 0.1138263 2.0200858 10197915
-1.3248696 0.11378698 2.0198925 10197915
-1.275084 0.11374937 2.0187211 10197915
-1.225318 0.11371097 2.0180395 9276813
-1.1751695 0.11367182 2.0175972 6513507
-1.1250535 0.11363351 2.0166655 6513507
-1.0749751 0.11359445 2.0162237 6513507
-1.0249255 0.11355621 2.0152936 6513507
-0.97491723 0.1135172 2.0148516 6513507
-0.92824996 0.11346406 2.0243628 6513507
-0.87540591 0.11341613 2.0278633 6513507
-0.82471412 0.11337699 2.0271635 6513507
-0.78334093 0.11334506 2.0265927 6513507
-1.6601036 0.11392014 2.0990694 10197915
-1.6238375 0.11391656 2.0840788 10197915
-1.5749164 0.11388069 2.0822849 10197915
-1.5247909 0.11384158 2.0818467 10197915
-1.4746996 0.11380337 2.0808716 10197915
-1.4246442 0.11376429 2.0804336 10197915
-1.3746182 0.11372616 2.0794599 10197915
-1.3246332 0.11368715 2.0790231 10197915
-1.2746726 0.11364907 2.0780499 9868950
-1.2247577 0.1136101 2.0776138 6842472
-1.1748624 0.11357206 2.0766423 6513507
-1.1250174 0.11353315 2.0762067 6513507
-1.0747617 0.11349438 2.0754974 6513507
-1.0249723 0.11345643 2.0745275 6513507
-0.97522473 0.1134176 2.0740933 6513507
-0.9250713 0.11337889 2.0733857 6513507
-0.8749519 0.11334024 2.0726786 6513507
-0.82530808 0.11330239 2.0717111 6513507
-0.79148489 0.11328532 2.0658925 6513507
-1.6728425 0.11387679 2.1308022 10197915
-1.6255351 0.11384033 2.1301198 10197915
-1.5755831 0.11380181 2.1293991 10197915
-1.5256647 0.11376332 2.128679 10197915
-1.4757801 0.11372488 2.1279595 10197915
-1.4250394 0.11368576 2.1272275 10197915
-1.3743333 0.11364668 2.1264961 10197915
-1.3245509 0.11360829 2.125778 10197915
-1.2748021 0.11356994 2.1250603 8158332
-1.2250865 0.11353161 2.1243434 6513507
-1.1754049 0.11349332 2.1236267 6513507
-1.1248707 0.11345436 2.1228979 6513507
-1.0743707 0.11341541 2.1221693 6513507
-1.0247908 0.1133772 2.1214538 6513507
-0.97524393 0.11333901 2.1207392 6513507
-0.92484683 0.11330014 2.1200123 6513507
-0.87448412 0.11326132 2.1192858 6513507
-0.8259213 0.11322388 2.1185851 6513507
-1.7199806 0.11381964 2.1869509 8289918
-1.6753312 0.11379569 2.1801143 9211020
-1.625103 0.113757 2.179373 9408399
-1.5744572 0.11371849 2.1783211 9737364
-1.5247551 0.11367966 2.177892 10000536
-1.4750867 0.11364191 2.1768548 10197915
-1.4249923 0.11360331 2.1761155 10197915
-1.3749481 0.11356375 2.1759853 10197915
-1.3249232 0.11352622 2.1746387 9539985
-1.27493 0.11348773 2.1739013 6579300
-1.224979 0.11344823 2.1737716 6513507
-1.1750648 0.1134108 2.1724272 6513507
-1.1251731 0.11337235 2.1716912 6513507
-1.0748703 0.1133331 2.1712525 6513507
-1.0245956 0.11329487 2.170207 6513507
-0.97480994 0.11325551 2.1700792 6513507
-0.92506915 0.1132182 2.1687384 6513507
-0.87534696 0.1131799 2.1680045 6513507
-0.83492225 0.11315421 2.1641765 6513507
-1.7630764 0.11377668 2.2327795 6579300
-1.724704 0.11374716 2.2321994 6579300
-1.6751289 0.11370899 2.2314508 6579300
-1.625587 0.11367086 2.2307024 6579300
-1.5751444 0.11363202 2.2299404 6579300
-1.5247365 0.11359319 2.2291787 6513507
-1.4743629 0.11355447 2.2284181 6908265
-1.4249554 0.11351641 2.2276716 7434609
-1.3755809 0.11347841 2.2269254 8026746
-1.325309 0.11343972 2.226166 6974058
-1.2750717 0.11340103 2.2254071 6513507
-1.2248682 0.11336236 2.2246487 6513507
-1.1746991 0.11332375 2.223891 6513507
-1.1245641 0.1132852 2.2231338 6513507
-1.0744632 0.11324663 2.2223768 6513507
-1.0243964 0.11320806 2.2216206 6513507
-0.97436374 0.11316954 2.2208648 6513507
-0.92436498 0.11313106 2.2201095 6513507
-0.87440026 0.11309262 2.2193544 6513507
-0.84480637 0.11306983 2.2189076 6513507
-1.8020831 0.1137465 2.2690825 6579300
-1.7744918 0.1137253 2.2686594 6579300
-1.7250409 0.11368724 2.2679005 6513507
-1.6756229 0.11364923 2.2671418 6579300
-1.625289 0.11361051 2.2663696 6579300
-1.5749891 0.11357181 2.2655976 6513507
-1.5247233 0.11353312 2.2648261 6513507
-1.4744916 0.11349449 2.2640548 6579300
-1.421047 0.11343614 2.2734506 6513507
-1.3752941 0.11338776 2.28057 6513507
-1.3252416 0.11334871 2.2801425 6513507
-1.2752123 0.1133108 2.2790222 6513507
-1.2252307 0.11327177 2.2785952 6513507
-1.1752661 0.11323394 2.2774758 6513507
-1.1248777 0.11319398 2.2773888 6513507
-1.0745157 0.11315644 2.2759168 6513507
-1.0246577 0.1131175 2.2754917 6513507
-0.97484183 0.11307977 2.2743754 6513507
-0.92505372 0.11304089 2.2739508 6513507
-0.87990177 0.11301202 2.2697628 6513507
-1.8574629 0.11366273 2.3449297 6513507
-1.821749 0.11366218 2.3284159 6513507
-1.7747728 0.11363128 2.3245752 6513507
-1.7245911 0.11359333 2.3234131 6513507
-1.6744499 0.11355419 2.3229978 6513507
-1.6248221 0.113516 2.322217 6513507
-1.5752276 0.11347788 2.3214374 6513507
-1.5251936 0.11344004 2.3202777 6513507
-1.475175 0.11340097 2.319864 6513507
-1.4288807 0.11335836 2.3233056 6513507
-1.3749976 0.11329197 2.3372805 6513507
-1.325166 0.11325366 2.3364904 6513507
-1.2753682 0.11321538 2.3357008 6513507
-1.224628 0.1131764 2.3348963 6513507
-1.1748978 0.11313819 2.3341076 6513507
-1.1252013 0.11309998 2.3333201 6513507
-1.0745648 0.11306106 2.3325171 6513507
-1.0249358 0.11302294 2.3317306 6513507
-0.97534055 0.11298481 2.3309441 6513507
-0.92480701 0.11294599 2.3301427 6513507
-0.89081246 0.11291987 2.3296041 6513507
-1.7031913 -1.0621129 2.399807 6513507
-1.6756532 -1.0614489 2.3983583 6513507
-1.6247293 -1.0609837 2.3956795 6513507
-1.5749278 -1.0603786 2.393059 6513507
-1.5251125 -1.0596529 2.3904383 6513507
-1.4753308 -1.0593083 2.3878188 6513507
-1.4252125 -1.0584224 2.3851819 6513507
-1.3749751 -1.0581254 2.3825395 6513507
-1.3259523 -1.0573995 2.3799589 6513507
-1.2754338 -1.0567847 2.3773022 6513507
-1.2255555 -1.0563364 2.3746777 6513507
-1.174625 -1.0554758 2.3719993 6513507
-1.124926 -1.0552274 2.3693824 6513507
-1.076896 -1.0544063 2.3668561 6513507
-1.0254775 -1.0538768 2.3641505 6513507
-0.97705656 -1.0533421 2.3616028 6513507
-0.92579257 -1.0525424 2.3589065 6513507
-0.89754182 -1.0528291 2.3574188 6513507
-1.7029454 -1.026695 2.3998549 6513507
-1.6750605 -1.0247242 2.3983905 6513507
-1.624812 -1.0252398 2.3957446 6513507
-1.5742934 -1.0248916 2.3930862 6513507
-1.5251516 -1.0250179 2.3904996 6513507
-1.4750906 -1.025071 2.3878641 6513507
-1.42484 -1.0248584 2.3852203 6513507
-1.3752557 -1.0251391 2.3826096 6513507
-1.3249439 -1.0249048 2.3799622 6513507
-1.2756475 -1.0250528 2.3773682 6513507
-1.2246659 -1.0248944 2.3746848 6513507
-1.1742643 -1.0250417 2.3720315 6513507
-1.1251053 -1.0250224 2.3694439 6513507
-1.0754447 -1.0250362 2.3668308 6513507
-1.0257412 -1.0249431 2.3642147 6513507
-0.97522581 -1.0250208 2.3615551 6513507
-0.92564964 -1.0249295 2.3589466 6513507
-0.89702988 -1.02367 2.3574426 6513507
-1.7021573 -0.97535974 2.3999023 6513507
-1.6753258 -0.9747864 2.3984916 6513507
-1.6250378 -0.9752506 2.3958435 6513507
-1.5743177 -0.97477913 2.3931746 6513507
-1.5254092 -0.97524369 2.390599 6513507
-1.4748163 -0.97481942 2.3879368 6513507
-1.4251598 -0.97515142 2.3853228 6513507
-1.3748155 -0.97484303 2.3826737 6513507
-1.3253058 -0.97510183 2.3800681 6513507
-1.2753704 -0.97490364 2.37744 6513507
-1.2248904 -0.97498953 2.374783 6513507
-1.1745393 -0.97507435 2.3721328 6513507
-1.1248345 -0.97500151 2.3695164 6513507
-1.0759258 -0.97501731 2.3669419 6513507
-1.025295 -0.97503453 2.3642774 6513507
-0.97571611 -0.97491771 2.3616679 6513507
-0.92532754 -0.97509128 2.359015 6513507
-0.89659762 -0.97473204 2.3575039 6513507
-1.7011877 -0.92566073 2.3999374 6513507
-1.675387 -0.92513722 2.3985796 6513507
-1.624813 -0.9249078 2.3959184 6513507
-1.5745118 -0.92507261 2.3932695 6513507
-1.5252011 -0.92493832 2.3906753 6513507
-1.4751041 -0.92502898 2.3880389 6513507
-1.4250281 -0.92495573 2.3854022 6513507
-1.3751123 -0.92496437 2.3827748 6513507
-1.3253646 -0.9250536 2.3801589 6513507
-1.2755204 -0.92494053 2.3775337 6513507
-1.2251153 -0.92508036 2.374881 6513507
-1.1742661 -0.92499441 2.372205 6513507
-1.1252104 -0.92500508 2.3696225 6513507
-1.0755374 -0.92504972 2.3670075 6513507
-1.0257729 -0.92494947 2.3643897 6513507
-0.9752686 -0.92506236 2.3617303 6513507
-0.92578173 -0.92492294 2.3591249 6513507
-0.89663088 -0.92495561 2.3575916 6513507
-1.7012259 -0.89585292 2.3999906 6513507
-1.6755576 -0.87535834 2.398675 6513507
-1.6247915 -0.8747164 2.3960037 6513507
-1.5747538 -0.87527806 2.3933694 6513507
-1.5251876 -0.87474972 2.3907621 6513507
-1.4753997 -0.87519407 2.3881404 6513507
-1.424971 -0.87479639 2.3854876 6513507
-1.3754125 -0.87516057 2.3828776 6513507
-1.3251711 -0.87488437 2.3802335 6513507
-1.2758448 -0.87508821 2.3776364 6513507
-1.2247998 -0.87494224 2.3749504 6513507
-1.1746967 -0.87505543 2.3723135 6513507
-1.1249011 -0.87497866 2.3696923 6513507
-1.075971 -0.87498444 2.3671176 6513507
-1.0254145 -0.87503409 2.3644557 6513507
-0.97567731 -0.87491357 2.3618388 6513507
-0.92536527 -0.87511939 2.3591897 6513507
-0.89666438 -0.87517536 2.3576798 6513507
-1.6750532 -0.82547861 2.3987348 6513507
-1.6250156 -0.82491356 2.3961024 6513507
-1.5746298 -0.82499224 2.3934495 6513507
-1.52538 -0.8250894 2.390857 6513507
-1.4749749 -0.82477695 2.3882046 6513507
-1.4251591 -0.82524562 2.3855824 6513507
-1.3749661 -0.82485467 2.382941 6513507
-1.3252279 -0.82492954 2.3803234 6513507
-1.2751024 -0.82510573 2.3776848 6513507
-1.2252756 -0.82506019 2.375062 6513507
-1.1742855 -0.82497185 2.3723781 6513507
-1.1253151 -0.8249737 2.3698008 6513507
-1.0756524 -0.82500875 2.3671877 6513507
-1.0257553 -0.8249442 2.3645608 6513507
-0.97545105 -0.82504725 2.3619127 6513507
-0.92562658 -0.82494724 2.3592913 6513507
-0.89673728 -0.82489431 2.3577702 6513507
-1.6739876 -0.7750358 2.3987653 6513507
-1.6250767 -0.77530921 2.3961904 6513507
-1.574506 -0.77470291 2.3935294 6513507
-1.5256523 -0.77525771 2.3909576 6513507
-1.4752694 -0.77473694 2.3883064 6513507
-1.425409 -0.7751537 2.3856823 6513507
-1.3752664 -0.77500367 2.3830428 6513507
-1.3242342 -0.77488673 2.380357 6513507
-1.2747632 -0.77516836 2.377753 6513507
-1.2248263 -0.77491772 2.3751254 6513507
-1.1748018 -0.77506196 2.3724921 6513507
-1.124519 -0.77468371 2.3698454 6513507
-1.0755891 -0.77518719 2.3672698 6513507
-1.0255861 -0.77501744 2.3646381 6513507
-0.97562051 -0.77501291 2.3620088 6513507
-0.92579484 -0.77496785 2.359385 6513507
-0.89669222 -0.77512443 2.3578537 6513507
-1.6733407 -0.72472775 2.3988187 6513507
-1.62537 -0.72533756 2.3962917 6513507
-1.5747471 -0.72489774 2.3936291 6513507
-1.5253195 -0.72481811 2.3910275 6513507
-1.4753245 -0.72529137 2.3883951 6513507
-1.4250662 -0.72478473 2.3857503 6513507
-1.3755666 -0.72514808 2.3831444 6513507
-1.3244635 -0.72485268 2.380455 6513507
-1.2746649 -0.72496021 2.3778346 6513507
-1.2251937 -0.7251479 2.3752306 6513507
-1.1743577 -0.72497249 2.3725553 6513507
-1.1244413 -0.72501475 2.3699274 6513507
-1.0747761 -0.72494262 2.3673134 6513507
-1.0257297 -0.72496301 2.3647306 6513507
-0.97576213 -0.72501361 2.3621023 6513507
-0.9255659 -0.72515017 2.3594592 6513507
-0.89676505 -0.72483605 2.357944 6513507
-1.6726049 -0.67480487 2.3988655 6513507
-1.6250719 -0.67485911 2.3963637 6513507
-1.5748056 -0.67533922 2.3937178 6513507
-1.5255119 -0.67465228 2.391124 6513507
-1.4755979 -0.6751644 2.3884962 6513507
-1.4253191 -0.67509717 2.3858497 6513507
-1.3751202 -0.67483312 2.3832078 6513507
-1.3247528 -0.6751678 2.3805561 6513507
-1.2747843 -0.67482531 2.3779273 6513507
-1.225094 -0.67499018 2.3753119 6513507
-1.1747808 -0.6751346 2.3726633 6513507
-1.123996 -0.67497808 2.3699906 6513507
-1.0750515 -0.67490304 2.3674147 6513507
-1.0257679 -0.67502505 2.3648207 6513507
-0.97559148 -0.67513549 2.3621793 6513507
-0.92596471 -0.67488402 2.3595667 6513507
-0.89679861 -0.67504096 2.3580327 6513507
-1.6715497 -0.6250388 2.3988965 6513507
-1.6250319 -0.62471271 2.3964489 6513507
-1.5751065 -0.62527609 2.3938203 6513507
-1.5252292 -0.62486196 2.3911951 6513507
-1.4748577 -0.6249612 2.3885431 6513507
-1.4256124 -0.62519819 2.3859518 6513507
-1.3754205 -0.62500924 2.3833106 6513507
-1.3243244 -0.62490499 2.3806217 6513507
-1.2750704 -0.62509221 2.3780274 6513507
-1.2252114 -0.62490445 2.3754044 6513507
-1.1745578 -0.62503374 2.3727381 6513507
-1.1245215 -0.62503219 2.3701043 6513507
-1.0748841 -0.62491149 2.3674915 6513507
-1.0258062 -0.62508214 2.3649092 6513507
-0.97596627 -0.62496686 2.3622854 6513507
-0.92552906 -0.62506515 2.3596318 6513507
-0.89683175 -0.62524188 2.3581204 6513507
-1.6699326 -0.5756768 2.3988974 6513507
-1.6242896 -0.57485414 2.3964958 6513507
-1.574683 -0.5747329 2.3938842 6513507
-1.524825 -0.57533419 2.3912594 6513507
-1.4744672 -0.57494134 2.3886087 6513507
-1.4251862 -0.57482117 2.3860168 6513507
-1.3757215 -0.57518125 2.3834116 6513507
-1.3246118 -0.57501537 2.3807216 6513507
-1.2746408 -0.57488245 2.3780921 6513507
-1.2254547 -0.57500696 2.3755035 6513507
-1.1747328 -0.57507622 2.372834 6513507
-1.124082 -0.57498926 2.3701675 6513507
-1.0750666 -0.57482541 2.3675883 6513507
-1.0258442 -0.57513678 2.3649971 6513507
-0.97553205 -0.57508868 2.3623486 6513507
-0.92579997 -0.57483375 2.3597307 6513507
-0.89686584 -0.57446283 2.3582098 6513507
-1.6693288 -0.52575004 2.3989511 6513507
-1.62435 -0.52523148 2.3965845 6513507
-1.574983 -0.52466208 2.3939869 6513507
-1.524516 -0.52483982 2.391331 6513507
-1.4745595 -0.52543956 2.3887005 6513507
-1.4254791 -0.52491444 2.3861182 6513507
-1.3752741 -0.52485645 2.3834758 6513507
-1.3248895 -0.52508223 2.3808239 6513507
-1.2749267 -0.52514189 2.3781939 6513507
-1.2251011 -0.52484614 2.3755708 6513507
-1.174777 -0.52496094 2.3729224 6513507
-1.1245259 -0.52515513 2.3702772 6513507
-1.075031 -0.52482331 2.3676724 6513507
-1.0258828 -0.5251869 2.3650846 6513507
-0.9759804 -0.52483165 2.3624601 6513507
-0.925834 -0.52499515 2.3598194 6513507
-0.89689934 -0.52465641 2.3582969 6513507
-1.6682097 -0.4750753 2.3989792 6513507
-1.6244854 -0.47552013 2.396677 6513507
-1.5750406 -0.47508976 2.3940768 6513507
-1.5247546 -0.47456464 2.3914301 6513507
-1.4745389 -0.4749898 2.3887863 6513507
-1.4246187 -0.475373 2.3861582 6513507
-1.3745563 -0.47497076 2.3835237 6513507
-1.3244805 -0.47480932 2.3808887 6513507
-1.2749746 -0.47491136 2.3782825 6513507
-1.2254225 -0.47529328 2.3756742 6513507
-1.1748214 -0.47484219 2.3730111 6513507
-1.1242489 -0.47510114 2.3703492 6513507
-1.0746762 -0.4745135 2.3677418 6513507
-1.0255294 -0.47546834 2.3651528 6513507
-0.97565913 -0.47494397 2.3625288 6513507
-0.92586893 -0.475153 2.3599079 6513507
-0.89693284 -0.47484657 2.3583851 6513507
-1.6676403 -0.42453858 2.3990369 6513507
-1.6245027 -0.42502305 2.3967657 6513507
-1.5750996 -0.42551363 2.3941641 6513507
-1.5248114 -0.42504326 2.3915186 6513507
-1.4746323 -0.4245742 2.3888779 6513507
-1.4244614 -0.42497864 2.3862364 6513507
-1.3748329 -0.42523575 2.3836238 6513507
-1.3247604 -0.42514491 2.3809884 6513507
-1.2750223 -0.42467752 2.3783715 6513507
-1.2253222 -0.42511854 2.3757553 6513507
-1.1749963 -0.42487282 2.3731065 6513507
-1.1244485 -0.42522633 2.3704455 6513507
-1.0741457 -0.42475161 2.3677993 6513507
-1.0249563 -0.42526674 2.3652084 6513507
-0.97587562 -0.42480257 2.3626263 6513507
-0.92610276 -0.42502734 2.3600061 6513507
-0.89696604 -0.42503273 2.3584733 6513507
-1.6667886 -0.37470365 2.3990779 6513507
-1.6244254 -0.37448382 2.3968487 6513507
-1.575232 -0.37502259 2.3942587 6513507
-1.5248675 -0.37551829 2.391607 6513507
-1.4746879 -0.37510386 2.3889666 6513507
-1.4246185 -0.37469003 2.3863325 6513507
-1.3744355 -0.3749015 2.3836899 6513507
-1.3248101 -0.37485185 2.3810787 6513507
-1.2750694 -0.37542483 2.378459 6513507
-1.2254398 -0.37501258 2.3758481 6513507
-1.1747744 -0.37475404 2.3731821 6513507
-1.1244928 -0.3751559 2.3705349 6513507
-1.0741861 -0.37473723 2.367887 6513507
-1.0250684 -0.37522304 2.3653021 6513507
-0.97591287 -0.37489718 2.3627148 6513507
-0.92550427 -0.37500975 2.3600614 6513507
-0.89681566 -0.37640992 2.3585494 6513507
-1.6659056 -0.32512733 2.3991168 6513507
-1.6245937 -0.32471907 2.3969429 6513507
-1.5751437 -0.32445189 2.394341 6513507
-1.5249249 -0.32499927 2.3916967 6513507
-1.4749035 -0.32541841 2.3890631 6513507
-1.4246715 -0.32527101 2.3864193 6513507
-1.3747102 -0.32491228 2.3837912 6513507
-1.3248601 -0.32455492 2.3811681 6513507
-1.2751178 -0.32518312 2.3785484 6513507
-1.225486 -0.32482585 2.3759372 6513507
-1.1750876 -0.32528394 2.3732836 6513507
-1.1245322 -0.32508206 2.3706236 6513507
-1.0742261 -0.32471916 2.3679755 6513507
-1.0249621 -0.32526407 2.365382 6513507
-0.97594905 -0.32498845 2.3628027 6513507
-0.92497551 -0.32461941 2.3601198 6513507
-0.89606237 -0.32505286 2.3585987 6513507
-1.6651922 -0.27567574 2.3991649 6513507
-1.6246537 -0.27507794 2.3970327 6513507
-1.5752771 -0.27477983 2.3944347 6513507
-1.5249822 -0.27447614 2.391788 6513507
-1.4746412 -0.2749618 2.3891368 6513507
-1.4247252 -0.2748591 2.3865099 6513507
-1.3747997 -0.27550131 2.3838804 6513507
-1.3249087 -0.27524054 2.3812561 6513507
-1.2751648 -0.27493799 2.378638 6513507
-1.2255322 -0.27463606 2.3760269 6513507
-1.174865 -0.27515882 2.3733587 6513507
-1.1245726 -0.27500385 2.3707118 6513507
-1.0742655 -0.27469683 2.3680646 6513507
-1.0244073 -0.27506995 2.3654387 6513507
-0.97523189 -0.27525526 2.3628507 6513507
-0.92500913 -0.27476349 2.3602097 6513507
-0.89604348 -0.27524564 2.3586829 6513507
-1.6644319 -0.22605708 2.3992105 6513507
-1.6247139 -0.22543322 2.3971212 6513507
-1.5753354 -0.22518885 2.3945222 6513507
-1.5250388 -0.22493994 2.3918762 6513507
-1.4748532 -0.2246916 2.3892353 6513507
-1.4247788 -0.22444372 2.3865993 6513507
-1.3747755 -0.22514412 2.3839664 6513507
-1.3249586 -0.22493613 2.3813448 6513507
-1.2753906 -0.22492883 2.3787365 6513507
-1.2255769 -0.2254263 2.3761139 6513507
-1.1750408 -0.22517399 2.3734543 6513507
-1.1246183 -0.22492234 2.3707995 6513507
-1.0743068 -0.22467113 2.3681531 6513507
-1.0240051 -0.22528626 2.3655043 6513507
-0.97413164 -0.22504544 2.362879 6513507
-0.92416459 -0.22500257 2.3602498 6513507
-0.8961032 -0.22475849 2.3587739 6513507
-1.6636781 -0.1753114 2.3992589 6513507
-1.6249762 -0.17548774 2.3972208 6513507
-1.5753934 -0.17559429 2.3946111 6513507
-1.5250955 -0.17540015 2.3919647 6513507
-1.4749068 -0.17520656 2.3893237 6513507
-1.4248314 -0.17501321 2.3866882 6513507
-1.3748645 -0.17482048 2.3840585 6513507
-1.3250086 -0.17462817 2.3814352 6513507
-1.2750797 -0.17468883 2.3788064 6513507
-1.2256231 -0.17522885 2.3762016 6513507
-1.1750848 -0.17503253 2.3735428 6513507
-1.1246542 -0.17483695 2.3708901 6513507
-1.0743474 -0.17464179 2.3682411 6513507
-1.0243045 -0.17522527 2.3656065 6513507
-0.97405714 -0.17523126 2.362962 6513507
-0.92408037 -0.1750364 2.3603325 6513507
-0.89613646 -0.17492723 2.358861 6513507
-1.6628953 -0.12439193 2.3993053 6513507
-1.6246372 -0.12485735 2.3972912 6513507
-1.5754535 -0.12500398 2.3947022 6513507
-1.5251535 -0.12486581 2.3920553 6513507
-1.4751784 -0.12537962 2.3894236 6513507
-1.4248838 -0.12557912 2.3867762 6513507
-1.374915 -0.12544073 2.3841462 6513507
-1.3250575 -0.12530269 2.3815231 6513507
-1.2753085 -0.12516488 2.3789039 6513507
-1.225669 -0.12502743 2.3762922 6513507
-1.1751285 -0.1248875 2.3736317 6513507
-1.1246991 -0.12474791 2.3709779 6513507
-1.0743858 -0.12460855 2.368331 6513507
-1.0240283 -0.12525909 2.3656783 6513507
-0.97409284 -0.12530974 2.36305 6513507
-0.92411417 -0.12517023 2.3604198 6513507
-0.89616978 -0.12509225 2.3589489 6513507
-1.6620018 -0.074551299 2.3993442 6513507
-1.6248975 -0.074490659 2.3973925 6513507
-1.575513 -0.074409835 2.3947926 6513507
-1.525211 -0.074327655 2.3921452 6513507
-1.4748061 -0.074913599 2.3894908 6513507
-1.4249375 -0.075152464 2.3868654 6513507
-1.3749672 -0.075069673 2.3842359 6513507
-1.3251066 -0.074986957 2.3816118 6513507
-1.2746074 -0.074699596 2.3789544 6513507
-1.224983 -0.075028688 2.3763413 6513507
-1.1751726 -0.07473851 2.3737206 6513507
-1.1247466 -0.074655041 2.3710668 6513507
-1.0744263 -0.074571617 2.3684187 6513507
-1.0244222 -0.075186528 2.3657856 6513507
-0.97412997 -0.075384401 2.363137 6513507
-0.92414862 -0.075300455 2.3605082 6513507
-0.89620328 -0.075253554 2.3590372 6513507
-1.6612095 -0.025150146 2.3993886 6513507
-1.6249578 -0.02483104 2.3974807 6513507
-1.5755717 -0.024804095 2.394881 6513507
-1.5252671 -0.024776716 2.3922336 6513507
-1.4750733 -0.024749337 2.3895915 6513507
-1.4249917 -0.024722025 2.386956 6513507
-1.3750186 -0.024694791 2.3843262 6513507
-1.3251569 -0.024667613 2.3817017 6513507
-1.27439 -0.024639919 2.3790288 6513507
