# .PCD v0.7 - Point Cloud Data file format
VERSION 0.7
FIELDS x y z rgb
SIZE 4 4 4 4
TYPE F F F U
COUNT 1 1 1 1
WIDTH 1189
HEIGHT 1
VIEWPOINT 0 0 0 1 0 0 0
POINTS 1189
DATA ascii
0.074388377 -0.57500279 1.4251584 2960685
0.1008231 -0.57493037 1.4485965 2960685
0.048209246 -0.52487373 1.4019889 2960685
0.074391842 -0.52502489 1.4252034 2960685
0.10083406 -0.52483457 1.4486499 2960685
0.04821077 -0.47493786 1.4020332 2960685
0.074404448 -0.47499937 1.4252589 2960685
0.10082186 -0.47503939 1.4486822 2960685
0.048212323 -0.42499861 1.4020786 2960685
0.074398056 -0.42498642 1.4252975 2960685
0.10083278 -0.42493707 1.4487356 2960685
0.047859587 -0.37315884 1.4018106 2960685
0.074412994 -0.37499946 1.4253525 2960685
0.10084374 -0.3748309 1.448789 2960685
0.047616996 -0.32489091 1.4016376 2960685
0.074389778 -0.32499364 1.4253745 2960685
0.10083154 -0.32502753 1.4488213 2960685
0.047608148 -0.27481693 1.4016734 2960685
0.074431524 -0.27500013 1.4254596 2960685
0.1008425 -0.27491507 1.4488747 2960685
0.047620032 -0.22473802 1.401727 2960685
0.07439585 -0.22500318 1.425467 2960685
0.10084564 -0.22510126 1.4489199 2960685
0.047621556 -0.17480175 1.4017714 2960685
0.074431509 -0.17500283 1.4255428 2960685
0.10084885 -0.17528436 1.4489664 2960685
0.047623079 -0.12486234 1.4018162 2960685
0.074397072 -0.1250145 1.4255564 2960685
0.10085209 -0.1248641 1.4490126 2960685
0.047624599 -0.074919745 1.4018608 2960685
0.074424662 -0.075037949 1.4256222 2960685
0.10085534 -0.075040847 1.449059 2960685
0.047626108 -0.024973961 1.4019059 2960685
0.074410126 -0.025029017 1.4256566 2960685
0.10085855 -0.025214439 1.4491056 2960685
0.047627639 0.024975028 1.4019507 2960685
0.074413069 0.025030077 1.4256994 2960685
0.10086183 0.025215527 1.4491522 2960685
0.047629166 0.074927203 1.4019958 4144959
0.07443203 0.075045496 1.4257603 4210752
0.10086501 0.075048327 1.4491987 4210752
0.04763015 0.10687494 1.4020246 10197915
0.075498156 0.10781895 1.4242972 10197915
0.12215452 0.11270499 1.4299932 10197915
0.17497109 0.11349587 1.4268581 10197915
0.22512266 0.11344852 1.4261737 10197915
0.2750836 0.11340094 1.4257085 10197915
0.32500401 0.11335371 1.4250711 10197915
0.37503111 0.11330629 1.424475 10197915
0.42501563 0.11325878 1.4239649 10197915
0.47510204 0.11321167 1.4231573 10197915
0.52515018 0.11316405 1.4226863 10197915
0.57515502 0.11311657 1.4221331 10197915
0.62354499 0.11306695 1.42374 10197915
0.67529142 0.11300921 1.4281491 10197915
0.72528112 0.11296186 1.4275502 10197915
0.77522534 0.11291452 1.4269525 10197915
0.82513136 0.11286723 1.4263545 10197915
0.87499225 0.11282001 1.4257579 10197915
0.92500985 0.11277263 1.4251587 10197915
0.97498268 0.11272505 1.4246758 10197915
1.024914 0.11267795 1.4239628 10197915
1.0748057 0.11263067 1.423365 10197915
1.1170774 0.11258459 1.4263523 10197915
0.12549525 -0.61826903 1.4704353 9013641
0.15431476 -0.61826813 1.4959882 8947848
0.12550826 -0.57501626 1.4704833 2960685
0.15432732 -0.57498795 1.4960369 2960685
0.12546481 -0.52501023 1.470489 2960685
0.1543372 -0.52497929 1.4960892 2960685
0.12553065 -0.47500226 1.4705913 2960685
0.1543469 -0.47496656 1.4961417 2960685
0.12550713 -0.42500788 1.470613 2960685
0.15432775 -0.42495143 1.4961683 2960685
0.12551367 -0.37501025 1.4706624 2960685
0.15435196 -0.37502128 1.4962331 2960685
0.1254985 -0.32499215 1.4706925 2960685
0.15435694 -0.32508695 1.4962808 2960685
0.12554835 -0.27500466 1.4707804 2960685
0.15436192 -0.27497455 1.4963291 2960685
0.12549779 -0.224997 1.4707794 2960685
0.15387316 -0.22568333 1.4959376 2960685
0.12553546 -0.17498615 1.4708539 2960685
0.15366587 -0.1749624 1.495798 2960685
0.12554224 -0.12498959 1.4709057 2960685
0.15369326 -0.12518314 1.4958652 2960685
0.12548371 -0.07498876 1.4708972 2960685
0.15369825 -0.074988276 1.4959134 2960685
0.12557788 -0.025004243 1.4710237 2960685
0.15370317 -0.024790229 1.4959618 2960685
0.12558183 0.025005307 1.4710699 2960685
0.15370801 0.02479127 1.4960088 2960685
0.12549555 0.074996211 1.4710386 4276545
0.15371306 0.074995749 1.4960573 4342338
0.1266017 0.10729703 1.4710125 10197915
0.16791828 0.11116205 1.4850274 10197915
0.2248742 0.11335716 1.4791353 10197915
0.27500579 0.11331014 1.4782628 10197915
0.32509059 0.11326227 1.4778961 10197915
0.37493545 0.11321532 1.4771541 10197915
0.42493775 0.11316797 1.4765385 10197915
0.47510502 0.11312024 1.476043 10197915
0.52502388 0.11307342 1.4751736 10197915
0.57490283 0.11302575 1.4748108 10197915
0.62494326 0.11297859 1.4740667 10197915
0.67494196 0.11293145 1.4733207 10197915
0.72489393 0.11288373 1.4729564 10197915
0.7750113 0.11283647 1.4722133 10197915
0.82508671 0.11278906 1.4715948 10197915
0.87511808 0.11274148 1.4711009 10197915
0.92510587 0.11269435 1.4703597 10197915
0.9750554 0.11264705 1.4697418 10197915
1.0251609 0.1125996 1.4691231 10197915
1.0759206 0.11254986 1.4694878 10197915
1.125217 0.11249133 1.475723 10197915
1.1659937 0.11243454 1.4857224 10197915
0.17923374 -0.61834383 1.5180829 8947848
0.20780583 -0.61837882 1.5434164 8882055
0.17925081 -0.57500809 1.5181341 2960685
0.2078131 -0.57497197 1.5434617 2960685
0.1792421 -0.52499098 1.5181749 2960685
0.20775074 -0.52525777 1.5434489 2960685
0.17928264 -0.47499216 1.5182494 2960685
0.20709293 -0.47506332 1.5429109 2960685
0.17926717 -0.42501229 1.5182817 2960685
0.20712745 -0.4250266 1.5429831 2960685
0.17926183 -0.3749862 1.5183204 2960685
0.20711917 -0.37505072 1.54302 2960685
0.17928644 -0.32495627 1.518383 2960685
0.20712212 -0.32507131 1.5430654 2960685
0.17927821 -0.27498794 1.5184234 2960685
0.20712687 -0.27502501 1.5431136 2960685
0.17877188 -0.22485824 1.5180135 2960685
0.20714645 -0.22497487 1.5431737 2960685
0.17858209 -0.17500824 1.51789 2960685
0.20714927 -0.1749858 1.5432194 2960685
0.17855951 -0.12499786 1.5179145 2960685
0.20712276 -0.12486691 1.54324 2960685
0.17865285 -0.075005196 1.5180382 2960685
0.20716806 -0.074807413 1.543324 2960685
0.17860124 -0.025010755 1.5180403 2960685
0.20717472 -0.024936512 1.5433738 2960685
0.17860675 0.025011862 1.5180852 2960685
0.20718126 0.02493757 1.5434221 2960685
0.17867038 0.075012647 1.5181854 4276545
0.20718813 0.074814849 1.5434724 4276545
0.17928849 0.10726302 1.5177814 10197915
0.21696946 0.10999822 1.534634 10197915
0.27515531 0.11322581 1.5269533 10197915
0.32520151 0.11317871 1.5261734 10197915
0.37520763 0.11313142 1.5255349 10197915
0.42495865 0.11308432 1.5248998 10197915
0.4748812 0.11303684 1.5244031 10197915
0.52517772 0.11298973 1.5234839 10197915
0.57522613 0.11294214 1.5229825 10197915
0.62501949 0.11289481 1.5224886 10197915
0.67477316 0.11284794 1.5217127 10197915
0.72490489 0.11280052 1.5210763 10197915
0.77499115 0.11275312 1.5204339 10197915
0.82503873 0.11270577 1.5197991 10197915
0.87504107 0.11265847 1.5191572 10197915
0.92479545 0.11261115 1.5186632 10197915
0.97492415 0.11256394 1.517886 10197915
1.0250105 0.1125168 1.5171082 10197915
1.0742868 0.11246873 1.5173168 10197915
1.1269542 0.11239361 1.5312781 10197915
1.1750795 0.11234564 1.5320582 10197915
1.2122132 0.11229629 1.5397903 10197915
0.23285079 -0.61838955 1.5656222 8882055
0.26092133 -0.61845988 1.5905137 8882055
0.23287475 -0.57500386 1.5656826 2960685
0.26096779 -0.57498592 1.5905918 2960685
0.23277284 -0.52483881 1.5656381 2960685
0.26093581 -0.52501553 1.5906073 2960685
0.23209922 -0.47495684 1.5650795 2960685
0.26095548 -0.47504342 1.5906684 2960685
0.23216042 -0.42498943 1.5651822 2960685
0.26098296 -0.42502031 1.5907363 2960685
0.23214321 -0.37496471 1.5652063 2960685
0.26098815 -0.37504047 1.5907847 2960685
0.23216611 -0.3249636 1.5652726 2960685
0.26098081 -0.32501069 1.5908214 2960685
0.23213644 -0.2749863 1.5652903 2960685
0.26099741 -0.27502552 1.5908799 2960685
0.23217916 -0.22500564 1.5653691 2960685
0.26100609 -0.2250364 1.5909303 2960685
0.23215593 -0.17502165 1.5653955 2960685
0.26100838 -0.17495021 1.5909758 2960685
0.23221345 -0.1250349 1.5654857 2960685
0.26101971 -0.1249549 1.5910288 2960685
0.23222682 -0.075017899 1.5655442 2960685
0.26030231 -0.075155862 1.5904363 2960685
0.23214085 -0.024999486 1.5655098 2960685
0.26028553 -0.025038466 1.5904654 2960685
0.23214881 0.025000535 1.5655596 2960685
0.26029399 0.02503955 1.5905159 2960685
0.23224868 0.07502535 1.5656947 4342338
0.2602835 0.07507024 1.5905509 4408131
0.2327919 0.10712067 1.5655425 10197915
0.26762399 0.10948738 1.584208 10197915
0.32510191 0.11308943 1.577858 10197915
0.37528107 0.11304198 1.5771956 10197915
0.42519996 0.11299453 1.5766906 10197915
0.47507328 0.11294767 1.5758793 10197915
0.52490991 0.11290054 1.5752224 10197915
0.57491767 0.11285324 1.5745625 10197915
0.62510371 0.1128058 1.5739007 10197915
0.67502785 0.11275861 1.5732419 10197915
0.72491366 0.11271144 1.572584 10197915
0.77475429 0.11266432 1.5719264 10197915
0.82477272 0.11261675 1.57142 10197915
0.875175 0.11256965 1.5704521 10197915
0.92510927 0.11252217 1.5699431 10197915
0.9749977 0.11247475 1.5694385 10197915
1.0250598 0.11242769 1.5686246 10197915
1.0748681 0.11238059 1.5679681 10197915
1.1229398 0.11232483 1.5732956 10197915
1.1752474 0.11227039 1.575491 10197915
1.2240883 0.11222317 1.5754423 10197915
1.2549652 0.11217933 1.5834866 10197915
0.28596404 -0.61846346 1.6127174 8816262
0.31414559 -0.61853236 1.6377059 8750469
0.28595972 -0.57501388 1.6127512 2960685
0.31412652 -0.57500571 1.6377258 2960685
0.28599405 -0.52503109 1.6128263 2960685
0.3141681 -0.52493429 1.6378081 2960685
0.28596592 -0.47500786 1.6128432 2960685
0.31415707 -0.47493809 1.6378412 2960685
0.28600517 -0.42498186 1.6129237 2960685
0.31418535 -0.42501932 1.6379097 2960685
0.28600425 -0.37498924 1.6129642 2960685
0.31416976 -0.37501732 1.6379398 2960685
0.28601068 -0.3250311 1.6130137 2960685
0.31420565 -0.32497212 1.6380136 2960685
0.28600127 -0.27499488 1.6130489 2960685
0.31418419 -0.2749638 1.6380385 2960685
0.2860297 -0.2249925 1.6131192 2894892
0.31422055 -0.22495188 1.6381133 2960685
0.2860674 -0.17502469 1.6131958 2960685
0.31422243 -0.17497736 1.6381601 2960685
0.28602993 -0.12497929 1.6132057 2960685
0.31426141 -0.12499877 1.6382364 2960685
0.28537318 -0.074863069 1.6126664 2960685
0.31419253 -0.075098522 1.6382191 2960685
0.28522238 -0.024967479 1.6125746 2960685
0.31385729 -0.025489323 1.6379653 2960685
0.28523138 0.024968555 1.6126277 2960685
0.31347787 0.025103454 1.6376733 2960685
0.2853604 0.074935906 1.6127858 4408131
0.31341156 0.075100347 1.6376575 4408131
0.28561136 0.1067834 1.6127849 10197915
0.31768563 0.10853018 1.6331223 10197915
0.37519732 0.11296277 1.6230754 10197915
0.42511156 0.11291581 1.6222719 10197915
0.47498739 0.11286847 1.6217207 10197915
0.52565753 0.1128059 1.6295248 10197915
0.5748173 0.11275792 1.6297556 10197915
0.62496722 0.11271027 1.6292388 10197915
0.6750766 0.1126632 1.6283867 10197915
0.72514641 0.11261594 1.6277033 10197915
0.77517384 0.11256836 1.6271878 10197915
0.82515371 0.11252145 1.6263372 10197915
0.87487316 0.11247478 1.6254858 10197915
0.92477578 0.11242734 1.6249777 10197915
0.97485524 0.11238004 1.6242936 10197915
1.0251155 0.11233225 1.6237758 10197915
1.0753362 0.11228511 1.6229217 10197915
1.1252886 0.11223792 1.6222399 10197915
1.1752031 0.11219078 1.6215582 10197915
1.2250714 0.11214366 1.6208779 10197915
1.2702019 0.11209334 1.6247087 10197915
1.3016791 0.11203811 1.6390018 10197915
0.33900258 -0.61853027 1.6597455 8750469
0.36714295 -0.6185841 1.6846962 8750469
0.33900377 -0.57501537 1.6597843 2960685
0.36711264 -0.57501394 1.684709 2960685
0.33901089 -0.52509975 1.6598337 2960685
0.36715817 -0.52498698 1.6847906 2960685
0.33902556 -0.47507524 1.6598903 2960685
0.36713967 -0.47499174 1.6848196 2960685
0.33901507 -0.42499459 1.6599253 2960685
0.36715549 -0.42499325 1.6848773 2960685
0.33906138 -0.37501675 1.6600095 2960685
0.36717018 -0.37499177 1.6849338 2960685
0.33904034 -0.32498249 1.6600345 2960685
0.36721364 -0.32502183 1.6850154 2960685
0.33907929 -0.27499792 1.6601126 2960685
0.36716148 -0.27501366 1.6850123 2960685
0.33906201 -0.22506328 1.6601402 2960685
0.36721224 -0.22496779 1.6850995 2960685
0.33909377 -0.17507155 1.6602116 2960685
0.36722201 -0.17495331 1.6851526 2960685
0.33912274 -0.12502554 1.6602814 2960685
0.36725813 -0.12497085 1.6852293 2960685
0.3391048 -0.074869484 1.6603091 2960685
0.36720309 -0.075089701 1.6852216 2960685
0.3386263 -0.024413597 1.6599276 2960685
0.36656418 -0.02527431 1.6846997 2894892
0.33826068 0.024902524 1.659647 2960685
0.36644989 0.025125487 1.6846422 6513507
0.338314 0.074899584 1.6597393 4473924
0.36635399 0.075120412 1.6846012 9079434
0.33861634 0.10714206 1.6590992 10197915
0.3702918 0.10858285 1.6789302 10197915
0.42479056 0.11283216 1.6708468 10197915
0.47489503 0.11278483 1.6701465 10197915
0.52384609 0.11272402 1.6779107 10197915
0.57518566 0.11267267 1.6788707 10197915
0.62500328 0.11262565 1.67817 10197915
0.67511946 0.11257856 1.677327 10197915
0.72520018 0.11253105 1.6767608 10197915
0.77523339 0.11248406 1.6759191 10197915
0.82522905 0.11243662 1.6753536 10197915
0.87517989 0.11238974 1.6745133 10197915
0.92509025 0.11234239 1.6739495 10197915
0.97495836 0.11229555 1.6731099 10197915
1.0247837 0.11224827 1.672547 10197915
1.0745702 0.11220152 1.6717097 10197915
1.1249969 0.11215367 1.671138 10197915
1.1750422 0.11210646 1.6704341 10197915
1.2246991 0.1120598 1.6695976 10197915
1.2750663 0.11199504 1.6788603 10197915
1.3195304 0.11194208 1.6845672 10197915
1.3503959 0.11188794 1.6985712 10197915
0.3925432 -0.61863297 1.7072185 8684676
0.40868375 -0.61858463 1.7215302 8618883
0.3925617 -0.57503355 1.7072725 2960685
0.40868771 -0.57493585 1.721571 2960685
0.3925631 -0.52491093 1.7073172 2960685
0.40866607 -0.52502716 1.7215966 2960685
0.39257014 -0.47486389 1.7073672 2960685
0.40871367 -0.47503614 1.721682 2960685
0.39259383 -0.42496955 1.7074322 2960685
0.4087041 -0.42496273 1.7217164 2960685
0.39259544 -0.37499496 1.7074771 2960685
0.40873989 -0.37496528 1.7217913 2960685
0.39262456 -0.32493773 1.7075462 2960685
0.40874717 -0.3249642 1.7218419 2960685
0.39260933 -0.27495646 1.7075762 2960685
0.40874302 -0.27503964 1.7218815 2960685
0.39264926 -0.2249711 1.7076546 2960685
0.40876761 -0.22511123 1.7219459 2960685
0.39261165 -0.17498335 1.7076646 2960685
0.40877479 -0.1750219 1.7219955 2960685
0.39271402 -0.1250698 1.7077981 2960685
0.40878218 -0.12492991 1.7220463 2960685
0.39264834 -0.074842095 1.7077832 2894892
0.40943539 -0.074351065 1.7226695 2894892
0.39192957 -0.024448071 1.7071909 2894892
0.40973803 -0.024983222 1.7229807 2894892
0.39182651 0.024753837 1.7071421 7237230
0.40975106 0.024984283 1.7230353 7303023
0.39179945 0.074830495 1.7071613 10197915
0.4097645 0.074954979 1.723091 10197915
0.39199504 0.10665249 1.7073401 10197915
0.41691071 0.10881282 1.7218279 10197915
0.4746787 0.1126961 1.7215816 10197915
0.52473962 0.11264861 1.7210097 10197915
0.57476777 0.11260168 1.7201393 10197915
0.6250993 0.11255369 1.7197127 10197915
0.67539185 0.11250676 1.7186892 10197915
0.72529233 0.11245943 1.7181193 10197915
0.77594602 0.11239487 1.7271029 10197915
0.82507086 0.11234672 1.7274444 10197915
0.87479335 0.11230053 1.726315 10197915
0.92471701 0.11225307 1.7257981 10197915
0.97483033 0.11220548 1.7252709 10197915
1.0249021 0.11215857 1.7243453 10197915
1.0749352 0.11211139 1.7236201 10197915
1.1251575 0.11206403 1.7228923 10197915
1.175342 0.11201669 1.7221643 10197915
1.2252465 0.11196927 1.721639 10197915
1.2750577 0.11190471 1.7311034 10197915
1.3250744 0.11185677 1.7308229 10197915
1.3643688 0.11181415 1.7334605 10197915
0.43974635 0.11264131 1.772839 10197915
0.47518006 0.11260088 1.7763951 10197915
0.52500349 0.11255389 1.7756603 10197915
0.57503211 0.11250634 1.7751347 10197915
0.62501949 0.11245961 1.7741734 10197915
0.67496568 0.11241291 1.7732064 10197915
0.72486275 0.11236512 1.7729049 10197915
0.77375829 0.11230285 1.7815361 10197915
0.82490027 0.11225142 1.7826422 10197915
0.87511677 0.11220438 1.7817253 10197915
0.92529327 0.11215683 1.7811396 10197915
0.97506285 0.11210992 1.7803948 10197915
1.0251496 0.11206302 1.7794803 10197915
1.0752031 0.11201555 1.7788961 10197915
1.1252069 0.11196871 1.7779828 10197915
1.1751747 0.11192133 1.7774001 10197915
1.2250957 0.11187457 1.7764882 10197915
1.2749784 0.11182729 1.7759066 10197915
1.3248169 0.1117806 1.7749959 10197915
1.3749809 0.11173332 1.7742453 10197915
1.4091347 0.11168384 1.7837428 10197915
0.4463672 0.11253725 1.8292873 10197915
0.4750829 0.11249975 1.8348767 10197915
0.52503431 0.11245274 1.8341094 10197915
0.57493961 0.11240642 1.8329773 10197915
0.62480205 0.11235884 1.8325769 10197915
0.67462838 0.11231188 1.8318111 10197915
0.72479016 0.11226495 1.8308616 10197915
0.77490479 0.11221746 1.8302709 10197915
0.82498354 0.11217059 1.8293231 10197915
0.87501264 0.11212315 1.828734 10197915
0.92500871 0.11207642 1.8277864 10197915
0.97495246 0.11202906 1.8271992 10197915
1.0248663 0.11198237 1.8262539 10197915
1.0750998 0.11193443 1.8258399 10197915
1.1252987 0.11188776 1.824711 10197915
1.1750827 0.11184062 1.8241255 10197915
1.2248205 0.11179408 1.8231825 10197915
1.2748955 0.11174693 1.8224133 10197915
1.3249226 0.11169916 1.8220024 10197915
1.3749061 0.11165275 1.8208781 10197915
1.4222367 0.11160541 1.8217483 10197915
1.4532888 0.11155794 1.8318113 10197915
0.47764152 0.11241328 1.8834655 10197915
0.52476996 0.11236773 1.8834349 10197915
0.57486016 0.11232027 1.8828409 10197915
0.62490892 0.11227351 1.8818558 10197915
0.67491359 0.11222611 1.8812622 10197915
0.72488004 0.11217944 1.8802791 10197915
0.7747997 0.11213213 1.8796868 10197915
0.82468396 0.11208554 1.8787048 10197915
0.87490803 0.11203756 1.8783029 10197915
0.92508578 0.11199103 1.8771214 10197915
0.97522992 0.11194386 1.8763304 10197915
1.0249422 0.11189677 1.8757412 10197915
1.0746151 0.11185031 1.8747631 10197915
1.1250122 0.11180258 1.8741628 10197915
1.1749865 0.11175553 1.8733745 10197915
1.2245303 0.11170929 1.8723985 10197915
1.2748036 0.11166164 1.8718002 10197915
1.3250329 0.1116147 1.8708137 10197915
1.3752198 0.11156712 1.8702161 10197915
1.4253652 0.11152029 1.869231 10197915
1.4695677 0.11147235 1.8722154 10197915
0.48586458 0.11232135 1.9320488 10197915
0.52529591 0.11227654 1.9358873 10197915
0.57517254 0.11223001 1.9348658 10197915
0.62501979 0.11218278 1.9342707 10197915
0.67481512 0.11213633 1.9332508 10197915
0.72497535 0.11208918 1.9324377 10197915
0.77468878 0.11204205 1.9318448 10197915
0.82476318 0.11199497 1.9310328 10197915
0.87518895 0.11194795 1.9300025 10197915
0.92518073 0.11190095 1.9291924 10197915
0.97512275 0.11185325 1.9288076 10197915
1.0250248 0.11180706 1.9275742 10197915
1.0748911 0.11176018 1.9267658 10197915
1.1251042 0.11171261 1.9261638 10197915
1.1752806 0.11166579 1.9251386 10197915
1.2254076 0.11161829 1.924538 10197915
1.2751044 0.11157156 1.9237323 10197915
1.3247594 0.11152488 1.9229271 10197915
1.3747576 0.11147824 1.921905 10197915
1.4247262 0.11143089 1.9213066 10197915
1.4746423 0.11138433 1.9202861 10197915
1.5151273 0.11133734 1.9247866 10197915
0.48503059 0.1122601 1.9679276 10197915
0.52499038 0.1122058 1.976935 10197915
0.575526 0.11215831 1.9760982 10197915
0.62520492 0.11211166 1.9752761 10197915
0.67484236 0.11206502 1.9744543 10197915
0.72525108 0.11201764 1.9736199 10197915
0.77561742 0.11197032 1.9727857 10197915
0.82767683 0.11191564 1.9752572 10197915
0.87467098 0.1118532 1.9850774 10197915
0.92486256 0.11180563 1.9844729 10197915
0.97501093 0.1117589 1.9834049 10197915
1.0251161 0.11171145 1.982801 10197915
1.0751818 0.11166482 1.9817349 10197915
1.1252007 0.11161743 1.9811324 10197915
1.1751837 0.11157087 1.9800674 10197915
1.2251173 0.11152357 1.9794658 10197915
1.2750179 0.11147708 1.9784029 10197915
1.3248658 0.11142986 1.9778031 10197915
1.375085 0.11138269 1.9769659 10197915
1.4248552 0.11133634 1.9759047 10197915
1.4745821 0.1112892 1.9753066 10197915
1.5246743 0.11124215 1.9744717 10197915
1.562816 0.11119366 1.9811574 10197915
0.49414757 0.11216767 2.0163083 10197915
0.52509147 0.1121318 2.0197146 10197915
0.57464308 0.11208486 2.019125 10197915
0.62498558 0.11203798 2.018034 10197915
0.67528349 0.11199035 2.0174222 10197915
0.72512794 0.11194354 2.0165792 10197915
0.7753396 0.11189679 2.0154908 10197915
0.82399619 0.11184889 2.0159483 10197915
0.87572443 0.11177695 2.0286081 10197915
0.92576069 0.11172996 2.0277555 10197915
0.97575545 0.11168304 2.0269041 10197915
1.0257078 0.11163615 2.026053 10197915
1.0756184 0.11158929 2.0252025 10197915
1.1254869 0.11154247 2.024353 10197915
1.1753139 0.11149571 2.023504 10197915
1.2250987 0.11144896 2.022656 10197915
1.2748421 0.11140226 2.0218081 10197915
1.3245438 0.11135561 2.0209613 10197915
1.3788514 0.11128775 2.0297813 10197915
1.4249908 0.11123545 2.0341878 10197915
1.474933 0.11118855 2.0333307 10197915
1.5248337 0.11114173 2.0324738 10197915
1.575101 0.11109497 2.0313663 10197915
1.612486 0.11103937 2.0425687 10197915
0.52680254 0.11202803 2.0787485 10197915
0.57540411 0.11198001 2.0793121 10197915
0.62510687 0.11193337 2.0784454 10197915
0.67518777 0.11188682 2.0773108 10197915
0.72523713 0.11183944 2.0767019 10197915
0.77523619 0.111793 2.0755684 10197915
0.82519925 0.11174568 2.0749605 10197915
0.87511659 0.11169929 2.0738292 10197915
0.92499405 0.11165205 2.0732217 10197915
0.97482967 0.11160576 2.0720923 10197915
1.0246222 0.11155859 2.0714862 10197915
1.0748013 0.11151151 2.0706127 10197915
1.1253566 0.11146454 2.0694706 10197915
1.175028 0.11141748 2.0688665 10197915
1.2246511 0.11137139 2.0677407 10197915
1.2750849 0.11132362 2.0671237 10197915
1.3254728 0.11127681 2.065985 10197915
1.3708664 0.11122449 2.0708246 10197915
1.4252102 0.1111562 2.0798955 10197915
1.4754239 0.11110911 2.0790148 10197915
1.5247447 0.11106284 2.0781493 10197915
1.5748742 0.11101583 2.0772693 10197915
1.624961 0.11096885 2.0763903 10197915
1.6504138 0.11094496 2.0759432 10197915
0.53236753 0.11193838 2.1275163 10197915
0.57534826 0.11189807 2.1267505 10197915
0.62530851 0.11185125 2.1258605 10197915
0.67522681 0.11180446 2.1249709 10197915
0.72510356 0.1117577 2.1240823 10197915
0.77493817 0.11171097 2.1231945 10197915
0.82473153 0.1116643 2.1223071 10197915
0.87448293 0.11161768 2.1214211 10197915
0.92506498 0.11157025 2.1205196 10197915
0.97560388 0.11152288 2.1196191 10197915
1.0252296 0.11147636 2.1187351 10197915
1.0748141 0.11142988 2.1178517 10197915
1.1273961 0.1113555 2.1314108 10197915
1.1753548 0.11130776 2.1321537 10197915
1.2251951 0.11126007 2.1318336 10197915
1.2749833 0.11121438 2.1303651 10197915
1.3247433 0.11116775 2.1294713 10197915
1.3748934 0.11112028 2.1288586 10197915
1.4250016 0.11107381 2.127672 10197915
1.475065 0.11102637 2.1270597 10197915
1.5250901 0.11097999 2.125875 10197915
1.5750673 0.11093265 2.1252642 10197915
1.6250099 0.11088634 2.1240816 10197915
1.6706893 0.11083405 2.1287367 10197915
1.7007953 0.11078656 2.1393147 10197915
0.53813779 0.11185113 2.1747251 10197915
0.57483596 0.11181273 2.1763604 10197915
0.62462777 0.11176557 2.1757615 10197915
0.6752606 0.11171866 2.1745408 10197915
0.72541422 0.11167172 2.1736152 10197915
0.77506918 0.11162465 2.1730182 10197915
0.82513672 0.11157773 2.1721053 10197915
0.87516201 0.11153089 2.1711934 10197915
0.9251374 0.11148514 2.169677 10197915
0.97507292 0.11143732 2.1693714 10197915
1.0249726 0.11139057 2.1684613 10197915
1.0748302 0.11134385 2.1675518 10197915
1.121667 0.11128107 2.1776357 10197915
1.1754981 0.1112204 2.1826136 10197915
1.2256175 0.11117343 2.1816924 10197915
1.2756947 0.11112656 2.1807721 10197915
1.3257297 0.11107972 2.179853 10197915
1.3757229 0.11103285 2.1789339 10197915
1.4256734 0.1109861 2.1780159 10197915
1.475582 0.11093938 2.177099 10197915
1.5254487 0.11089266 2.1761825 10197915
1.5752733 0.11084598 2.1752665 10197915
1.6250559 0.11079939 2.1743519 10197915
1.6747968 0.11075278 2.1734376 10197915
1.7138505 0.11071622 2.1727197 10197915
0.54489821 0.11175034 2.2292621 10197915
0.57522774 0.11172194 2.2286952 10197915
0.6248275 0.11167554 2.2277689 10197915
0.67438579 0.11162914 2.2268436 10197915
0.7248196 0.11158191 2.2259016 10197915
0.77521098 0.11153478 2.2249613 10197915
0.82464457 0.11148849 2.2240386 10197915
0.87495136 0.11144142 2.223099 10197915
0.92521614 0.11139437 2.2221613 10197915
0.97452533 0.11134821 2.2212405 10197915
1.0247054 0.11130124 2.2203033 10197915
1.0748438 0.11125432 2.219367 10197915
1.1249397 0.11120743 2.2184317 10197915
1.1749933 0.1111606 2.2174971 10197915
1.2250048 0.11111378 2.2165635 10197915
1.2749743 0.111067 2.2156308 10197915
1.3249015 0.11102028 2.2146983 10197915
1.3768343 0.11094373 2.2298663 10197915
1.4245526 0.11089648 2.2304757 10197915
1.4752092 0.11084851 2.2298486 10197915
1.5253724 0.11080157 2.2289042 10197915
1.5750295 0.1107557 2.2276435 10197915
1.6251099 0.11070882 2.226701 10197915
1.6746824 0.11066187 2.2260942 10197915
1.7246761 0.11061509 2.225153 10197915
1.7648114 0.11055537 2.2371914 10197915
0.54903388 0.11168381 2.265379 10197915
0.57518452 0.11165934 2.2648823 10197915
0.62558925 0.11161219 2.2639263 10197915
0.67775959 0.11155477 2.2679155 10197915
0.72466916 0.11148725 2.2807145 10197915
0.77488565 0.11144088 2.2794018 10197915
0.82506752 0.11139335 2.2787938 10197915
0.87520176 0.11134707 2.2774827 10197915
0.92529666 0.11129963 2.2768764 10197915
0.97534865 0.11125342 2.2755671 10197915
1.0253575 0.11120605 2.2749622 10197915
1.0753275 0.11115993 2.2736547 10197915
1.1252503 0.11111262 2.273051 10197915
1.1751384 0.11106659 2.2717454 10197915
1.224975 0.11101939 2.2711432 10197915
1.2752441 0.11097236 2.2701817 10197915
1.325001 0.11092645 2.2688792 10197915
1.3715339 0.11086027 2.2811036 10197915
1.4252464 0.11080001 2.2858703 10197915
1.4748209 0.11075369 2.2849145 10197915
1.5243537 0.11070738 2.2839589 10197915
1.5747784 0.11066023 2.2829862 10197915
1.6251601 0.11061312 2.2820146 10197915
1.6754994 0.11056607 2.2810435 10197915
1.7257955 0.11051904 2.2800736 10197915
1.7751189 0.11047293 2.2791224 10197915
1.8058099 0.11044421 2.2785296 10197915
0.58058649 0.11156132 2.3185821 10197915
0.62486321 0.11151492 2.3206186 10197915
0.67282516 0.11146732 2.3212938 10197915
0.72450757 0.11138846 2.3379755 10197915
0.77454919 0.1113417 2.3369939 10197915
0.82454902 0.11129498 2.3360136 10197915
0.87450683 0.11124832 2.3350341 10197915
0.92442268 0.11120167 2.3340549 10197915
0.97429651 0.11115507 2.333077 10197915
1.0250866 0.11110763 2.3320811 10197915
1.0758334 0.11106019 2.3310854 10197915
1.1255807 0.11101374 2.3301101 10197915
1.1752867 0.11096728 2.3291354 10197915
1.2249506 0.11092085 2.3281615 10197915
1.2745731 0.11087452 2.3271883 10197915
1.3251071 0.1108273 2.3261971 10197915
1.3755983 0.11078011 2.3252065 10197915
1.4250952 0.1107339 2.3242364 10197915
1.4745507 0.11068768 2.3232665 10197915
1.5249145 0.11064059 2.3222787 10197915
1.5752358 0.1105936 2.3212919 10197915
1.6245658 0.11054751 2.3203247 10197915
1.6748024 0.11050056 2.319339 10197915
1.7249966 0.11045368 2.3183551 10197915
1.7751479 0.11040682 2.3173716 10197915
1.8214763 0.11036351 2.3164625 10197915
0.58780873 0.11144704 2.3806064 10197915
0.62508959 0.1114122 2.3798628 10197915
0.67509019 0.11136552 2.3788657 10197915
0.72504842 0.11131887 2.3778691 10197915
0.77496523 0.11127224 2.376873 10197915
0.82483995 0.11122569 2.3758788 10197915
0.87467331 0.11117915 2.3748846 10197915
0.92446446 0.11113266 2.3738914 10197915
0.97518963 0.11108531 2.37288 10197915
1.0248971 0.11103889 2.3718882 10197915
1.0745628 0.11099251 2.3708978 10197915
1.12516 0.11094527 2.3698888 10197915
1.1747422 0.11089895 2.3688993 10197915
1.224283 0.1108527 2.3679116 10197915
1.2747527 0.11080559 2.366905 10197915
1.3251792 0.11075849 2.3658991 10197915
1.3755635 0.11071145 2.3648942 10197915
1.4249368 0.11066535 2.3639092 10197915
1.4742694 0.11061929 2.3629253 10197915
1.5245268 0.11057235 2.361923 10197915
1.5747416 0.11052546 2.3609216 10197915
1.6249137 0.1104786 2.3599203 10197915
1.6785008 0.11040163 2.3744564 10197915
1.7252012 0.11034958 2.3783937 10197915
1.7751911 0.11030363 2.3769863 10197915
1.8251388 0.1102563 2.3763833 10197915
1.8706502 0.11020141 2.3826504 10197915
1.9023018 0.11014893 2.3952725 10197915
0.59297401 0.11137078 2.4218423 10197915
0.62491179 0.11134094 2.4211936 10197915
0.67478335 0.11129443 2.4201822 10197915
0.72461301 0.11124791 2.4191706 10197915
0.77440119 0.11120146 2.4181602 10197915
0.82414782 0.11115504 2.4171512 10197915
0.8748461 0.11110772 2.4161217 10197915
0.92550218 0.11106047 2.4150946 10197915
0.97512269 0.11101416 2.4140875 10197915
1.0247016 0.11096787 2.4130812 10197915
1.0752299 0.11092076 2.4120562 10197915
1.1257153 0.11087363 2.4110315 10197915
1.1751691 0.11082748 2.410028 10197915
1.2245818 0.11078139 2.4090257 10197915
1.2749399 0.11073437 2.4080033 10197915
1.3252949 0.1106514 2.4278162 10197915
1.3745173 0.11060472 2.4272425 10197915
1.4246927 0.11055864 2.4257989 10197915
1.474823 0.11051116 2.4251893 10197915
1.5249159 0.11046515 2.4237478 10197915
1.5749594 0.11041775 2.4231391 10197915
1.6249701 0.11037184 2.4216993 10197915
1.6706002 0.11031127 2.4311597 10197915
1.7244213 0.11024171 2.4412768 10197915
1.7742425 0.11019523 2.4402475 10197915
1.8250172 0.11014788 2.439199 10197915
1.8757484 0.1101006 2.4381516 10197915
1.9194818 0.11005976 2.437248 10197915
0.5983212 0.11129183 2.4645317 10197915
0.6247279 0.11126721 2.4639866 10197915
0.67446572 0.1112208 2.4629593 10197915
0.72517586 0.11117352 2.4619112 10197915
0.77483034 0.11112723 2.4608862 10197915
0.82444298 0.11108095 2.459862 10197915
0.87502581 0.11103377 2.458817 10197915
0.9255659 0.11098666 2.4577737 10197915
0.97505331 0.11094049 2.4567516 10197915
1.0282714 0.1108622 2.4722171 10197915
1.0747511 0.11081005 2.4763212 10197915
1.1250587 0.11076242 2.475723 10197915
1.1753328 0.11071632 2.4742255 10197915
1.2250533 0.11066844 2.4740894 10197915
1.2747194 0.11062371 2.4721549 10197915
1.3244469 0.11054134 2.4919057 10197915
1.3754545 0.11049085 2.4925289 10197915
1.425452 0.11044426 2.4914782 10197915
1.4754071 0.11039772 2.4904273 10197915
1.5253203 0.11035122 2.4893789 10197915
1.5751914 0.11030474 2.4883301 10197915
1.6250198 0.1102583 2.4872823 10197915
1.6748074 0.11021192 2.4862363 10197915
1.7245523 0.11016555 2.4851899 10197915
1.7752695 0.11011828 2.4841237 10197915
1.8249305 0.11007202 2.4830801 10197915
1.8745493 0.11002577 2.4820366 10197915
1.9251381 0.10997864 2.4809737 10197915
1.9615363 0.10994468 2.4802077 10197915
0.62867177 0.11118679 2.5082281 10197915
0.67516875 0.11114345 2.5072501 10197915
0.7247262 0.11109725 2.5062087 10197915
0.7742427 0.11105114 2.5051677 10197915
0.82859391 0.11097477 2.5189018 10197915
0.8747831 0.11091781 2.5259821 10197915
0.92462677 0.11087137 2.5249245 10197915
0.97494382 0.11082534 2.5233896 10197915
1.0209711 0.11076365 2.5332887 10197915
1.0752867 0.11069147 2.5446174 10197915
1.1254143 0.11064482 2.5435445 10197915
1.1754985 0.11059815 2.5424721 10197915
1.2255415 0.11055157 2.5414011 10197915
1.2755414 0.11050499 2.5403304 10197915
1.3254997 0.11045849 2.5392609 10197915
1.3754163 0.110412 2.538193 10197915
1.4252905 0.11036554 2.5371246 10197915
1.4751229 0.11031915 2.5360582 10197915
1.5249132 0.11027279 2.5349922 10197915
1.5746617 0.11022644 2.533927 10197915
1.6243688 0.11018017 2.5328634 10197915
1.6750678 0.11013294 2.5317776 10197915
1.7257237 0.11008579 2.5306933 10197915
1.7753042 0.11003962 2.5296323 10197915
1.8248426 0.10999348 2.5285711 10197915
1.8743396 0.10994738 2.5275123 10197915
1.9248248 0.10990038 2.5264311 10197915
1.9752669 0.10985339 2.5253513 10197915
2.0040727 0.10982655 2.524734 10197915
0.6338132 0.1111026 2.5540686 10197915
0.67484647 0.11106437 2.5531895 10197915
0.72778291 0.11098092 2.5718019 10197915
0.77543801 0.1109295 2.5748382 10197915
0.8212139 0.11087237 2.5822453 10197915
0.87453443 0.1107961 2.5964789 10197915
0.92470193 0.11074939 2.5953848 10197915
0.97482759 0.11070276 2.5942922 10197915
1.0249106 0.11065614 2.5931995 10197915
1.0749518 0.11060961 2.5921087 10197915
1.1249505 0.11056307 2.5910182 10197915
1.1749076 0.11051658 2.5899289 10197915
1.2248225 0.11047015 2.5888405 10197915
1.2746954 0.11042372 2.5877526 10197915
1.3245265 0.11037737 2.5866663 10197915
1.3753747 0.11033004 2.5855572 10197915
1.4251213 0.11028375 2.5844724 10197915
1.4748263 0.11023752 2.5833886 10197915
1.5255455 0.11019027 2.5822823 10197915
1.5751666 0.11014413 2.5812008 10197915
1.6247454 0.110098 2.5801194 10197915
1.6753362 0.11005092 2.5790157 10197915
1.7248319 0.11000487 2.5779374 10197915
1.7742857 0.10995883 2.5768578 10197915
1.824749 0.1099119 2.5757577 10197915
1.8751692 0.10986496 2.5746582 10197915
1.9255465 0.10981808 2.573559 10197915
1.975881 0.10977126 2.572463 10197915
2.0230305 0.10972736 2.571434 10197915
0.64021719 0.11101415 2.601589 10197915
0.67935514 0.11096002 2.6109664 10197915
0.72156608 0.11087066 2.6390245 10197915
0.77561736 0.11080273 2.6480529 10197915
0.82573473 0.11075615 2.6469398 10197915
0.87580961 0.11070956 2.6458268 10197915
0.92584264 0.11066306 2.6447151 10197915
0.97583354 0.11061656 2.643604 10197915
1.0257825 0.11057012 2.6424942 10197915
1.0756897 0.11052375 2.6413853 10197915
1.1255547 0.11047735 2.6402769 10197915
1.1753782 0.11043104 2.6391704 10197915
1.2251596 0.11038473 2.6380637 10197915
1.2748995 0.1103385 2.6369584 10197915
1.3245976 0.11029227 2.6358542 10197915
1.3742541 0.11024611 2.6347506 10197915
1.4249476 0.110199 2.6336248 10197915
1.4755974 0.11015188 2.6324985 10197915
1.5251275 0.11010585 2.6313984 10197915
1.5746163 0.11005982 2.6302984 10197915
1.6251382 0.11001283 2.6291754 10197915
1.6756176 0.10996591 2.6280539 10197915
1.7249804 0.10991998 2.6269567 10197915
1.7743026 0.10987417 2.6258614 10197915
1.824654 0.10982732 2.6247418 10197915
1.8749634 0.10978055 2.6236243 10197915
1.9252292 0.10973382 2.6225076 10197915
1.9754519 0.10968711 2.6213911 10197915
2.0245659 0.10964147 2.6203005 10197915
2.0661736 0.10960274 2.619375 10197915
0.64577234 0.11092349 2.650939 10197915
0.668706 0.11090215 2.650429 10197915
0.77500039 0.1107146 2.6994004 10197915
0.82497925 0.11066817 2.6982684 10197915
0.87491566 0.11062177 2.6971366 10197915
0.92481101 0.11057543 2.696007 10197915
0.97466385 0.11052909 2.6948774 10197915
1.0255817 0.1104818 2.6937244 10197915
1.0753506 0.11043554 2.6925969 10197915
1.1250776 0.11038937 2.6914704 10197915
1.1747633 0.11034321 2.690345 10197915
1.2244071 0.11029706 2.6892202 10197915
1.2751117 0.11024997 2.688072 10197915
1.3257723 0.11020289 2.6869237 10197915
1.3752904 0.11015689 2.6858027 10197915
1.4247669 0.11011092 2.6846817 10197915
1.4753002 0.11006398 2.6835372 10197915
1.5257907 0.11001708 2.6823933 10197915
1.5751414 0.1099712 2.6812754 10197915
1.6244516 0.10992541 2.6801591 10197915
1.6748143 0.10987861 2.6790168 10197915
1.7251351 0.10983186 2.6778786 10197915
1.7754126 0.10978514 2.6767395 10197915
1.8256476 0.10973848 2.6756012 10197915
1.8758396 0.10969187 2.6744642 10197915
1.925989 0.10964523 2.6733279 10197915
1.9750079 0.10959974 2.6722178 10197915
2.0239847 0.10955419 2.671108 10197915
2.0740082 0.10950775 2.669975 10197915
2.110956 0.1094734 2.6691375 10197915
0.67714334 0.11080553 2.7016172 10197915
0.72497982 0.11076107 2.7005332 10197915
0.89773744 0.11050829 2.7499242 10197915
0.92486721 0.11048312 2.7492979 10197915
0.97457606 0.11043697 2.7481494 10197915
1.0242435 0.11039088 2.7470026 10197915
1.0749962 0.11034375 2.7458293 10197915
1.1257069 0.1102967 2.7446592 10197915
1.1752477 0.11025069 2.7435136 10197915
1.224748 0.11020474 2.7423708 10197915
1.2742066 0.11015883 2.7412279 10197915
1.3247467 0.11011192 2.7400608 10197915
1.375244 0.11006503 2.7388945 10197915
1.4245772 0.11001924 2.7377546 10197915
1.4749895 0.10997245 2.7365901 10197915
1.5253586 0.10992567 2.7354262 10197915
1.5745677 0.10988002 2.7342901 10197915
1.6248521 0.10983332 2.7331278 10197915
1.6750941 0.10978668 2.7319677 10197915
1.7252935 0.1097401 2.7308083 10197915
1.7754502 0.10969352 2.7296488 10197915
1.8244511 0.10964804 2.7285175 10197915
1.8745235 0.10960155 2.7273605 10197915
1.9245543 0.10955513 2.7262056 10197915
1.9745414 0.10950871 2.7250504 10197915
2.0244877 0.10946236 2.723897 10197915
2.0743906 0.10941604 2.7227442 10197915
2.1253593 0.10936872 2.7215667 10197915
2.15747 0.10933888 2.720824 10197915
0.68364388 0.11070706 2.7548704 10197915
0.72561562 0.11066806 2.7539003 10197915
0.7754913 0.11062179 2.7527487 10197915
0.82532483 0.11057551 2.7515972 10197915
0.87285483 0.11053141 2.7504995 10197915
1.1378541 0.11018977 2.7997248 10197915
1.1757537 0.11015462 2.7988307 10197915
1.2251041 0.11010885 2.797668 10197915
1.2744129 0.11006308 2.7965059 10197915
1.3248266 0.11001635 2.7953181 10197915
1.3751972 0.10996961 2.7941303 10197915
1.4255255 0.10992295 2.7929449 10197915
1.4758106 0.1098763 2.7917595 10197915
1.524912 0.10983077 2.7906032 10197915
1.5739722 0.10978525 2.7894464 10197915
1.6241314 0.10973875 2.7882645 10197915
1.6742486 0.10969227 2.7870836 10197915
1.7243228 0.1096458 2.7859035 10197915
1.7743551 0.10959942 2.784725 10197915
1.8243446 0.10955303 2.7835462 10197915
1.8742925 0.10950675 2.7823691 10197915
1.9241973 0.10946043 2.781193 10197915
1.9740608 0.10941419 2.7800181 10197915
2.0250132 0.10936692 2.7788179 10197915
2.0759223 0.10931972 2.7776182 10197915
2.1256571 0.1092736 2.7764461 10197915
2.17535 0.10922749 2.7752745 10132122
2.2035673 0.10920129 2.7746089 10132122
0.69040638 0.11060477 2.8102691 10197915
0.72512162 0.11057256 2.8094501 10197915
0.77484679 0.11052644 2.808279 10197915
0.8256855 0.11047926 2.8070803 10197915
0.87532723 0.11043328 2.8059111 10197915
0.924927 0.11038724 2.8047414 10197915
0.97563803 0.11034022 2.8035471 10197915
1.0251547 0.1102943 2.8023796 10197915
1.0746299 0.11024839 2.801214 10197915
1.1125727 0.11021318 2.8003192 10197915
1.4463472 0.10980433 2.8499296 10197915
1.4754994 0.10977729 2.8492277 10197915
1.5256113 0.10973088 2.8480229 10197915
1.5745165 0.10968555 2.8468463 10197915
1.6245445 0.10963919 2.8456433 10197915
1.6745297 0.10959285 2.8444405 10197915
1.7244736 0.10954659 2.8432403 10197915
1.7755344 0.10949927 2.8420115 10197915
1.8253933 0.10945309 2.8408132 10197915
1.8752087 0.10940687 2.8396144 10197915
1.9249836 0.1093608 2.8384178 10197915
1.9747155 0.10931472 2.8372214 10197915
2.0255606 0.10926758 2.8359983 10197915
2.0752082 0.10922157 2.8348041 10197915
2.1248136 0.10917559 2.833611 10132122
2.1755302 0.10912862 2.8323915 10132122
2.2250507 0.1090827 2.8312001 10132122
2.2503724 0.10905922 2.8305905 10132122
0.69744617 0.1104983 2.8679411 10197915
0.72578752 0.11047202 2.8672593 10197915
0.77535558 0.11042608 2.8660669 10197915
0.82488251 0.11038019 2.8648756 10197915
0.87436819 0.11033434 2.8636856 10197915
0.92498934 0.11028743 2.862468 10197915
0.97556794 0.11024057 2.8612521 10197915
1.0249285 0.11019481 2.860064 10197915
1.0742483 0.11014913 2.8588786 10197915
1.1246995 0.11010235 2.8576646 10197915
1.1751088 0.11005567 2.8564527 10197915
1.2243036 0.11001006 2.855269 10197915
1.2746282 0.10996346 2.8540595 10197915
1.3249098 0.10991682 2.8528492 10197915
1.3751487 0.10987029 2.8516417 10197915
1.4218452 0.10982701 2.8505182 10197915
1.8477809 0.10932904 2.8999584 10197915
1.8749795 0.10930384 2.8992896 10197915
1.924618 0.10925789 2.8980708 10197915
1.9742143 0.10921198 2.8968527 10197915
2.0249496 0.109165 2.8956072 10197915
2.0756397 0.10911807 2.894362 10132122
2.1251099 0.10907229 2.8931477 10132122
2.1745381 0.1090265 2.8919334 10132122
2.2251005 0.1089797 2.8906925 10132122
2.2744446 0.10893401 2.8894796 10132122
0.72889203 0.11036487 2.9274335 10197915
0.77468008 0.11032245 2.9263089 10197915
0.825248 0.11027566 2.9250674 10197915
0.87577266 0.11022888 2.9238262 10197915
0.9250536 0.11018326 2.9226167 10197915
0.97429293 0.11013766 2.921407 10197915
1.0246915 0.11009103 2.9201696 10197915
1.0750471 0.1100444 2.9189334 10197915
1.1253605 0.10999782 2.9176977 10197915
1.1756312 0.10995128 2.9164631 10197915
1.225859 0.10990477 2.9152296 10197915
1.276045 0.10985833 2.9139977 10197915
1.3249948 0.109813 2.9127951 10197915
1.3739042 0.10976774 2.9115946 10197915
1.4239645 0.10972136 2.9103646 10197915
1.4739829 0.10967509 2.9091372 10197915
1.5239587 0.10962878 2.9079092 10197915
1.5738932 0.10958258 2.9066839 10197915
1.6249719 0.10953529 2.9054289 10197915
1.6760076 0.10948805 2.9041762 10197915
1.7258132 0.10944193 2.9029524 10197915
1.7755773 0.10939587 2.9017313 10197915
1.8229326 0.10935201 2.9005678 10197915
2.3402996 0.10876589 2.9498527 10132122
0.7370556 0.11024873 2.9900689 10197915
0.77520728 0.1102134 2.9891109 10197915
0.82440108 0.11016794 2.9878776 10197915
0.87478203 0.11012131 2.986613 10197915
0.92512143 0.1100748 2.9853516 10197915
0.97541702 0.11002825 2.9840889 10197915
1.0256711 0.10998179 2.9828296 10197915
1.074658 0.10993644 2.9815996 10197915
1.1248282 0.10989009 2.9803421 10197915
1.1749556 0.10984369 2.9790838 10197915
1.225041 0.10979739 2.977828 10197915
1.2750841 0.10975108 2.9765725 10197915
1.3250849 0.10970487 2.9753184 10197915
1.3750437 0.10965864 2.9740644 10197915
1.4249605 0.1096125 2.9728129 10197915
1.4748352 0.10956635 2.9715624 10197915
1.524668 0.1095203 2.9703131 10197915
1.5756729 0.10947309 2.9690335 10197915
1.6254208 0.10942709 2.9677851 10197915
1.6751269 0.10938111 2.9665384 10197915
1.7247919 0.10933518 2.9652922 10197915
1.7744141 0.10928928 2.9640481 10197915
1.8252043 0.10924233 2.962774 10197915
1.8747427 0.1091965 2.9615312 10197915
1.9242392 0.10915073 2.9602895 10197915
1.9749007 0.10910387 2.9590192 10197915
2.0255184 0.10905705 2.9577489 10132122
2.0748897 0.1090114 2.9565113 10132122
2.1242185 0.10896576 2.9552732 10132122
2.1747084 0.1089191 2.9540074 10132122
2.2251542 0.10887241 2.9527411 10132122
2.2755582 0.10882583 2.9514778 10132122
2.3175282 0.10878696 2.9504244 10132122
0.97909737 0.10991172 3.0494559 10197915
1.0254414 0.10986891 3.0482678 10197915
1.0755028 0.10982265 3.0469849 10197915
1.1255223 0.10977645 3.0457029 10197915
1.1754994 0.10973027 3.0444214 10197915
1.2254347 0.10968412 3.0431416 10197915
1.2753279 0.10963804 3.0418625 10197915
1.3251793 0.10959198 3.0405848 10197915
1.3749889 0.10954596 3.0393078 10197915
1.4247566 0.10949998 3.0380321 10197915
1.4744824 0.10945405 3.0367575 10197915
1.5241668 0.10940813 3.0354841 10197915
1.5750494 0.1093611 3.0341794 10197915
1.6258892 0.10931416 3.0328767 10197915
1.6754463 0.10926834 3.0316062 10197915
1.7249622 0.10922263 3.0303369 10197915
1.7744364 0.10917689 3.0290685 10197915
1.8251051 0.1091301 3.02777 10197915
1.8757298 0.10908331 3.0264716 10197915
1.9250786 0.10903773 3.0252078 10197915
1.9743849 0.10899216 3.0239429 10132122
2.0248821 0.10894553 3.022649 10132122
2.075336 0.10889889 3.0213549 10132122
2.1245179 0.10885347 3.0200953 10132122
2.1748853 0.10880691 3.0188031 10132122
2.2252119 0.10876043 3.0175142 10132122
2.2742679 0.10871509 3.0162554 10132122
2.3245091 0.1086687 3.0149686 10132122
2.3734825 0.10862341 3.0137122 10132122
0.74431783 0.11012867 3.055475 10197915
0.77450007 0.11010076 3.0547006 10197915
0.82477301 0.1100543 3.053412 10197915
0.87500364 0.1100079 3.0521245 10197915
0.92519176 0.10996152 3.050838 10197915
0.95403272 0.1099349 3.0500991 10197915
1.679577 0.10914689 3.0994887 10197915
1.7251377 0.10910481 3.0982938 10197915
1.7757218 0.10905816 3.0969689 10197915
1.8249981 0.10901264 3.0956762 10197915
1.8742346 0.10896723 3.0943866 10197915
1.92469 0.10892063 3.0930634 10132122
1.9751034 0.10887414 3.0917435 10132122
2.0254724 0.10882764 3.0904224 10132122
2.0757995 0.10878122 3.0891044 10132122
2.1260829 0.10873476 3.0877852 10132122
2.1750693 0.1086896 3.0865028 10132122
2.2240126 0.10864439 3.0852189 10132122
2.2741706 0.10859814 3.0839055 10132122
2.3242846 0.10855184 3.0825906 10132122
2.3743577 0.10850567 3.0812795 10132122
2.424386 0.10845945 3.0799673 10132122
0.7776171 0.10997932 3.1231277 10197915
0.82516038 0.10993542 3.1218805 10197915
0.87523383 0.10988923 3.1205692 10197915
0.92526406 0.10984303 3.1192575 10197915
0.97525358 0.10979693 3.1179481 10197915
1.0251997 0.10975079 3.1166377 10197915
1.0751052 0.10970477 3.1153312 10197915
1.1249676 0.1096587 3.1140232 10197915
1.1747894 0.10961278 3.1127186 10197915
1.2245681 0.10956679 3.1114125 10197915
1.275581 0.10951976 3.1100767 10197915
1.325276 0.10947385 3.1087737 10197915
1.3749297 0.10942806 3.1074731 10197915
1.4258124 0.10938106 3.1061387 10197915
1.4753822 0.10933535 3.10484 10197915
1.5249096 0.1092896 3.1035411 10197915
1.5756648 0.1092428 3.102212 10197915
1.6251086 0.10919712 3.1009152 10197915
1.6542506 0.10917027 3.1001525 10197915
2.4494677 0.10831423 3.14996 10132122
2.4750268 0.10829065 3.1492739 10132122
2.5018551 0.10826589 3.1485543 10132122
0.78613806 0.10984764 3.1945541 10197915
0.82425326 0.10981248 3.1935306 10197915
0.87416267 0.10976647 3.192194 10197915
0.92402983 0.10972051 3.1908562 10197915
0.97385556 0.10967458 3.1895208 10197915
1.0249488 0.10962745 3.1881506 10197915
1.0759985 0.10958041 3.1867824 10197915
1.125697 0.10953458 3.1854496 10197915
1.1753541 0.10948882 3.1841185 10197915
1.2249695 0.10944306 3.1827881 10197915
1.2745434 0.10939737 3.1814594 10197915
1.3240761 0.10935171 3.1801317 10197915
1.3748691 0.10930487 3.1787694 10197915
1.4256189 0.10925809 3.1774092 10197915
1.4750253 0.10921254 3.176084 10197915
1.5243912 0.10916705 3.1747613 10197915
1.5750124 0.10912035 3.1734033 10197915
1.6255915 0.10907375 3.1720481 10197915
1.6748313 0.10902834 3.1707275 10197915
1.7253246 0.10898181 3.1693742 10197915
1.7757745 0.10893527 3.1680207 10197915
1.8248901 0.10889004 3.1667051 10197915
1.875255 0.10884358 3.1653538 10132122
1.9255776 0.10879721 3.1640055 10132122
1.974568 0.10875203 3.1626911 10132122
2.024806 0.10870574 3.1613457 10132122
2.0750003 0.10865942 3.1599984 10132122
2.1251533 0.10861322 3.1586549 10132122
2.175262 0.10856698 3.1573107 10132122
2.2253296 0.10852088 3.1559691 10132122
2.2753532 0.10847472 3.1546271 10132122
2.325336 0.10842867 3.1532881 10132122
2.3752749 0.10838261 3.1519477 10132122
2.4238937 0.10833782 3.150646 10132122
1.5251766 0.10903747 3.2492893 10197915
1.575658 0.108991 3.2479038 10197915
1.6260964 0.10894454 3.24652 10197915
1.6751662 0.10889936 3.2451735 10197915
1.7241951 0.10885422 3.2438278 10197915
1.7745072 0.10880789 3.2424476 10132122
1.8247761 0.1087616 3.2410684 10132122
1.8750029 0.10871537 3.2396901 10132122
1.9251862 0.10866913 3.2383127 10132122
1.9753274 0.10862301 3.2369382 10132122
2.0254252 0.10857683 3.2355621 10132122
2.0754819 0.10853078 3.2341893 10132122
2.1254942 0.10848469 3.232816 10132122
2.1754661 0.10843871 3.2314463 10132122
2.225394 0.1083927 3.2300749 10132122
2.275281 0.1083468 3.2287073 10132122
2.3251243 0.10830086 3.2273388 10132122
2.3749268 0.10825505 3.2259734 10132122
2.4246857 0.10820921 3.2246065 10132122
2.4744041 0.10816345 3.2232432 10132122
2.5240788 0.10811768 3.2218797 10197915
2.5554321 0.10808879 3.2210186 10197915
0.7950573 0.1097098 3.2693241 10197915
0.82464832 0.10968251 3.2685113 10197915
0.87572843 0.10963548 3.2671094 10197915
0.92542279 0.10958973 3.2657461 10197915
0.97507489 0.10954399 3.2643833 10197915
1.0246863 0.10949834 3.2630227 10197915
1.0742556 0.10945266 3.2616615 10197915
1.1251224 0.10940585 3.260267 10197915
1.1746085 0.10936025 3.2589078 10197915
1.2240534 0.10931475 3.2575524 10197915
1.2747917 0.10926801 3.2561591 10197915
1.3254869 0.10922136 3.2547688 10197915
1.3748064 0.10917591 3.2534149 10197915
1.4240845 0.10913057 3.2520635 10197915
1.4746523 0.10908398 3.2506752 10197915
2.525955 0.10798191 3.2992978 10197915
2.5754449 0.10793648 3.2979097 10197915
2.6115334 0.10790333 3.2968969 10197915
0.8305698 0.10954107 3.3469365 10197915
0.87599242 0.10949926 3.345659 10197915
0.92550606 0.10945376 3.3442693 10197915
0.97497803 0.10940823 3.3428783 10197915
1.0244093 0.1093628 3.3414898 10197915
1.0751705 0.1093161 3.3400631 10197915
1.1258887 0.10926947 3.3386378 10197915
1.1751946 0.10922412 3.3372526 10197915
1.2244594 0.10917881 3.3358681 10197915
1.27505 0.1091323 3.3344471 10197915
