# .PCD v0.7 - Point Cloud Data file format
VERSION 0.7
FIELDS x y z rgb
SIZE 4 4 4 4
TYPE F F F U
COUNT 1 1 1 1
WIDTH 1220
HEIGHT 1
VIEWPOINT 0 0 0 1 0 0 0
POINTS 1220
DATA ascii
2.3744361 -1.9250947 4.4538183 2960685
2.4239633 -1.9249281 4.4600849 2960685
2.4744122 -1.925097 4.4664626 2960685
2.5260479 -1.9249313 4.4729958 2960685
2.5752978 -1.9251552 4.4792233 2960685
2.6254957 -1.9250814 4.4855723 2960685
2.6763496 -1.9248694 4.4920053 2960685
2.7201314 -1.9251384 4.497541 2960685
2.3452487 -1.8750923 4.4504037 2960685
2.3750219 -1.8749682 4.4541698 2960685
2.424881 -1.8748372 4.4604759 2960685
2.4736686 -1.8752778 4.4666448 2960685
2.5255377 -1.874892 4.4732084 2960685
2.5762959 -1.8750024 4.4796262 2960685
2.6241171 -1.8749225 4.4856753 2960685
2.673764 -1.8748826 4.4919543 2960685
2.7188687 -1.8750964 4.4976597 2960685
2.3445137 -1.8228775 4.4505997 2960685
2.3751607 -1.8249825 4.454464 2960685
2.4241843 -1.825086 4.4606638 2960685
2.4746246 -1.8251362 4.4670439 2960685
2.5246706 -1.8249592 4.4733739 2960685
2.5737512 -1.8248889 4.4795814 2960685
2.6240685 -1.8248744 4.4859462 2960685
2.6748879 -1.8250248 4.4923735 2960685
2.7177346 -1.8255783 4.4977889 2960685
2.3436842 -1.7750266 4.4507589 2960685
2.374896 -1.7749991 4.4547067 2960685
2.4251974 -1.7749768 4.4610691 2960685
2.474365 -1.7750113 4.4672871 2960685
2.523891 -1.7749107 4.4735522 2960685
2.5746996 -1.7750189 4.4799771 2960685
2.6243525 -1.7749656 4.486258 2960685
2.6741478 -1.7749119 4.492557 2960685
2.7171996 -1.7751524 4.4979997 2960685
2.3422449 -1.7237875 4.45086 2960685
2.3758614 -1.7248404 4.4551063 2960685
2.4245005 -1.7252158 4.4612565 2960685
2.4745104 -1.7248722 4.4675832 2960685
2.5248475 -1.7249628 4.4739494 2960685
2.5739584 -1.7250414 4.4801607 2960685
2.6246357 -1.7250496 4.4865708 2960685
2.6751983 -1.7248977 4.4929662 2960685
2.7155213 -1.7257062 4.4980617 2960685
2.3419247 -1.6743832 4.4510932 2960685
2.3750708 -1.67514 4.4552817 2960685
2.4253337 -1.6749433 4.4616399 2960685
2.4749937 -1.6748608 4.4679208 2960685
2.5242267 -1.6750532 4.4741468 2960685
2.5750418 -1.6750175 4.4805741 2960685
2.6244473 -1.6751411 4.4868221 2960685
2.674551 -1.6747723 4.4931612 2960685
2.7152593 -1.6753716 4.4983072 2960685
2.3401041 -1.624611 4.451139 2960685
2.3761017 -1.6249645 4.4556894 2960685
2.425143 -1.6250017 4.4618921 2960685
2.4746175 -1.6248633 4.4681497 2960685
2.5252194 -1.6249342 4.4745483 2960685
2.5743008 -1.6250291 4.4807563 2960685
2.6252041 -1.6251975 4.4871936 2960685
2.675396 -1.6248906 4.4935431 2960685
2.7135878 -1.6253628 4.4983716 2960685
2.3396218 -1.5739027 4.4513578 2960685
2.3754487 -1.5752505 4.4558825 2960685
2.425287 -1.5748892 4.4621873 2960685
2.4755311 -1.5748252 4.4685421 2960685
2.5245235 -1.5750159 4.4747367 2960685
2.5753841 -1.5749894 4.4811707 2960685
2.6247096 -1.5751317 4.4874086 2960685
2.6753149 -1.5750244 4.4938092 2960685
2.7131979 -1.5755849 4.4985986 2960685
2.3384395 -1.5251484 4.451478 2960685
2.3761492 -1.5250688 4.4562488 2960685
2.4258296 -1.5249103 4.4625335 2960685
2.4748778 -1.5249658 4.4687357 2960685
2.5255651 -1.5248799 4.4751468 2960685
2.5746434 -1.5249916 4.4813533 2960685
2.625555 -1.5250151 4.487793 2960685
2.6752329 -1.5251527 4.4940753 2960685
2.7117679 -1.5245531 4.4986997 2960685
2.3373954 -1.4744422 4.4516277 2960685
2.3761067 -1.4751579 4.4565187 2960685
2.4251981 -1.4748358 4.4627295 2960685
2.4759028 -1.47491 4.469142 2960685
2.5248451 -1.4749516 4.4753318 2960685
2.5757525 -1.4750772 4.48177 2960685
2.6250606 -1.4749379 4.4880071 2960685
2.6760075 -1.4751065 4.4944501 2960685
2.7109704 -1.4756376 4.4988689 2960685
2.337029 -1.4248582 4.4518542 2960685
2.3741155 -1.4250491 4.4565439 2960685
2.4243312 -1.4249218 4.4628963 2960685
2.4751592 -1.4250419 4.4693241 2960685
2.5259013 -1.4249535 4.4757428 2960685
2.5749652 -1.4250696 4.4819474 2960685
2.6260073 -1.4251117 4.4884019 2960685
2.6742992 -1.4253771 4.4945097 2960685
2.7088888 -1.424185 4.4988909 2960685
2.3349385 -1.3748025 4.4518676 2960685
2.3749437 -1.3748031 4.4569268 2960685
2.423676 -1.3751194 4.463089 2960685
2.4762526 -1.3749681 4.4697399 2960685
2.5251818 -1.3750145 4.4759278 2960685
2.5760958 -1.3749958 4.4823675 2960685
2.6253135 -1.3750302 4.4885921 2960685
2.6744447 -1.3750045 4.4948058 2960685
2.7064288 -1.3758576 4.4988465 2960685
2.3347676 -1.3240975 4.452126 2960685
2.3742442 -1.325071 4.4571142 2960685
2.4247172 -1.3249694 4.4634976 2960685
2.4754643 -1.3250905 4.4699154 2960685
2.5262372 -1.3250004 4.4763379 2960685
2.5753093 -1.3249782 4.4825444 2960685
2.6263723 -1.3250299 4.4890027 2960685
2.673753 -1.3248501 4.4949961 2960685
2.7061889 -1.3260672 4.4990916 2960685
2.3330598 -1.2749734 4.4521818 2960685
2.3752148 -1.2748046 4.4575148 2960685
2.4239264 -1.2751601 4.4636731 2960685
2.4754632 -1.2755282 4.47019 2960685
2.5243192 -1.274527 4.4763741 2960685
2.5754576 -1.2755768 4.4828377 2960685
2.6245933 -1.2743996 4.4890575 2960685
2.6747704 -1.275085 4.4954004 2960685
2.7045975 -1.2749441 4.4991736 2894892
2.3322723 -1.2241278 4.4523635 2960685
2.3745902 -1.2250584 4.4577107 2960685
2.4249649 -1.2248536 4.4640837 2960685
2.4738345 -1.225116 4.4702635 2960685
2.5246129 -1.2250245 4.476686 2960685
2.573698 -1.2250166 4.4828944 2960685
2.6246848 -1.2250594 4.4893436 2894892
2.6741526 -1.2249163 4.4955993 2894892
2.7040362 -1.2270429 4.4993682 2894892
2.3316283 -1.1750356 4.4525533 2960685
2.3752751 -1.1747892 4.4580746 2960685
2.4243104 -1.1750283 4.4642763 2960685
2.4748304 -1.1748459 4.4706674 2960685
2.5238254 -1.1750636 4.4768624 2960685
2.5746996 -1.1750686 4.4832969 2894892
2.6240354 -1.1749519 4.4895377 2894892
2.6747236 -1.1753107 4.4959474 2894892
2.7029419 -1.1743813 4.4995208 2894892
2.3300686 -1.124959 4.4526329 2960685
2.3751633 -1.1250088 4.4583359 2960685
2.4251277 -1.1248564 4.4646568 2960685
2.4742079 -1.1249487 4.4708629 2960685
2.5249488 -1.1250238 4.4772816 2894892
2.57408 -1.1250303 4.4834957 2894892
2.6247575 -1.1252148 4.4899039 2894892
2.674901 -1.1250957 4.4962468 2894892
2.7018495 -1.1275764 4.4996419 2894892
2.3299649 -1.07471 4.4528971 2960685
2.3754599 -1.07505 4.4586511 2960685
2.4247909 -1.0750082 4.46489 2960685
2.4750972 -1.0748222 4.4712534 2894892
2.5241601 -1.0750526 4.4774585 2894892
2.5748956 -1.0752292 4.4838738 2894892
2.6246579 -1.075075 4.4901686 2894892
2.6750798 -1.0748734 4.4965463 2894892
2.7012789 -1.0756644 4.4998565 2894892
2.3278196 -1.025263 4.4529004 2960685
2.3757572 -1.0250839 4.4589643 2960685
2.4252086 -1.0248373 4.4652209 2894892
2.474597 -1.0249078 4.4714651 2894892
2.525285 -1.0249962 4.4778767 2894892
2.5745714 -1.0251664 4.4841094 2894892
2.624965 -1.0250547 4.4904852 2894892
2.6755009 -1.0249426 4.4968772 2894892
2.3263731 -0.97471237 4.4529958 2960685
2.3741987 -0.97483695 4.4590449 2894892
2.4253695 -0.9749552 4.4655166 2894892
2.4753406 -0.97477269 4.471837 2894892
2.5244963 -0.97501451 4.4780545 2894892
2.5749841 -0.97537047 4.484437 2894892
2.6251411 -0.97488999 4.4907842 2894892
2.6745985 -0.97515917 4.4970388 2894892
2.3240736 -0.92505431 4.4529815 2894892
2.3743658 -0.92497516 4.459343 2894892
2.4255302 -0.92506617 4.4658132 2894892
2.4750128 -0.92483819 4.4720736 2894892
2.5255985 -0.92508572 4.4784698 2894892
2.575156 -0.9252699 4.4847364 2894892
2.6253152 -0.92471892 4.4910836 2894892
2.674006 -0.92510521 4.4972401 2894892
2.2990053 -0.87019271 4.4501138 2960685
2.3246593 -0.87451226 4.4533343 2894892
2.3737113 -0.87518972 4.4595356 2894892
2.4256909 -0.87517095 4.4661093 2894892
2.4755609 -0.8746984 4.4724202 2894892
2.5248568 -0.87509131 4.4786534 2894892
2.5753267 -0.87516326 4.4850349 2894892
2.6258264 -0.87495387 4.4914231 2894892
2.6722014 -0.87546575 4.4972868 2894892
2.2988825 -0.82439178 4.4503512 2960685
2.3248129 -0.82475311 4.4536295 2894892
2.3747435 -0.824893 4.4599433 2894892
2.4258523 -0.82526827 4.4664063 2894892
2.4754541 -0.82474065 4.472681 2894892
2.5258913 -0.82515025 4.4790602 2894892
2.5754983 -0.82504952 4.4853354 2894892
2.6253142 -0.82480198 4.4916363 2894892
2.6719372 -0.82542944 4.49753 2894892
2.2973258 -0.77437919 4.4504313 2960685
2.3249664 -0.77498692 4.4539223 2894892
2.3739522 -0.77510333 4.4601183 2894892
2.4260132 -0.77535975 4.466701 2894892
2.4757595 -0.77459961 4.4729981 2894892
2.5252402 -0.7751404 4.4792538 2894892
2.5756702 -0.77492923 4.4856324 2894892
2.6257651 -0.77558792 4.4919653 2894892
2.6697953 -0.77489728 4.4975381 2894892
2.2963753 -0.7222054 4.4506001 2960685
2.3251204 -0.72521424 4.4542193 2894892
2.3748286 -0.72465712 4.4605093 2894892
2.4249306 -0.72590011 4.4668398 2894892
2.4745133 -0.72418118 4.4731188 2894892
2.5260677 -0.72533667 4.4796338 2894892
2.5758417 -0.72480214 4.4859319 2894892
2.6235714 -0.72503513 4.4919667 2894892
2.6678348 -0.72525889 4.4975643 2894892
2.2956574 -0.67486751 4.4507704 2960685
2.325274 -0.67543519 4.4545145 2894892
2.3744895 -0.67483371 4.460742 2894892
2.4243472 -0.67548454 4.4670444 2894892
2.4740965 -0.6745832 4.4733415 2894892
2.5250406 -0.67575568 4.4797778 2894892
2.575206 -0.67419213 4.4861326 2894892
2.6241755 -0.6755839 4.4923167 2894892
2.6664281 -0.67452502 4.4976673 2894892
2.2942023 -0.62396723 4.4508686 2960685
2.3258252 -0.62501061 4.4548626 2894892
2.374902 -0.62468082 4.4610705 2894892
2.4245083 -0.6255585 4.4673405 2894892
2.4742618 -0.624587 4.473639 2894892
2.5241466 -0.62546724 4.4799438 2894892
2.5743146 -0.6246286 4.4862933 2894892
2.6243501 -0.62537545 4.4926171 2894892
2.6655779 -0.62495011 4.4978342 2894892
2.2938166 -0.57491779 4.4510908 2960685
2.3251982 -0.57526547 4.4550586 2894892
2.3750596 -0.57481825 4.4613671 2894892
2.424922 -0.57530218 4.4676709 2894892
2.4744265 -0.57458407 4.4739351 2894892
2.5243156 -0.57539409 4.4802418 2894892
2.5742118 -0.57449919 4.4865575 2894892
2.6245258 -0.57516056 4.4929171 2894892
2.6647623 -0.57581162 4.4980035 2894892
2.29038 -0.52594757 4.4509273 2960685
2.3242311 -0.52446026 4.4552169 2894892
2.3752167 -0.52494901 4.4616623 2894892
2.424592 -0.52539366 4.4679046 2894892
2.4745905 -0.52457452 4.4742336 2894892
2.5244837 -0.52531403 4.4805398 2894892
2.5750008 -0.52502805 4.4869308 2894892
2.6247005 -0.5249387 4.493217 2894892
2.6634023 -0.52611917 4.498106 2894892
2.2895422 -0.47440204 4.4511061 2960685
2.3235745 -0.47482654 4.4554086 2894892
2.3753748 -0.47507372 4.4619594 2894892
2.4253302 -0.47525695 4.468276 2894892
2.4747555 -0.47455832 4.4745317 2894892
2.5246515 -0.47522718 4.4808383 2894892
2.5742126 -0.4749254 4.4871087 2894892
2.6248755 -0.4747104 4.4935174 2894892
2.6629686 -0.47546747 4.4983315 2894892
2.2885315 -0.42414325 4.4512563 2960685
2.3240733 -0.42457145 4.4557495 2894892
2.3755326 -0.42519113 4.462255 2894892
2.4248283 -0.42534757 4.4684882 2894892
2.4749196 -0.42453554 4.4748292 2894892
2.5248196 -0.42513391 4.4811368 2894892
2.574863 -0.42573416 4.487463 2894892
2.6250508 -0.42447516 4.4938188 2894892
2.6612663 -0.42490762 4.4983954 2894892
2.2872467 -0.37346554 4.451375 2960685
2.324228 -0.3747552 4.4560442 2894892
2.3756895 -0.37530226 4.4625502 2894892
2.4257128 -0.37518615 4.4688768 2894892
2.4750841 -0.37450594 4.4751267 2894892
2.5249884 -0.37503392 4.4814339 2894892
2.5750341 -0.37556341 4.487762 2894892
2.6252265 -0.37423345 4.4941187 2894892
2.6607523 -0.3756285 4.4986029 2894892
2.2868626 -0.32458648 4.4515963 2960685
2.3243818 -0.32493234 4.4563403 2894892
2.3758481 -0.32540673 4.4628468 2894892
2.4250879 -0.32527354 4.4690747 2894892
2.4752491 -0.32446983 4.4754233 2894892
2.5251563 -0.32492724 4.4817333 2894892
2.575206 -0.3253859 4.488061 2894892
2.6253946 -0.32584602 4.4944053 2894892
2.6596076 -0.32429659 4.4987416 2894892
2.285042 -0.27479473 4.4516416 2960685
2.3245358 -0.275103 4.4566336 2894892
2.3760045 -0.27550471 4.4631419 2894892
2.42607 -0.27509034 4.4694772 2894892
2.4754136 -0.27442688 4.4757223 2894892
2.5253248 -0.27481383 4.4820313 2894892
2.5753775 -0.27520192 4.4883599 2894892
2.625571 -0.27559105 4.4947076 2894892
2.6584861 -0.27518106 4.4988723 2894892
2.2845767 -0.22428785 4.4518614 2960685
2.3246903 -0.22526684 4.4569297 2894892
2.3756258 -0.22600813 4.4633684 2894892
2.4247649 -0.22474259 4.4695907 2894892
2.4755781 -0.22437745 4.4760184 2894892
2.5254929 -0.22469383 4.4823303 2894892
2.5755494 -0.22501107 4.4886599 2894892
2.625746 -0.22532928 4.4950075 2894892
2.6579416 -0.22553338 4.4990783 2894892
2.2833726 -0.17521802 4.4519811 2960685
2.3248436 -0.1754244 4.4572248 2894892
2.3743358 -0.17567071 4.4634833 2894892
2.4244502 -0.17503108 4.4698257 2894892
2.4757426 -0.17432129 4.4763174 2894892
2.5256605 -0.17456706 4.4826288 2894892
2.5757213 -0.17481357 4.4889588 2894892
2.6259212 -0.17506078 4.495307 2894892
2.6562908 -0.17577383 4.4991441 2894892
2.2823422 -0.12468582 4.4521308 2960685
2.3249977 -0.12557513 4.45752 2894892
2.3744948 -0.12575145 4.4637794 2894892
2.4236593 -0.12510571 4.4700012 2894892
2.4759078 -0.12425846 4.4766145 2894892
2.5258276 -0.1244337 4.4829264 2894892
2.5753078 -0.12501335 4.489182 2894892
2.6254447 -0.12436465 4.4955273 2894892
2.6558156 -0.12680724 4.4993553 2894892
2.2817025 -0.075626016 4.4523201 2960685
2.3251512 -0.075719334 4.4578152 2894892
2.374651 -0.075825699 4.4640765 2894892
2.4247451 -0.074761137 4.4704185 2894892
2.4749703 -0.074698582 4.4767694 2894892
2.5248182 -0.073784977 4.4830794 2894892
2.5740581 -0.074394301 4.4893045 2894892
2.6242623 -0.074499518 4.4956532 2894892
2.6544456 -0.074562788 4.4994712 2894892
2.2800102 -0.025651248 4.4523835 2960685
2.3253057 -0.025856899 4.4581103 2894892
2.3748085 -0.025893208 4.4643712 2894892
2.4239993 -0.024822013 4.4705992 2894892
2.4742417 -0.024111496 4.4769564 2894892
2.5241654 -0.024145501 4.4832721 2894892
2.57423 -0.024179598 4.4896035 2894892
2.6244371 -0.0242138 4.495954 2894892
2.653713 -0.028376503 4.4996333 2894892
2.2794371 0.026337614 4.4525986 2960685
2.3254652 0.025859265 4.4584165 2894892
2.3749721 0.025895579 4.4646792 2894892
2.424202 0.024678655 4.4708991 2894892
2.4744003 0.024113556 4.4772449 2894892
2.5243287 0.024147566 4.4835587 2894892
2.5743954 0.024181664 4.4898925 2894892
2.6246064 0.024215879 4.496243 2894892
2.6527791 0.024235068 4.4998069 2894892
2.2781899 0.066408746 4.4526615 2960685
2.3255913 0.06649816 4.4586577 2960685
2.3751004 0.066591583 4.46492 2960685
2.4253807 0.065358229 4.4712739 2960685
2.4745336 0.064924069 4.4774876 2960685
2.5244648 0.065015629 4.4838033 2894892
2.5745351 0.06510745 4.4901361 2894892
2.6246722 0.06543342 4.4955559 2894892
2.6730616 0.076593272 4.4841957 2960685
2.7254484 0.079724185 4.4752703 2960685
2.7749913 0.079603031 4.4684691 2960685
2.8260858 0.079478092 4.4614553 2960685
2.8753254 0.079357684 4.4546962 2960685
2.9041264 0.079287268 4.4507442 2960685
2.7463586 -2.0061655 4.5004101 2960685
2.774667 -2.0077577 4.503983 2960685
2.8253253 -2.0087426 4.5103841 2960685
2.8751535 -2.0103724 4.5166774 2960685
2.9259279 -2.0118876 4.5230908 2960685
2.9761147 -2.0134723 4.5294299 2960685
3.0255349 -2.0145068 4.5356746 2960685
3.0753105 -2.0160096 4.5419612 2960685
3.119509 -2.0180547 4.5475402 2960685
2.7446289 -1.9727455 4.5003767 2960685
2.7752712 -1.9751099 4.5042391 2960685
2.8257105 -1.97488 4.5106196 2960685
2.8737841 -1.9749441 4.5166993 2960685
2.9251058 -1.9749548 4.5231905 2960685
2.976712 -1.9752512 4.529716 2960685
3.025311 -1.9751585 4.5358634 2960685
3.0743327 -1.9747453 4.5420671 2960685
3.1183822 -1.9752666 4.5476351 2960685
2.744493 -1.9243547 4.500627 2960685
2.7744877 -1.9248717 4.5044184 2960685
2.8257287 -1.9250238 4.5108976 2960685
2.874825 -1.9249986 4.517108 2960685
2.9250143 -1.9250691 4.5234551 2960685
2.9761641 -1.9248852 4.5299253 2960685
3.0261121 -1.9253179 4.536242 2960685
3.0751286 -1.9249942 4.5424414 2960685
3.1170325 -1.9252456 4.5477409 2960685
2.7426991 -1.8751705 4.5006723 2960685
2.7755795 -1.875026 4.5048318 2960685
2.8254828 -1.8750135 4.5111442 2960685
2.8743479 -1.8747692 4.5173259 2960685
2.9242854 -1.8754106 4.5236373 2960685
2.9746442 -1.8748738 4.5300097 2960685
3.0254037 -1.8747243 4.5364337 2960685
3.0755074 -1.8752451 4.5427628 2960685
3.1163979 -1.8747363 4.5479398 2960685
2.7420666 -1.8238064 4.5008764 2960685
2.7750688 -1.8249137 4.5050445 2960685
2.8264666 -1.8251203 4.5115442 2960685
2.8746576 -1.8249807 4.5176396 2960685
2.92328 -1.8246771 4.5237908 2960685
2.9753072 -1.8253003 4.5303674 2960685
3.0260608 -1.82503 4.5367885 2960685
3.0749373 -1.8247294 4.5429726 2960685
3.1153538 -1.8262343 4.5480762 2960685
2.741142 -1.7752154 4.5010285 2960685
2.775528 -1.775064 4.5053778 2960685
2.8257554 -1.7747985 4.5117326 2960685
2.8754277 -1.7751731 4.518013 2960685
2.9239137 -1.7749618 4.5241456 2960685
2.9745278 -1.7747643 4.5305486 2960685
3.0267165 -1.7753276 4.5371466 2960685
3.075598 -1.7749594 4.5433316 2960685
3.1147478 -1.7750093 4.5482831 2960685
2.7398396 -1.7238133 4.5011477 2960685
2.7748468 -1.7257003 4.5055647 2960685
2.8253684 -1.7245535 4.5119605 2960685
2.8747413 -1.7247765 4.5182047 2960685
2.9245443 -1.7252378 4.5245018 2960685
2.9752128 -1.7250563 4.53091 2960685
3.0260077 -1.7247188 4.5373368 2960685
3.0762491 -1.7253382 4.5436864 2960685
3.1127639 -1.7244782 4.5483117 2960685
2.7394891 -1.6746492 4.5013752 2960685
2.7734673 -1.6750339 4.5056715 2960685
2.8246427 -1.6750536 4.5121436 2960685
2.8756325 -1.6751065 4.5185928 2960685
2.9238591 -1.6747668 4.5246944 2960685
2.9750464 -1.6758586 4.5311623 2960685
3.0256784 -1.6744699 4.5375743 2960685
3.0757029 -1.6748049 4.5438981 2960685
3.1126823 -1.6760012 4.5485697 2894892
2.7376525 -1.6243151 4.5014224 2960685
2.7744954 -1.6251825 4.5060768 2960685
2.8243864 -1.6249901 4.5123882 2960685
2.8755667 -1.6249911 4.5188618 2960685
2.9246387 -1.6251811 4.5250659 2960685
2.9731066 -1.6247692 4.5312004 2960685
3.0253055 -1.6252582 4.5377998 2960685
3.0760694 -1.6248654 4.5442209 2894892
3.1114264 -1.6255076 4.5486898 2894892
2.7375178 -1.5746148 4.5016794 2960685
2.7738068 -1.5749125 4.5062675 2960685
2.8254151 -1.5751716 4.5127935 2960685
2.8754997 -1.5748698 4.5191298 2960685
2.9248893 -1.5751357 4.5253754 2960685
2.9737587 -1.5751129 4.5315566 2960685
3.0245268 -1.5746322 4.537981 2894892
3.0767655 -1.5753776 4.5445824 2894892
3.1102958 -1.5761707 4.54882 2894892
2.7357843 -1.5250767 4.5017338 2960685
2.7746823 -1.525051 4.5066543 2960685
2.8246317 -1.5248219 4.5129733 2960685
2.8763912 -1.5251768 4.5195174 2960685
2.9245398 -1.5247935 4.52561 2960685
2.9743953 -1.5252919 4.5319118 2894892
3.025218 -1.5248266 4.538341 2894892
3.0765319 -1.5249732 4.5448318 2894892
3.1095953 -1.524644 4.549016 2894892
2.7350247 -1.4744873 4.5019178 2960685
2.7745001 -1.4749073 4.5069084 2960685
2.825448 -1.4751394 4.513351 2960685
2.8757043 -1.4747518 4.5197101 2960685
2.925426 -1.4751811 4.5259953 2894892
2.9737108 -1.4747294 4.5321054 2894892
3.0240977 -1.4755902 4.5384746 2894892
3.074698 -1.4744796 4.544879 2894892
3.1081333 -1.4766815 4.5490971 2894892
2.7343392 -1.4249884 4.5021052 2960685
2.7746544 -1.4249011 4.5072055 2960685
2.8256967 -1.4251779 4.513659 2960685
2.8763318 -1.4250549 4.5200644 2894892
2.9250762 -1.4248259 4.5262289 2894892
2.9743516 -1.4252076 4.5324607 2894892
3.023165 -1.4246732 4.5386343 2894892
3.0751171 -1.4252937 4.5452061 2894892
3.107734 -1.4259875 4.5493264 2894892
2.7326424 -1.3744556 4.5021701 2960685
2.775414 -1.3751761 4.507576 2960685
2.8236358 -1.3751646 4.5136747 2894892
2.8752322 -1.374975 4.5202022 2894892
2.9253273 -1.3747555 4.5265393 2894892
2.9749496 -1.3752103 4.5328135 2894892
3.0237679 -1.3746084 4.5389891 2894892
3.0755041 -1.3752615 4.5455308 2894892
3.1060922 -1.3739932 4.5494075 2894892
2.7326519 -1.3246528 4.5024467 2960685
2.7747247 -1.3248788 4.5077672 2894892
2.8242419 -1.325251 4.5140276 2894892
2.874212 -1.3247707 4.5203509 2894892
2.9260726 -1.3252819 4.526907 2894892
2.9743402 -1.3246284 4.5330153 2894892
3.0243151 -1.3253196 4.539331 2894892
3.072876 -1.3246638 4.545476 2894892
3.103616 -1.3271912 4.5493507 2894892
2.7304847 -1.2747864 4.5024481 2894892
2.7756925 -1.2751309 4.5081654 2894892
2.8236289 -1.2748767 4.5142283 2894892
2.8750126 -1.2752783 4.5207253 2894892
2.9254603 -1.2747631 4.5271096 2894892
2.9749455 -1.2752424 4.5333648 2894892
3.0239697 -1.2748078 4.5395646 2894892
3.0735264 -1.2749838 4.5458355 2894892
3.1023712 -1.2760054 4.5494771 2894892
2.7302973 -1.2246312 4.5027032 2894892
2.775203 -1.2248142 4.5083809 2894892
2.8242128 -1.2250695 4.5145779 2894892
2.875175 -1.2250818 4.5210242 2894892
2.926054 -1.2248141 4.5274606 2894892
2.9755437 -1.2252239 4.5337162 2894892
3.0242283 -1.2245796 4.5398765 2894892
3.074141 -1.2254539 4.5461874 2894892
3.1015859 -1.2296228 4.5496354 2894892
2.72895 -1.17492 4.5028071 2894892
2.7757192 -1.1749151 4.5087223 2894892
2.8247335 -1.1751015 4.5149212 2894892
2.8749926 -1.1747475 4.5212793 2894892
2.9266915 -1.1753228 4.5278144 2894892
2.9749341 -1.1746249 4.5339212 2894892
3.0247138 -1.1754292 4.540215 2894892
3.0735338 -1.1747156 4.546391 2894892
3.1007283 -1.1743181 4.5498319 2894892
2.7277887 -1.1245394 4.5029383 2894892
2.7762976 -1.1251605 4.5090709 2894892
2.8242443 -1.124705 4.5151377 2894892
2.8758671 -1.1252292 4.5216641 2894892
2.9260056 -1.124791 4.5280099 2894892
2.9755399 -1.125218 4.5342703 2894892
3.024884 -1.1250336 4.5405116 2894892
3.0741413 -1.1245464 4.5467463 2894892
3.100837 -1.1479695 4.5499921 2894892
2.7278628 -1.0750442 4.503222 2894892
2.7756834 -1.0748321 4.5092711 2894892
2.8250322 -1.0753332 4.5155115 2894892
2.8732655 -1.0748023 4.5216141 2894892
2.9245958 -1.0749134 4.5281067 2894892
2.9761379 -1.0751768 4.5346222 2894892
3.0247157 -1.074491 4.540772 2894892
3.0740452 -1.075901 4.5470028 2894892
2.7248385 -1.0251508 4.5031166 2894892
2.7760348 -1.0250068 4.5095921 2894892
2.8247204 -1.0249166 4.5157495 2894892
2.8737893 -1.0247455 4.5219579 2894892
2.9252796 -1.0253197 4.5284662 2894892
2.9755292 -1.0245616 4.5348272 2894892
3.0251739 -1.0253212 4.5411043 2894892
3.072814 -1.0252842 4.5471258 2894892
2.6976662 -0.95825863 4.5000486 2894892
2.7241971 -0.97525084 4.5033107 2894892
2.7741852 -0.97497576 4.5096345 2894892
2.8251534 -0.97476918 4.5160818 2894892
2.8744211 -0.97529876 4.5223107 2894892
2.9244993 -0.97477341 4.5286474 2894892
2.9761338 -0.97513288 4.5351777 2894892
3.0257769 -0.97519767 4.5414557 2894892
3.0714557 -0.97508776 4.5472326 2894892
2.6977863 -0.92474186 4.5002503 2894892
2.7237051 -0.92497385 4.5035272 2894892
2.7746172 -0.92487025 4.5099659 2894892
2.8257899 -0.92522669 4.5164371 2894892
2.8737345 -0.92481995 4.5225029 2894892
2.9251788 -0.92502254 4.5290103 2894892
2.9767716 -0.92522472 4.535531 2894892
3.0251698 -0.92450154 4.5416551 2894892
3.0708358 -0.92501706 4.547431 2894892
2.6964426 -0.87087703 4.5003777 2894892
2.724216 -0.87510592 4.5038681 2894892
2.7752109 -0.87503636 4.5103168 2894892
2.8250773 -0.87481236 4.5166259 2894892
2.8743618 -0.87504822 4.5228581 2894892
2.9257226 -0.87540406 4.5293517 2894892
2.9759254 -0.8744486 4.535707 2894892
3.0257792 -0.87499022 4.5420113 2894892
3.0696225 -0.87630647 4.5475469 2894892
2.6961229 -0.82599038 4.5005865 2894892
2.7243984 -0.82478195 4.504168 2894892
2.7745655 -0.82467985 4.5105143 2894892
2.8257155 -0.82525682 4.5169806 2894892
2.8749497 -0.82511467 4.5232091 2894892
2.9230719 -0.82472664 4.5292959 2894892
2.9746802 -0.82494086 4.5358224 2894892
3.0263894 -0.82547122 4.5423574 2894892
3.0689156 -0.82522434 4.5477409 2894892
2.6944921 -0.77454281 4.5006642 2894892
2.724581 -0.77445108 4.5044699 2894892
2.7751682 -0.77555025 4.5108619 2894892
2.8259044 -0.77478266 4.5172834 2894892
2.8743384 -0.77461511 4.5234094 2894892
2.9237187 -0.77502787 4.5296545 2894892
2.9753475 -0.77538836 4.5361824 2894892
3.0257809 -0.77475792 4.5425658 2894892
3.0673304 -0.77436793 4.5478206 2894892
2.6938951 -0.72401917 4.5008674 2894892
2.7251635 -0.72533357 4.504817 2894892
2.7753544 -0.72514099 4.5111642 2894892
2.8260939 -0.72430223 4.5175862 2894892
2.8749342 -0.72529167 4.5237589 2894892
2.9243653 -0.72532052 4.5300117 2894892
2.9746127 -0.7247436 4.5363693 2894892
3.0263841 -0.7245993 4.5429153 2894892
3.0669491 -0.7260949 4.5480404 2894892
2.6926303 -0.67502171 4.5009799 2894892
2.7245471 -0.67503488 4.5050154 2894892
2.7755399 -0.67472565 4.511467 2894892
2.826277 -0.67568463 4.5178785 2894892
2.8752615 -0.67488343 4.5240774 2894892
2.923655 -0.67474651 4.5302005 2894892
2.9752748 -0.67474502 4.5367265 2894892
3.0265808 -0.67570931 4.5432124 2894892
3.0658913 -0.67507505 4.5481863 2894892
2.691618 -0.62336963 4.5011368 2894892
2.725122 -0.62528318 4.5053635 2894892
2.7746158 -0.62554014 4.5116224 2894892
2.8248453 -0.62481773 4.5179791 2894892
2.8751776 -0.62433624 4.5243473 2894892
2.9243021 -0.62502611 4.5305581 2894892
2.9737539 -0.62614983 4.5368066 2894892
3.0250049 -0.62465042 4.5432978 2894892
3.0644736 -0.62521064 4.548285 2894892
2.690973 -0.57437223 4.5013261 2894892
2.7253036 -0.57492572 4.5056663 2894892
2.7734311 -0.57480228 4.5117526 2894892
2.8246248 -0.57465702 4.5182281 2894892
2.8755071 -0.5754751 4.5246592 2894892
2.9249506 -0.57529682 4.5309148 2894892
2.9736176 -0.57517403 4.5370708 2894892
3.024935 -0.57411516 4.5435686 2894892
3.0640242 -0.57473934 4.5485072 2894892
2.6894031 -0.52349138 4.5014086 2894892
2.7254865 -0.52456158 4.5059667 2894892
2.7740636 -0.52527654 4.5121074 2894892
2.825233 -0.52542341 4.5185771 2894892
2.8757005 -0.52489817 4.5249629 2894892
2.924238 -0.52470666 4.5311036 2894892
2.9738185 -0.52445859 4.5373764 2894892
3.0251327 -0.52520829 4.5438638 2894892
3.0625298 -0.52637315 4.5485849 2894892
2.6891315 -0.47528553 4.5016408 2894892
2.7261045 -0.47525057 4.5063171 2894892
2.7742496 -0.47483677 4.5124092 2894892
2.8245881 -0.47495943 4.5187759 2894892
2.8758931 -0.47431535 4.5252666 2894892
2.9248862 -0.47496435 4.5314617 2894892
2.9740112 -0.47561517 4.5376697 2894892
3.0246649 -0.47597075 4.544076 2894892
3.0608547 -0.47428814 4.5486593 2894892
2.6874726 -0.4252204 4.5017085 2894892
2.7254136 -0.4249292 4.5065098 2894892
2.774436 -0.42439049 4.512712 2894892
2.8251872 -0.4249936 4.5191269 2894892
2.8760798 -0.42559889 4.5255618 2894892
2.9254873 -0.42552915 4.5318098 2894892
2.9742119 -0.42488638 4.5379763 2894892
3.0230372 -0.42471364 4.5441518 2894892
3.0584564 -0.42400014 4.5486374 2894892
2.6868143 -0.37410536 4.5019078 2894892
2.7260275 -0.37529469 4.5068603 2894892
2.774615 -0.37580597 4.5130038 2894892
2.8257163 -0.37488002 4.5194726 2894892
2.8762734 -0.37500203 4.5258656 2894892
2.9248753 -0.37491581 4.5320134 2894892
2.9744127 -0.37415072 4.5382819 2894892
3.0236804 -0.37466434 4.5445113 2894892
3.0579634 -0.37627777 4.5488381 2894892
2.6855567 -0.32493997 4.5020213 2894892
2.7259021 -0.32463738 4.5071254 2894892
2.774802 -0.32534653 4.5133061 2894892
2.8244665 -0.32484645 4.5195899 2894892
2.8756459 -0.32392564 4.5260687 2894892
2.925468 -0.32484269 4.5323648 2894892
2.9746051 -0.32528794 4.5385776 2894892
3.0238767 -0.32573432 4.544805 2894892
3.0567937 -0.32603261 4.5489688 2894892
2.6825275 -0.27349713 4.5019221 2894892
2.724371 -0.27449042 4.5072083 2894892
2.7749865 -0.27487993 4.5136089 2894892
2.8237147 -0.27525529 4.5197697 2894892
2.8746157 -0.27564716 4.526206 2894892
2.9256589 -0.27604029 4.5326591 2894892
2.9750519 -0.27483502 4.5389132 2894892
3.0240822 -0.27491564 4.5451145 2894892
3.0556502 -0.27679574 4.5490961 2894892
2.6821337 -0.22568668 4.5021358 2894892
2.7245476 -0.22595556 4.5075002 2894892
2.7753062 -0.22455321 4.5139279 2894892
2.8239048 -0.22471316 4.5200739 2894892
2.8748081 -0.22503315 4.5265098 2894892
2.9258561 -0.22535399 4.5329638 2894892
2.9747462 -0.22411433 4.5391526 2894892
3.0242848 -0.2240902 4.5454202 2894892
3.0551469 -0.22428265 4.5493231 2894892
2.6804256 -0.17513536 4.5022001 2894892
2.72473 -0.17554733 4.5078015 2894892
2.7752173 -0.17409293 4.5141954 2894892
2.8240943 -0.17416437 4.5203772 2894892
2.8750019 -0.17441241 4.5268145 2894892
2.9260523 -0.1746611 4.5332694 2894892
2.9752002 -0.17490055 4.5394888 2894892
3.024482 -0.17514068 4.5457177 2894892
3.0532866 -0.17528102 4.5493593 2894892
2.67981 -0.12441961 4.5024018 2894892
2.7249117 -0.12513247 4.5081029 2894892
2.7755394 -0.12531021 4.5145054 2894892
2.8242769 -0.12548132 4.520669 2894892
2.8751879 -0.12565999 4.5271072 2894892
2.9262419 -0.12583916 4.5335636 2894892
2.9753935 -0.1260117 4.5397787 2894892
3.0246787 -0.12618475 4.5460129 2894892
3.0532074 -0.1287432 4.5496058 2894892
2.6786375 -0.074613467 4.5025306 2894892
2.7250955 -0.074710861 4.5084057 2894892
2.7757251 -0.074816957 4.5148087 2894892
2.8244665 -0.074919134 4.5209723 2894892
2.8753812 -0.075025797 4.5274119 2894892
2.9264393 -0.075132787 4.5338693 2894892
2.9755933 -0.075235829 4.5400834 2894892
3.0248828 -0.075339116 4.5463176 2894892
3.0516322 -0.075395182 4.5497022 2894892
2.6775341 -0.023709608 4.5026722 2894892
2.7252774 -0.024282495 4.5087085 2894892
2.7759111 -0.02431698 4.5151124 2894892
2.8246562 -0.024350181 4.521276 2894892
2.8738692 -0.024645055 4.5274992 2894892
2.9248872 -0.02417119 4.5339551 2894892
2.9757941 -0.024453135 4.5403953 2894892
3.0250878 -0.024486702 4.5466256 2894892
3.0517852 -0.037699576 4.5499301 2894892
2.6769738 0.024251552 4.5028663 2894892
2.7254536 0.024284571 4.5089984 2894892
2.7760913 0.024319066 4.5154037 2894892
2.8248394 0.024352279 4.5215702 2894892
2.8737204 0.024385575 4.5277514 2894892
2.9247828 0.024420366 4.5342102 2894892
2.9759881 0.024455242 4.5406852 2894892
3.0252838 0.024488827 4.5469217 2894892
2.6755693 0.063665107 4.5029068 2894892
2.7255945 0.063516229 4.5092325 2894892
2.7762353 0.063606434 4.5156384 2894892
2.8249865 0.063693322 4.5218053 2894892
2.8738711 0.06378042 4.527988 2894892
2.924937 0.063871391 4.5344472 2894892
2.9761438 0.063962631 4.540926 2894892
3.0241985 0.063737527 4.5470009 2894892
3.3433423 0.077270038 4.5490932 2894892
3.3757212 0.0771918 4.544487 2960685
3.4250283 0.077072687 4.5374746 2960685
3.4741812 0.076953925 4.5304837 2960685
3.5248711 0.076831482 4.5232749 2894892
3.5703557 0.076721586 4.5168047 2894892
3.4361174 -2.0506468 4.5874047 2894892
3.4769485 -2.0524073 4.5925593 2894892
3.5181684 -2.0533745 4.5977674 2894892
3.1439021 -2.0155234 4.5506392 2960685
3.1736481 -2.018904 4.5543847 2894892
3.223691 -2.0201075 4.5607061 2894892
3.2737746 -2.0216312 4.5670319 2894892
3.3233871 -2.0233295 4.573297 2894892
3.373368 -2.0243964 4.5796137 2894892
3.4235291 -2.0248332 4.5859556 2894892
3.4742277 -2.0252643 4.5923643 2894892
3.5167227 -2.0253239 4.5977397 2894892
3.1428187 -1.9739239 4.5507326 2960685
3.1741841 -1.9751426 4.5546927 2894892
3.2233028 -1.9748924 4.5609074 2894892
3.2732272 -1.9747841 4.5672221 2894892
3.3237548 -1.9752963 4.5736084 2894892
3.3735871 -1.9751962 4.5799136 2894892
3.4235206 -1.974623 4.5862317 2894892
3.4743395 -1.9751395 4.5926576 2894892
3.5164249 -1.9753672 4.5979786 2894892
3.1419299 -1.9232171 4.5509005 2960685
3.1741083 -1.9249585 4.5549622 2894892
3.2240407 -1.9252503 4.5612755 2894892
3.2733901 -1.9247717 4.5675192 2894892
3.32356 -1.9249071 4.5738626 2894892
3.3742309 -1.9253496 4.5802698 2894892
3.4241035 -1.9248673 4.5865798 2894892
3.4743345 -1.9248531 4.5929341 2894892
3.5145464 -1.925856 4.5980153 2894892
3.1412816 -1.8755331 4.5510826 2960685
3.1738439 -1.8746172 4.5552044 2894892
3.2241867 -1.8751429 4.5615706 2894892
3.2740157 -1.8752145 4.5678725 2894892
3.3235321 -1.8746655 4.5741405 2894892
3.3740771 -1.8750399 4.5805292 2894892
3.4245956 -1.875264 4.5869184 2894892
3.4744985 -1.8747138 4.5932322 2894892
3.5144975 -1.8764801 4.5982814 2894892
3.1396978 -1.8236217 4.5511699 2960685
3.1744666 -1.8250314 4.5555582 2894892
3.2237601 -1.8245727 4.5617962 2894892
3.2743988 -1.8253391 4.5681963 2894892
3.3241065 -1.8250338 4.5744853 2894892
3.373951 -1.8247265 4.5807934 2894892
3.4247563 -1.8251874 4.5872145 2894892
3.4749959 -1.8250353 4.5935702 2894892
3.5128324 -1.8247262 4.5983572 2894892
3.1395226 -1.7743484 4.5514202 2960685
3.1751273 -1.7752804 4.5559163 2894892
3.2244246 -1.7747535 4.5621562 2894892
3.2741129 -1.7748461 4.5684395 2894892
3.3246813 -1.7753935 4.574832 2894892
3.3743427 -1.7747074 4.5811181 2894892
3.4247479 -1.7749504 4.587491 2894892
3.4754901 -1.7753483 4.5939069 2894892
3.511971 -1.7751418 4.5985222 2894892
3.1376626 -1.7253366 4.551455 2960685
3.1746972 -1.724768 4.5561423 2894892
3.2249899 -1.7252436 4.5625019 2894892
3.2742627 -1.7246511 4.568737 2894892
3.3246529 -1.7251323 4.5751066 2894892
3.3747118 -1.7253137 4.5814371 2894892
3.4245973 -1.7245548 4.5877504 2894892
3.4756563 -1.7251894 4.5942054 2894892
3.511271 -1.7241992 4.5987163 2894892
3.1375782 -1.6747926 4.5517249 2894892
3.1748405 -1.6747042 4.556438 2894892
3.224956 -1.6751146 4.5627747 2894892
3.2747416 -1.6752262 4.5690713 2894892
3.3243189 -1.6745592 4.575346 2894892
3.3753548 -1.6754303 4.5817957 2894892
3.4252446 -1.6746039 4.58811 2894892
3.4756501 -1.6748699 4.5944834 2894892
3.509964 -1.6757413 4.5988173 2894892
3.1357567 -1.6247374 4.5517716 2894892
3.175456 -1.6252475 4.5567899 2894892
3.2246177 -1.6246756 4.5630102 2894892
3.2753747 -1.625474 4.5694256 2894892
3.3249938 -1.6245806 4.575707 2894892
3.3751626 -1.6249346 4.5820494 2894892
3.4254699 -1.6252894 4.5884104 2894892
3.4756439 -1.6245455 4.5947609 2894892
3.5096247 -1.6252488 4.5990543 2894892
3.1350491 -1.5738546 4.5519633 2894892
3.1758444 -1.5753187 4.5571146 2894892
3.2252839 -1.5748274 4.5633707 2894892
3.2751145 -1.5749559 4.5696721 2894892
3.3252106 -1.5753965 4.5760055 2894892
3.37497 -1.5744323 4.582305 2894892
3.4260538 -1.5754834 4.5887609 2894892
3.4760058 -1.5745195 4.5950828 2894892
3.5077472 -1.5757231 4.5990915 2894892
3.1343656 -1.5256919 4.5521436 2894892
3.1752763 -1.5246304 4.5573235 2894892
3.2257581 -1.5254499 4.563704 2894892
3.2750452 -1.5245836 4.5699425 2894892
3.32585 -1.5255613 4.5763621 2894892
3.375613 -1.5245292 4.5826626 2894892
3.4260447 -1.5252147 4.5890369 2894892
3.4763825 -1.5249611 4.5954046 2894892
3.5076191 -1.5278544 4.5993404 2894892
3.1330919 -1.4750445 4.5522628 2894892
3.1759481 -1.4746794 4.5576859 2894892
3.2258656 -1.4751333 4.5639963 2894892
3.2756145 -1.4749707 4.5702896 2894892
3.3255906 -1.4749615 4.5766091 2894892
3.3758354 -1.4752632 4.582963 2894892
3.425946 -1.4747849 4.5893044 2894892
3.4766126 -1.4755585 4.5957079 2894892
3.506109 -1.4748523 4.5994425 2894892
3.1320808 -1.4242475 4.5524154 2894892
3.1764185 -1.4253556 4.5580173 2894892
3.2255139 -1.4245139 4.5642304 2894892
3.276094 -1.4255104 4.5706234 2894892
3.3255246 -1.4245067 4.5768805 2894892
3.3764138 -1.4255054 4.583312 2894892
3.4261205 -1.4244987 4.5896039 2894892
3.4759889 -1.4262924 4.5959015 2894892
3.5039277 -1.423548 4.5994501 2894892
3.1308641 -1.374938 4.5525351 2894892
3.1765215 -1.3750958 4.5583076 2894892
3.2261419 -1.3747951 4.5645852 2894892
3.2762432 -1.3752681 4.5709205 2894892
3.3260999 -1.3748106 4.5772281 2894892
3.3763893 -1.3751301 4.5835872 2894892
3.4266126 -1.374826 4.5899405 2894892
3.475141 -1.3752643 4.5960755 2894892
3.5023625 -1.373886 4.5995264 2894892
3.1304843 -1.3250306 4.5527635 2894892
3.1761684 -1.3245345 4.5585423 2894892
3.2264996 -1.3255513 4.5649023 2894892
3.2758183 -1.3245686 4.5711455 2894892
3.3263171 -1.3255937 4.577527 2894892
3.3760569 -1.3244448 4.5838251 2894892
3.4263825 -1.3258276 4.5901828 2894892
3.4744201 -1.3241402 4.5962691 2894892
3.501034 -1.3271636 4.599617 2894892
3.1291063 -1.2749065 4.552865 2894892
3.1767921 -1.2748697 4.5588965 2894892
3.2268772 -1.2753558 4.5652294 2894892
3.2764888 -1.2746085 4.5715089 2894892
3.3269937 -1.2755632 4.5778909 2894892
3.3767376 -1.2743458 4.5841885 2894892
3.4252243 -1.2756811 4.5903134 2894892
3.4730654 -1.2742616 4.5963736 2894892
3.500706 -1.276795 4.5998545 2894892
3.1259406 -1.2239767 4.5527477 2894892
3.1753461 -1.2253438 4.5589881 2894892
3.2263358 -1.2245628 4.5654407 2894892
3.2767024 -1.2254469 4.5718069 2894892
3.3264549 -1.224629 4.5781031 2894892
3.3758743 -1.225546 4.5843487 2894892
3.4242146 -1.2247927 4.5904679 2894892
3.4735637 -1.2245047 4.5967112 2894892
3.1254997 -1.1751252 4.5529604 2894892
3.1742835 -1.1756668 4.5591278 2894892
3.2258437 -1.1741326 4.5656586 2894892
3.2773373 -1.1756303 4.5721617 2894892
3.3260777 -1.1747609 4.578331 2894892
3.3742394 -1.1751357 4.5844221 2894892
3.4229991 -1.1745608 4.5905919 2894892
3.4731803 -1.1754993 4.5969329 2894892
3.1242011 -1.1253042 4.5530725 2894892
3.1728716 -1.1245176 4.5592332 2894892
3.2233994 -1.1256942 4.5656161 2894892
3.273499 -1.1249021 4.5719562 2894892
3.3233285 -1.1244837 4.5782623 2894892
3.3736355 -1.125651 4.584619 2894892
3.4234076 -1.1242297 4.5909224 2894892
3.4719126 -1.1255608 4.5970492 2894892
3.0970926 -1.0556128 4.5500298 2894892
3.1234496 -1.0746267 4.5532589 2894892
3.1734951 -1.0748309 4.5595865 2894892
3.2237241 -1.0755045 4.5659356 2894892
3.2729318 -1.0743431 4.572165 2894892
3.3232465 -1.0755013 4.5785236 2894892
3.3732898 -1.0747838 4.584857 2894892
3.4237807 -1.0746849 4.5912433 2894892
3.4710548 -1.0766702 4.5972099 2894892
3.0972168 -1.0254933 4.5502124 2894892
3.1240618 -1.0243735 4.5536141 2894892
3.1738486 -1.0256201 4.5599041 2894892
3.2230442 -1.024543 4.5661316 2894892
3.2734108 -1.0248334 4.5725021 2894892
3.3238857 -1.0255989 4.5788798 2894892
3.3734069 -1.0242062 4.5851512 2894892
3.4240038 -1.0252976 4.5915446 2894892
3.4706559 -1.0256269 4.5974431 2894892
3.0961411 -0.97046483 4.5503807 2894892
3.1242654 -0.97538757 4.5539103 2894892
3.1741185 -0.97514838 4.5602169 2894892
3.223706 -0.97429943 4.5664926 2894892
3.2736256 -0.97564453 4.5727987 2894892
3.3235378 -0.97479057 4.5791173 2894892
3.3738954 -0.97455233 4.5854869 2894892
3.4242296 -0.97590381 4.5918469 2894892
3.4683964 -0.9746961 4.5974393 2894892
3.0955653 -0.92565304 4.5505557 2894892
3.1249321 -0.92543048 4.5542703 2894892
3.173779 -0.92438704 4.5604553 2894892
3.2239172 -0.92517138 4.566792 2894892
3.2743075 -0.92548025 4.5731626 2894892
3.3236513 -0.92427015 4.579411 2894892
3.3741169 -0.92522049 4.5857887 2894892
3.4249153 -0.9256891 4.5922103 2894892
3.4684849 -0.92401743 4.5977316 2894892
3.0940366 -0.87317502 4.550653 2894892
3.1242249 -0.87459397 4.5544634 2894892
3.1743391 -0.87483096 4.5607991 2894892
3.2243929 -0.87570906 4.5671248 2894892
3.2736037 -0.87443262 4.5733562 2894892
3.3241353 -0.87467086 4.5797472 2894892
3.3743379 -0.87588257 4.5860901 2894892
3.4243813 -0.8745786 4.5924263 2894892
3.4667537 -0.87430674 4.5977879 2894892
3.0937173 -0.82334453 4.5508871 2894892
3.1248915 -0.82462251 4.5548239 2894892
3.174547 -0.82575852 4.5610976 2894892
3.2242336 -0.82485545 4.5673866 2894892
3.2742848 -0.82425416 4.5737224 2894892
3.3243506 -0.82539427 4.5800471 2894892
3.3750298 -0.82556343 4.5864563 2894892
3.4247746 -0.82404864 4.5927553 2894892
3.4663894 -0.82550806 4.598011 2894892
3.092061 -0.77490002 4.5509467 2894892
3.1250956 -0.77561098 4.5551186 2894892
3.1750987 -0.77524465 4.5614467 2894892
3.2244198 -0.77413511 4.5676904 2894892
3.2744989 -0.7750392 4.5740194 2894892
3.324717 -0.77594507 4.5803666 2894892
3.3743291 -0.77436376 4.5866499 2894892
3.4251475 -0.77446258 4.5930762 2894892
3.4651043 -0.77531385 4.5981264 2894892
3.0915306 -0.72470158 4.5511565 2894892
3.1257074 -0.72531331 4.5554767 2894892
3.174623 -0.72430915 4.5616684 2894892
3.2247765 -0.72481638 4.5680089 2894892
3.2747133 -0.7258175 4.5743184 2894892
3.3249998 -0.72522998 4.5806823 2894892
3.3750191 -0.72403157 4.5870156 2894892
3.4253728 -0.72503567 4.593379 2894892
3.4641085 -0.72672623 4.598268 2894892
3.0904088 -0.67502469 4.551291 2894892
3.1251025 -0.67444909 4.5556803 2894892
3.1751845 -0.67472547 4.5620136 2894892
3.224988 -0.67565632 4.5683074 2894892
3.2753797 -0.67545938 4.5746818 2894892
3.3246667 -0.67422724 4.5809216 2894892
3.375241 -0.67466694 4.5873165 2894892
3.4255974 -0.67560285 4.5936818 2894892
3.463454 -0.67630643 4.5984659 2894892
3.0892661 -0.62310177 4.5514317 2894892
3.1257229 -0.62476563 4.5560346 2894892
3.1753922 -0.62562639 4.5623116 2894892
3.2256639 -0.62551683 4.5686707 2894892
3.2747021 -0.62438291 4.5748811 2894892
3.3252406 -0.62443048 4.5812712 2894892
3.3754632 -0.62529552 4.5876193 2894892
3.4258235 -0.62616318 4.5939832 2894892
3.4620547 -0.62587547 4.598567 2894892
3.0887573 -0.5751344 4.5516338 2894892
3.1259258 -0.57572788 4.5563321 2894892
3.1760485 -0.57539248 4.5626721 2894892
3.2249587 -0.57450676 4.5688629 2894892
3.2753727 -0.57432634 4.5752411 2894892
3.325459 -0.57512105 4.5815716 2894892
3.375684 -0.5759182 4.5879197 2894892
3.4265044 -0.57558036 4.5943489 2894892
3.4614205 -0.57454145 4.5987701 2894892
3.0871761 -0.52564901 4.5517073 2894892
3.1262734 -0.52494609 4.5566573 2894892
3.1753681 -0.52444607 4.5628676 2894892
3.2256358 -0.52435404 4.5692258 2894892
3.2755876 -0.52507848 4.5755396 2894892
3.3256776 -0.52580518 4.5818734 2894892
3.3763647 -0.52571422 4.5882831 2894892
3.4258308 -0.52428019 4.5945477 2894892
3.4599419 -0.52394456 4.5988636 2894892
3.0867765 -0.47477219 4.5519376 2894892
3.1262038 -0.47402608 4.5569305 2894892
3.1760292 -0.47451299 4.5632281 2894892
3.225847 -0.47516778 4.5695243 2894892
3.2758024 -0.47582445 4.5758395 2894892
3.3263168 -0.47582403 4.5822287 2894892
3.375689 -0.47447944 4.5884809 2894892
3.4265161 -0.47400048 4.5949121 2894892
3.4594903 -0.47605133 4.599072 2894892
3.0852513 -0.42431581 4.5520244 2894892
3.1265535 -0.42480254 4.5572453 2894892
3.1762371 -0.42538795 4.5635262 2894892
3.2260573 -0.42597488 4.5698247 2894892
3.2764688 -0.42542937 4.5762033 2894892
3.3257179 -0.42464972 4.582437 2894892
3.3763659 -0.42394605 4.5888457 2894892
3.4267414 -0.42453429 4.5952134 2894892
3.4582915 -0.4249028 4.5992026 2894892
3.084605 -0.37460792 4.5522165 2894892
3.1267564 -0.37573865 4.5575418 2894892
3.1765909 -0.37608942 4.5638433 2894892
3.2262774 -0.37488332 4.5701346 2894892
3.2757909 -0.37432548 4.5763998 2894892
3.3263476 -0.37402338 4.5827971 2894892
3.3765874 -0.37454191 4.5891471 2894892
3.4250383 -0.37520057 4.5952711 2894892
3.4553797 -0.37659535 4.5991025 2894892
3.0815279 -0.32625675 4.5520945 2894892
3.124902 -0.32476237 4.55759 2894892
3.1765234 -0.32508013 4.5641174 2894892
3.2264965 -0.32378492 4.5704446 2894892
3.2764618 -0.32423243 4.5767612 2894892
3.3265662 -0.32468125 4.5830965 2894892
3.3768098 -0.32513124 4.5894485 2894892
3.4250889 -0.32556364 4.5955529 2894892
3.454536 -0.32582736 4.5992765 2894892
3.0802176 -0.27472711 4.5522151 2894892
3.1248157 -0.27404723 4.5578594 2894892
3.1765347 -0.27392828 4.5644011 2894892
3.226707 -0.27457243 4.5707426 2894892
3.2766759 -0.27495182 4.5770607 2894892
3.3267848 -0.27533236 4.5833974 2894892
3.3751073 -0.27585804 4.5895061 2894892
3.4233627 -0.27591878 4.5956092 2894892
3.4531019 -0.27778879 4.59936 2894892
3.0798833 -0.2244368 4.5524516 2894892
3.1232493 -0.22470716 4.5579352 2894892
3.1750102 -0.22502986 4.5644794 2894892
3.2269187 -0.2253534 4.5710416 2894892
3.276891 -0.22566497 4.5773625 2894892
3.3259189 -0.22650599 4.5835586 2894892
3.3739848 -0.22573827 4.5896406 2894892
3.4237974 -0.2260776 4.5959401 2894892
3.452723 -0.22661455 4.599596 2894892
3.0780227 -0.17540152 4.5524869 2894892
3.1234527 -0.17562285 4.5582318 2894892
3.1731434 -0.17586496 4.5645151 2894892
3.2239699 -0.17660382 4.5709391 2894892
3.2743676 -0.17621005 4.5773158 2894892
3.3239346 -0.17508075 4.5835905 2894892
3.3732898 -0.17493892 4.5898352 2894892
3.4233305 -0.17472996 4.5961642 2894892
3.4510236 -0.17340843 4.5996747 2894892
3.0779662 -0.12556167 4.5527549 2894892
3.1236653 -0.12464397 4.5585413 2894892
3.1733587 -0.12481574 4.5648246 2894892
3.2231896 -0.12498804 4.5711255 2894892
3.2731593 -0.12516081 4.577445 2894892
3.3228168 -0.124259 4.5837302 2894892
3.3735199 -0.12360658 4.5901475 2894892
3.4239061 -0.12377815 4.5965185 2894892
3.4511986 -0.13530368 4.5999074 2894892
3.0761259 -0.075123735 4.5528026 2894892
3.1238761 -0.073658139 4.5588493 2894892
3.1735737 -0.073759675 4.5651345 2894892
3.2234089 -0.073861517 4.5714364 2894892
3.2733815 -0.073963635 4.5777564 2894892
3.3234923 -0.074066006 4.5840945 2894892
3.3737421 -0.07416869 4.5904489 2894892
3.4241314 -0.074271634 4.5968223 2894892
3.0754247 -0.023993211 4.5529957 2894892
3.1240804 -0.024554133 4.5591464 2894892
3.17378 -0.024587991 4.5654321 2894892
3.2236195 -0.024621943 4.5717354 2894892
3.2735958 -0.024655977 4.5780563 2894892
3.3237097 -0.024690107 4.5843959 2894892
3.3739636 -0.024724334 4.5907512 2894892
3.4229374 -0.025224395 4.5969415 2894892
3.0747156 0.024522498 4.553174 2894892
3.1242843 0.024556259 4.5594449 2894892
3.1739883 0.024590125 4.5657301 2894892
3.2238309 0.024624079 4.5720363 2894892
3.2738101 0.024658125 4.5783572 2894892
3.3239293 0.02469226 4.5846949 2894892
3.3741853 0.024726497 4.5910525 2894892
3.4224784 0.024759395 4.5971608 2894892
3.0481014 0.06974633 4.5500584 2960685
3.074877 0.064138539 4.5534139 2894892
3.1244485 0.064226881 4.5596843 2894892
3.1741552 0.064315431 4.5659728 2894892
3.2241697 0.064789467 4.5713 2894892
3.2741129 0.064716108 4.5757637 2894892
3.3233595 0.064379126 4.5812001 2894892
3.3743563 0.062769838 4.5912852 2894892
3.4208732 0.062689222 4.5971684 2894892
3.5434835 -2.0548007 4.6009612 2894892
3.5764372 -2.0549784 4.6051273 2894892
3.6278472 -2.0565593 4.6116219 2894892
3.6621184 -2.0576701 4.6159506 2894892
3.5419004 -2.0250261 4.6009254 2894892
3.5750701 -2.024564 4.605125 2894892
3.626128 -2.024838 4.6115785 2894892
3.662277 -2.0252476 4.6161494 2894892
3.5418627 -1.9752945 4.6011953 2894892
3.5755751 -1.9747672 4.6054645 2894892
3.6262624 -1.9746627 4.6118746 2894892
3.6625187 -1.9756554 4.6164546 2894892
3.5396872 -1.9241756 4.6012025 2894892
3.5758116 -1.9252865 4.6057663 2894892
3.6253006 -1.9249686 4.6120281 2894892
3.6615262 -1.9248785 4.6166096 2894892
3.5393841 -1.8729233 4.6014466 2894892
3.5763164 -1.8754755 4.6061049 2894892
3.624784 -1.8744915 4.6122417 2894892
3.6610134 -1.8760109 4.6168156 2894892
3.5382359 -1.8244022 4.6015706 2894892
3.5764472 -1.82535 4.6063995 2894892
3.6250248 -1.8249307 4.612546 2894892
3.6612313 -1.8254496 4.6171222 2894892
3.5372558 -1.7739542 4.6017265 2894892
3.5765653 -1.775058 4.6066937 2894892
3.6252635 -1.7753642 4.6128502 2894892
3.6612678 -1.7745835 4.6174083 2894892
3.5365906 -1.7253975 4.601912 2894892
3.5750754 -1.7251587 4.6067805 2894892
3.6239917 -1.7251745 4.612968 2894892
3.6614854 -1.7240102 4.6177154 2894892
3.5351539 -1.6752974 4.6020074 2894892
3.5745399 -1.67441 4.6069942 2894892
3.623841 -1.6754717 4.6132231 2894892
3.661864 -1.6740485 4.6180401 2894892
3.5352449 -1.6256448 4.602293 2894892
3.5751269 -1.6243608 4.6073456 2894892
3.6239741 -1.6252542 4.6135178 2894892
3.6621046 -1.6244128 4.6183462 2894892
3.5323386 -1.5756279 4.6022029 2894892
3.574508 -1.5742853 4.607543 2894892
3.62411 -1.5750312 4.6138134 2894892
3.662348 -1.5747702 4.6186509 2894892
3.5304 -1.523729 4.6022444 2894892
3.573482 -1.5252181 4.6076851 2894892
3.6241536 -1.5246466 4.6140971 2894892
3.6625898 -1.5251212 4.6189556 2894892
3.5291843 -1.4741087 4.6023645 2894892
3.5737178 -1.4756838 4.6079888 2894892
3.6243279 -1.4742514 4.6143975 2894892
3.662832 -1.4754661 4.6192608 2894892
3.5283728 -1.4237175 4.602541 2894892
3.5743151 -1.4256533 4.6083417 2894892
3.6248364 -1.4243138 4.6147385 2894892
3.6630743 -1.4258039 4.6195669 2894892
3.5276833 -1.3748413 4.6027236 2894892
3.5743029 -1.3753201 4.6086178 2894892
3.625077 -1.3746972 4.6150432 2894892
3.663316 -1.3761349 4.6198721 2894892
3.5261059 -1.324988 4.6028008 2894892
3.5743954 -1.3249775 4.6089077 2894892
3.6253145 -1.3250732 4.6153469 2894892
3.6636949 -1.3261261 4.6201959 2894892
3.525862 -1.2756146 4.6030426 2894892
3.5743954 -1.2744734 4.6091886 2894892
3.6255548 -1.2754438 4.615653 2894892
3.6639132 -1.2754918 4.6205039 2894892
3.5245197 -1.2257156 4.6031489 2894892
3.5747654 -1.2242658 4.6095123 2894892
3.6257946 -1.2258073 4.6159573 2894892
3.6639495 -1.2245542 4.6207895 2894892
3.4970388 -1.1586919 4.6000443 2894892
3.5245173 -1.1752682 4.6034274 2894892
3.5751507 -1.1745263 4.6098356 2894892
3.6263037 -1.1758341 4.6162992 2894892
3.6641667 -1.1739067 4.6210976 2894892
