# .PCD v0.7 - Point Cloud Data file format
VERSION 0.7
FIELDS x y z rgb
SIZE 4 4 4 4
TYPE F F F U
COUNT 1 1 1 1
WIDTH 1166
HEIGHT 1
VIEWPOINT 0 0 0 1 0 0 0
POINTS 1166
DATA ascii
0.075173959 0.10879028 1.8234749 10197915
0.1251599 0.10889508 1.8252257 10197915
0.1748538 0.10899851 1.8271545 10197915
0.22503066 0.10910368 1.8289174 10197915
0.27492216 0.10920896 1.8304868 10197915
0.32490641 0.10931298 1.8324261 10197915
0.3749913 0.1094187 1.8340024 10197915
0.42587337 0.10956724 1.8252109 10197915
0.47306433 0.10968293 1.8226364 10197915
0.52506244 0.10982621 1.8158084 10197915
0.57526302 0.10993152 1.8175489 10197915
0.62517816 0.11003692 1.8190999 10197915
0.67518467 0.1101411 1.8210142 10197915
0.72529233 0.11024693 1.8225715 10197915
0.77510762 0.11034998 1.8246599 10197915
0.8250137 0.11045609 1.8260299 10197915
0.87502337 0.11056102 1.827764 10197915
0.92473686 0.11066458 1.8296688 10197915
0.97454852 0.11076978 1.8312155 10197915
1.0248398 0.11087384 1.8333219 10197915
1.0775675 0.11101562 1.8272808 10197915
1.125183 0.111132 1.8247734 10197915
1.1729201 0.11125622 1.8203477 10197915
1.2252716 0.11138754 1.8167337 10197915
1.2750065 0.11149267 1.8182584 10197915
1.3248404 0.11159658 1.8201425 3754333
1.3747646 0.11170211 1.8216747 927813
1.4230162 0.11179883 1.8244858 993862
1.45524 0.11182451 1.8361882 928069
-0.75987321 -0.81983048 1.8759758 2039583
-0.75963998 -0.77515483 1.874877 2039583
-0.75977701 -0.72502249 1.8751714 2039583
-0.368893 -0.72115475 1.8550055 2039583
-0.32477507 -0.72115165 1.8665272 2039583
-0.27487546 -0.72112793 1.87956 2039583
-0.22504598 -0.72108489 1.8925732 2039583
-0.19832896 -0.72125685 1.8995504 2039583
-0.75996715 -0.67506444 1.8756707 2039583
-0.36942485 -0.67479253 1.8550448 1519430
-0.32481351 -0.67497498 1.8666959 1651016
-0.274896 -0.67498696 1.8797319 1782602
-0.22503331 -0.67498136 1.8927553 2045259
-0.19838303 -0.67673761 1.8997082 2111051
-0.76011485 -0.62508386 1.8760048 2039583
-0.36969924 -0.62499285 1.8551669 1322314
-0.32486373 -0.62502015 1.8668753 1454412
-0.27495846 -0.62494993 1.879909 1717327
-0.22507575 -0.62497658 1.8929375 1848655
-0.19911851 -0.62490112 1.899716 1914448
-0.76000667 -0.57436311 1.8753579 2039583
-0.37018436 -0.57477933 1.8552325 1586255
-0.32483312 -0.57505316 1.8670764 1652048
-0.27492929 -0.57494938 1.8801104 1849169
-0.22512695 -0.57500976 1.8931162 1980754
-0.19913833 -0.57458836 1.8999051 1980497
-0.75903964 -0.52521288 1.8714272 2039583
-0.37048537 -0.52501357 1.8553462 1652304
-0.32490695 -0.52501053 1.8672491 1717840
-0.27496344 -0.5250091 1.8802934 1849426
-0.22510025 -0.52505678 1.8933161 1980754
-0.75924379 -0.47492439 1.8719797 2039583
-0.37096676 -0.4747586 1.8554149 1586768
-0.32492024 -0.47500157 1.8674401 1586512
-0.27500606 -0.47501221 1.8804758 1586512
-0.22512236 -0.47504595 1.8935024 1652048
-0.75941199 -0.42492098 1.8723928 2039583
-0.37127405 -0.42499551 1.8555267 1190986
-0.32503429 -0.4250291 1.867602 1257035
-0.27507704 -0.424959 1.8806499 1454413
-0.22577672 -0.42510316 1.8935251 1652048
-0.75956321 -0.375049 1.8727423 2039583
-0.37168512 -0.37479338 1.8556129 1124937
-0.3249507 -0.37504584 1.8678162 1257035
-0.27504897 -0.3749429 1.8808506 1388621
-0.22597621 -0.37500328 1.893666 1586255
-0.75971532 -0.32484671 1.8730942 2039583
-0.37214172 -0.325019 1.8556862 1191499
-0.32506448 -0.32496369 1.867981 1191499
-0.27505913 -0.32498685 1.8810407 1191499
-0.22654319 -0.32521617 1.8937101 1322828
-0.75993598 -0.27477565 1.8737087 2039583
-0.37235856 -0.27484602 1.8558234 1191499
-0.32499146 -0.27493861 1.8681937 1257292
-0.27509651 -0.27502117 1.8812238 1257292
-0.22670385 -0.27506486 1.8938615 1323085
-0.76006907 -0.22499089 1.8739899 2039583
-0.3730455 -0.22495538 1.8558357 1059657
-0.32516387 -0.22497156 1.8683399 1257548
-0.27514613 -0.22499859 1.8814037 1389134
-0.22717519 -0.22519681 1.8939313 1454926
-0.76025456 -0.17503254 1.8744713 2039583
-0.37299451 -0.17479298 1.856043 1059400
-0.32519686 -0.17506437 1.8685248 1125706
-0.27525079 -0.17487267 1.8815687 1257291
-0.22754022 -0.17503332 1.8940287 1389133
-0.76037103 -0.12505178 1.8746859 2039583
-0.37385562 -0.12500277 1.85601 927558
-0.32496002 -0.12516579 1.8687787 993351
-0.27521336 -0.12478352 1.8817724 1323083
-0.22805455 -0.12547643 1.8940855 1520717
-0.76059204 -0.075046614 1.8753022 2039583
-0.37372199 -0.074858554 1.8562382 1059655
-0.32533184 -0.074856222 1.8688759 1059912
-0.27519697 -0.0748486 1.8819695 1192010
-0.22833811 -0.075335279 1.894205 1323339
-0.76074344 -0.025022477 1.8756522 2039583
-0.3746655 -0.025032096 1.8561836 1191753
-0.32519534 -0.02477872 1.8691049 1191753
-0.27522355 -0.024951726 1.8821554 1191754
-0.22861674 -0.025311382 1.8943253 1257803
-0.76091266 0.025029881 1.8760688 2039583
-0.37486324 0.025143096 1.856326 993605
-0.32522702 0.024781957 1.8692883 1059398
-0.27525115 0.024954997 1.8823403 1125191
-0.22914587 0.02511467 1.8943816 1059142
-0.76109844 0.07509841 1.8765509 4144959
-0.37509379 0.075004503 1.8564583 4083041
-0.32544178 0.074833862 1.8694248 4083041
-0.27527809 0.074871585 1.882526 4016735
-0.22933052 0.075193971 1.8945274 4082784
-1.4688259 0.10515359 1.8703637 10197915
-1.4252561 0.10526003 1.868084 10197915
-1.375155 0.10536388 1.8701324 10197915
-1.3253275 0.10546793 1.8719795 10197915
-1.2750276 0.10557374 1.8736515 10197915
-1.2246228 0.10567822 1.8757119 10197915
-1.1748818 0.10578288 1.8773571 10197915
-1.1250397 0.10588617 1.8794034 10197915
-1.0751014 0.10599124 1.8810549 10197915
-1.0324144 0.10608986 1.8802483 10197915
-0.75884861 0.10462242 1.8749706 10197915
-0.72492778 0.10682419 1.8683622 10197915
-0.69377142 0.10691006 1.8642653 10197915
-0.37530577 0.10383276 1.8565142 10197915
-0.32414088 0.10423784 1.8696781 10197915
-0.27517712 0.10439665 1.8809462 10197915
-0.22885288 0.10508115 1.890323 10197915
-0.17484377 0.1080725 1.8636022 10197915
-0.12479016 0.10817873 1.8650243 10197915
-0.07501851 0.10828209 1.8670114 10197915
-0.02515904 0.10838719 1.868618 10197915
0.024803074 0.10849098 1.870613 10197915
0.074856795 0.10859647 1.872226 10197915
0.12501046 0.10870063 1.8742278 10197915
0.17487223 0.10880495 1.8760265 10197915
0.22521272 0.10891104 1.8776494 10197915
0.27526855 0.10901579 1.8794485 10197915
0.32502285 0.1091191 1.881443 10197915
0.37526953 0.10922422 1.8832557 10197915
0.42521477 0.10932951 1.8848572 10197915
0.47569636 0.10946155 1.8800075 10197915
0.52502674 0.10963628 1.8637333 10197915
0.57498777 0.10974243 1.865127 10197915
0.62503988 0.10984571 1.8672934 10197915
0.67519516 0.10995074 1.8690786 10197915
0.72505462 0.11005592 1.8706577 10197915
0.77500117 0.11015972 1.8726313 10197915
0.82505256 0.11026534 1.8742166 10197915
0.87518734 0.1103695 1.8761978 10197915
0.92503005 0.11047387 1.8779722 10197915
0.97496754 0.11057847 1.87975 10197915
1.0253921 0.11068483 1.8813477 10197915
1.075121 0.1107882 1.8833147 10197915
1.1249417 0.11089331 1.884891 10197915
1.1760995 0.11103808 1.8772038 10197915
1.2247417 0.11119893 1.8640407 10197915
1.2749798 0.11130503 1.8656127 10197915
1.3249248 0.11140966 1.8673673 9343123
1.3749576 0.11151297 1.8695115 1781835
1.4250821 0.1116196 1.8708856 993862
1.4713696 0.11170422 1.8756336 928069
-0.77492207 -0.85754818 1.9337826 2039583
-0.77249104 -0.82506919 1.9243219 2039583
-0.77262479 -0.77517593 1.9246058 2039583
-0.77277845 -0.72494769 1.9249625 2039583
-0.17371309 -0.72100633 1.9059798 2039583
-0.12558003 -0.72098655 1.9185499 2039583
-0.075245567 -0.72097731 1.9316971 2039583
-0.027382752 -0.72099829 1.9441968 2039583
-0.77296877 -0.67501289 1.9254622 2039583
-0.17380567 -0.67488831 1.9061345 2111052
-0.12560624 -0.67499793 1.9187212 2242125
-0.075254112 -0.67497325 1.9318717 2505295
-0.028023232 -0.67517745 1.9442052 2767952
-0.77312165 -0.62505603 1.9258178 2039583
-0.17453498 -0.62502742 1.906135 1980240
-0.12559138 -0.6250053 1.9189183 2111055
-0.075234883 -0.62501222 1.9320694 2439505
-0.028221941 -0.62496626 1.9443477 2702419
-0.77338779 -0.57523561 1.9266082 2039583
-0.17453931 -0.57500219 1.9063274 2045777
-0.12562323 -0.57500309 1.9191036 2308947
-0.075234093 -0.57504207 1.9322625 2571605
-0.028637914 -0.57520407 1.9444311 2834518
-0.77348453 -0.52507848 1.9267468 2039583
-0.1753379 -0.52499467 1.9063121 2046290
-0.12565571 -0.52496582 1.9192874 2177619
-0.075248718 -0.52498764 1.9324522 2374740
-0.028986987 -0.52503085 1.9445338 2571861
-0.7721532 -0.47484827 1.9214169 2039583
-0.17531009 -0.47501531 1.9065127 1717328
-0.12559764 -0.47494406 1.9194946 1914449
-0.07522697 -0.47497204 1.9326512 2111827
-0.029295282 -0.4753134 1.9446446 2308948
-0.77234828 -0.4247914 1.9219337 2039583
-0.20073116 -0.42114145 1.9000812 1849170
-0.17537087 -0.42502549 1.9066893 1783377
-0.1257126 -0.42498708 1.919659 1849169
-0.075315066 -0.42497265 1.9328212 1980498
-0.029810332 -0.425102 1.9447045 2111827
-0.77253073 -0.37491021 1.9224039 2039583
-0.20074953 -0.37473211 1.9002556 1718097
-0.17539042 -0.37502688 1.9068778 1783634
-0.12561311 -0.37501863 1.9198771 1849426
-0.075276725 -0.37496275 1.9330237 1915219
-0.029957509 -0.37524411 1.9448583 2046291
-0.77267796 -0.32520816 1.9227389 2039583
-0.20142286 -0.32245746 1.9002811 1322572
-0.17543054 -0.32494229 1.9070594 1454414
-0.12568365 -0.32501838 1.9200523 1520206
-0.075285077 -0.32501745 1.9332134 1585999
-0.030649902 -0.32501513 1.9448709 1651791
-0.77288592 -0.27488393 1.9233034 2039583
-0.20155498 -0.27556315 1.9004276 1323085
-0.17538667 -0.27497333 1.9072644 1388877
-0.12575725 -0.27503008 1.9202257 1454670
-0.075369306 -0.27506277 1.9333843 1454670
-0.030672204 -0.27488571 1.9450587 1520462
-0.773058 -0.22473544 1.9237317 2039583
-0.20210202 -0.22283907 1.9004884 1454926
-0.17534263 -0.2250178 1.9074686 1520719
-0.12562197 -0.22505823 1.9204534 1586512
-0.075251095 -0.22507431 1.9336079 1586512
-0.031411476 -0.22482181 1.9450588 1652048
-0.7731815 -0.17496786 1.9239768 2039583
-0.20236121 -0.17480202 1.9006058 1389390
-0.17561592 -0.17507951 1.9075898 1454926
-0.12576456 -0.17492761 1.920609 1520462
-0.075192809 -0.17509884 1.9338173 1454926
-0.031414598 -0.17487864 1.9452512 1520719
-0.7733646 -0.12497471 1.9244483 2039583
-0.20276128 -0.12302107 1.9007014 1520717
-0.17543843 -0.12488142 1.9078302 1586254
-0.12579095 -0.12503627 1.9207954 1586254
-0.075296655 -0.12496501 1.9339828 1586254
-0.032060258 -0.12509087 1.945274 1586254
-0.77357155 -0.074961409 1.9250091 2039583
-0.20319134 -0.075208925 1.9007736 1323339
-0.17545554 -0.075094186 1.9080172 1323339
-0.12564895 -0.07488253 1.9210258 1323340
-0.075457424 -0.07474938 1.9341356 1322827
-0.032224678 -0.07495445 1.9454246 1125192
-0.77370799 -0.024928017 1.9253019 2039583
-0.20349059 -0.023892004 1.9008932 1323339
-0.17547286 -0.025297055 1.9082049 1323595
-0.1257963 -0.024749745 1.921181 1454668
-0.075300962 -0.024842527 1.9343683 1323083
-0.032711517 -0.025263177 1.9454896 1059400
-0.77387881 0.024935355 1.9257269 2039583
-0.20397314 0.025201812 1.9009565 1059142
-0.17549033 0.02530043 1.9083959 1256776
-0.12578742 0.024727577 1.9213743 1257033
-0.075308323 0.024845788 1.9345578 1125191
-0.033034846 0.024987595 1.945599 1059399
-0.77407348 0.07481274 1.9262429 3684408
-0.20420961 0.075855762 1.9010901 4412004
-0.1755074 0.075117216 1.9085835 4083041
-0.12570685 0.074881151 1.9215889 4016991
-0.07545466 0.074721709 1.9347124 4016992
-0.033391334 0.074663892 1.9456973 4017248
-1.5144076 0.10484319 1.9230089 10197915
-1.4748226 0.10494682 1.9191823 10197915
-1.4249498 0.1050516 1.9208744 10197915
-1.3749818 0.10515491 1.9229873 10197915
-1.32491 0.10526008 1.9246863 10197915
-1.2747444 0.10536382 1.9268075 10197915
-1.2248632 0.10546776 1.9287088 10197915
-1.1752791 0.10557195 1.9303818 10197915
-1.1255943 0.10567465 1.932492 10197915
-1.0754124 0.10578091 1.9339774 10197915
-1.0430822 0.10590074 1.9219627 10197915
-0.76607329 0.1052599 1.9233207 10197915
-0.72886956 0.10661592 1.9187088 10197915
-0.20457694 0.10418791 1.9009725 10197915
-0.17541085 0.10431037 1.9074868 10197915
-0.12556379 0.10491574 1.9186268 10197915
-0.07461144 0.10487862 1.9302293 10197915
-0.030446909 0.10560729 1.9357487 10197915
0.025087558 0.10828877 1.9218228 10197915
0.07492023 0.10839199 1.9238795 10197915
0.12485803 0.10849712 1.9255202 10197915
0.17488094 0.10860073 1.9275843 10197915
0.2246072 0.10870458 1.9294276 10197915
0.27482989 0.10881027 1.9310784 10197915
0.32514584 0.10891455 1.9331542 10197915
0.37515995 0.10901896 1.9350077 10197915
0.42072198 0.10913739 1.9308162 10197915
0.47839826 0.10930622 1.9207379 10197915
0.5249784 0.10943601 1.914256 10197915
0.5746929 0.10953991 1.9160739 10197915
0.62490344 0.10964568 1.9177029 10197915
0.67520589 0.10975 1.9197488 10197915
0.72520602 0.10985453 1.9215767 10197915
0.77489352 0.10995924 1.9231797 10197915
0.82467735 0.11006243 1.9252136 10197915
0.87496275 0.11016754 1.9270524 10197915
0.92493045 0.11027284 1.9286648 10197915
0.97500217 0.11037663 1.9307097 10197915
1.0251617 0.11048235 1.9323292 10197915
1.0750154 0.11058654 1.9341516 10197915
1.1233916 0.11068952 1.9354441 10197915
1.1771513 0.11086278 1.9220433 10197915
1.2249955 0.11100196 1.9139078 10197915
1.2749525 0.11110733 1.9154998 10197915
1.3250113 0.11121121 1.9175156 10197915
1.375159 0.11131697 1.9191141 7896453
1.4249998 0.11142125 1.9209119 795714
1.4749223 0.11152402 1.923134 928325
1.5172837 0.11159736 1.928516 928069
-0.78667897 -0.86759776 1.9788541 2039583
-0.78614295 -0.82507199 1.9766043 2039583
-0.78633082 -0.77507931 1.9770945 2039583
-0.7865321 -0.72486907 1.9776349 2039583
-0.0024242408 -0.72087657 1.9507154 2039583
0.025159456 -0.72097307 1.9579183 2039583
0.075118341 -0.72093034 1.970965 2039583
0.1249324 -0.72086668 1.9839764 2039583
0.16802603 -0.72105771 1.99523 2039583
-0.78669393 -0.67483652 1.9780242 2039583
-0.0030871851 -0.67365474 1.9507241 2899538
0.02513512 -0.67500865 1.9580902 2965074
0.075102441 -0.6750204 1.9711396 3359573
0.12495603 -0.67500836 1.9841596 3688536
0.16784234 -0.67501879 1.9953601 4017242
-0.78684264 -0.62498707 1.9783645 2039583
-0.0032324607 -0.62475705 1.9508749 2768211
0.025115266 -0.62503707 1.9582754 2965075
0.075125374 -0.62496758 1.9713385 3360088
0.12496202 -0.62501079 1.9843537 3688794
0.16752112 -0.62524962 1.9954674 3951707
-0.7870698 -0.57470822 1.9790032 2039583
-0.0037446613 -0.57333463 1.9509398 2702675
0.025194548 -0.57505429 1.9584917 2899540
0.07515201 -0.57498819 1.9715375 3162710
0.12493692 -0.57500106 1.9845396 3491160
0.16698945 -0.57494408 1.9955227 3754330
-0.7872445 -0.52481204 1.9794422 2039583
-0.0040407856 -0.52458411 1.9510506 2439762
0.02515961 -0.52501094 1.9586768 2636883
0.075189382 -0.52502578 1.9717411 2965333
0.12503622 -0.52498305 1.9847591 3228246
0.16694638 -0.52513009 1.9957042 3425367
-0.78582895 -0.47493243 1.9737923 2039583
-0.0043622702 -0.47353372 1.951164 2374483
0.025132999 -0.47500932 1.9588612 2505812
0.075081676 -0.47502634 1.9719044 2834262
0.12491681 -0.47498193 1.9849209 2900054
0.1661381 -0.47505748 1.9956865 3162967
-0.78598279 -0.42498133 1.9741508 2039583
-0.0048491922 -0.42466256 1.9512246 2177362
0.025132049 -0.42505074 1.959053 2309204
0.075224869 -0.42498893 1.9721359 2571605
0.12505709 -0.42502522 1.9851509 2702676
0.16621341 -0.42501408 1.995899 2834004
-0.78619844 -0.37501046 1.9747471 2039583
-0.0050145495 -0.37410921 1.9513772 2046290
0.025190961 -0.37500298 1.9592608 2177619
0.075154699 -0.37502429 1.9723116 2309204
0.12500672 -0.37497765 1.9853302 2505812
0.16553316 -0.37514892 1.9959139 2571604
-0.78639299 -0.3248516 1.975262 2039583
-0.0056576785 -0.3249926 1.9513985 1651278
0.025159363 -0.32491916 1.9594473 1651021
0.075225502 -0.32505012 1.9725227 1782606
0.12506798 -0.32494655 1.9855393 1979727
0.16539954 -0.32498983 1.9960725 2045519
-0.78652602 -0.27516395 1.9755423 2039583
-0.0056807841 -0.27524525 1.9515841 1585998
0.025076242 -0.27493051 1.9596192 1585999
0.075064681 -0.27498278 1.9726732 1717327
0.12493239 -0.27501547 1.9856976 1782605
0.1647817 -0.27517089 1.9961033 1716812
-0.78529465 -0.22562782 1.9705994 2039583
-0.0064891661 -0.22547564 1.951565 1652304
0.025220249 -0.22493254 1.959848 1652048
0.07534238 -0.22496101 1.972939 1783376
0.12523857 -0.22499204 1.9859695 1914961
0.16458593 -0.22494923 1.9962465 1783632
-0.78529543 -0.17510571 1.9703691 2039583
-0.0064669047 -0.17546417 1.9517636 1520719
0.025286002 -0.17487052 1.9600569 1520718
0.075133108 -0.17509378 1.9730771 1586511
0.12489241 -0.1748793 1.9860722 1783632
0.16430345 -0.17568524 1.9963619 1718096
-0.78548247 -0.12513076 1.9708554 2039583
-0.0071329931 -0.12488888 1.9517847 1586254
0.02523452 -0.1249828 1.9602381 1586254
0.075165741 -0.12499838 1.9732783 1586254
0.1251093 -0.12508184 1.9863218 1586254
0.16385439 -0.12509336 1.9964411 1520462
-0.78569502 -0.075135745 1.971439 2039583
-0.0072756563 -0.075205468 1.9519399 1190985
0.025016949 -0.07524766 1.9603716 1191241
0.075340584 -0.075106695 1.9735167 1191242
0.12512176 -0.074891791 1.986518 1191498
0.16357113 -0.074873246 1.99656 1191242
-0.78583091 -0.025120785 1.9717292 2039583
-0.0077911294 -0.024450909 1.952001 1059656
0.025208263 -0.025179623 1.960615 1125192
0.075159945 -0.025240924 1.9736618 1125448
0.12513411 -0.02469177 1.9867152 1125192
0.16295828 -0.024814535 1.9965925 1125192
-0.78600609 0.025128251 1.9721682 2039583
-0.0080844956 0.025071297 1.9521149 1125191
0.025210794 0.025183 1.9608109 1125192
0.075148523 0.025217496 1.9738523 1191241
0.1251463 0.024694996 1.9869088 1257290
0.16297425 0.024817783 1.996789 1257290
-0.78621876 0.075187676 1.9727529 3421236
-0.0084690098 0.075810142 1.9522104 4346212
0.025017336 0.075244755 1.9609514 4149090
0.075382032 0.075102068 1.9741075 4149346
0.1251587 0.07491482 1.987105 4149603
0.16218597 0.074414566 1.9967737 4018018
-1.5627781 0.10450669 1.9806634 10197915
-1.5251774 0.10462104 1.9730188 10197915
-1.4747578 0.10472679 1.9747688 10197915
-1.425023 0.10482935 1.9769472 10197915
-1.3751985 0.10493384 1.9786731 10197915
-1.3248682 0.10503852 1.9806465 10197915
-1.2748449 0.10514164 1.982837 10197915
-1.2262762 0.10524557 1.9840082 10197915
-1.1749927 0.10540655 1.9723114 10197915
-1.1246324 0.10551132 1.9742723 10197915
-1.0829912 0.10559799 1.9758933 10197915
-0.77287537 0.10552559 1.974624 10197915
-0.73866343 0.10638506 1.9714775 10197915
-0.0088930512 0.10433228 1.9522097 10197915
0.026324721 0.10446416 1.9612522 10197915
0.075205177 0.10459797 1.9725361 10197915
0.12507437 0.10520407 1.9836141 10197915
0.16853073 0.10581597 1.9897925 10197915
0.22520293 0.10848984 1.9839742 10197915
0.27138939 0.10860234 1.9816421 10197915
0.32544944 0.10875444 1.9737538 10197915
0.37486643 0.10885748 1.9756238 10197915
0.42870957 0.10900955 1.9676088 10197915
0.47516552 0.10912173 1.9655027 10197915
0.52534813 0.10922643 1.9673872 10197915
0.5752092 0.10932954 1.9694862 10197915
0.6251682 0.10943466 1.9711386 10197915
0.67521799 0.10953818 1.9732445 10197915
0.72495341 0.10964195 1.9751136 10197915
0.77519482 0.10974764 1.9767755 10197915
0.8255347 0.10985179 1.9788935 10197915
0.87513632 0.10995616 1.9805236 10197915
0.92482954 0.11005892 1.9826252 10197915
0.9750393 0.11016366 1.9845121 10197915
1.0207732 0.11028446 1.9798176 10197915
1.0748236 0.11042667 1.9744121 10197915
1.127588 0.11054938 1.9732071 10197915
1.1752723 0.1106898 1.9646637 10197915
1.2252631 0.11079418 1.9665161 10197915
1.2749238 0.11089879 1.9681276 10197915
1.3246846 0.1110018 1.9702014 10197915
1.3749578 0.11110676 1.9720649 10197915
1.4248961 0.11121198 1.973686 5858418
1.4749427 0.11131556 1.9757712 795714
1.525071 0.11142116 1.9773985 928326
1.5647399 0.11147895 1.985195 928069
-0.80250561 -0.90619665 2.0396423 2039583
-0.79709446 -0.90164518 2.0188985 2039583
-0.80211264 -0.87517428 2.0379946 2039583
-0.79559511 -0.87437969 2.0130312 2039583
-0.80231959 -0.82511616 2.0385563 2039583
-0.79574269 -0.82493073 2.0133688 2039583
-0.80249995 -0.77461725 2.0390155 2039583
-0.79591936 -0.77505565 2.0138154 2039583
-0.80265039 -0.7245155 2.0393605 2039583
-0.79609585 -0.72515863 2.0142624 2039583
0.19256902 -0.72013706 2.0016432 2039583
0.22484201 -0.72079819 2.0100694 2039583
0.27492014 -0.72079211 2.0231481 2039583
0.32470956 -0.72080725 2.0361519 2039583
0.36386746 -0.72094858 2.0463772 2039584
-0.80288422 -0.67481631 2.0400283 2039583
-0.79627258 -0.67523932 2.0147092 2039583
0.19240206 -0.67505902 2.0017734 4148827
0.2248331 -0.67494786 2.0102444 4411740
0.27490708 -0.67505306 2.0233216 4609117
0.32480538 -0.67499608 2.0363529 4609117
0.36374617 -0.67494363 2.0465236 4477789
-0.80300546 -0.62509537 2.0402625 2039583
-0.79642415 -0.62488544 2.0150583 2039583
0.19212899 -0.62445086 2.0018973 4148828
0.22490653 -0.62492871 2.0104566 4280668
0.27500108 -0.62506098 2.0235388 4543325
0.3248392 -0.6249916 2.0365553 4543325
0.36341146 -0.62540346 2.046627 4346204
-0.80321252 -0.5749265 2.0408268 2039583
-0.79662919 -0.57450414 2.0156119 2039583
0.1916087 -0.57503748 2.0019531 3885658
0.22492675 -0.57495534 2.0106537 4017499
0.27500424 -0.57502711 2.0237327 4214620
0.32489377 -0.57503706 2.0367622 4280412
0.36293116 -0.57494962 2.0466959 4148827
-0.80339026 -0.52515912 2.0412762 2039583
-0.79680622 -0.52451789 2.0160596 2039583
0.19151001 -0.52471858 2.0021212 3556952
0.22493088 -0.52500063 2.0108483 3688537
0.2750223 -0.52504408 2.0239298 3885657
0.32490337 -0.52501291 2.0369573 3885915
0.36285192 -0.52514291 2.0468676 3688794
-0.80356807 -0.47536916 2.0417285 2039583
-0.7969833 -0.47450966 2.0165079 2039583
0.19073564 -0.47486389 2.002111 3359832
0.2249531 -0.47500741 2.0110459 3425881
0.27502215 -0.47508138 2.0241225 3491673
0.32486409 -0.47498041 2.0371404 3425624
0.36213005 -0.4750047 2.0468724 3294552
-0.8037191 -0.42513546 2.0420759 2039583
-0.7971313 -0.42489639 2.0168471 2039583
0.19077121 -0.42480657 2.0023141 2899797
0.22496757 -0.42500478 2.0112443 2900053
0.2750847 -0.42504847 2.0243325 2965589
0.32501936 -0.42496485 2.0373731 2900053
0.36207768 -0.42508167 2.0470519 2834261
-0.80392659 -0.37488139 2.0426404 2039583
-0.79733461 -0.37526321 2.0173967 2039583
0.1900434 -0.37474447 2.0023167 2637396
0.2249662 -0.37501967 2.0114357 2702932
0.27512348 -0.37497559 2.0245354 2702933
0.32497102 -0.37502983 2.0375526 2637396
0.36153629 -0.37536705 2.0471022 2571604
-0.80410457 -0.32502511 2.043093 2039583
-0.79751211 -0.32518846 2.0178456 2039583
0.18998408 -0.3252061 2.0024917 1979983
0.22472644 -0.32518074 2.0115662 2045775
0.27483416 -0.32475975 2.0246537 2045776
0.3250528 -0.32502407 2.0377686 2111568
0.36124668 -0.32505408 2.0472205 2045519
-0.80389506 -0.27876148 2.0420768 2039583
-0.79768944 -0.2750915 2.0182939 2039583
0.18947352 -0.27486968 2.0025527 1782862
0.22410156 -0.27501845 2.011596 1783119
0.27417934 -0.27495617 2.0246747 1848655
0.32491839 -0.27498049 2.0379264 1848655
0.36097404 -0.27551308 2.0473402 1783119
-0.80279386 -0.22454499 2.0376098 2039583
-0.79632646 -0.22457919 2.0128424 2039583
0.18922761 -0.22525463 2.0026801 1783376
0.22423065 -0.22503741 2.0118222 1783633
0.27442378 -0.22491011 2.0249317 1849425
0.3252973 -0.2249845 2.0382178 1783633
0.36044657 -0.22493429 2.0473983 1718096
-0.8029713 -0.17477831 2.0380597 2039583
-0.79639345 -0.17484874 2.0128696 2039583
0.18879032 -0.17430706 2.0027628 1718096
0.22425258 -0.17504641 2.0120211 1718096
0.27447507 -0.17485255 2.0251379 1717840
0.32493776 -0.17515644 2.038316 1652303
0.36039403 -0.17520131 2.0475762 1586511
-0.80314851 -0.12498955 2.0385101 2039583
-0.79656911 -0.12483928 2.0133128 2039583
0.18833314 -0.12452786 2.0028353 1520462
0.2242748 -0.12504546 2.0122211 1520462
0.27438807 -0.12504786 2.0253081 1520461
0.32518083 -0.12499394 2.0385742 1454669
0.35965043 -0.1247851 2.0475764 1389133
-0.80203241 -0.071672812 2.0339911 2039583
-0.79590458 -0.077435359 2.0105493 2039583
0.18822727 -0.074421123 2.003001 1191242
0.22429678 -0.075034514 2.0124187 1191498
0.2742568 -0.07529448 2.0254655 1191498
0.32521284 -0.075172514 2.0387738 1191498
0.35971344 -0.074656427 2.0477862 1191498
-0.80185372 -0.025267636 2.0330935 2039583
-0.79533523 -0.024957379 2.0081277 2039583
0.18754637 -0.024894323 2.0030143 1059400
0.22431925 -0.025013685 2.0126171 1059399
0.27445373 -0.025176425 2.0257108 1059400
0.32524502 -0.025341256 2.0389748 1059656
0.35896009 -0.024853297 2.0477822 994120
-0.80203342 0.025275188 2.0335491 2039583
-0.79551125 0.024964746 2.0085721 2039583
0.18756483 0.024897609 2.0032113 1257290
0.22434129 0.025017003 2.012816 1257290
0.27448097 0.025179764 2.0259113 1191497
0.32457575 0.025198132 2.0389948 1191497
0.35817513 0.025014816 2.0477691 1191753
-0.80218363 0.075421035 2.0338933 2960685
-0.7956875 0.074908964 2.0090168 3092271
0.18681347 0.074841991 2.0032079 4083554
0.22436357 0.075057521 2.0130146 4149603
0.27431586 0.075260386 2.026062 4083041
0.32442623 0.075187132 2.039149 4017761
0.35755968 0.073994465 2.0477982 3886688
-1.6122258 0.10415367 2.0418882 10197915
-1.575183 0.10428315 2.0300946 10197915
-1.5249833 0.10438831 2.0318737 10197915
-1.476885 0.10449361 2.0324333 10197915
-1.4249815 0.10465523 2.0209169 10197915
-1.3752644 0.10475844 2.0229104 10197915
-1.3246324 0.10486358 2.0249403 10197915
-1.2747176 0.10496719 2.0269415 10197915
-1.2227298 0.10508553 2.0264027 10197915
-1.1746945 0.10523474 2.0158358 10197915
-1.1248496 0.10533828 2.0178189 10197915
-1.0916864 0.10544705 2.009069 10197915
-0.80257952 0.10404041 2.0383682 10197915
-0.7782225 0.10570261 2.0288405 10197915
-0.74744552 0.10618075 2.018086 10197915
0.18674421 0.10374298 2.0033011 10197915
0.2243764 0.10425204 2.0131314 10197915
0.27663666 0.10492069 2.0244167 10197915
0.32458809 0.10531641 2.0323637 10197915
0.36727747 0.10681268 2.0308733 10197915
0.42513478 0.10879343 2.0201368 10197915
0.47496521 0.10889719 2.0220637 10197915
0.52446491 0.10900121 2.023731 10197915
0.57490641 0.10910524 2.0259273 10197915
0.62502301 0.10920959 2.0278647 10197915
0.67480338 0.10931421 2.0295427 10197915
0.72511369 0.10941892 2.031487 10197915
0.77508301 0.10952201 2.0336654 10197915
0.82043105 0.10964034 2.0293696 10197915
0.87495369 0.10978773 2.0229268 10197915
0.9252823 0.10989255 2.024858 10197915
0.9748522 0.10999584 2.0267608 10197915
1.0282874 0.11015034 2.0179105 10197915
1.0746298 0.11026108 2.0161061 10197915
1.124979 0.11036409 2.018508 10197915
1.175424 0.11047112 2.0199471 10197915
1.2251163 0.11057473 2.021832 10197915
1.2744646 0.11067659 2.0239632 10197915
1.324773 0.11078239 2.0256383 10197915
1.3751661 0.11088647 2.027801 10197915
1.4252315 0.11099082 2.0297096 10197915
1.4749569 0.11109541 2.0313528 4280162
1.5247717 0.11119824 2.0335028 795970
1.5711942 0.11130986 2.0315208 928326
1.604295 0.11142101 2.0221486 928068
-0.8130607 -0.91529703 2.0801065 2039583
-0.81232738 -0.87491405 2.0771132 2039583
-0.8124795 -0.8247627 2.0774643 2039583
-0.81270444 -0.77479494 2.0780954 2039583
-0.81279457 -0.72502476 2.0782125 2039583
0.3888669 -0.72046703 2.0529082 2039840
0.42550713 -0.7207064 2.0624771 2039840
0.4755193 -0.72060233 2.0755382 2039841
0.52521014 -0.72058982 2.0885165 2040098
0.5595845 -0.72063613 2.0974922 2040098
-0.81306416 -0.67523438 2.0790155 2039583
0.38866028 -0.67507422 2.0530295 4346204
0.42465225 -0.67497587 2.0624292 4083035
0.47466373 -0.67497975 2.0754902 3688280
0.52522296 -0.67501712 2.0886948 3359831
0.55961865 -0.67507678 2.0976768 3228502
-0.8132301 -0.625202 2.079421 2039583
0.38839746 -0.62462056 2.0531554 4214620
0.42474681 -0.62494242 2.0626469 4017243
0.47468901 -0.62501711 2.0756907 3622745
0.52529675 -0.62505007 2.088908 3360088
0.55885535 -0.62502587 2.0976725 3228503
-0.81293875 -0.57637548 2.0780814 2039583
0.38788998 -0.57501954 2.0532141 4017243
0.42473203 -0.57499313 2.0628366 3623001
0.47472453 -0.5750137 2.0758929 3359831
0.52536964 -0.57504165 2.0891201 3096660
0.55888265 -0.57487214 2.097872 2899539
-0.81186843 -0.52491152 2.0737448 2039583
0.38779715 -0.52483982 2.0533845 3623001
0.42471641 -0.52500361 2.0630248 3491416
0.47473267 -0.52496976 2.0760872 3228502
0.52542466 -0.52499044 2.0893264 3031382
0.55834001 -0.52574462 2.097919 2899796
-0.81200987 -0.47490138 2.0740569 2039583
0.38713351 -0.47496942 2.0534029 3294553
0.4248842 -0.47503406 2.0632622 3162968
0.47482461 -0.47494668 2.0763054 2965845
0.52548379 -0.47496158 2.0895352 2768468
0.55797297 -0.47523171 2.0980184 2571347
-0.81222928 -0.4248724 2.0746665 2039583
0.38699764 -0.4249357 2.0535607 2834261
0.42485768 -0.425024 2.0634477 2702933
0.47489828 -0.42497468 2.0765176 2505811
0.52548075 -0.42498767 2.089726 2374226
0.55787295 -0.42565945 2.0981827 2242897
-0.8124088 -0.37510377 2.0751252 2039583
0.3865225 -0.37472507 2.0536301 2506068
0.42492008 -0.37494248 2.0636575 2440275
0.47494134 -0.37502331 2.0767212 2308947
0.52553159 -0.37503576 2.0899315 2045776
0.55719793 -0.37465116 2.0982044 1913934
-0.81258941 -0.32502687 2.0755866 2039583
0.38627654 -0.32497025 2.0537581 1979983
0.4249869 -0.32497475 2.0638676 1914191
0.47497809 -0.32506216 2.0769238 1848655
0.52562928 -0.32504189 2.0901537 1783119
0.55730951 -0.32475731 2.0984268 1783118
-0.81198496 -0.27291542 2.0730324 2039583
0.38578692 -0.27462077 2.0538247 1717326
0.42491698 -0.27499855 2.0640421 1651533
0.47500154 -0.27503017 2.0771229 1585741
0.52573609 -0.27500516 2.0903718 1585741
0.55644202 -0.2756592 2.0983884 1585741
-0.81124669 -0.22466868 2.0699825 2039583
0.38560459 -0.2250891 2.0539675 1718096
0.42495415 -0.22504523 2.0642445 1520205
0.47497946 -0.22489694 2.0773096 1454156
0.52576673 -0.2249912 2.0905724 1322314
0.55642807 -0.22517851 2.0985801 1190728
-0.81133711 -0.1749731 2.0701005 2039583
0.38519782 -0.17466971 2.0540559 1586767
0.42520747 -0.17520504 2.0645027 1454925
0.47507453 -0.17478392 2.077528 1323083
0.52577603 -0.17506379 2.0907686 1322570
0.55600905 -0.17590439 2.0986612 1322314
-0.81159061 -0.12503871 2.0708408 2039583
0.38465858 -0.12509535 2.0541072 1389133
0.42523256 -0.12507132 2.0647039 1323340
0.47517994 -0.12481356 2.0777483 1323083
0.52517384 -0.12554993 2.0908039 1257291
0.55510515 -0.12379781 2.0986273 1257290
-0.81174213 -0.074869096 2.0711913 2039583
0.38469672 -0.074894264 2.0543103 1191498
0.424992 -0.074745499 2.0648346 1125962
0.47485489 -0.07511206 2.0778553 1191497
0.52458113 -0.075129919 2.0908413 1191241
0.55453867 -0.075975262 2.0986636 1191241
-0.81196606 -0.024890635 2.0718172 2039583
0.38392937 -0.024559835 2.0543039 1059656
0.425228 -0.024810292 2.0650883 1059656
0.47435635 -0.024964456 2.0779183 1059912
0.52409911 -0.025120517 2.0909092 993863
0.55384481 -0.025213832 2.0986762 927301
-0.81214505 0.024897959 2.0722749 2039583
0.38330251 0.024377227 2.0543282 1191753
0.42467132 0.025013721 2.0651352 1257546
0.47440276 0.024967706 2.0781236 1257546
0.52415049 0.025123812 2.0911155 1257289
0.55389988 0.025217172 2.0988865 1323081
-0.81228155 0.074920669 2.0725672 2697513
0.38250306 0.075232312 2.0543168 4149603
0.42422095 0.074717641 2.0652099 4018018
0.47444957 0.074909709 2.0783288 4018274
0.52420253 0.075378127 2.0913229 4149602
0.55318451 0.07436417 2.0988894 4018017
-1.6244087 0.10399683 2.07459 10197915
-1.5744069 0.10410041 2.0766563 10197915
-1.5243049 0.10420418 2.0787268 10197915
-1.4713752 0.10433516 2.0755301 10197915
-1.42494 0.10447228 2.0671208 10197915
-1.3749199 0.10457596 2.0691721 10197915
-1.3248005 0.10467985 2.0712276 10197915
-1.275007 0.10478408 2.0730028 10197915
-1.2251083 0.10488644 2.0753162 10197915
-1.1751163 0.10499112 2.0770986 10197915
-1.1347647 0.10509212 2.0743721 10197915
-0.81025904 0.1039675 2.0740342 10197915
-0.78322971 0.10586536 2.0775256 10197915
0.3821499 0.10468379 2.054338 10197915
0.42548126 0.10465232 2.0652885 10197915
0.47459206 0.10499159 2.0763159 10197915
0.52441883 0.10554635 2.0873652 10197915
0.56591034 0.10712591 2.0827179 10197915
0.62501514 0.10903358 2.0723071 10197915
0.6745885 0.1091366 2.0742655 10197915
0.7251277 0.10924165 2.076262 10197915
0.77489012 0.10934508 2.0782275 10197915
0.82856882 0.10950059 2.0692499 10197915
0.87476462 0.10961325 2.0668824 10197915
0.92488188 0.1097164 2.0691118 10197915
0.97509891 0.10982192 2.070817 10197915
1.0249724 0.10992355 2.0733018 10197915
1.0749296 0.11002952 2.0747318 10197915
1.1249955 0.11013365 2.0766952 10197915
1.1747102 0.110236 2.0789101 10197915
1.224521 0.11034063 2.0805979 10197915
1.2744198 0.11044334 2.0828202 10197915
1.3205606 0.11055839 2.079807 10197915
1.3748971 0.11071239 2.0715911 10197915
1.425162 0.11081698 2.0735478 10197915
1.4755211 0.11092176 2.0755088 10197915
1.5250903 0.11102492 2.0774391 992835
1.5793757 0.11117302 2.0706739 928069
1.6213511 0.11127109 2.0696006 993862
1.6529734 0.11129101 2.0824184 928325
-0.82804596 -0.9529171 2.1376691 2039583
-0.82465976 -0.92402065 2.124568 2039583
-0.82466483 -0.87515396 2.1243627 2039583
-0.82489187 -0.8248753 2.1250005 2039583
-0.82507551 -0.77486736 2.125473 2039583
-0.8252157 -0.72513098 2.125782 2039583
0.58477038 -0.72072625 2.104068 2040098
0.62543404 -0.72047406 2.1146896 2040099
0.6751945 -0.72053999 2.1276867 2040100
0.72549558 -0.7205857 2.1408229 2040100
0.75577563 -0.72016698 2.1487327 2040357
-0.82544273 -0.67478776 2.126421 2039583
0.5840053 -0.67490011 2.1040468 3162453
0.62462914 -0.67500281 2.114656 2899540
0.67524147 -0.67503363 2.1278746 2702418
0.72552371 -0.67500442 2.1410058 2440018
0.75559366 -0.67560387 2.1488576 2374482
-0.82562625 -0.62471271 2.1268921 2039583
0.58315641 -0.62498617 2.1040184 3097174
0.62465692 -0.62499666 2.1148565 2900052
0.67538232 -0.62501669 2.1281044 2702931
0.72472298 -0.62496608 2.1409898 2571347
0.75395775 -0.62488496 2.148627 2440018
-0.82509071 -0.57326573 2.1246042 2039583
0.58325255 -0.57510209 2.1042364 2833746
0.62482411 -0.57498318 2.1150937 2702675
0.67541045 -0.5749557 2.1283047 2373968
0.72475827 -0.57499665 2.1411922 2111054
0.75403208 -0.57509297 2.1488364 1979725
-0.82413697 -0.52498698 2.1207309 2039583
0.58265042 -0.52464777 2.1042709 2768468
0.62481385 -0.52502358 2.1152856 2637140
0.67541569 -0.52498716 2.1284983 2505811
0.72476709 -0.52498269 2.1413879 2243154
0.75329405 -0.52597618 2.1488342 2111825
-0.82439995 -0.47479567 2.1215065 2039583
0.58233094 -0.47499895 2.1043816 2571091
0.62485677 -0.47495732 2.1154861 2440018
0.67560762 -0.4750399 2.1287413 2242898
0.72486359 -0.47495979 2.1416061 2177361
0.75320023 -0.47542351 2.1490047 2111569
-0.82455122 -0.42479467 2.121855 2039583
0.58229136 -0.42480573 2.1045649 2242897
0.62497413 -0.42497742 2.1157105 2111569
0.67555594 -0.42498481 2.1289215 2045776
0.72496819 -0.42499545 2.1418262 1914447
0.75291896 -0.42729872 2.1491175 1848655
-0.824718 -0.37499201 2.1222653 2039583
0.58153665 -0.37505227 2.1045585 1914191
0.625054 -0.3750219 2.1159234 1848655
0.6757248 -0.37498513 2.1291583 1848655
0.72499478 -0.37505749 2.1420248 1783119
0.7523917 -0.3754358 2.1491792 1783119
-0.82486975 -0.32494932 2.1226158 2039583
0.58150464 -0.3250207 2.1047466 1783119
0.62497449 -0.3249895 2.1160967 1783119
0.67558229 -0.32504329 2.1293139 1783119
0.72495961 -0.32503998 2.1422091 1387849
0.75239754 -0.32501763 2.1493747 1322056
-0.825068 -0.27509728 2.1231453 2039583
0.58096087 -0.27477124 2.1047947 1585741
0.6252985 -0.27501336 2.1163745 1585741
0.67598701 -0.27502513 2.1296124 1585997
0.72527921 -0.2750476 2.142487 1387849
0.75153875 -0.27425778 2.1493461 1387849
-0.82529777 -0.22523427 2.1237962 2039583
0.58078396 -0.22503279 2.1049447 1190472
0.62484193 -0.2250946 2.1164486 1256264
0.67531145 -0.22506051 2.1296284 1322314
0.72491819 -0.22487175 2.1425848 1454412
0.75161278 -0.22441478 2.1495588 1520205
-0.82546687 -0.17490254 2.124213 2039583
0.58022523 -0.17481504 2.1049933 1256778
0.62455237 -0.17496003 2.1165667 1190985
0.67385316 -0.17495307 2.129441 1257290
0.72440553 -0.17503873 2.142643 1323339
0.75125325 -0.17882231 2.149641 1323340
-0.82561839 -0.12476794 2.124562 2039583
0.57997853 -0.12471358 2.1051199 1257034
0.6241833 -0.12499962 2.1166608 1191498
0.67414093 -0.12525283 2.1297085 1389133
0.72421044 -0.12469872 2.1427875 1455181
0.75078076 -0.12468441 2.1497264 1454925
-0.82584852 -0.074833177 2.1252143 2039583
0.57986116 -0.074839443 2.1052806 1191497
0.62467533 -0.075012013 2.1169846 1191497
0.67414248 -0.074970074 2.1299028 1323082
0.72450346 -0.074578397 2.1430566 1388875
0.75084668 -0.080161311 2.1499147 1388875
-0.82598424 -0.024878882 2.1255031 2039583
0.57915395 -0.025293246 2.1052878 1059399
0.62430578 -0.025037112 2.1170805 1125191
0.67424148 -0.024709161 2.1301222 1125447
0.7245748 -0.024861639 2.1432672 1257032
-0.82616627 0.024886191 2.125972 2039583
0.57921165 0.025296608 2.1054986 1059142
0.62436628 0.025006721 2.1172891 993606
0.67430735 0.024712387 2.1303303 993093
0.72464585 0.024864886 2.1434782 993606
-0.82639682 0.074884683 2.1266246 2302755
0.57849246 0.075173408 2.105499 3819870
0.62486142 0.07500124 2.1176109 3754077
0.67431247 0.074959829 2.1305261 3819613
0.72395647 0.074427664 2.1434896 3688284
-1.6708598 0.10368409 2.1273475 10197915
-1.6252004 0.10380258 2.1231964 10197915
-1.5753036 0.10390461 2.1255889 10197915
-1.5253063 0.1040091 2.1274207 10197915
-1.4752119 0.10411154 2.1298225 10197915
-1.4250139 0.10421647 2.1316624 10197915
-1.3772241 0.10436433 2.1212912 10197915
-1.3249799 0.10448848 2.1194298 10197915
-1.2753057 0.10459124 2.1215143 10197915
-1.225534 0.1046942 2.1236031 10197915
-1.1756641 0.10479737 2.1256955 10197915
-1.1489727 0.10485258 2.1268153 10197915
-0.81718355 0.1047572 2.1267054 10197915
-0.79090685 0.10568228 2.1193917 10197915
0.57830405 0.10467024 2.104825 10197915
0.62468737 0.10522443 2.1150174 10197915
0.67481047 0.10567514 2.126271 10197915
0.72406578 0.10549622 2.1371942 10197915
0.77513164 0.10916126 2.1247566 10197915
0.82522029 0.10926522 2.1267693 10197915
0.874942 0.10936724 2.1290672 10197915
0.92521816 0.10947157 2.1310983 10197915
0.9747082 0.10957661 2.1325057 10197915
1.0254412 0.10974287 2.1191602 10197915
1.0756261 0.10984705 2.1211724 10197915
1.1250075 0.10994957 2.123152 10197915
1.1744821 0.1100523 2.1251359 10197915
1.2249507 0.11015707 2.1271591 10197915
1.2755154 0.11026206 2.1291869 10197915
1.3297471 0.1104169 2.1207008 10197915
1.3750651 0.11052953 2.1178417 10197915
1.4246325 0.11063475 2.1192467 10197915
1.474758 0.11073776 2.1215255 10197915
1.5249656 0.1108432 2.1232388 7502209
1.5748252 0.11094677 2.1252229 795970
1.6252209 0.11105036 2.1275134 928326
1.6717731 0.1111329 2.1329377 994119
1.7037245 0.11115112 2.1463544 994118
-0.8387177 -0.9622854 2.1785815 2039583
-0.8374418 -0.92503357 2.1735237 2039583
-0.83767956 -0.87502521 2.1742051 2039583
-0.83776522 -0.82476956 2.1743023 2039583
-0.83805341 -0.77494609 2.1751742 2039583
-0.83823854 -0.72509289 2.1756554 2039583
0.78036922 -0.7205317 2.1551545 2040357
0.82497227 -0.72047818 2.1668034 1974821
0.87507701 -0.72038823 2.1798899 1974822
0.92485344 -0.72039121 2.1928892 2369581
0.950441 -0.71989274 2.1995738 5791073
-0.83837402 -0.67499757 2.1759431 2039583
0.78016561 -0.67478383 2.1552773 2177104
0.82507002 -0.67504346 2.1670041 2045776
0.87523896 -0.67504156 2.1801062 2046032
0.92492664 -0.67498934 2.1930833 1848911
0.95052493 -0.6753006 2.1997676 1717326
-0.83859438 -0.62510055 2.176558 2039583
0.77951223 -0.62499762 2.1552987 2242897
0.82512575 -0.62501079 2.167212 1980239
0.87528878 -0.62502986 2.1803124 1848910
0.92504442 -0.62504232 2.1933069 1848910
0.95059842 -0.63616252 2.1999378 1848654
-0.83874583 -0.57518762 2.1769087 2039583
0.77958602 -0.57496601 2.1555114 1979469
0.82516438 -0.57503933 2.1674144 1782604
0.87526625 -0.57504576 2.1804991 1782605
0.92502832 -0.57497168 2.1934955 1651019
-0.83898449 -0.5250203 2.1775908 2039583
0.77879208 -0.52484983 2.1554976 2111568
0.82526022 -0.52509391 2.1676333 1914447
0.87549329 -0.52501553 2.1807516 1848911
0.92526954 -0.52492768 2.1937516 1717070
-0.83838677 -0.47675523 2.1750798 2039583
0.77872169 -0.47495237 2.1556714 2046033
0.82539642 -0.47506705 2.1678607 1980497
0.87555909 -0.47497365 2.1809616 1980497
0.92429495 -0.47503278 2.1936896 1585484
-0.83745015 -0.42516273 2.1712558 2039583
0.77836728 -0.42464539 2.1557736 1914447
0.82546622 -0.42495829 2.1680729 1848911
0.87561131 -0.42503315 2.1811688 1783375
0.92433405 -0.42501104 2.1938932 1651790
-0.83763695 -0.37487307 2.1717405 2039583
0.77788711 -0.37496436 2.1558397 1783119
0.82550538 -0.3749108 2.1682756 1651790
0.87516779 -0.37525937 2.1812449 1651790
0.92340648 -0.37502223 2.1938431 1651790
-0.83777601 -0.32516482 2.1720445 2039583
0.77795815 -0.32498118 2.1560509 1387592
0.82550943 -0.32496259 2.168469 1322056
0.87460214 -0.32499337 2.1812913 1322057
0.92231053 -0.32497844 2.1937509 1256520
-0.83800685 -0.27542892 2.1726997 2039583
0.77708358 -0.27507269 2.1560147 1387849
0.82571959 -0.27493218 2.1687169 1388105
0.8750571 -0.2749778 2.1816022 1322313
0.92278862 -0.27501565 2.1940677 1256521
-0.83819437 -0.22507229 2.1731853 2039583
0.77719426 -0.22511192 2.1562376 1520205
0.82588726 -0.2248188 2.1689551 1520460
0.87499684 -0.22502759 2.1817801 1520204
0.92147708 -0.22500464 2.193918 1586253
-0.83833498 -0.1749955 2.1734934 2039583
0.77625018 -0.17509066 2.1561835 1323083
0.82553661 -0.17460796 2.1690583 1323339
0.8748858 -0.17510903 2.1819427 1388875
0.92197418 -0.1749825 2.1942415 1388875
-0.83856606 -0.12519568 2.174149 2039583
0.77537549 -0.12505695 2.1561487 1323340
0.82480007 -0.1252227 2.1690564 1323339
0.87511563 -0.12472349 2.1821988 1389132
0.92110485 -0.12528923 2.1942058 1323339
-0.83870542 -0.07537549 2.1744549 2039583
0.77523452 -0.074866004 2.1563048 1388875
0.82398373 -0.075412698 2.1690342 1322826
0.87423176 -0.07503511 2.1821597 1257289
0.9211238 -0.074971177 2.1944058 1191497
-0.83893764 -0.025230512 2.1751122 2039583
0.77454501 -0.025012983 2.156317 1256776
0.82413173 -0.025163233 2.1692667 1190983
0.87431824 -0.025315255 2.1823728 1059654
0.92071766 -0.025103934 2.1944926 1059655
-0.83912534 0.025238033 2.1755993 2039583
0.77462125 0.0250163 2.1565299 1059142
0.82421333 0.025166553 2.1694822 993093
0.87440419 0.02531863 2.182591 992836
0.91990405 0.024964062 2.1944728 927300
-0.83926487 0.075127132 2.1759036 2039583
0.74912429 0.080168121 2.1500838 4477283
0.77469754 0.075055495 2.1567421 3753821
0.82420021 0.075400777 2.1696725 3753820
0.8744902 0.075058147 2.1828055 3688027
0.92036283 0.074961282 2.1947844 3688027
-1.7131399 0.10341797 2.1706798 10197915
-1.6748469 0.10349698 2.1723385 10197915
-1.6251571 0.1035995 2.1744905 10197915
-1.5753683 0.10370225 2.1766467 10197915
-1.5246044 0.10380699 2.1788454 10197915
-1.4746169 0.10391016 2.1810105 10197915
-1.4254084 0.10401169 2.1831422 10197915
-1.3734598 0.10418221 2.1694028 10197915
-1.3247267 0.10428911 2.169915 10197915
-1.2751849 0.1043902 2.1723471 10197915
-1.2250985 0.10449363 2.1744988 10197915
-1.1851832 0.10460208 2.1696384 10197915
-0.82628548 0.104523 2.1749976 9737364
0.74915969 0.10422318 2.1501861 10197915
0.7747429 0.1045471 2.1568689 10197915
0.82485867 0.10505486 2.1699598 10197915
0.87466204 0.10494828 2.1820047 10197915
0.92139864 0.10557138 2.1916974 10197915
0.97622818 0.10938846 2.1808765 10197915
1.0250187 0.10955132 2.1672926 10197915
1.0749747 0.10965364 2.1696405 10197915
1.1250221 0.10975854 2.1713936 10197915
1.1751643 0.10986132 2.1737499 10197915
1.224944 0.10996447 2.1757913 10197915
1.2752712 0.11007001 2.1775541 10197915
1.3252418 0.11017356 2.1795914 10197915
1.3748307 0.11027508 2.1819377 10197915
1.4214263 0.11041355 2.1732833 10197915
1.4748797 0.1105483 2.1694243 10197915
1.5248412 0.11065191 2.1714575 10197915
1.5748961 0.11075571 2.1734946 4938089
1.6250451 0.1108597 2.1755359 795715
1.6752882 0.1109639 2.1775804 1059911
1.7172275 0.11105089 2.1792874 994119
-0.85474175 -1.001375 2.2401283 2039583
-0.85292393 -0.97407544 2.2330413 2039583
-0.84692264 -0.96961159 2.2100372 2039583
-0.85303265 -0.92519134 2.2332327 2039583
-0.84709114 -0.92493099 2.2104771 2039583
-0.8532216 -0.87542397 2.2337275 2039583
-0.84728026 -0.87475884 2.2109706 2039583
-0.85341078 -0.82563502 2.2342227 2039583
-0.84746599 -0.82547694 2.2114556 2039583
-0.85356528 -0.77535796 2.2345824 2039583
-0.84765542 -0.77526015 2.2119493 2039583
-0.85379249 -0.72507089 2.2352219 2039583
-0.84784484 -0.725021 2.2124438 2039583
0.9752599 -0.72037446 2.206054 5790817
1.0240346 -0.72035986 2.218792 5659745
1.0744144 -0.72032291 2.2319503 5593952
1.121356 -0.72043139 2.2442083 5528160
-0.85398173 -0.67521501 2.2357173 2039583
-0.84803426 -0.67475939 2.2129385 2039583
0.97517586 -0.67501819 2.2062063 1651533
1.0240468 -0.67507058 2.2189693 1520204
1.0745567 -0.67499673 2.2321608 1388362
1.1213859 -0.67500478 2.2443914 1322313
-0.8541711 -0.62533724 2.236213 2039583
-0.84822398 -0.62447542 2.2134333 2039583
0.97493786 -0.62473959 2.2063382 1717582
1.0242435 -0.62503129 2.2192154 1717325
1.0746963 -0.62500638 2.2323916 1520203
1.1213015 -0.62513614 2.2445621 1388362
-0.85436064 -0.57543737 2.2367089 2039583
-0.84841013 -0.57508361 2.2139189 2039583
0.97442198 -0.57499516 2.2063956 1717325
1.02434 -0.57501894 2.2194326 1914959
1.0747994 -0.57504416 2.2326102 1783374
1.1205261 -0.57486802 2.2445536 1783373
-0.85455006 -0.52551526 2.2372053 2039583
-0.84860003 -0.52475488 2.2144139 2039583
0.9744702 -0.52500254 2.2066014 1651789
1.024387 -0.52495962 2.2196383 1783118
1.0749029 -0.52507156 2.2328322 1651789
1.1206152 -0.52485216 2.2447703 1585739
-0.85473984 -0.47557104 2.2377019 2039583
-0.84760547 -0.47034353 2.2103553 2039583
0.94884843 -0.47396809 2.2001066 1388362
0.97462183 -0.47503439 2.2068334 1453899
1.0244918 -0.47489101 2.2198586 1388362
1.0749682 -0.47512794 2.2330399 1388105
1.1200043 -0.4751966 2.244803 1322313
-0.85489488 -0.42514205 2.2380638 2039583
-0.84699124 -0.42488021 2.2077944 2039583
0.94894069 -0.42478952 2.2003205 1585997
0.9747082 -0.4249841 2.2070487 1585997
1.0246341 -0.42496341 2.2200887 1520205
1.0751082 -0.42517465 2.2332699 1388619
1.1197245 -0.42492968 2.2449234 1322569
-0.85512263 -0.37469324 2.2387042 2039583
-0.84721386 -0.37511376 2.2084179 2039583
0.94834089 -0.37061647 2.2003727 1585997
0.97483152 -0.37495932 2.2072744 1520204
1.0246738 -0.37502697 2.2202909 1322569
1.0751866 -0.37513432 2.2334847 1190470
1.1198298 -0.37503365 2.2451427 1190214
-0.85531259 -0.32468197 2.2392015 2039583
-0.84740293 -0.3248654 2.2089107 2039583
0.94809979 -0.32545304 2.200484 1322056
0.97470498 -0.32500204 2.2074337 1256264
1.0246956 -0.32500482 2.220489 1190471
1.0752804 -0.32504627 2.233701 1124678
1.119007 -0.32482931 2.2451222 1124421
-0.85550261 -0.27464852 2.2396991 2039583
-0.84759218 -0.27459487 2.2094038 2039583
0.94814044 -0.27490711 2.2006896 1322313
0.97520137 -0.27503422 2.2077572 1256777
1.0249327 -0.2750878 2.2207444 1190984
1.0753739 -0.27494824 2.2339201 1190983
1.1190981 -0.27484852 2.2453387 1190727
-0.85569268 -0.2245928 2.2401962 2039583
-0.8477779 -0.22521642 2.209888 2039583
0.94726014 -0.22519043 2.2006519 1520460
0.97507197 -0.22494313 2.2079158 1454924
1.025149 -0.22519676 2.2209942 1454668
1.0755514 -0.22491667 2.2341592 1389131
1.1185725 -0.22529486 2.2453921 1388874
-0.85573524 -0.1745453 2.2401288 2039583
-0.84789157 -0.17579746 2.2100964 2039583
0.9473542 -0.17506398 2.20087 1389131
0.97505707 -0.17492047 2.2081046 1323338
1.0252131 -0.17510547 2.2212029 1388875
1.074597 -0.17493078 2.2341018 1388874
1.1170388 -0.17525573 2.2451847 1323337
-0.85403359 -0.12522362 2.233386 2039583
-0.84620243 -0.12505819 2.2033942 2039583
0.94680947 -0.12320972 2.200927 1389131
0.97533923 -0.1253016 2.2083702 1323338
1.0250086 -0.12470479 2.2213447 1323338
1.0747033 -0.12496267 2.2343218 1323081
1.1171014 -0.12557784 2.245393 1257288
-0.85427243 -0.074968465 2.2340686 2039583
-0.84639084 -0.074868575 2.2038846 2039583
0.94651502 -0.074772395 2.2010376 1125960
0.97536516 -0.074991405 2.208571 1125704
1.0253388 -0.074551404 2.2216256 1059911
1.0748092 -0.074984901 2.2345414 1059654
1.1162877 -0.075348385 2.245374 1059654
-0.85413617 -0.026546532 2.2333241 2039583
-0.84657943 -0.024656758 2.2043755 2039583
0.94647092 -0.024030788 2.2012217 1125447
0.97549629 -0.024706723 2.2087991 1059398
