# .PCD v0.7 - Point Cloud Data file format
VERSION 0.7
FIELDS x y z rgb
SIZE 4 4 4 4
TYPE F F F U
COUNT 1 1 1 1
WIDTH 1189
HEIGHT 1
VIEWPOINT 0 0 0 1 0 0 0
POINTS 1189
DATA ascii
-1.2627255 -0.52490568 3.2151873 1388875
-1.2415228 -0.52495742 3.2398579 1323082
-1.2627516 -0.47488061 3.2153821 1388874
-1.2416048 -0.47516814 3.2399883 1388874
-1.2628816 -0.42504582 3.2154579 1323338
-1.2417647 -0.42507815 3.2400298 1323082
-1.2629086 -0.37501562 3.2156525 1257546
-1.2416258 -0.37497851 3.240418 1323594
-1.2629553 -0.32497633 3.2158258 1388874
-1.2418404 -0.32518023 3.2403939 1323337
-1.2639384 -0.27483225 3.2149065 1257545
-1.2418886 -0.2750752 3.2405639 1257032
-1.2640833 -0.22492437 3.2149639 1190983
-1.2417938 -0.22480303 3.2409017 1124934
-1.263976 -0.17466937 3.2153165 1060168
-1.2420764 -0.17515452 3.2407985 1060167
-1.2640291 -0.12485393 3.2154806 993605
-1.2420253 -0.12487483 3.2410853 927812
-1.2643584 -0.075410552 3.2153203 993349
-1.2420847 -0.075197026 3.2412395 993604
-1.2642425 -0.025311951 3.2156835 1059911
-1.2429118 -0.025924271 3.2405007 1059910
-1.2643049 0.025313599 3.2158403 993605
-1.2431363 0.025507506 3.2404735 993604
-1.2645432 0.075421907 3.2157907 861507
-1.2431954 0.075183198 3.2406287 927042
-1.2620459 0.10191716 3.2188153 795201
-1.2432275 0.10203673 3.2407129 795200
-1.0633895 0.10474793 3.2004857 861250
-1.025377 0.10479297 3.2018626 729665
-0.97552019 0.10485207 3.2036684 927813
-0.92560691 0.10491123 3.2054756 1125704
-0.87563705 0.10497044 3.2072849 928070
-0.82561117 0.10502974 3.2090969 993349
-0.77552861 0.1050891 3.2109106 993349
-0.73199099 0.1051407 3.212487 861250
-2.0094311 -1.4555099 3.2664087 6513765
-1.989345 -1.4610482 3.2897305 1257547
0.92004907 -1.4592923 3.2825329 11711154
0.95384341 -1.4525586 3.2534707 11711154
-2.0114558 -1.424678 3.2641966 6447972
-1.9896868 -1.4249214 3.2894971 1257291
0.92493635 -1.424929 3.2783949 11711154
0.95420033 -1.4249234 3.2532175 11711154
-2.0119915 -1.3749686 3.2638011 6382180
-1.9897611 -1.3750068 3.2896395 1388619
0.92496377 -1.375005 3.278471 6516861
0.95425224 -1.3750877 3.2532701 3426653
-2.0120862 -1.3249071 3.2639198 6447972
-1.9904617 -1.3255711 3.289053 1520974
0.92502218 -1.3250755 3.2785175 3097173
0.95426077 -1.3249151 3.2533605 3360087
-2.0121341 -1.2750126 3.2640927 6447972
-1.9906974 -1.2750043 3.2890091 1323340
0.92493522 -1.2750285 3.2786889 2045519
0.95428342 -1.2750758 3.2534394 1979982
-2.0122614 -1.2251135 3.2641747 6513765
-1.9908024 -1.2250097 3.2891142 1323596
0.93134707 -1.230371 3.2732599 5333103
0.95430624 -1.2252339 3.253516 8686483
-2.0123384 -1.175125 3.2643127 6513765
-1.9909077 -1.1750135 3.2892218 1586510
0.94659036 -1.1957908 3.2602119 11711154
0.95470887 -1.1917042 3.2532349 11711154
-2.0124204 -1.1249658 3.2644455 6513765
-1.9909418 -1.1250085 3.289412 1520974
-2.0124927 -1.0749677 3.2645907 6513765
-1.991094 -1.0750047 3.2894628 1192011
-2.0125661 -1.0250546 3.264734 6513765
-1.9911284 -1.02487 3.2896516 1059913
-2.0126619 -0.9749642 3.264852 6579557
-1.9912732 -0.97497779 3.2897127 1059657
-2.0126946 -0.92495674 3.2650416 6579557
-1.9912268 -0.92508662 3.289995 1059657
-2.0128939 -0.8958118 3.2649436 6579557
-1.9912927 -0.89574063 3.2900519 1125450
-1.2167706 -0.72270513 3.2677646 1124934
-1.1950699 -0.72282493 3.2930155 1124933
-1.2170537 -0.67504871 3.2676511 1190983
-1.1951696 -0.67488009 3.2931159 1191239
-1.2168683 -0.62473404 3.2680948 1388873
-1.1950544 -0.62588894 3.2934725 1257288
-1.2161916 -0.57499683 3.2691081 1257289
-1.1942295 -0.5751667 3.294661 1191496
-1.2162994 -0.52513403 3.269206 1257288
-1.1944124 -0.52470189 3.2946768 1322823
-1.216241 -0.47512028 3.2695012 1323081
-1.194407 -0.47503394 3.2949076 1257287
-1.216481 -0.42487568 3.2694497 1323080
-1.1944017 -0.42535803 3.2951388 1257287
-1.2163985 -0.37492362 3.2697716 1323337
-1.1945845 -0.37488523 3.2951546 1257287
-1.216491 -0.32497224 3.2698908 1191495
-1.1945807 -0.32492667 3.2953854 1191238
-1.2165422 -0.27493626 3.2700582 1256774
-1.1951402 -0.27673316 3.2949524 1256774
-1.2166369 -0.22504777 3.2701726 1059397
-1.1956953 -0.22487861 3.2945411 1124932
-1.216583 -0.17492689 3.2704628 1059654
-1.1957147 -0.17471643 3.2947457 993860
-1.2168843 -0.12503669 3.2703371 927299
-1.1957715 -0.12558337 3.2949016 927298
-1.2165745 -0.074890867 3.270925 993604
-1.1958297 -0.075080581 3.2950621 993860
-1.2178231 -0.024629181 3.2696986 1125445
-1.1958879 -0.024572901 3.2952235 1125188
-1.2180269 0.024824705 3.2696862 1059139
-1.1959451 0.024574453 3.2953801 1058883
-1.2176667 0.074927829 3.2703328 860735
-1.1960031 0.075091891 3.2955413 860478
-1.2187692 0.10276227 3.2674797 662587
-1.1789258 0.10403827 3.2762568 728379
-1.124458 0.10444323 3.2740641 794428
-1.0748744 0.10450189 3.2759025 795714
-1.0252345 0.10456058 3.2777429 729922
-0.97419518 0.10462096 3.279635 1059911
-0.92444259 0.10467979 3.2814791 994119
-0.87463349 0.10473868 3.2833257 927813
-0.82476884 0.10479763 3.2851744 1059398
-0.77484757 0.10485668 3.287025 927043
-0.73973644 0.10489821 3.2883267 927557
-1.9643366 -1.4674556 3.3187671 1323340
-1.9439279 -1.4728057 3.3424649 1520462
0.84565407 -1.4734027 3.3465133 11711154
0.87291771 -1.4684652 3.3230655 11711154
-1.9654756 -1.4250075 3.3176403 1454669
-1.9441091 -1.4250541 3.3424745 1586511
0.84572333 -1.4245613 3.3465483 11711154
0.87512505 -1.4251187 3.3212528 11711154
-1.9650854 -1.3746175 3.3183222 1520718
-1.9437964 -1.3758082 3.3430626 1652304
0.8457436 -1.3746827 3.3466289 11711154
0.87512326 -1.3751162 3.3213487 11185325
-1.9654264 -1.3246847 3.3181546 1586511
-1.9434954 -1.3248795 3.3436446 1849425
0.84593552 -1.3267802 3.3465567 5790817
0.87514156 -1.3250502 3.3214316 2768725
-1.9656674 -1.2749664 3.3181014 1520975
-1.9435617 -1.2748649 3.3437953 1652304
0.88290292 -1.281597 3.3148401 3096657
-1.9658116 -1.2250482 3.3181622 1520462
-1.9436411 -1.2250441 3.3439319 1585998
0.89785981 -1.2480669 3.3020363 1257290
-1.9658569 -1.1750579 3.3183386 1717840
-1.94372 -1.1752188 3.3440678 1586512
-1.9659886 -1.124995 3.3184147 1520975
-1.9440714 -1.1260678 3.3438835 1455183
-1.9660512 -1.0749956 3.3185699 1323597
-1.9446687 -1.0750835 3.3434224 1389134
-1.9661329 -1.0250615 3.3187044 1125193
-1.9448242 -1.0248017 3.3434732 1190729
-1.9662033 -0.975124 3.3188512 1058887
-1.9448661 -0.97474313 3.3436534 1190729
-1.9662396 -0.92504317 3.3190362 1058887
-1.9449447 -0.92491227 3.3437881 1125194
-1.9663342 -0.89577729 3.319061 1124937
-1.944991 -0.89584255 3.3438675 1190986
-1.1699284 -0.72294402 3.3222685 1059140
-1.1482803 -0.72252917 3.34746 1058627
-1.1700019 -0.67514426 3.3223991 1190982
-1.1483343 -0.67402232 3.3476169 1190981
-1.1700529 -0.62507325 3.3225675 1191239
-1.1483896 -0.62412483 3.3477783 1124933
-1.1700046 -0.57506454 3.322849 1191238
-1.1484448 -0.57422256 3.3479397 1125189
-1.1701581 -0.52511907 3.3228974 1322566
-1.1485003 -0.52431542 3.3481014 1190725
-1.1702485 -0.47496474 3.3230195 1190981
-1.148556 -0.4744035 3.3482628 1124932
-1.1702231 -0.42494193 3.3232744 1191238
-1.1486113 -0.42448676 3.3484242 1059140
-1.1702871 -0.37505075 3.3234262 1190982
-1.1486667 -0.37456509 3.3485863 1124932
-1.1703969 -0.32494953 3.323525 1125189
-1.1487223 -0.32463875 3.3487473 1124932
-1.171078 -0.27453908 3.3229613 1124676
-1.1495683 -0.27685186 3.3479791 1124419
-1.1713773 -0.22483964 3.3228369 1124931
-1.1498246 -0.22469412 3.3479166 1124675
-1.1714548 -0.17496194 3.3229737 1059139
-1.1498799 -0.17477046 3.3480785 1058883
-1.1716686 -0.12475722 3.3229516 992577
-1.1499356 -0.12484201 3.3482399 926527
-1.1713847 -0.074295342 3.3235099 1125187
-1.1499819 -0.083231404 3.3483741 1190723
-1.1706579 -0.024791818 3.3245797 1125187
-1.1707134 0.024793386 3.324739 1058625
-1.1709096 0.074575298 3.3247383 794428
-1.1694478 0.10208362 3.3265631 728121
-1.91211 -1.5060143 3.3792958 1914448
-1.8969111 -1.5096591 3.396945 2111826
0.79110378 -1.5092103 3.3933766 11711154
0.81236506 -1.50499 3.3750923 11711154
-1.9190657 -1.4750489 3.3713524 1848655
-1.8970534 -1.4748613 3.3969383 2177362
0.79137278 -1.4750305 3.3932114 11711154
0.82049847 -1.475003 3.3681526 11711154
-1.9191369 -1.4250166 3.3714995 1914705
-1.8978586 -1.4260749 3.3962262 2111826
0.79142892 -1.4250578 3.3932605 11711154
0.82049662 -1.4249585 3.368253 11711154
-1.9192437 -1.3749791 3.371604 2112082
-1.8980614 -1.3751215 3.3962228 2243155
0.79222715 -1.3818972 3.392658 11711154
0.82067204 -1.3751324 3.3681984 11711154
-1.919279 -1.325002 3.3717883 2046547
-1.8981711 -1.3249954 3.3963249 2177875
0.8290506 -1.3362832 3.3610656 10132122
-1.9193923 -1.2750211 3.3718886 1849169
-1.898217 -1.2748591 3.3965006 1914705
-1.9190868 -1.2247816 3.3724718 1717584
-1.8979497 -1.226925 3.3970306 1783377
-1.9187095 -1.1750761 3.3731394 1586255
-1.8974947 -1.174678 3.3977976 1651535
-1.9190272 -1.1247458 3.3729975 1586255
-1.8976196 -1.125476 3.3978786 1585742
-1.9197005 -1.0749422 3.3724473 1586255
-1.8976727 -1.0755358 3.3980451 1717584
-1.9197803 -1.0249767 3.3725793 1586255
-1.8977511 -1.0248982 3.3981848 1914962
-1.9198824 -0.97494984 3.3726916 1454670
-1.8978297 -0.97425675 3.3983259 1783633
-1.9199187 -0.92497671 3.3728757 1520206
-1.8979059 -0.92501789 3.3984613 1849426
-1.9199352 -0.89582866 3.3729894 1652048
-1.8979496 -0.89687985 3.3985405 1849426
-1.1253144 -0.72304249 3.374181 993093
-1.1253333 -0.67507833 3.3743751 1059656
-1.125394 -0.62498152 3.3745344 1059656
-1.1254267 -0.57501382 3.3747201 1059912
-1.1255779 -0.52510822 3.3747709 993864
-1.1255348 -0.4750635 3.3750472 927300
-1.1255956 -0.42501351 3.3752038 1059911
-1.1256979 -0.37502578 3.3753116 994375
-1.1258066 -0.32510164 3.3754098 795458
-1.1266106 -0.2750428 3.3746986 860993
-1.1267936 -0.22508924 3.3747158 1059141
-1.126886 -0.17508407 3.3748326 1125703
-1.127118 -0.12533437 3.3747876 1125446
-1.1270635 -0.075505488 3.3750765 1191495
-1.1280231 -0.025161736 3.3741903 1059910
-1.1280774 0.025163371 3.3743505 1059396
-1.1281331 0.075493395 3.3745172 927298
-1.1268488 0.10304505 3.3648291 861249
-1.075929 0.10425692 3.355376 729921
-1.025085 0.10431691 3.357307 862020
-0.97418267 0.10437696 3.3592398 994374
-0.92459953 0.10443546 3.3611221 928070
-0.87496102 0.10449402 3.3630073 993605
-0.8252666 0.10455266 3.3648944 1059654
-0.77551651 0.10461137 3.3667834 926787
-0.74923903 0.10464232 3.36778 993094
-1.8705575 -1.5167652 3.4275441 2637396
0.73749989 -1.5195781 3.4394755 2039583
0.76536751 -1.5139896 3.415509 3684408
-1.8729548 -1.4749571 3.4249485 2571604
0.73804367 -1.4750723 3.4390931 2039583
0.76670909 -1.4749848 3.4144313 4079166
-1.873862 -1.424859 3.4241223 2506068
0.74021846 -1.4356928 3.4373004 2039583
0.76714665 -1.4257226 3.4141507 4144959
-1.8739734 -1.3749732 3.4242229 2440276
0.77550125 -1.3909822 3.4070308 6974058
-1.8740534 -1.3249787 3.4243579 2440276
-1.8741063 -1.274979 3.4245255 2243155
-1.8742299 -1.2249781 3.4246092 2177363
-1.8743185 -1.1749698 3.4247363 2046033
-1.8743676 -1.1249602 3.4249065 1914192
-1.8744092 -1.0750006 3.4250855 1980498
-1.8745207 -1.0250399 3.4251869 1981011
-1.8746324 -0.97507232 3.4252846 1914962
-1.8746654 -0.92504621 3.4254739 2046291
-1.8748288 -0.89583129 3.4254181 1849169
-1.1019511 -0.72289139 3.401366 993094
-1.0802851 -0.72294122 3.4265759 1191498
-1.1020023 -0.67501181 3.4015241 1059657
-1.0803639 -0.6750043 3.426703 1059657
-1.1020548 -0.62571913 3.4016857 994120
-1.080404 -0.62489915 3.4268825 994121
-1.102109 -0.5750134 3.4018526 994376
-1.0804124 -0.57501245 3.427098 1059913
-1.1021628 -0.52430266 3.4020193 1059913
-1.0805193 -0.52504772 3.4271991 1059913
-1.1022155 -0.47499561 3.4021816 928071
-1.0806408 -0.47492531 3.4272876 1059399
-1.1022677 -0.42568403 3.4023442 1059912
-1.080513 -0.42495096 3.4276602 1059912
-1.1023221 -0.37495857 3.4025106 1060168
-1.0807147 -0.37504491 3.4276514 1060168
-1.1023761 -0.32422817 3.4026775 795458
-1.0806977 -0.32498649 3.4278986 795714
-1.1024287 -0.27490219 3.4028397 926530
-1.0810097 -0.2751919 3.4277611 860994
-1.1024811 -0.22557147 3.4030023 1059141
-1.0816643 -0.22511135 3.4272277 993605
-1.102535 -0.17482641 3.4031684 1191496
-1.0821373 -0.17527469 3.4269013 1125960
-1.1025891 -0.12407638 3.4033356 1060168
-1.0819255 -0.12495279 3.4273753 1060168
-1.1027304 -0.074085198 3.4033978 1125960
-1.0819776 -0.075259201 3.4275389 1060168
-1.1037173 -0.025372636 3.4024701 1060167
-1.0820296 -0.025560809 3.4277027 1125703
-1.1037716 0.025374297 3.4026363 1059397
-1.0821378 0.025486819 3.4278078 993348
-1.1038239 0.07471633 3.4027989 994118
-1.082077 0.075188197 3.4281034 795971
-1.1038526 0.10150381 3.4028864 796227
-1.0792162 0.10241592 3.4286952 729922
-1.0249268 0.10406094 3.4408245 862533
-0.97557843 0.10411902 3.4427445 993862
-0.92476296 0.10417882 3.4447219 993606
-0.87530315 0.10423703 3.4466469 1059398
-0.82578772 0.10429531 3.4485734 1059142
-0.79463804 0.10433199 3.4497867 860738
-1.8176697 -1.5553137 3.4888396 3491416
0.67967415 -1.5556742 3.489156 2039583
0.70159924 -1.551283 3.4703014 2039583
-1.851043 -1.5222862 3.4502008 2768211
-1.8292096 -1.524811 3.4755657 3294039
0.68319851 -1.5252906 3.4861832 2039583
0.71220458 -1.5239249 3.4612298 2039583
-1.8511143 -1.4751735 3.4503334 2768212
-1.8297937 -1.4749833 3.4751139 3162710
0.68923473 -1.4892119 3.4810605 2039583
0.71358013 -1.4769975 3.4601381 2039583
-1.8511896 -1.4252015 3.4504738 2636626
-1.8299233 -1.4249661 3.4751937 3096660
0.72234732 -1.4458429 3.4526558 2039583
-1.8512654 -1.3752254 3.4506147 2505041
-1.8299984 -1.375006 3.4753368 2965075
-1.8513408 -1.3252453 3.4507551 2571091
-1.8300401 -1.3250422 3.4755132 2965589
-1.8514162 -1.275261 3.4508958 2637398
-1.8300889 -1.2750134 3.4756854 2900054
-1.8514917 -1.2252728 3.4510372 2374483
-1.8302575 -1.2249172 3.4757171 2702932
-1.8515671 -1.1752805 3.4511776 2374227
-1.8302965 -1.1749406 3.4759021 2702933
-1.851643 -1.1252838 3.4513187 2308947
-1.8303406 -1.1250236 3.4760804 2637397
-1.8517184 -1.0752835 3.4514592 2308947
-1.8304226 -1.0749785 3.4762156 2440275
-1.8509146 -1.0241531 3.4526274 2177875
-1.82968 -1.0250778 3.4773059 2440275
-1.851014 -0.97485656 3.4527376 2111570
-1.8296627 -0.97508913 3.4775548 2308947
-1.8510392 -0.92480415 3.4529374 2177620
-1.829762 -0.92503089 3.4776659 2243155
-1.8512837 -0.89631766 3.4527829 2045521
-1.830021 -0.89590824 3.477499 1913934
-1.0551598 -0.72300792 3.455812 1126219
-1.0339178 -0.72319031 3.4805281 1126219
-1.0552821 -0.6749379 3.4558878 1059913
-1.0338781 -0.67515475 3.4807928 1125449
-1.0551869 -0.62513477 3.4562242 1059657
-1.0339861 -0.62500536 3.4808936 1059657
-1.0553828 -0.57505852 3.4562223 1059913
-1.0340365 -0.57503819 3.4810615 1059913
-1.0552893 -0.52495462 3.456558 1125706
-1.0341026 -0.525069 3.4812105 1125706
-1.0554852 -0.47487327 3.456558 993863
-1.0340871 -0.47499731 3.4814563 993864
-1.0554148 -0.42504448 3.4568644 1125705
-1.0342265 -0.42492554 3.4815183 1125705
-1.0555626 -0.3749519 3.4569194 1125961
-1.0342199 -0.37493837 3.4817538 1125961
-1.055566 -0.3251211 3.4571407 861508
-1.0343437 -0.32504398 3.4818377 927300
-1.055822 -0.27429527 3.457073 860737
-1.0342119 -0.27505305 3.4822147 860737
-1.0567232 -0.22480541 3.4562485 1059142
-1.0343781 -0.22495681 3.4822481 993606
-1.0567745 -0.17469794 3.4564161 1125960
-1.0348842 -0.1752926 3.4818852 1125961
-1.0568259 -0.12458564 3.456583 1126217
-1.0355281 -0.12547871 3.4813616 1191753
-1.0568768 -0.074468479 3.4567506 1191752
-1.0355785 -0.075002335 3.4815304 1257288
-1.0569279 -0.024346523 3.4569175 1125960
-1.0356289 -0.02452106 3.4817007 1125960
-1.0569776 0.02434805 3.4570801 1059910
-1.035678 0.024522608 3.4818661 1125959
-1.0570289 0.074479617 3.4572482 927556
-1.0357841 0.074914061 3.4819705 1059911
-1.0570568 0.10169572 3.457339 730434
-1.0348243 0.10226348 3.483211 862789
-0.77763623 0.10435198 3.4504473 926273
-1.8034726 -1.5592705 3.5053229 3885658
-1.7806324 -1.5651071 3.5318446 4214876
0.62929446 -1.5668159 3.5324798 2039583
0.65778744 -1.559714 3.5079787 2039583
-1.8042465 -1.523814 3.5045853 3819866
-1.7826387 -1.5249842 3.5296948 4083035
0.64152074 -1.5407423 3.522012 2039583
0.65897858 -1.5310606 3.5070107 2039583
-1.8046131 -1.4750515 3.5043809 3688281
-1.7826713 -1.4749408 3.5298846 3885658
-1.8047079 -1.425164 3.5044999 3556438
-1.7827103 -1.42497 3.5300679 3753815
-1.8047603 -1.3749883 3.5046678 3425110
-1.7828285 -1.3749946 3.5301597 3754329
-1.8048135 -1.3248074 3.5048356 3228503
-1.7828679 -1.3250146 3.5303445 3557209
-1.8049086 -1.2749083 3.5049539 3228503
-1.7829225 -1.2750313 3.530509 3491417
-1.8050026 -1.2250056 3.5050731 3162711
-1.7835841 -1.225209 3.5299666 3359832
-1.8050556 -1.1748124 3.5052409 2965590
-1.7839884 -1.1748842 3.5297277 3097175
-1.805108 -1.1246139 3.5054088 2834261
-1.7841028 -1.1250488 3.5298221 2768468
-1.8052031 -1.0746995 3.5055275 2702675
-1.7841566 -1.0750469 3.5299892 2768467
-1.8052979 -1.0247818 3.505645 2637139
-1.7842656 -1.0250412 3.5300899 2703188
-1.8053924 -0.97486115 3.5057647 2505812
-1.7843029 -0.97487056 3.5302753 2571604
-1.8053814 -0.92493528 3.5060048 2374483
-1.784351 -0.92485523 3.5304487 2308433
-1.8047171 -0.89573669 3.5069103 2045518
-1.7838677 -0.89600885 3.531143 2045519
-1.0090245 -0.72297072 3.5094945 1191755
-0.98707128 -0.72310561 3.5350399 1126219
-1.0090636 -0.67484045 3.5096676 1059913
-0.98712301 -0.67492974 3.5351975 1125450
-1.0091283 -0.6250698 3.5098178 1059657
-0.98720843 -0.62479806 3.535326 1059657
-1.0092319 -0.575113 3.5099235 1059914
-0.98726696 -0.57478386 3.5354829 1059913
-1.0092171 -0.52497238 3.5101669 1125706
-0.98723906 -0.52476525 3.5357428 1125706
-1.0092268 -0.47500578 3.5103836 1059657
-0.98834008 -0.47497043 3.534687 1059657
-1.0092839 -0.42503408 3.5105422 1125962
-0.98844725 -0.42494395 3.5347881 1059912
-1.0093958 -0.37487897 3.5106387 1191754
-0.98850691 -0.37490529 3.5349462 994120
-1.0095078 -0.32472208 3.5107365 927557
-0.98856616 -0.32486257 3.5351043 927301
-1.0094618 -0.27491382 3.5110152 860481
-0.98862594 -0.27481541 3.5352604 794689
-1.00951 -0.22546919 3.5111828 993350
-0.98873198 -0.2246334 3.5353639 993093
-1.0097855 -0.17485617 3.5110919 1126217
-0.9887569 -0.17444377 3.535562 1125961
-1.0108187 -0.12459344 3.5101168 1191753
-0.98874557 -0.12451121 3.5358009 1257545
-1.0107446 -0.074170634 3.5104303 1257289
-0.98879337 -0.074710242 3.5359709 1191753
-1.0107936 -0.024724578 3.5105987 1191752
-0.98884058 -0.024904475 3.5361414 1191753
-1.0108414 0.024726152 3.5107646 1126216
-0.9888888 0.024906069 3.5363131 1191752
-1.0108896 0.074181616 3.5109336 1060168
-0.98893607 0.074721426 3.5364804 1059911
-1.0109168 0.10182038 3.5110273 994118
-0.9814682 0.10279402 3.5324652 993862
-0.92493618 0.10390925 3.5325918 993861
-0.87421423 0.1039688 3.5346165 1059654
-0.82488561 0.10402671 3.5365849 992836
-0.79293984 0.10406421 3.5378602 795201
-1.728587 -1.6033193 3.5921624 3886427
-1.7572426 -1.5711621 3.5590026 4280412
-1.7356516 -1.5746886 3.5840826 3885914
0.59434068 -1.5889614 3.5625095 2039583
0.60531753 -1.5807641 3.5530815 2039583
-1.757503 -1.5250983 3.5589097 4214363
-1.7358199 -1.5250531 3.5841129 3754073
-1.7575674 -1.4752114 3.5590625 4017499
-1.7358611 -1.4749244 3.5842946 3688537
-1.7576393 -1.4251379 3.5592086 3819865
-1.7361234 -1.4252491 3.584218 3556952
-1.7577115 -1.3750601 3.559355 3754586
-1.7369517 -1.3750454 3.583482 3491930
-1.7577828 -1.324977 3.5594997 3491673
-1.737003 -1.3249418 3.5836546 3294553
-1.7578549 -1.2748911 3.5596459 3425368
-1.7371261 -1.2750459 3.5837376 3228760
-1.7585039 -1.2241181 3.5591226 3162967
-1.7371607 -1.2249337 3.583926 2965590
-1.7589581 -1.17492 3.5588202 2965589
-1.7372481 -1.1749251 3.584054 2768981
-1.7590053 -1.1250013 3.5589931 2768468
-1.7373266 -1.1251221 3.5841892 2702675
-1.7590768 -1.074914 3.55914 2768468
-1.7373725 -1.0751041 3.5843656 2571603
-1.7591485 -1.0248227 3.559284 2703188
-1.7374923 -1.0250819 3.584455 2506068
-1.7592326 -0.97505504 3.5594146 2506068
-1.7375515 -0.97516233 3.5846143 2374483
-1.7592916 -0.9252823 3.5595734 2242897
-1.7376051 -0.92513126 3.5847805 2045519
-1.7595584 -0.89615119 3.559397 2308690
-1.7372768 -0.89597011 3.5852959 2045776
-0.96137822 -0.72313201 3.5649357 1191499
-0.93996692 -0.72317588 3.5898492 1125707
-0.96151108 -0.675098 3.5649979 1125450
-0.93996543 -0.67505485 3.5900688 1190986
-0.96156985 -0.62518072 3.5651557 1059401
-0.94002783 -0.62488729 3.5902236 1059145
-0.961568 -0.57512391 3.5653853 1059657
-0.9401328 -0.57490098 3.5903277 1059657
-0.96167517 -0.52506405 3.5654864 1125450
-0.94016939 -0.52491271 3.5905111 1125450
-0.96270406 -0.47500935 3.5645165 1059657
-0.940974 -0.47533789 3.5897992 1059401
-0.96282864 -0.42506027 3.5645959 993094
-0.94132382 -0.42489088 3.589622 1058887
-0.96286958 -0.37499121 3.5647771 994120
-0.94140804 -0.37498593 3.5897496 1059913
-0.96292681 -0.32504055 3.5649343 993351
-0.941531 -0.32529435 3.5898311 1059656
-0.96298426 -0.27508542 3.5650954 860738
-0.94147944 -0.27515829 3.5901184 860995
-0.963081 -0.22525077 3.5652082 993093
-0.94152528 -0.22459957 3.5902934 993350
-0.96317196 -0.1755366 3.5653279 1191754
-0.94151318 -0.17424041 3.5905354 1126218
-0.96310723 -0.12556161 3.5656292 1125704
-0.94167596 -0.1251756 3.5905676 1191497
-0.96315336 -0.075340547 3.5658019 1191753
-0.94166064 -0.07586889 3.5908091 1125704
-0.96320075 -0.025114594 3.5659757 1257545
-0.9417063 -0.025290729 3.5909853 1191753
-0.96324688 0.0251162 3.5661476 1124933
-0.94175237 0.02529237 3.5911608 1125190
-0.96329379 0.075351894 3.5663204 993349
-0.94179857 0.075880408 3.5913355 1059397
-0.96331865 0.10194904 3.5664127 927813
-0.94182295 0.10266412 3.5914283 1059654
-1.7096541 -1.6083354 3.6141453 3425880
-1.688781 -1.6139379 3.6383805 3096660
-1.7108219 -1.574626 3.6129413 3359831
-1.6893815 -1.5751864 3.6378586 3030867
-1.7108706 -1.5247474 3.6131124 3162453
-1.6895045 -1.5252367 3.6379457 3031125
-1.7109818 -1.4750057 3.6132102 3294039
-1.6896061 -1.4751487 3.638056 3097431
-1.7112468 -1.4246408 3.6131339 3228503
-1.6896428 -1.4251976 3.6382432 2899796
-1.7120444 -1.3748496 3.6124337 3162967
-1.6897327 -1.3751011 3.6383653 2834004
-1.7121534 -1.3250204 3.6125367 3031382
-1.6898345 -1.3251293 3.6384757 2768211
-1.7122315 -1.2749341 3.6126728 2900053
-1.6908835 -1.2750636 3.6374855 2636883
-1.712288 -1.2247194 3.6128371 2702932
-1.6908878 -1.2249304 3.637711 2439762
-1.7124107 -1.1747507 3.6129227 2506067
-1.6909622 -1.17479 3.6378524 2308689
-1.7123752 -1.1249024 3.6131945 2440018
-1.6910729 -1.1249551 3.6379523 2177105
-1.7125403 -1.0750507 3.6132286 2374483
-1.6911303 -1.0749583 3.6381142 2111312
-1.7125089 -1.0250714 3.6134925 2374483
-1.6911753 -1.024961 3.6382902 2045775
-1.7116811 -0.97500384 3.6146863 2177361
-1.6902146 -0.97489333 3.639636 1914447
-1.7117426 -0.92493057 3.6148427 1913934
-1.6903892 -0.92500889 3.6396611 1651534
-1.7116513 -0.89605099 3.6150801 1848912
-1.6901313 -0.89602906 3.6400936 1783119
-0.91582328 -0.72326243 3.6179428 1191243
-0.89491874 -0.72341186 3.6422663 1191243
-0.91585273 -0.67498785 3.6181262 1323084
-0.89478451 -0.67514992 3.6426418 1323341
-0.91589713 -0.62497455 3.6183014 1323597
-0.89494056 -0.62508404 3.6426854 1389390
-0.91600513 -0.57507509 3.6184013 1323341
-0.89501208 -0.57471007 3.6428311 1389134
-0.91593176 -0.52505088 3.6187131 1257804
-0.89494085 -0.52492213 3.6431396 1257548
-0.91702205 -0.47490731 3.617672 1257548
-0.89509785 -0.47514978 3.6431816 1323340
-0.91723096 -0.42511159 3.6176548 1059400
-0.89500093 -0.42474154 3.6435227 1059657
-0.91729021 -0.3749181 3.6178126 1059656
-0.89521444 -0.37497061 3.6434991 993864
-0.9174301 -0.3249377 3.6178756 1059400
-0.89511633 -0.3248508 3.6438406 1059656
-0.91718125 -0.27495277 3.6183915 861251
-0.89527327 -0.27506661 3.6438839 861252
-0.91744357 -0.22506985 3.6183121 993350
-0.89525849 -0.22494781 3.6441274 993350
-0.9171533 -0.17470032 3.6188791 1191754
-0.89492005 -0.17637897 3.6447415 1257803
-0.91624701 -0.1245763 3.6201599 1191497
-0.8943907 -0.12658508 3.6455824 1191497
-0.91642141 -0.075094931 3.6201828 1125960
-0.89539009 -0.075496577 3.6446512 1125704
-0.91639853 -0.025498129 3.6204309 1192010
-0.89543325 -0.025669923 3.6448262 1257546
-0.91644341 0.025499791 3.6206098 1190727
-0.89547765 0.025671622 3.6450074 1256776
-0.91655439 0.075106211 3.6207056 1125447
-0.89552063 0.075507954 3.6451819 1191497
-0.91686374 0.10191327 3.6196024 1059654
-0.87896764 0.10330788 3.6297975 1059655
-0.82840365 0.10373864 3.6290171 860994
-1.6396289 -1.6518778 3.6953366 2570834
-1.6638933 -1.6206683 3.6672769 2768211
-1.6436423 -1.6251383 3.6907945 2571347
-1.6647655 -1.5751667 3.6664715 2702418
-1.6437801 -1.5751762 3.6908634 2505554
-1.6648823 -1.5249938 3.6665645 2702931
-1.643865 -1.524997 3.6909935 2637140
-1.6649015 -1.4750355 3.6667717 2768724
-1.6438272 -1.4748173 3.691267 2571347
-1.6644059 -1.4245862 3.6675763 2636883
-1.6434646 -1.4256935 3.6919127 2374226
-1.664032 -1.3750181 3.6682382 2505810
-1.6430348 -1.3750523 3.6926436 2308690
-1.6642125 -1.3249298 3.6682587 2439762
-1.6430403 -1.3251323 3.6928658 2177361
-1.6652015 -1.2750081 3.6673369 2374226
-1.6432002 -1.274959 3.69291 2111569
-1.6652541 -1.2251112 3.6675034 2177104
-1.6432358 -1.2252802 3.6930947 1979983
-1.6653973 -1.1752083 3.6675656 2111569
-1.6432924 -1.1750945 3.6932588 2045776
-1.6653256 -1.1250155 3.6678784 1979983
-1.6433493 -1.1249042 3.6934233 1848655
-1.6655189 -1.0750127 3.6678841 1848655
-1.6434679 -1.0752139 3.6935112 1783119
-1.6654766 -1.025 3.6681602 1848398
-1.6434631 -1.0250201 3.6937466 1782862
-1.6656053 -0.97489536 3.6682386 1848654
-1.6435612 -0.97481436 3.6938612 1848911
-1.6657448 -0.9248752 3.6683059 1782862
-1.6436585 -0.92511559 3.6939764 1717582
-1.6652853 -0.8961156 3.6689725 1783119
-1.6434139 -0.89632273 3.694392 1717583
-0.87006027 -0.7232191 3.6711919 1191499
-0.8483448 -0.72356057 3.6964583 1257293
-0.86995333 -0.67505324 3.6715355 1323341
-0.84846056 -0.67461967 3.6965454 1323085
-0.87011713 -0.62498635 3.671571 1389390
-0.84846473 -0.62486237 3.6967659 1455183
-0.87007838 -0.57500637 3.671844 1454926
-0.84846896 -0.57509857 3.6969862 1520719
-0.87021506 -0.52511787 3.6719105 1257548
-0.84858358 -0.52461511 3.6970809 1192269
-0.87012124 -0.47512886 3.6722443 1257548
-0.84858781 -0.47484165 3.6973019 1323341
-0.87030834 -0.42513946 3.6722534 1191498
-0.84862804 -0.42584592 3.6974771 1388876
-0.87028199 -0.37503958 3.6725104 1323083
-0.84866941 -0.37531415 3.6976576 1454925
-0.87025648 -0.32494909 3.6727676 1388876
-0.84871095 -0.32477745 3.6978383 1520717
-0.87048924 -0.27493688 3.6727223 1257290
-0.84875095 -0.27576748 3.6980131 1455181
-0.86960703 -0.22461693 3.6739771 1191497
-0.84835356 -0.22966173 3.6986847 1257803
-0.86934376 -0.17480281 3.6745076 1257803
-0.84762466 -0.17473619 3.6997814 1192267
-0.86969435 -0.12474668 3.6743286 1257803
-0.84765983 -0.13182403 3.699935 1389388
-0.87031209 -0.07481882 3.6738379 1125705
-0.87071425 -0.024615865 3.673594 1257546
-0.87075573 0.024617435 3.673769 1257289
-0.87043756 0.074830018 3.6743665 1191496
-0.87063688 0.10198744 3.674257 1059654
-1.6141863 -1.6581497 3.7248802 2045262
-1.5965368 -1.6628245 3.7453737 1979726
-1.6183228 -1.6250772 3.7202241 2111055
-1.5966684 -1.6251165 3.7453926 1979726
-1.6183424 -1.5752206 3.7204292 2177104
-1.596734 -1.5750098 3.7455463 1914446
-1.6184961 -1.5250195 3.7204802 2242897
-1.5967993 -1.5248998 3.7456992 1979983
-1.6185031 -1.4749852 3.7207005 2243154
-1.5969067 -1.4747872 3.7458038 2177617
-1.6185685 -1.4250306 3.7208536 2111569
-1.5969299 -1.4246672 3.7460058 2045776
-1.6186451 -1.3749897 3.7209926 2177362
-1.5969944 -1.3750612 3.7461569 2045776
-1.6187013 -1.3249426 3.7211566 2045776
-1.5970591 -1.3254515 3.746309 2111825
-1.618739 -1.2749772 3.7213411 2045776
-1.597082 -1.2753156 3.7465117 2046032
-1.6188997 -1.2250949 3.7213819 1782605
-1.5971899 -1.225185 3.7466156 1717069
-1.6189026 -1.1751201 3.7216067 1914704
-1.5972551 -1.1750458 3.746769 1783375
-1.6189831 -1.1249712 3.7217417 1783119
-1.5973202 -1.1249028 3.7469223 1783119
-1.6190597 -1.0749043 3.7218833 1782862
-1.5974283 -1.0747631 3.7470255 1717326
-1.6190522 -1.0250039 3.7221217 1717069
-1.5974511 -1.0246049 3.7472286 1585741
-1.6192199 -0.97509962 3.7221525 1519177
-1.5975162 -0.97496659 3.74738 1321800
-1.6192328 -0.92502141 3.722367 1453385
-1.59767 -0.9262436 3.7474246 1322056
-1.619173 -0.89608657 3.7225688 1453642
-1.5984495 -0.8962369 3.7466552 1321800
-0.83621264 -0.72307616 3.7105787 1323085
-0.8362819 -0.67487466 3.7107158 1323085
-0.8363502 -0.62513363 3.7108622 1455183
-0.8364085 -0.57519686 3.711019 1520719
-0.83632791 -0.52506447 3.7113409 1323341
-0.83647138 -0.47492486 3.7114007 1323597
-0.83659625 -0.42478481 3.7114823 1257547
-0.83645809 -0.37501556 3.711868 1454925
-0.83648938 -0.32524395 3.7120566 1520461
-0.83674252 -0.27471602 3.7119913 1455181
-0.8366459 -0.22454402 3.7123306 1257547
-0.8366856 -0.17533723 3.7125075 1257804
-0.83690482 -0.12480755 3.7124817 1323596
-0.83814591 -0.074677162 3.7112632 1257547
-0.83802289 -0.024602778 3.7116344 1323339
-0.838063 0.024604334 3.7118094 1257546
-0.83826643 0.07468833 3.7117989 1059142
-0.83625126 0.10214987 3.7142689 795201
-1.5693585 -1.6700693 3.7769303 1782861
-1.5715241 -1.6252629 3.7746196 1848654
-1.5716438 -1.5752114 3.7747092 1782862
-1.5717082 -1.5250094 3.7748632 1914447
-1.5717795 -1.4749506 3.7750092 1980496
-1.571887 -1.4250369 3.7751133 1914960
-1.5722946 -1.3753279 3.7748644 1980496
-1.5730102 -1.3249427 3.7742627 1980496
-1.5730612 -1.2749585 3.7744329 1783118
-1.5731517 -1.2251264 3.7745559 1783119
-1.5732092 -1.1751331 3.774719 1717583
-1.5733099 -1.1250596 3.7748291 1651790
-1.5732884 -1.0750587 3.7750823 1585997
-1.5734444 -1.0250547 3.7751298 1453898
-1.5734165 -0.97504628 3.7753906 1256264
-1.5736787 -0.9248265 3.7753139 1256264
-1.5751156 -0.89620775 3.7737768 1256520
-1.5205044 -1.7075142 3.8335433 1783374
-1.5277897 -1.6748701 3.825223 1717325
-1.5277635 -1.6250167 3.8254848 1717325
-1.5278834 -1.5750779 3.8255727 1651533
-1.5278399 -1.5249788 3.8258507 1585997
-1.5283761 -1.4752841 3.8254559 1322056
-1.5291326 -1.4248687 3.8248076 1453898
-1.5506938 -1.3617766 3.8000336 1848911
-1.529181 -1.3748847 3.8249769 1454412
-1.5507395 -1.3256066 3.8001456 1783118
-1.529222 -1.3250657 3.8251565 1519948
-1.5508032 -1.2752798 3.8003016 1585997
-1.5293269 -1.2750736 3.8252654 1585997
-1.5508668 -1.2249486 3.8004577 1717582
-1.5293247 -1.2250786 3.8254945 1651790
-1.5509307 -1.1746131 3.8006139 1652046
-1.5294734 -1.1751626 3.8255522 1520205
-1.5509943 -1.1242739 3.8007698 1586254
-1.5294571 -1.1250761 3.8258011 1454411
-1.5510581 -1.0739304 3.800926 1585997
-1.5295262 -1.0749841 3.8259485 1520204
-1.5511199 -1.0251561 3.8010776 1321800
-1.5297196 -1.0249734 3.8259535 1256264
-1.5511816 -0.97637802 3.8012283 1256264
-1.5296373 -0.9748739 3.8262761 1190471
-1.5512452 -0.92602241 3.8013849 1256777
-1.5297068 -0.92485213 3.8264251 1256264
-1.551283 -0.89612192 3.8014774 1256265
-1.5299277 -0.89618403 3.8262982 1190471
-1.5024979 -1.7123115 3.8544497 1651275
-1.479979 -1.7180803 3.8805983 1717324
-1.5026392 -1.6751001 3.8544564 1848910
-1.4816329 -1.6750683 3.878871 1717325
-1.5027474 -1.6251316 3.8545585 1783118
-1.4817286 -1.6251177 3.8789892 1717325
-1.5027151 -1.5751586 3.8548245 1717325
-1.4817185 -1.5749608 3.8792315 1519947
-1.502823 -1.5251822 3.8549273 1520204
-1.4818461 -1.5249022 3.8793116 1388105
-1.5033507 -1.4736884 3.8545496 1256007
-1.4818785 -1.4749393 3.8795013 1190214
-1.5040258 -1.425411 3.8539851 1454155
-1.481886 -1.4249711 3.8797209 1388362
-1.5041223 -1.3751707 3.8541033 1520462
-1.4820362 -1.375002 3.8797762 1388875
-1.5042187 -1.3249278 3.8542204 1520204
-1.4820476 -1.3249243 3.8799908 1454154
-1.5041568 -1.2750834 3.8545208 1519948
-1.4821211 -1.2748463 3.8801339 1322826
-1.5043064 -1.22523 3.8545744 1520204
-1.4821405 -1.2249627 3.8803387 1256777
-1.504403 -1.1749767 3.8546925 1388363
-1.4826429 -1.1753112 3.8799827 1190727
-1.5043598 -1.1247158 3.8549714 1190471
-1.4833791 -1.1250106 3.8793554 1189957
-1.5044734 -1.0748531 3.855068 1256520
-1.4834299 -1.0751255 3.8795266 1058372
-1.5045874 -1.0249884 3.8551645 1124679
-1.4835573 -1.0250208 3.8796084 1058629
-1.5045444 -0.97471088 3.8554437 1124935
-1.4835889 -0.97502106 3.8797987 1124935
-1.5046577 -0.92483801 3.85554 1190471
-1.483659 -0.92512512 3.8799448 1124935
-1.5046933 -0.89610785 3.8556294 993349
-1.4834653 -0.89641565 3.8803017 1124934
-1.4312781 -1.755708 3.937031 1848909
-1.4567358 -1.7243088 3.9075844 1717580
-1.4353566 -1.7249267 3.9324307 1651531
-1.4570075 -1.6749684 3.9074957 1322055
-1.4353459 -1.674868 3.9326718 1519946
-1.4569703 -1.6248519 3.9077663 1453641
-1.4353826 -1.6249288 3.9328606 1454410
-1.4571389 -1.5749965 3.9077985 1454154
-1.4354869 -1.5751086 3.9329653 1388361
-1.4570771 -1.5248741 3.9080992 1388362
-1.4355222 -1.5251627 3.9331527 1322568
-1.4571974 -1.4750117 3.9081881 1322056
-1.4356146 -1.4750856 3.9332731 1256263
-1.4573177 -1.4251479 3.9082761 1520204
-1.4357078 -1.4250073 3.9333944 1454667
-1.4572558 -1.3750079 3.9085772 1257033
-1.4357208 -1.3750446 3.9336073 1322569
-1.457425 -1.3251404 3.9086089 1256776
-1.4357555 -1.3249575 3.9337957 1190727
-1.4574229 -1.2752553 3.9088387 1256776
-1.4360021 -1.2751666 3.9337368 1124421
-1.4575069 -1.2251133 3.9089701 1322569
-1.437083 -1.2249594 3.9327102 1256776
-1.4579468 -1.1741093 3.9086916 1124934
-1.4371665 -1.1750413 3.932842 1190983
-1.4587836 -1.1247677 3.9079473 1058885
-1.4370885 -1.1251197 3.933162 1256775
-1.4588224 -1.0748477 3.908128 992579
-1.4372275 -1.0750607 3.9332273 1058628
-1.458861 -1.0249311 3.9083123 992579
-1.4372739 -1.0251307 3.9334023 1058628
-1.4588995 -0.97500938 3.9084961 1058885
-1.4373195 -0.9751941 3.9335783 1058372
-1.4590417 -0.92507637 3.9085584 1124934
-1.4373664 -0.92498988 3.9337525 1058628
-1.4585909 -0.89621222 3.9092145 1124934
-1.4374067 -0.89635253 3.9338367 1059141
-1.4090784 -1.7615352 3.9628074 1651531
-1.3871818 -1.7674478 3.9882319 1388360
-1.4099275 -1.7249193 3.961988 1454409
-1.3889496 -1.7249194 3.9863708 1388617
-1.4100357 -1.6750177 3.96209 1454153
-1.3889202 -1.6750714 3.9866328 1388360
-1.4100591 -1.6251087 3.9622922 1388361
-1.3890796 -1.6250434 3.9866757 1190726
-1.4101677 -1.5748345 3.962394 1454153
-1.3891542 -1.575004 3.9868183 1256519
-1.4102091 -1.5249172 3.9625752 1256519
-1.3891253 -1.5249684 3.987082 1190213
-1.4101472 -1.4751807 3.9628747 1388104
-1.3892329 -1.474921 3.9871831 1454409
-1.4102889 -1.4250749 3.9629376 1454410
-1.3892378 -1.4250568 3.9874058 1322824
-1.4104316 -1.3749691 3.9630015 1257032
-1.3892947 -1.3750041 3.9875689 1256775
-1.4104048 -1.3250351 3.9632614 1388617
-1.3893684 -1.3249485 3.9877121 1388360
-1.4107447 -1.2746701 3.9630964 1388617
-1.3894944 -1.2750731 3.9877944 1322568
-1.4116547 -1.2250509 3.962265 1257032
-1.3894475 -1.2250088 3.9880781 1256262
-1.4117583 -1.1748723 3.9623737 1190983
-1.3895736 -1.1749378 3.9881601 1322567
-1.4117787 -1.1248493 3.9625795 1257031
-1.3895607 -1.1250503 3.9884028 1256518
-1.4118667 -1.0749859 3.9627059 1058372
-1.3896871 -1.0749732 3.9884853 992578
-1.4120227 -1.0249562 3.9627521 1124677
-1.3897779 -1.0248941 3.9886074 1124676
-1.4119056 -0.97492307 3.9631183 1058628
-1.3897653 -0.97499198 3.9888513 992578
-1.4119934 -0.92504764 3.9632435 1058885
-1.3901248 -0.92559832 3.9886594 1058628
-1.4124103 -0.89633566 3.9628899 993092
-1.3912402 -0.89643592 3.9874959 1190982
-1.3520103 -1.8010118 4.0289578 1190985
-1.3397998 -1.8048344 4.0431323 1257804
-1.3624617 -1.7730607 4.0169373 1190985
-1.3424008 -1.7753676 4.0402451 1191498
-1.364062 -1.7248998 4.0152974 1322826
-1.3424557 -1.7252237 4.0404096 1323340
-1.3641572 -1.6747885 4.0154166 1454667
-1.3425107 -1.6750749 4.0405746 1455181
-0.91198915 -1.6738011 4.0393405 1848912
-0.89761418 -1.6741297 4.0269547 1914705
-1.3641536 -1.6248074 4.0156498 1454667
-1.3425655 -1.6249229 4.0407405 1586510
-0.91207236 -1.6249819 4.0395012 1849169
-0.89756763 -1.6249622 4.0270042 2046033
-1.3642089 -1.5749627 4.0158134 1454667
-1.3426207 -1.5747662 4.040906 1586767
-0.91209787 -1.5748204 4.0396118 2112083
-0.89759243 -1.5749556 4.0271173 2112339
-1.3643376 -1.5249753 4.015893 1191241
-1.3427157 -1.5248824 4.0410228 1323853
-0.91217935 -1.5249902 4.039773 2243412
-0.89761752 -1.5249466 4.0272274 2374740
-1.3643534 -1.4748473 4.0161023 1191754
-1.3427302 -1.474999 4.041235 1126219
-0.91214836 -1.4751571 4.0398359 1914962
-0.89764225 -1.4749345 4.0273399 1980754
-1.3643765 -1.4248515 4.0163045 1125191
-1.342744 -1.4251097 4.0414467 1059657
-0.91217375 -1.4249871 4.0399485 1783120
-0.89766723 -1.4249195 4.0274525 1717583
-1.364432 -1.3749896 4.0164676 1190984
-1.3428396 -1.3752146 4.041563 1125705
-0.91208667 -1.3751526 4.0399632 1652305
-0.89769226 -1.3749021 4.0275631 1783120
-1.3644807 -1.3249857 4.0166388 1191241
-1.3429619 -1.3253191 4.0416498 1059913
-0.91222423 -1.325309 4.0401716 1652048
-0.89771712 -1.3248817 4.0276756 1652049
-1.3645898 -1.2748404 4.0167437 1125448
-1.3429487 -1.2754153 4.041894 1125450
-0.91224962 -1.2751305 4.0402851 1652304
-0.89774197 -1.2748585 4.0277877 1586512
-1.3645988 -1.2248278 4.0169606 1191240
-1.3430036 -1.2252301 4.0420594 1257291
-0.91227508 -1.2249496 4.0403967 1586255
-0.89776701 -1.2248325 4.0278983 1652048
-1.3646544 -1.1749504 4.0171227 1191497
-1.3430585 -1.1750411 4.0422239 1257034
-0.91230065 -1.1747657 4.0405092 1520206
-0.8977918 -1.174804 4.0280108 1718097
-1.3647698 -1.1249306 4.0172186 1058629
-1.3430998 -1.1251276 4.0424061 927302
-0.9123258 -1.1249135 4.0406222 1322315
-0.89781684 -1.1247725 4.0281239 1783890
-1.3647658 -1.0749071 4.0174518 861507
-1.343168 -1.0752078 4.0425529 927045
-0.91235089 -1.0750585 4.0407333 1387851
-0.89784175 -1.074738 4.028234 1652561
-1.3648283 -1.0248791 4.0176082 992580
-1.3432231 -1.0250064 4.0427179 926788
-0.9123764 -1.0248665 4.0408468 1454670
-0.89786679 -1.0247012 4.028347 1717841
-1.3649496 -0.97470969 4.0176954 926787
-1.3432783 -0.97480094 4.0428843 992581
-0.91240185 -0.9746713 4.0409589 1322828
-0.89789164 -0.97466141 4.0284595 1389134
-1.3652699 -0.92431241 4.0175533 927043
-1.3445745 -0.92493993 4.0416069 795459
-0.91237104 -0.92480636 4.0410228 1257292
-0.89784503 -0.92546791 4.0285063 1257549
-1.3667501 -0.8962878 4.0159621 992836
-1.3443542 -0.89649159 4.0419927 795203
-0.91086102 -0.87430447 4.039813 1257549
-0.896743 -0.87988341 4.0276408 1388878
-0.90993536 -0.83140343 4.0390925 1257292
-0.8958984 -0.8291648 4.0270047 1322828
-1.3149837 -1.810977 4.071949 1521231
-1.2957315 -1.8157593 4.0943036 1718352
-1.3180767 -1.7749872 4.0685186 1520974
-1.2959263 -1.7746607 4.0942645 1520974
-1.3180903 -1.7248527 4.0687313 1323853
-1.2959577 -1.7251195 4.0944552 1389646
-1.3182139 -1.6750764 4.0688152 1454669
-1.2960107 -1.6751478 4.0946221 1389133
-0.96678799 -1.6738657 4.0865479 1783633
-0.93720347 -1.6737621 4.0610604 1848912
-1.3182203 -1.6250528 4.0690355 1652047
-1.296043 -1.6247504 4.0948143 1652303
-0.96664572 -1.6250538 4.0865126 1980754
-0.93706423 -1.6247748 4.0610304 1914962
-1.3183695 -1.5750263 4.0690923 1586767
-1.2961378 -1.5747653 4.094933 1587023
-0.96671325 -1.5752754 4.0866609 2112339
-0.93717128 -1.5748254 4.061213 1980755
-1.3182634 -1.5251184 4.0694437 1389646
-1.2961694 -1.525207 4.0951228 1455438
-0.96674103 -1.5252522 4.0867748 1915219
-0.93715572 -1.5251145 4.0612898 2046547
-1.3184524 -1.4749625 4.0694532 1126475
-1.2962221 -1.4752184 4.0952902 1126476
-0.96684963 -1.474982 4.0869613 1651791
-0.93722272 -1.4751592 4.0614376 1849169
-1.317965 -1.4245099 4.070251 1060170
-1.2958293 -1.426459 4.0959697 1060170
-0.96687651 -1.4249511 4.0870743 1586512
-0.93720847 -1.4249624 4.0615153 1717584
-1.317294 -1.3749758 4.0712581 1059657
-1.2953347 -1.3768045 4.0967722 1059656
-0.96673834 -1.375164 4.0870447 1586512
-0.93727481 -1.37476 4.0616636 1586512
-1.3173355 -1.3249925 4.0714374 1059657
-1.2963827 -1.3252292 4.0957894 993608
-0.96693051 -1.3253717 4.0872993 1520719
-0.93726015 -1.324795 4.0617409 1652305
-1.3174008 -1.2750049 4.0715899 1059914
-1.2964363 -1.274377 4.0959597 1059658
-0.96691602 -1.2750894 4.0873775 1520462
-0.93732691 -1.2748313 4.0618882 1652048
-1.3174652 -1.2249006 4.071744 1191242
-1.2964466 -1.2243538 4.0961771 1125450
-0.96690184 -1.2248057 4.0874567 1454413
-0.93723059 -1.2248592 4.0618949 1520462
-1.3174314 -1.1749021 4.0720139 1191755
-1.2965841 -1.1752177 4.0962415 1125962
-0.96577406 -1.1742154 4.0865779 1388620
-0.93659723 -1.1760365 4.061439 1454156
-1.3176169 -1.125015 4.0720239 993350
-1.2965943 -1.1251862 4.0964584 1060169
-0.96496487 -1.1250316 4.0859685 1322828
-0.93523055 -1.1250943 4.0603523 1190729
-1.3176712 -1.0750121 4.0721898 1058887
-1.296648 -1.0743175 4.0966282 1191755
-0.96490252 -1.0749118 4.0860062 1388364
-0.93532723 -1.074941 4.0605259 1256522
-1.3176029 -1.0251164 4.0724978 993351
-1.296658 -1.0242752 4.0968456 1191498
-0.96483988 -1.0247926 4.0860419 1454670
-0.93530536 -1.0250657 4.0605979 1520206
-1.31769 -0.97521508 4.0726242 1059143
-1.2967958 -0.97512823 4.0969105 1125962
-0.96484768 -0.97466964 4.0861397 1257036
-0.93537909 -0.97518301 4.0607519 1191500
-1.3190479 -0.92515588 4.0712752 993350
-1.296806 -0.92507786 4.097127 1125962
-0.96509075 -0.92475563 4.0864396 1191243
-0.93542916 -0.92502123 4.060885 1257036
-1.3184191 -0.89650184 4.0721364 1059143
-1.2968364 -0.89624339 4.0972233 1192525
-0.96504539 -0.87483752 4.0864902 1256779
-0.93543136 -0.87485319 4.0609779 1191243
-0.96336406 -0.83994913 4.0851049 1257548
-0.93488705 -0.83497798 4.0605807 1191756
-1.2544259 -1.8516105 4.1421494 1323085
-1.2493418 -1.8525317 4.1480551 1520462
-1.2694896 -1.822385 4.1247749 1652303
-1.2493699 -1.8250768 4.1481476 1520975
-1.2709409 -1.7749683 4.1233044 1455182
-1.2494205 -1.7753114 4.1483159 1455182
-1.2710679 -1.7248617 4.1233845 1455183
-1.2494715 -1.7255422 4.1484852 1455439
-1.2710235 -1.6747457 4.1236672 1389133
-1.2495221 -1.675769 4.1486535 1389390
-1.0204322 -1.6739765 4.1327586 1783633
-0.99019641 -1.6741375 4.1067128 1849425
-1.2710489 -1.624736 4.1238666 1652047
-1.2495748 -1.624275 4.148828 1651790
-1.0205065 -1.6248823 4.1329141 1849169
-0.99011391 -1.6252669 4.10673 1783377
-1.2711437 -1.5748277 4.1239839 1718096
-1.2496258 -1.5744934 4.1489968 1652560
-1.0204157 -1.5749282 4.1329231 1849682
-0.9902873 -1.5751256 4.1069698 1915475
-1.2712387 -1.524915 4.1241026 1455439
-1.2496763 -1.5247082 4.1491652 1521232
-1.0187105 -1.5253046 4.131546 1585998
-0.99024194 -1.5249661 4.1070213 1783633
-1.271161 -1.4749995 4.1244202 1257805
-1.249727 -1.4749184 4.149334 1323854
-1.0184445 -1.4749955 4.1314077 1717584
-0.9903056 -1.4752426 4.1071658 1717328
-1.2712566 -1.425079 4.1245375 1191756
-1.2497779 -1.4251249 4.1495023 1257804
-1.0183736 -1.4248252 4.1314354 1652048
-0.99036944 -1.4255152 4.1073112 1586768
-1.271723 -1.3747227 4.1242256 1059400
-1.2498287 -1.3753271 4.1496711 1059400
-1.0184345 -1.3748507 4.1315799 1520720
-0.99036092 -1.3749268 4.1073937 1520976
-1.2726433 -1.3249071 4.1233835 1059400
-1.2498795 -1.3255254 4.1498394 1124937
-1.018496 -1.3248669 4.1317215 1520719
-0.99035245 -1.3243377 4.1074786 1520719
-1.2727458 -1.2750207 4.1234932 1058887
-1.2499163 -1.2894597 4.1499619 1124681
-1.0184255 -1.2746915 4.1317525 1322828
-0.99041611 -1.2746015 4.1076236 1323341
-1.2727168 -1.2249247 4.1237555 1125193
-1.0185527 -1.2248921 4.1319528 1256779
-0.99048012 -1.2248614 4.1077685 1454156
-1.2728908 -1.1749243 4.1237817 1125450
-1.0185146 -1.1750956 4.13201 1256779
-0.99043471 -1.1746874 4.10782 1454157
-1.2727598 -1.1251239 4.1241622 1059913
-1.0186423 -1.1249105 4.1322103 1322572
-0.99049848 -1.1249419 4.107965 1454670
-1.2729937 -1.0751181 4.1241183 1191755
-1.0185375 -1.0749137 4.1322098 1454926
-0.99056214 -1.0751923 4.10811 1454926
-1.2729539 -1.0250087 4.1243925 1125706
-1.0187322 -1.0251099 4.1324682 1322828
-0.99051708 -1.0250123 4.1081614 1389134
-1.2729863 -0.97499102 4.1245852 1125706
-1.0186287 -0.97491354 4.1324697 1191243
-0.99047172 -0.974832 4.1082139 1125707
-1.2730784 -0.92507595 4.1247067 1125962
-1.0187888 -0.92491215 4.1326985 1191756
-0.99071765 -0.92464852 4.1085162 1191243
-1.2731305 -0.89654732 4.1247759 1192268
-1.018518 -0.87528008 4.1325541 1257291
-0.99063605 -0.87488681 4.1085358 1257035
-1.0069728 -0.84690803 4.1226597 1192268
-0.98973143 -0.84410143 4.1078115 1257804
-1.2218342 -1.8601738 4.1799927 1586511
-1.2262231 -1.8249654 4.1750503 1454926
-1.2263573 -1.7748799 4.1751256 1454926
-1.2264602 -1.7249902 4.1752334 1521232
-1.2264464 -1.6752021 4.1754785 1454926
-1.0754207 -1.6743203 4.1801295 1849425
-1.0466874 -1.6733209 4.1553783 1718097
-1.2264966 -1.6250017 4.1756482 1586254
-1.075424 -1.625247 4.1802211 1718097
-1.0467914 -1.6242973 4.1555576 1914961
-1.2265681 -1.5749968 4.1757927 1717840
-1.0756218 -1.5750626 4.1804824 1586255
-1.046669 -1.5744245 4.1555409 1718097
-1.2279484 -1.5251449 4.1744184 1521232
-1.075484 -1.524886 4.1804543 1652047
-1.0447874 -1.5236212 4.1540136 1651534
-1.2279651 -1.475052 4.1746278 1389390
-1.0755409 -1.4750117 4.1805959 1586768
-1.0446064 -1.4748355 4.1539445 1652048
-1.2279882 -1.4250627 4.1748295 1323597
-1.0748743 -1.4257083 4.1801085 1520719
-1.0446354 -1.424968 4.1540599 1586512
-1.2280093 -1.3750699 4.175034 1124936
-1.0733045 -1.3749796 4.1788483 1454927
-1.0446643 -1.3750979 4.1541753 1586256
-1.2281106 -1.3250721 4.1751447 1058887
-1.0735027 -1.3249862 4.1791077 1322828
-1.0446931 -1.3252249 4.1542897 1454927
-1.2289045 -1.2746453 4.1744523 993351
-1.0734404 -1.2748097 4.1791468 1190473
-1.0446225 -1.274776 4.1543198 1322058
-1.2500038 -1.20358 4.1502523 1256778
-1.2293181 -1.2249848 4.1741977 1059144
-1.073562 -1.2246358 4.1793432 1190729
-1.0448537 -1.2248969 4.1546097 1256266
-1.2500336 -1.1743779 4.1503515 1125450
-1.2283342 -1.1748376 4.1755705 1059401
-1.0733604 -1.1749741 4.1792569 1190730
-1.0446806 -1.1750178 4.1545506 1190987
-1.2500845 -1.12456 4.1505198 1125450
-1.2282158 -1.1249318 4.1759377 1059914
-1.0736513 -1.1249675 4.1795993 1256779
-1.0449114 -1.1251296 4.1548395 1257036
-1.2501353 -1.0747378 4.1506886 1257291
-1.2283498 -1.0749162 4.1760087 1191499
-1.0735288 -1.0747844 4.1795835 1323341
-1.0447383 -1.0752491 4.1547809 1455183
-1.2501861 -1.0249116 4.1508574 1191499
-1.2283666 -1.0249979 4.176219 1191499
-1.0735567 -1.0249422 4.1796975 1125450
-1.0449673 -1.0247774 4.1550689 1191499
-1.250237 -0.97508138 4.1510267 1190986
-1.2284555 -0.97497636 4.1763434 1191242
-1.0736648 -0.97492635 4.1798816 1125707
-1.0447942 -0.97489583 4.1550107 1190987
-1.2502877 -0.92524713 4.1511955 1125963
-1.2286121 -0.92494333 4.1763921 1191755
-1.0736943 -0.92473346 4.179996 1191755
-1.0450251 -0.92498773 4.1552997 1257036
-1.2503158 -0.89775074 4.151288 994890
-1.2284896 -0.89652425 4.1766624 1125962
-1.0721637 -0.88225776 4.1787553 1257804
-1.0447214 -0.87792307 4.1551223 1323084
-1.2016025 -1.8650968 4.2034855 1520462
-1.1791601 -1.8712887 4.2295423 1520462
-1.2016417 -1.8251029 4.2036228 1586255
-1.1805874 -1.8249602 4.228096 1586511
-1.2016453 -1.7755336 4.2038455 1322828
-1.1807224 -1.774859 4.2281675 1454669
-1.2017847 -1.7251153 4.2039137 1652304
-1.1806178 -1.7250068 4.2285171 1652560
-1.2017443 -1.6746587 4.2041912 1586255
-1.1789473 -1.6748905 4.2296891 1586768
-1.1249268 -1.6742057 4.2227783 1783889
-1.2018838 -1.6242343 4.2042594 1585998
-1.1788839 -1.6247189 4.2299867 1520462
-1.1248704 -1.6249477 4.2228179 1520719
-1.2020233 -1.5738096 4.2043285 1717840
-1.17906 -1.5748962 4.2299924 1717840
-1.1249886 -1.575054 4.223011 1586255
-1.2031817 -1.524804 4.2032056 1652561
-1.1788391 -1.525075 4.2304115 1652561
-1.1249616 -1.5249919 4.2230783 1783633
-1.2032913 -1.4749473 4.2033062 1324111
-1.1790594 -1.4750081 4.2304492 1455183
-1.1250511 -1.4749336 4.2232466 1586768
-1.2034012 -1.4250892 4.2034068 1389389
-1.1791557 -1.4250561 4.2305593 1389390
-1.125024 -1.4250306 4.2233129 1389390
-1.097952 -1.4076754 4.2000227 1323598
-1.2033287 -1.375217 4.2037182 1125193
-1.1791661 -1.3751001 4.230772 1125193
-1.1250845 -1.3749629 4.223454 1257805
-1.097972 -1.3746399 4.200099 1389134
