# .PCD v0.7 - Point Cloud Data file format
VERSION 0.7
FIELDS x y z rgb
SIZE 4 4 4 4
TYPE F F F U
COUNT 1 1 1 1
WIDTH 1148
HEIGHT 1
VIEWPOINT 0 0 0 1 0 0 0
POINTS 1148
DATA ascii
-0.1608163 -0.32494491 1.1763173 2894892
-0.91594076 -0.27497554 1.1747445 6513507
-0.87535685 -0.27501637 1.1837293 6513507
-0.82621878 -0.27511823 1.1946095 6513507
-0.16077752 -0.27503556 1.1760161 2894892
-0.91596627 -0.22497353 1.1748037 6513507
-0.87510568 -0.22491758 1.1838522 6513507
-0.82617432 -0.2251142 1.1946867 6513507
-0.16074555 -0.22503223 1.1757469 2894892
-0.91607165 -0.17499165 1.1748482 6513507
-0.87504953 -0.17498164 1.1839309 6513507
-0.82612866 -0.17499717 1.1947644 6513507
-0.16066793 -0.17493561 1.175266 2894892
-0.91603374 -0.12505686 1.1749238 6513507
-0.8751362 -0.12499104 1.1839789 6513507
-0.82629812 -0.1250454 1.1947922 6513507
-0.16065492 -0.12486785 1.175084 2894892
-0.91612548 -0.074912652 1.1749694 6513507
-0.87510252 -0.075028121 1.1840531 6513507
-0.82647461 -0.074998431 1.1948205 6513507
-0.16059642 -0.074947551 1.1746919 2894892
-0.916152 -0.024839669 1.1750336 6513507
-0.8751213 -0.025018623 1.1841154 6513507
-0.82675207 -0.025008552 1.1948271 6513507
-0.16056445 -0.025058286 1.1744227 2894892
-0.91619486 0.024841294 1.1750869 6513507
-0.87516445 0.025020201 1.1841735 6513507
-0.82678771 0.025000984 1.1948853 6513507
-0.16051912 0.025048845 1.1740905 2894892
-0.91600257 0.075040482 1.1752002 6513507
-0.87496698 0.074938707 1.1842842 6513507
-0.82696807 0.074942388 1.1949124 6513507
-0.16046076 0.074881911 1.1736994 2894892
-0.91537243 0.1079277 1.1740631 6513507
-0.87480944 0.10840824 1.1812196 6513507
-0.82662958 0.10885366 1.1894705 6513507
-0.77498919 0.11434138 1.1744186 6513507
-0.72511756 0.11437969 1.1748153 6513507
-0.67501646 0.11441812 1.1752867 6513507
-0.62498051 0.11445671 1.1756059 6513507
-0.5750075 0.11449511 1.1759981 6513507
-0.52500033 0.11453354 1.1763953 6513507
-0.47496024 0.11457202 1.1767881 6645093
-0.42498413 0.11461031 1.1772608 10197915
-0.37516883 0.11464865 1.1776139 10197915
-0.3251237 0.11468719 1.1779741 10197915
-0.27495 0.11472578 1.1783664 10197915
-0.22493613 0.11476412 1.1788402 8947848
-0.17577773 0.11323985 1.173107 2894892
-0.94497138 -0.55304807 1.2428697 2039583
-0.94116968 -0.52320296 1.2256113 4802889
-0.94068605 -0.47657424 1.2232939 6513507
-0.93689072 -0.44822773 1.2060705 6513507
-0.80048352 -0.41714621 1.2001184 6513507
-0.77482343 -0.41739646 1.2058001 6513507
-0.72494859 -0.41734356 1.216844 6513507
-0.67504191 -0.41736636 1.2278941 6513507
-0.62516046 -0.41733196 1.2389388 6513507
-0.58748406 -0.41730738 1.2472825 6513507
-0.17052583 -0.4175432 1.221486 2894892
-0.80051619 -0.37490004 1.2001675 6513507
-0.77482569 -0.37502888 1.2058569 6513507
-0.72496915 -0.37498549 1.2168965 6513507
-0.67509758 -0.37501127 1.2279387 6513507
-0.62521106 -0.37499151 1.2389852 6513507
-0.58798349 -0.37504393 1.2472287 6513507
-0.17053944 -0.37494031 1.2214448 2894892
-0.80055499 -0.32519418 1.2002257 6513507
-0.77487737 -0.32499972 1.2059109 6513507
-0.72497314 -0.32500061 1.2169609 6513507
-0.67509866 -0.32501516 1.2280058 6513507
-0.62522507 -0.32498085 1.2390484 6513507
-0.58804071 -0.32498565 1.2472818 6513507
-0.17047228 -0.32509232 1.2210128 2894892
-0.80082649 -0.27241752 1.2002358 6513507
-0.7749033 -0.2749837 1.2059717 6513507
-0.7250309 -0.27499339 1.2170156 6513507
-0.67513913 -0.27503249 1.2280645 6513507
-0.62526697 -0.27498278 1.2391086 6513507
-0.58809072 -0.27501488 1.2473387 6513507
-0.17040484 -0.27510548 1.2205789 2894892
-0.8010661 -0.22475585 1.2002468 6513507
-0.77493221 -0.22499721 1.2060338 6513507
-0.72509187 -0.22501671 1.2170697 6513507
-0.67518878 -0.22500837 1.2281193 6513507
-0.62525892 -0.22499013 1.2391739 6513507
-0.58827221 -0.22524522 1.2473646 6513507
-0.17037646 -0.22514632 1.2203264 2894892
-0.80110496 -0.17503951 1.2003045 6513507
-0.77500182 -0.1750237 1.2060853 6513507
-0.72509301 -0.17499048 1.2171355 6513507
-0.67517179 -0.1750067 1.2281895 6513507
-0.62533373 -0.17501153 1.2392259 6513507
-0.5886488 -0.17493637 1.247349 6513507
-0.17032845 -0.17504489 1.2199825 2894892
-0.80122149 -0.12436354 1.2003467 6513507
-0.77509147 -0.12500206 1.2061319 6513507
-0.72516274 -0.12495038 1.2171867 6513507
-0.67523283 -0.12499998 1.2282429 6513507
-0.62529629 -0.12501837 1.2393001 6513507
-0.58861732 -0.12506346 1.2474216 6513507
-0.17028041 -0.12497409 1.2196383 2894892
-0.80161583 -0.075089134 1.2003255 6513507
-0.77503115 -0.074966528 1.2062117 6513507
-0.7250694 -0.075021707 1.2172757 6513507
-0.67532581 -0.074924745 1.2282898 6513507
-0.62543517 -0.075125374 1.2393373 6513507
-0.58867371 -0.074996412 1.2474769 6513507
-0.1702323 -0.074929193 1.219294 2894892
-0.80165499 -0.024865024 1.2003839 6513507
-0.7750597 -0.024986995 1.2062725 6513507
-0.72528249 -0.025046008 1.2172945 6513507
-0.67526758 -0.024935853 1.2283698 6513507
-0.62539995 -0.025131918 1.2394127 6513507
-0.58914351 -0.024806188 1.2474405 6513507
-0.17018431 -0.024914777 1.2189506 2894892
-0.80169374 0.024866635 1.200442 6513507
-0.77509755 0.024988636 1.2063317 6513507
-0.72531915 0.025047556 1.2173549 6513507
-0.67529953 0.024937447 1.2284286 6513507
-0.62543702 0.02512412 1.2394689 6513507
-0.58917165 0.024807762 1.2474997 6513507
-0.17013629 0.025073675 1.2186064 2894892
-0.80211759 0.075712658 1.2004161 6513507
-0.7751351 0.074969113 1.2063907 6513507
-0.72516876 0.075024128 1.2174534 6513507
-0.67541403 0.074917629 1.2284707 6513507
-0.6255151 0.075117439 1.23952 6513507
-0.58920026 0.074943379 1.2475607 6513507
-0.17008837 0.075031713 1.2182628 2894892
-0.80219114 0.10742304 1.2004423 6513507
-0.77519381 0.1074124 1.2062849 6513507
-0.72515684 0.10782341 1.2166687 6513507
-0.67511296 0.10821256 1.2265108 6513507
-0.62507188 0.10857967 1.2358346 6513507
-0.58297282 0.11028753 1.2387662 6513507
-0.52638471 0.11447507 1.225579 5723991
-0.47504532 0.11451787 1.2231104 7566195
-0.42502216 0.11455631 1.2235208 10197915
-0.37522063 0.11459465 1.2238739 10197915
-0.32525605 0.11463292 1.2243667 10197915
-0.27500734 0.11467158 1.2247518 10197915
-0.22497748 0.11470998 1.2251896 7763574
-0.1812899 0.11264786 1.2225099 2894892
-0.95415258 -0.56231719 1.2843604 2434341
-0.94838643 -0.55652457 1.2583026 2039583
-0.95378101 -0.52494633 1.2825722 6381921
-0.94825757 -0.524993 1.2576276 5723991
-0.95356607 -0.4855493 1.2814881 6513507
-0.94826221 -0.48168004 1.2575231 6513507
-0.56262934 -0.41732854 1.2527854 6513507
-0.52509493 -0.41727766 1.2610961 4144959
-0.47487956 -0.41728935 1.2722157 10395294
-0.44504604 -0.41719919 1.2805022 11711154
-0.56305885 -0.37498918 1.2527477 6513507
-0.52510643 -0.3749837 1.2611505 4144959
-0.47493324 -0.37500536 1.2722602 10395294
-0.44511729 -0.37493074 1.2805252 11711154
-0.56313854 -0.32503998 1.2527961 6513507
-0.52509838 -0.32498908 1.2612202 4144959
-0.4749057 -0.32502022 1.2723331 10395294
-0.44514346 -0.32489488 1.2806593 11711154
-0.56316578 -0.27499723 1.2528572 6513507
-0.52513671 -0.27497953 1.2612778 4144959
-0.47493565 -0.27500999 1.2723945 10395294
-0.44516903 -0.27499452 1.2807621 11711154
-0.56339157 -0.22477707 1.2528743 6513507
-0.52520025 -0.22501493 1.2613306 4144959
-0.47500837 -0.22495334 1.2724451 6710886
-0.44520494 -0.2251837 1.2808367 8487297
-0.56367058 -0.17501265 1.2528789 6513507
-0.52515393 -0.17502519 1.261408 4144959
-0.47497016 -0.17498466 1.2725203 2236962
-0.44522256 -0.17521897 1.2809521 4210752
-0.56360775 -0.12471288 1.2529603 6513507
-0.52506649 -0.12511033 1.2614944 4144959
-0.47504839 -0.12506311 1.2725692 2039583
-0.44529319 -0.12491344 1.2810336 2039583
-0.56331772 -0.074760526 1.2530913 6513507
-0.52484274 -0.075105332 1.2616104 4144959
-0.4749434 -0.074970417 1.2726595 2039583
-0.44530722 -0.074788727 1.2811323 2039583
-0.56376022 -0.024917936 1.2530603 6513507
-0.52475697 -0.025089677 1.2616959 4144959
-0.47513962 -0.024937831 1.272683 2039583
-0.4453401 -0.024947736 1.2812572 2039583
-0.5637874 0.024919549 1.2531211 6513507
-0.52478236 0.025091341 1.2617581 4144959
-0.47515938 0.024929034 1.2727457 2039583
-0.44537458 0.024950288 1.2813565 2039583
-0.5638411 0.07481426 1.2531757 6513507
-0.52492309 0.075106673 1.2617946 4144959
-0.4750239 0.074961223 1.2728417 2434341
-0.44540974 0.074806564 1.2814277 4473924
-0.56374031 0.10700429 1.2532411 6513507
-0.52410024 0.10771684 1.2614491 4079166
-0.47490358 0.10832666 1.2708279 7500402
-0.43255055 0.1115042 1.2763131 10132122
-0.37495854 0.11453616 1.2741963 10197915
-0.32492781 0.1145749 1.2743306 10197915
-0.27496421 0.11461304 1.2749536 10197915
-0.22507513 0.11465151 1.2752299 6447714
-0.18980402 0.11468063 1.2737933 2894892
-0.96806908 -0.60153145 1.3473234 2039583
-0.96349418 -0.57159764 1.3265775 3815994
-0.96309125 -0.52502757 1.3246212 6513507
-0.9620477 -0.4920072 1.3198104 6513507
-0.45404965 -0.4172855 1.3381685 11711154
-0.44793057 -0.41717404 1.3105334 11711154
-0.45322886 -0.37419257 1.3343358 11711154
-0.44722575 -0.37628952 1.3072305 11711154
-0.45317924 -0.32497311 1.3339686 11711154
-0.44711959 -0.32478097 1.3066013 11711154
-0.45328969 -0.27487481 1.3343201 11711154
-0.4472107 -0.27503651 1.3068672 11711154
-0.45339385 -0.22489323 1.3346453 7500402
-0.44729182 -0.22500284 1.3070874 8026746
-0.45347565 -0.17489192 1.3348678 4539717
-0.44739428 -0.17494763 1.307404 4539717
-0.45356852 -0.12486755 1.3351408 2039583
-0.4474856 -0.12514205 1.3076705 2039583
-0.45365497 -0.074963763 1.3353862 2039583
-0.44756663 -0.07504642 1.3078904 2039583
-0.45373607 -0.025175473 1.3356071 2039583
-0.44766882 -0.024929967 1.3082064 2039583
-0.45280761 0.025004877 1.3312672 2039583
-0.44776025 0.024936751 1.3084735 2039583
-0.4529151 0.075025298 1.3316076 4868682
-0.44784144 0.075094238 1.3086934 4868682
-0.4528535 0.10868444 1.3335633 10066329
-0.42765871 0.11354245 1.325765 10132122
-0.37478858 0.11447306 1.3283699 10197915
-0.32481331 0.11451144 1.3288103 10197915
-0.27508345 0.11454949 1.3293247 10197915
-0.22504224 0.11458791 1.3297706 5066061
-0.19353078 0.11461449 1.3279949 2894892
-0.97529918 -0.60873455 1.379997 2039583
-0.97401541 -0.57498336 1.3740971 5263440
-0.97385085 -0.52642679 1.373215 6513507
-0.97004515 -0.49780297 1.355944 6513507
-0.46262294 -0.41756889 1.3768871 11711154
-0.46272701 -0.37507761 1.377233 11711154
-0.46281114 -0.32505104 1.3774672 11711154
-0.4628962 -0.2751154 1.3777053 11645361
-0.46299109 -0.22504775 1.3779871 6710886
-0.4631069 -0.1748457 1.3783644 4605510
-0.46319124 -0.12484822 1.3785985 2039583
-0.46327588 -0.07494732 1.3788358 2039583
-0.46335119 -0.024800379 1.3790284 2039583
-0.46236473 0.024961645 1.3744295 2039583
-0.46208861 0.073858202 1.3730389 4605510
-0.45967081 0.10955655 1.371709 10066329
-0.4248988 0.11438117 1.3736762 10197915
-0.37475729 0.11441976 1.3740375 10197915
-0.32477033 0.11445816 1.3744955 10197915
-0.27494073 0.11449621 1.3750582 10197915
-0.22488999 0.11453488 1.3753146 3881787
-0.19662781 0.11455926 1.3732508 2894892
-0.98517519 -0.61669058 1.424623 2763306
-0.98500323 -0.57498366 1.4237216 6447714
-0.98454958 -0.53380001 1.4215536 6513507
-0.47290459 -0.41731855 1.4233193 11711154
-0.47297561 -0.3749283 1.4235162 11711154
-0.47307253 -0.32486802 1.4238091 11711154
-0.47316962 -0.27478388 1.4241011 11053224
-0.47323808 -0.22497721 1.424265 6513507
-0.47336304 -0.17514804 1.4246826 4671303
-0.47348064 -0.12515381 1.4250669 2039583
-0.47355002 -0.074988738 1.425235 2039583
-0.47365397 -0.024952607 1.4255581 2039583
-0.47375083 0.024959398 1.4258492 2039583
-0.47331712 0.076388091 1.423741 5395026
-0.46658725 0.11118553 1.4230461 10132122
-0.42517728 0.11432401 1.4224524 10197915
-0.37492037 0.11436272 1.4228498 10197915
-0.32477266 0.11440104 1.4234531 10197915
-0.27503708 0.11443936 1.4237548 9868950
-0.22568047 0.11447755 1.4239138 2960685
-0.19881594 0.11452264 1.4032102 2894892
-1.0010097 -0.61754638 1.4961332 6250335
-0.99525017 -0.61763126 1.4701228 5000268
-1.0010382 -0.5750035 1.4961392 6513507
-0.99532634 -0.57501835 1.4703422 6513507
-1.0010409 -0.54585928 1.4960659 6513507
-0.99462301 -0.54136121 1.467067 6513507
-0.48134392 -0.41737983 1.4614325 11711154
-0.48143628 -0.37506115 1.4617263 11711154
-0.48155451 -0.32526743 1.4621149 11711154
-0.48163322 -0.27525035 1.4623249 10395294
-0.48373017 -0.2225436 1.4716394 6513507
-0.48434597 -0.1750481 1.4742829 4671303
-0.48442113 -0.12511005 1.4744763 2039583
-0.48456964 -0.075033046 1.4749998 2039583
-0.4846316 -0.025057683 1.4751343 2039583
-0.48473084 0.025064528 1.4754366 2039583
-0.48486707 0.075080797 1.4759059 5066061
-0.4743149 0.11136974 1.4755998 10132122
-0.42486942 0.11426318 1.4748799 10197915
-0.37489185 0.11430146 1.4753771 10197915
-0.32487753 0.11433978 1.4758691 10197915
-0.27483302 0.11437815 1.4763669 8553090
-0.22878748 0.11441396 1.4763371 2894892
-1.0072153 -0.61764771 1.5241565 6447714
-1.0070999 -0.57633919 1.5235231 6513507
-1.0034047 -0.54779178 1.5067464 6513507
-0.50014895 -0.21709372 1.545774 6513507
-0.49469793 -0.21740739 1.5211568 6513507
-0.5002355 -0.17485742 1.5460413 4671303
-0.49476075 -0.17500813 1.5213176 4737096
-0.50033772 -0.12492342 1.5463572 2039583
-0.4948619 -0.12502906 1.5216286 2039583
-0.50044 -0.074969031 1.5466732 2039583
-0.49498606 -0.075032905 1.5220424 2039583
-0.50054228 -0.024994217 1.5469893 2039583
-0.49506468 -0.025016813 1.5222512 2039583
-0.50064468 0.025001034 1.5473057 2039583
-0.49516585 0.025023639 1.5225627 2039583
-0.50074703 0.07501673 1.547622 5131854
-0.49528998 0.07508067 1.5229779 5066061
-0.50081265 0.10708804 1.547825 10132122
-0.47823921 0.11249393 1.5233804 10132122
-0.4250659 0.11420693 1.5230229 10197915
-0.37471589 0.11424553 1.5235339 10197915
-0.32495856 0.11428353 1.5240419 10197915
-0.27517119 0.1143216 1.5245508 7368816
-0.23244765 0.11435512 1.5243368 2894892
-1.0183942 -0.61772597 1.5746444 6513507
-1.0179558 -0.58379358 1.5725642 6513507
-0.50727773 -0.21750343 1.5779694 6513507
-0.50731486 -0.17488272 1.5780128 4737096
-0.50739914 -0.12489209 1.578247 2039583
-0.50755018 -0.07505019 1.578784 2039583
-0.50763541 -0.025022324 1.579023 2039583
-0.50773937 0.025029149 1.5793464 2039583
-0.50783265 0.0749337 1.5796227 5131854
-0.50688076 0.10880986 1.5802091 10132122
-0.47490931 0.1141087 1.5738833 10132122
-0.42505881 0.11414692 1.5744098 10197915
-0.37496194 0.11418523 1.5749393 10197915
-0.32482782 0.11422361 1.5754681 10197915
-0.27487859 0.11426166 1.5761482 5987163
-0.23591411 0.11429311 1.5751764 2894892
-1.029637 -0.61778879 1.6254194 6513507
-1.0287199 -0.59184176 1.6212013 6513507
-0.51767904 -0.21765433 1.6249435 6513507
-0.51774263 -0.17482907 1.625105 4737096
-0.51784784 -0.12480471 1.6254345 2039583
-0.51795381 -0.074988291 1.6257687 2039583
-0.51808727 -0.024927003 1.6262255 2039583
-0.51819289 0.024933774 1.6265571 2039583
-0.51827186 0.075036041 1.6267662 5197647
-0.5134089 0.11107037 1.6295557 10132122
-0.47484821 0.11404462 1.6288462 10197915
-0.42482716 0.11408291 1.6293868 10197915
-0.37500075 0.114121 1.6299368 10197915
-0.3249115 0.11415915 1.6306527 10197915
-0.27541789 0.11420783 1.6219153 4934475
-0.23918284 0.11423656 1.62147 2894892
-1.0402162 -0.6189326 1.6732001 6513507
-1.0368431 -0.59804767 1.6579053 6513507
-0.52873522 -0.21752864 1.6748743 6513507
-0.52877963 -0.17505758 1.6749506 4868682
-0.52895582 -0.12511905 1.6756008 2039583
-0.52900773 -0.074979775 1.6756892 2039583
-0.52918386 -0.025000693 1.676339 2039583
-0.52929217 0.025007498 1.6766816 2039583
-0.52933228 0.075027473 1.6767173 5263440
-0.52202976 0.11056282 1.6775167 10132122
-0.47540903 0.11398714 1.6777426 10197915
-0.42516032 0.1140257 1.6781706 10197915
-0.37488091 0.11406399 1.6788745 10197915
-0.324911 0.11410221 1.6794369 10197915
-0.27466217 0.11415199 1.6702754 3487029
-0.24248612 0.11418045 1.667336 2894892
-1.0531467 -0.62770802 1.7316214 6513507
-1.0477979 -0.62399298 1.7074553 6513507
-0.54052484 -0.21763176 1.7281177 4276545
-0.54058486 -0.17518799 1.7282655 3487029
-0.54069656 -0.12508875 1.7286234 2039583
-0.54080653 -0.074973628 1.728974 2039583
-0.54095054 -0.025076723 1.7294785 2039583
-0.54106146 0.025083581 1.7298337 2039583
-0.54113841 0.075021334 1.7300345 5329233
-0.52695572 0.11145609 1.722962 10132122
-0.47498408 0.11393934 1.7189692 10197915
-0.42492077 0.1139778 1.7193974 10197915
-0.37482721 0.11401594 1.7201242 10197915
-0.32505175 0.11405399 1.7206982 9605778
-0.27489069 0.11409249 1.7211276 2894892
-0.24590476 0.11411694 1.7194961 2894892
-1.0594198 -0.63278627 1.7599658 6513507
-0.5530166 -0.21774499 1.784533 2039583
-0.54757315 -0.21727891 1.7599477 2039583
-0.5531522 -0.1752602 1.7850214 2039583
-0.5476678 -0.17501952 1.760252 2039583
-0.55326599 -0.12499908 1.7853886 2039583
-0.54777884 -0.12545583 1.7606089 2039583
-0.55335134 -0.075089052 1.7856282 2039583
-0.54789162 -0.075142704 1.7609717 2039583
-0.55349195 -0.025158022 1.7861176 2039583
-0.54800451 -0.024808953 1.7613338 2039583
-0.55360591 0.025164925 1.7864854 2039583
-0.54811573 0.024815662 1.7616916 2039583
-0.55369145 0.075136855 1.7867253 5395026
-0.54822695 0.074460424 1.762049 5263440
-0.55354536 0.10817146 1.7878542 10132122
-0.52640367 0.1131727 1.772603 10197915
-0.4748508 0.11387602 1.7733375 10197915
-0.42503172 0.11391412 1.7739241 10197915
-0.37518412 0.11395219 1.7745233 10197915
-0.32505286 0.11399023 1.7753369 8158332
-0.2756058 0.11402906 1.7750232 2894892
-0.24849422 0.11407483 1.7538311 2894892
-0.56249315 -0.21753927 1.8273293 2039583
-0.56264651 -0.1749202 1.8278977 2039583
-0.5627616 -0.12496555 1.8282716 2039583
-0.56279808 -0.074996099 1.8282908 2039583
-0.56299156 -0.025004594 1.8290194 2039583
-0.56310689 0.025011415 1.8293934 2039583
-0.56314355 0.075043797 1.8294129 5395026
-0.56074035 0.10963066 1.8312511 10132122
-0.52485567 0.11377001 1.8308511 10197915
-0.47495648 0.11380854 1.8311013 10197915
-0.42502818 0.11384622 1.8320779 10197915
-0.37505922 0.1138844 1.832692 10197915
-0.32505694 0.11392256 1.8333062 6710886
-0.27916238 0.11395838 1.8332157 2894892
-0.57252002 -0.21758018 1.8726127 6513507
-0.57254344 -0.17495264 1.872593 6513507
-0.57269174 -0.12493301 1.8731177 6513507
-0.57277787 -0.07489787 1.8733602 6513507
-0.57292634 -0.024841662 1.8738849 6447714
-0.57304287 0.024848392 1.8742657 5921370
-0.57312888 0.074945509 1.8745083 9145227
-0.56645882 0.11124656 1.8788853 10197915
-0.52533394 0.11371247 1.8798671 10197915
-0.47525847 0.1137505 1.8806933 10197915
-0.42514679 0.11378895 1.8811308 10197915
-0.37500557 0.11382699 1.8819584 10197915
-0.32521501 0.11386501 1.8825867 5460819
-0.28274897 0.1138984 1.8822788 2894892
-0.58299983 -0.21763121 1.9199404 6513507
-0.58299297 -0.17471862 1.9197836 6513507
-0.5831123 -0.1246317 1.9201764 6513507
-0.58327615 -0.07479462 1.9207717 6513507
-0.58334988 -0.024938125 1.920959 6513507
-0.58346868 0.0249449 1.921351 6513507
-0.5836333 0.074842073 1.9219468 9539985
-0.57361269 0.11108657 1.9286245 10132122
-0.52463967 0.1136524 1.9317921 10197915
-0.47477627 0.11369019 1.9326506 10197915
-0.42487687 0.1137285 1.9330859 10197915
-0.37494847 0.11376632 1.9339453 10197915
-0.3249805 0.1138047 1.9343809 4079166
-0.28612733 0.11383501 1.9343104 2894892
-0.60071492 -0.23365739 1.9999908 6513507
-0.59389979 -0.21781451 1.969167 6513507
-0.59400493 -0.1746075 1.9695153 6513507
-0.59412587 -0.12486021 1.9699161 6513507
-0.59424669 -0.075092569 1.9703174 6513507
-0.5943318 -0.024903247 1.9705549 6513507
-0.59445286 0.024910005 1.9709561 6513507
-0.594612 0.075140469 1.9715282 9474192
-0.60071135 0.11351373 1.999979 10197915
-0.58090758 0.11112699 1.9720097 10197915
-0.52551872 0.11360387 1.9727674 10197915
-0.47500733 0.11364239 1.9734362 10197915
-0.42527744 0.1136803 1.9740949 10197915
-0.37551421 0.11371823 1.9747537 10197915
-0.32490116 0.11375682 1.9754239 3026478
-0.28896257 0.11378424 1.9758995 2894892
-0.60563958 -0.21721271 2.0221834 6513507
-0.60548556 -0.1750471 2.0213647 6513507
-0.60571581 -0.12510431 2.0222583 6513507
-0.60578603 -0.075131387 2.0224295 6513507
-0.60596359 -0.025143342 2.0230863 6513507
-0.60608816 0.025150241 2.0235016 6513507
-0.60615849 0.075179249 2.0236735 9408399
-0.60589659 0.10773242 2.0248611 10197915
-0.57509255 0.1135163 2.014837 10197915
-0.52518511 0.11355433 2.015512 10197915
-0.47483635 0.11359297 2.0159545 10197915
-0.42485997 0.11363107 2.0166223 10197915
-0.37527388 0.11366859 2.0175395 9276813
-0.32523242 0.1137067 2.0182166 2894892
-0.29214624 0.11373463 2.0163679 2894892
-0.61759853 -0.21807015 2.0761943 6513507
-0.61776733 -0.17551741 2.0768316 6513507
-0.61785203 -0.12520747 2.0770679 6513507
-0.61802167 -0.074885353 2.0776873 6513507
-0.61814779 -0.024966318 2.0781119 6513507
-0.61827415 0.024973113 2.078536 6513507
-0.61840045 0.074932963 2.0789607 9276813
-0.61333799 0.11039688 2.0777562 10197915
-0.57539135 0.11344655 2.0743577 10197915
-0.52529794 0.1134844 2.0753162 10197915
-0.47558939 0.11352227 2.0760081 10197915
-0.42541924 0.11356079 2.0764463 10197915
-0.37522054 0.11359871 2.0774064 7697781
-0.32541177 0.11363664 2.0781002 2894892
-0.29633638 0.11366478 2.0733662 2894892
-0.62784237 -0.2176531 2.1224549 6513507
-0.62801582 -0.17503083 2.1231148 6513507
-0.62809753 -0.1253579 2.123338 6513507
-0.62831819 -0.075231187 2.1241887 6513507
-0.62835515 -0.025085399 2.1242089 6513507
-0.62848407 0.025092255 2.1246452 6513507
-0.62865794 0.074836738 2.1252847 9145227
-0.62106317 0.10995476 2.1233692 10197915
-0.57486856 0.11339176 2.1217265 10197915
-0.52494097 0.11342978 2.122438 10197915
-0.47498015 0.11346781 2.1231492 10197915
-0.42498562 0.11350586 2.1238616 10197915
-0.37495774 0.11354396 2.1245739 6447714
-0.32489604 0.11358206 2.1252871 2894892
-0.63854724 -0.21811569 2.1708014 6513507
-0.63872904 -0.17542103 2.1714978 6513507
-0.63886076 -0.12506774 2.1719453 6513507
-0.63894147 -0.075146563 2.1721644 6513507
-0.63912171 -0.025204141 2.1728327 6513507
-0.6392535 0.025211064 2.173281 6513507
-0.63933426 0.075194433 2.1735001 9079434
-0.62451309 0.11160172 2.1725824 10197915
-0.57476437 0.11333402 2.1712711 10197915
-0.52501875 0.11337221 2.1716895 10197915
-0.47524065 0.11340974 2.1727219 10197915
-0.42497653 0.11344798 2.1734545 10197915
-0.37513563 0.11348625 2.1738741 5197647
-0.32833675 0.11352272 2.1738298 2894892
-0.65269929 -0.21756598 2.2347124 6513507
-0.64696229 -0.21778885 2.2088039 6513507
-0.65281308 -0.17500858 2.2351019 6513507
-0.64707613 -0.17481039 2.2091925 6513507
-0.65294653 -0.12503146 2.2355587 6513507
-0.64720684 -0.12541267 2.2096391 6513507
-0.65308005 -0.075033888 2.2360158 6513507
-0.64734024 -0.075079583 2.2100937 6513507
-0.6532138 -0.025015844 2.2364738 6513507
-0.64747357 -0.02472588 2.2105494 6513507
-0.65334737 0.025022672 2.2369311 6513507
-0.64760447 0.024732545 2.2109964 6513507
-0.65348107 0.075081676 2.2373893 8947848
-0.64773798 0.075127497 2.211452 9013641
-0.65356535 0.10661001 2.2376776 10197915
-0.62977427 0.11199428 2.2200134 10197915
-0.57557327 0.11327309 2.2228968 10197915
-0.52510041 0.11331147 2.2236497 10197915
-0.47459376 0.11334988 2.2244036 10197915
-0.42497173 0.11338764 2.2251439 10197915
-0.3753168 0.11342538 2.2258852 3881787
-0.33207223 0.11345829 2.2265306 2894892
-0.66157883 -0.21768914 2.2748134 6513507
-0.66163802 -0.17484872 2.2749557 6513507
-0.6617732 -0.12491027 2.2754207 6513507
-0.66202164 -0.074962631 2.2763975 6513507
-0.66204351 -0.024996445 2.27635 6513507
-0.6621787 0.025003253 2.2768154 6513507
-0.66242778 0.075010322 2.2777941 8882055
-0.65948129 0.109769 2.2790632 10197915
-0.62480193 0.11317179 2.2769439 10197915
-0.57501769 0.11321046 2.2770057 10197915
-0.52518648 0.11324839 2.2777677 10197915
-0.47485802 0.11328619 2.2788868 10197915
-0.42449227 0.11332486 2.2793067 9671571
-0.3750405 0.11336202 2.2804129 2894892
-0.33580667 0.11339398 2.2792151 2894892
-0.67381597 -0.21771026 2.3300779 6513507
-0.67401969 -0.17477641 2.330873 6513507
-0.67415804 -0.12458801 2.3313513 6513507
-0.67423338 -0.074865393 2.3315456 6513507
-0.67443246 -0.02512149 2.3322999 6513507
-0.6745711 0.025128372 2.3327794 6513507
-0.67464632 0.074912913 2.3329742 8750469
-0.66865122 0.10958307 2.3332186 10197915
-0.6244989 0.11310608 2.3334455 10197915
-0.5744226 0.11314411 2.3342304 10197915
-0.52431262 0.11318218 2.3350155 10197915
-0.47416893 0.11322028 2.3358016 10197915
-0.42495698 0.11325765 2.3365731 8355711
-0.3757121 0.11329507 2.3373442 2894892
-0.33996642 0.11332223 2.3379045 2894892
-0.68352407 -0.21833386 2.3739223 6513507
-0.68364501 -0.17509094 2.3743424 6513507
-0.68378532 -0.12494987 2.3748302 6513507
-0.68392563 -0.074788094 2.3753181 6513507
-0.684066 -0.024605865 2.3758049 6513507
-0.68420362 0.02461247 2.3762832 6513507
-0.68434423 0.074835651 2.3767717 8618883
-0.67180765 0.11128744 2.3736007 10197915
-0.62526536 0.11305927 2.3730443 10197915
-0.57531905 0.11309718 2.3738403 10197915
-0.52533901 0.11313511 2.3746371 10197915
-0.4753257 0.1131731 2.3754339 10197915
-0.42527848 0.11321109 2.3762317 7303023
-0.37519792 0.11324913 2.3770301 2894892
-0.34277603 0.11327374 2.3775465 2894892
-0.69346595 -0.21798484 2.4188201 6513507
-0.69368142 -0.17441717 2.419667 6513507
-0.69375277 -0.12481905 2.4198439 6513507
-0.69396317 -0.07521259 2.4206488 6513507
-0.69410521 -0.025075434 2.4211457 6513507
-0.6942479 0.025082292 2.4216421 6513507
-0.69439012 0.075260594 2.4221392 8553090
-0.67979187 0.11064029 2.4163373 10197915
-0.62506258 0.11301155 2.4140265 10197915
-0.57524985 0.11304937 2.414834 10197915
-0.52540374 0.11308718 2.415642 10197915
-0.47552425 0.11312504 2.4164512 10197915
-0.42561141 0.11316295 2.4172599 6316128
-0.3756651 0.11320086 2.4180696 2894892
-0.34568262 0.1132236 2.4185557 2894892
-0.70741242 -0.21852243 2.4818068 6513507
-0.70764136 -0.17484728 2.4827123 6513507
-0.70778704 -0.12447364 2.4832244 6513507
-0.70713574 -0.077835523 2.4801464 6513507
-0.70449328 -0.024538862 2.4680579 6513507
-0.70463485 0.024545429 2.4685533 6513507
-0.70477927 0.074672706 2.4690588 8421504
-0.70511997 0.10987498 2.4819708 10132122
-0.67482293 0.1128993 2.4771404 10197915
-0.6258347 0.11295952 2.4581923 10197915
-0.57517886 0.11300003 2.4572713 10197915
-0.52445638 0.1130385 2.4581079 10197915
-0.47471514 0.11307624 2.4589283 10197915
-0.42494026 0.11311398 2.4597497 5131854
-0.37513247 0.11315179 2.4605713 2894892
-0.34869158 0.11317183 2.4610076 2894892
-0.71844691 -0.21815567 2.5316386 6513507
-0.71857625 -0.17413591 2.5320947 6513507
-0.71872133 -0.12485737 2.5326049 6513507
-0.7170403 -0.071169607 2.5248568 6513507
-0.7153365 -0.025025733 2.5170276 6513507
-0.71548295 0.025032567 2.5175431 6513507
-0.7156294 0.075111382 2.5180585 8355711
-0.7133432 0.10931694 2.530236 10132122
-0.67480975 0.11282 2.5450714 10197915
-0.62452072 0.11288413 2.5236468 10197915
-0.5750677 0.11292329 2.5230515 10197915
-0.52506006 0.11296011 2.5248477 10197915
-0.47501084 0.11299805 2.525696 10132122
-0.42492798 0.11303601 2.5265446 3421236
-0.38002813 0.11308565 2.5139363 2894892
-0.72599649 -0.21790478 2.5657327 6513507
-0.72612268 -0.17541683 2.5661788 6513507
-0.72627115 -0.12547493 2.5667031 6513507
-0.72641963 -0.075512782 2.5672276 6513507
-0.72656798 -0.025530055 2.5677526 6513507
-0.72671664 0.024472972 2.5682776 6513507
-0.72686535 0.074496597 2.5688031 8224125
-0.71922141 0.11093437 2.5851552 10132122
-0.67551076 0.11276436 2.5922694 10197915
-0.62524623 0.11280242 2.5931447 10197915
-0.57494801 0.11284053 2.5940206 10197915
-0.52568692 0.11287784 2.5948787 10197915
-0.47532108 0.11291599 2.5957556 8882055
-0.42492157 0.1129542 2.5966337 2894892
-0.37853852 0.11301408 2.5762348 2894892
-0.85442066 -0.42197615 2.6220798 6513507
-0.825454 -0.41825038 2.6284988 5395026
-0.77569944 -0.41830918 2.6395168 8750469
-0.74651068 -0.41765136 2.6459799 8684676
-0.81870741 -0.37918517 2.6300454 4473924
-0.77532709 -0.37509724 2.6396561 6513507
-0.7465257 -0.37490726 2.6460335 6513507
-0.80669016 -0.3412084 2.6327569 4671303
-0.7735157 -0.32635009 2.6401224 6513507
-0.74654317 -0.32558498 2.6460962 6513507
-0.76149374 -0.28193995 2.6428447 6513507
-0.74656111 -0.27516422 2.6461594 6513507
-0.75069672 -0.24877103 2.6452794 6513507
-0.74001044 -0.22601144 2.6261404 6513507
-0.73786312 -0.17577855 2.6192017 6513507
-0.73793077 -0.12534398 2.6193588 6513507
-0.73816788 -0.074902236 2.6202824 6513507
-0.73831862 -0.024971951 2.6208189 6513507
-0.7384696 0.024978746 2.6213543 6513507
-0.73862034 0.074949853 2.6218896 8158332
-0.7277863 0.11026879 2.6333954 10132122
-0.67514968 0.11270756 2.641274 10197915
-0.62502462 0.11274552 2.6421633 10197915
-0.574866 0.11278348 2.6430535 10197915
-0.52467334 0.1128215 2.6439438 10197915
-0.47444692 0.11285952 2.6448352 7566195
-0.42418662 0.11289757 2.6457272 2894892
-0.38592339 0.11292655 2.6464059 2894892
-0.74929899 -0.41836733 2.6715546 8158332
-0.74943113 -0.37526816 2.6720257 6513507
-0.749587 -0.32441419 2.6725821 6513507
-0.74973959 -0.27464524 2.6731253 6513507
-0.74989253 -0.22485611 2.673671 6513507
-0.75005919 -0.17061852 2.6742654 6513507
-0.74998438 -0.19497375 2.6739986 6513507
-0.75019854 -0.12521687 2.674762 6513507
-0.75035149 -0.075366855 2.6753073 6513507
-0.75050467 -0.025496319 2.6758533 6513507
-0.75066119 0.025503404 2.6764112 6513507
-0.75081444 0.075414956 2.6769578 8026746
-0.75101894 0.10800808 2.6806679 10132122
-0.72472072 0.11261063 2.6912603 10197915
-0.67477381 0.11264843 2.6921635 10197915
-0.62479377 0.11268625 2.6930673 10197915
-0.57477987 0.11272412 2.6939721 10197915
-0.52473265 0.11276198 2.6948771 10197915
-0.47465152 0.11279991 2.6957829 6250335
-0.42453697 0.11283781 2.6966891 2894892
-0.38999504 0.11286395 2.697314 2894892
-0.76204979 -0.41832373 2.7291391 6908265
-0.76218361 -0.37542459 2.7296183 6513507
-0.76223612 -0.32628739 2.7297118 6513507
-0.75816238 -0.27518398 2.7111659 6513507
-0.75831968 -0.22468647 2.7117281 6513507
-0.7584728 -0.17529063 2.7122755 6513507
-0.75862968 -0.12475152 2.7128363 6513507
-0.75878644 -0.074191622 2.7133975 6513507
-0.7589401 -0.024734991 2.7139463 6513507
-0.75909364 0.024741661 2.7144957 6513507
-0.75924724 0.074238338 2.7150452 7895160
-0.75868213 0.10939546 2.7305331 10132122
-0.7253111 0.11254847 2.7441134 10197915
-0.67551547 0.11258614 2.7450316 10197915
-0.62568659 0.11262383 2.7459509 10197915
-0.57582432 0.11266155 2.7468698 10197915
-0.52592862 0.11269929 2.7477901 10197915
-0.47599947 0.11273705 2.7487106 5131854
-0.42830887 0.11277312 2.7495904 2894892
-0.77529776 -0.41826749 2.7889686 6513507
-0.77543682 -0.37442768 2.7894685 6513507
-0.77519226 -0.32376072 2.7882168 6513507
-0.77129054 -0.2754463 2.7704542 6513507
-0.77144998 -0.2249911 2.7710268 6513507
-0.77150351 -0.17510329 2.7711236 6513507
-0.77176481 -0.12517422 2.7721586 6513507
-0.77181894 -0.075235918 2.7722559 6513507
-0.77208036 -0.025275845 2.7732916 6513507
-0.7722401 0.025282806 2.7738652 6513507
-0.77229398 0.075283907 2.7739627 7829367
-0.76765484 0.10953482 2.7879775 10132122
-0.7247712 0.11248468 2.7991059 10197915
-0.68898922 0.11251175 2.7997792 10197915
-0.40331692 0.11279202 2.7500513 2894892
-0.39422634 0.1127989 2.7502191 2894892
-0.78447801 -0.41862237 2.8304291 6513507
-0.78461725 -0.37530184 2.8309309 6513507
-0.78477931 -0.32493767 2.8315158 6513507
-0.78493756 -0.27572465 2.8320873 6513507
-0.7850998 -0.22531919 2.8326721 6513507
-0.78526187 -0.17489307 2.833257 6513507
-0.78542012 -0.12561943 2.833828 6513507
-0.7855823 -0.075151972 2.8344138 6513507
-0.78574461 -0.0246638 2.8349986 6513507
-0.7859031 0.024670433 2.8355708 6513507
-0.78606552 0.075199999 2.8361566 7697781
-0.7861675 0.10693763 2.8365245 10197915
-0.66358417 0.11253095 2.8002567 10197915
-0.624304 0.11256065 2.8009958 10197915
-0.57459784 0.11259823 2.8019307 10197915
-0.52485824 0.11263582 2.8028665 10197915
-0.47508571 0.11267345 2.8038025 3487029
-0.42527962 0.11271109 2.8047397 2894892
-0.39746788 0.11273211 2.8052626 2894892
-0.77012372 0.11238378 2.8554702 10197915
-0.72538787 0.11241757 2.8563287 10197915
-0.67591208 0.11245495 2.8572786 10197915
-0.62522417 0.11249325 2.8582516 9803157
-0.57450187 0.11253156 2.859225 6579300
-0.52492571 0.11256903 2.8601768 6908265
-0.47531664 0.1126065 2.861129 2894892
-0.42685685 0.11264311 2.8620591 2894892
-0.80292982 0.11228943 2.9144294 10197915
-0.77410036 0.11231119 2.914994 10197915
-0.72482705 0.11234839 2.9159598 10197915
-0.67552072 0.1123856 2.9169261 10197915
-0.62497818 0.11242379 2.9179165 8750469
-0.57440108 0.11246195 2.9189074 6579300
-0.52499527 0.11249928 2.9198756 5395026
-0.47555646 0.1125366 2.9208446 2894892
-0.43091345 0.11257032 2.9217193 2894892
-0.55856526 -0.41830495 2.9961314 6513507
-0.54544383 -0.41871211 2.9990478 6513507
-0.55857551 -0.37486774 2.9961867 6513507
-0.54545414 -0.37523276 2.9991035 6513507
-0.55858767 -0.32522339 2.9962506 6513507
-0.54546571 -0.32553998 2.9991674 6513507
-0.55859935 -0.27557689 2.996314 6513507
-0.54547733 -0.27584508 2.9992318 6513507
-0.55861127 -0.22592814 2.9963779 6513507
-0.54548925 -0.2249056 2.9992974 6513507
-0.55862349 -0.17503603 2.9964437 6513507
-0.54550111 -0.17396393 2.9993625 6513507
-0.55863571 -0.12414168 2.9965098 6513507
-0.5455128 -0.12426257 2.9994271 6513507
-0.55864775 -0.074486576 2.996573 6513507
-0.54646856 -0.076027945 2.999279 6513507
-0.55865955 -0.024829332 2.9966369 6513507
-0.54673046 -0.024851304 2.9992893 6513507
-0.55867153 0.024830041 2.9967008 6513507
-0.54674226 0.024852011 2.9993529 6513507
-0.5586834 0.074491531 2.9967649 6513507
-0.54675382 0.074557446 2.9994178 6513507
-0.81136811 0.11221053 2.9763899 10197915
-0.77456623 0.11223827 2.9771264 10197915
-0.72547013 0.11227534 2.9781091 10197915
-0.67511278 0.11231334 2.9791167 10197915
-0.62472153 0.11235136 2.9801252 7566195
-0.56430268 0.10781678 2.9915731 6513507
-0.53206551 0.1102323 2.9877121 5197647
-0.47457474 0.11246464 2.9831307 2894892
-0.43514267 0.1124944 2.9839194 2894892
-0.52136791 -0.41930434 3.0044 3815994
-0.4758848 -0.418437 3.0145128 2894892
-0.43831417 -0.41953269 3.0228643 2894892
-0.52141291 -0.37538204 3.0044482 3815994
-0.47581729 -0.37467206 3.0145862 2894892
-0.43832245 -0.37570807 3.022922 2894892
-0.52148741 -0.32516351 3.0044992 3815994
-0.47582737 -0.32472277 3.0146515 2894892
-0.43833199 -0.32562056 3.0229859 2894892
-0.52160937 -0.27479911 3.00454 3815994
-0.47583765 -0.27477136 3.0147157 2894892
-0.43834123 -0.27553111 3.0230529 2894892
-0.52173239 -0.22436056 3.00458 3881787
-0.47584778 -0.22481766 3.0147803 2894892
-0.43835068 -0.22543935 3.0231178 2894892
-0.52156281 -0.17427266 3.0046847 3815994
-0.47585821 -0.17486198 3.0148458 2894892
-0.43836004 -0.17534547 3.023181 2894892
-0.52157384 -0.12448306 3.0047488 3815994
-0.47586849 -0.12490398 3.014909 2894892
-0.4383696 -0.12524934 3.0232468 2894892
-0.52261132 -0.07450822 3.0045853 3947580
-0.47587869 -0.074943982 3.0149751 2894892
-0.43837899 -0.075151227 3.0233111 2894892
-0.52254295 -0.024676632 3.0046673 3947580
-0.47565687 -0.025174055 3.0150895 2894892
-0.43838847 -0.025050886 3.0233767 2894892
-0.57993859 0.035377111 3.0497684 6513507
-0.52160484 0.024898326 3.0049427 3881787
-0.47469375 0.024984732 3.0153718 2894892
-0.43839777 0.025051601 3.0234416 2894892
-0.57981479 0.07579165 3.0491178 6513507
-0.52161562 0.074696362 3.0050058 3881787
-0.47470382 0.074955672 3.0154371 2894892
-0.43840712 0.075156234 3.0235071 2894892
-0.82017273 0.1121282 3.0410426 10197915
-0.77505225 0.11216221 3.0419648 10197915
-0.7261411 0.11219911 3.0429654 10197915
-0.67594248 0.11223696 3.0439916 10197915
-0.62571001 0.11227483 3.0450191 6447714
-0.5863331 0.11039171 3.0466456 6513507
-0.52162278 0.10582117 3.0050471 3947580
-0.47471017 0.10618849 3.0154769 2894892
-0.43841317 0.10647266 3.0235476 2894892
-0.5813303 -0.41921702 3.0570877 6513507
-0.58119434 -0.37480187 3.0563731 6513507
-0.58104312 -0.32533455 3.0555775 6513507
-0.58089191 -0.27589315 3.0547822 6513507
-0.58073676 -0.22521059 3.0539665 6513507
-0.58058155 -0.17455503 3.0531499 6513507
-0.58043039 -0.12519188 3.0523548 6513507
-0.58027923 -0.075854614 3.0515602 6513507
-0.58012444 -0.02527887 3.0507457 6513507
-0.58001596 0.010109033 3.0501757 6513507
-0.59929639 -0.41859812 3.1378942 6513507
-0.59916091 -0.37561387 3.1371849 6513507
-0.59900075 -0.32483888 3.1363463 6513507
-0.59884089 -0.27409095 3.1355095 6513507
-0.59868479 -0.22467016 3.134692 6513507
-0.59852868 -0.17527521 3.1338747 6513507
-0.59837282 -0.12590596 3.1330583 6513507
-0.59821302 -0.075264417 3.1322217 6513507
-0.59805316 -0.024649678 3.1313846 6513507
-0.59789741 0.02464113 3.1305697 6513507
-0.59773779 0.075202271 3.1297336 6513507
-0.85497946 0.11202292 3.1080303 10197915
-0.82552654 0.11204514 3.1086466 10197915
-0.77555966 0.11208278 3.1096904 10197915
-0.72555971 0.11212044 3.1107361 10197915
-0.67552572 0.11215814 3.1117823 8816262
-0.6254583 0.11219586 3.1128283 6513507
-0.59745198 0.10883856 3.122448 6513507
-0.86517411 0.1119328 3.178601 10197915
-0.82588565 0.11196236 3.1794407 10197915
-0.77609175 0.11199986 3.1805055 10197915
-0.72495246 0.11203836 3.1815989 10197915
-0.67377859 0.11207691 3.1826928 7434609
-0.62913686 0.1121105 3.1836476 6513507
-0.61824238 -0.41928381 3.2231121 6513507
-0.6180988 -0.37513232 3.2223632 6513507
-0.61793345 -0.32431611 3.2215014 6513507
-0.61777198 -0.27486289 3.2206597 6513507
-0.61761075 -0.22543569 3.2198191 6513507
-0.61744535 -0.17469949 3.2189567 6513507
-0.61728454 -0.12532443 3.2181182 6513507
-0.61712378 -0.075975336 3.2172801 6513507
-0.61695874 -0.025319088 3.2164199 6513507
-0.61679381 0.025310067 3.21556 6513507
-0.61662894 0.075912163 3.2147007 6513507
-0.61652935 0.10652769 3.2141809 6513507
-0.87450099 0.11183931 3.2524748 10197915
-0.82491994 0.11187659 3.2535591 10197915
-0.77530581 0.11191392 3.2546451 10197915
-0.72431642 0.11195228 3.2557607 10197915
-0.67463517 0.11198965 3.2568476 6052956
-0.63836139 0.11201695 3.2576416 6513507
-0.63824612 -0.42000785 3.313087 6513507
-0.63809848 -0.37599885 3.3123202 6513507
-0.63792729 -0.32513836 3.3114321 6513507
-0.63775623 -0.27430481 3.310544 6513507
-0.63758963 -0.22487143 3.3096795 6513507
-0.6374234 -0.17546386 3.3088164 6513507
-0.63725281 -0.12471086 3.3079305 6513507
-0.63708222 -0.073984809 3.307045 6513507
-0.63691622 -0.024655892 3.3061838 6513507
-0.63675046 0.024647336 3.3053226 6513507
-0.63658017 0.075293243 3.3044388 6513507
-0.91032523 0.11172177 3.3292801 10197915
-0.87467271 0.11174856 3.3300791 10197915
-0.82528067 0.11178569 3.3311856 10197915
-0.77585602 0.11182284 3.3322926 10197915
-0.72502393 0.11186108 3.3334315 8421504
-0.67415738 0.11189929 3.3345711 6513507
-0.63986588 0.10848226 3.3143227 6513507
-0.65778482 0.043664433 3.3998876 6513507
-0.65767235 0.076046638 3.3993061 6513507
-0.65756476 0.10701264 3.3987503 6513507
-0.65939289 -0.41935751 3.4081993 6513507
-0.65924078 -0.37550014 3.407413 6513507
-0.65906364 -0.32459357 3.406498 6513507
-0.65889168 -0.27512714 3.4056087 6513507
-0.65872049 -0.22568692 3.4047236 6513507
-0.65854412 -0.17486081 3.4038119 6513507
-0.65836769 -0.12406185 3.4029002 6513507
-0.65819597 -0.074699916 3.4020128 6513507
-0.65802443 -0.025363954 3.4011261 6513507
-0.6578728 0.018312789 3.4003425 6513507
-0.92120552 0.11161859 3.4104137 10197915
-0.8748526 0.11165339 3.4114771 10197915
-0.82565898 0.11169036 3.4126065 10197915
-0.77502578 0.11172838 3.4137678 10197915
-0.72435832 0.11176644 3.4149311 6842472
-0.68070096 0.11179924 3.4159329 6513507
-0.66268313 -0.61937368 3.4849219 6513507
-0.6253925 -0.61892891 3.4932134 5197647
-0.5973106 -0.61905736 3.4994571 2894892
-0.6625188 -0.57525402 3.4850173 6513507
-0.62539631 -0.5747993 3.4932716 5197647
-0.59732014 -0.57557321 3.4995129 2894892
-0.66347009 -0.52646804 3.4848714 6513507
-0.62520432 -0.52969849 3.4933758 5197647
-0.59733009 -0.53063792 3.4995716 2894892
-0.6709013 -0.4808096 3.4832804 6513507
-0.67380267 -0.44872081 3.4826789 6513507
-0.67999578 0.081192993 3.4997008 6513507
-0.95853305 0.11149102 3.4949963 10197915
-0.92543542 0.11151585 3.495775 10197915
-0.87504274 0.11155365 3.4969602 10197915
-0.82461643 0.1115915 3.4981465 10197915
-0.77559787 0.11162831 3.4993 9868950
-0.74819237 0.11164887 3.4999447 2894892
-0.67990732 0.10582769 3.4992454 6513507
-0.68250889 -0.61847889 3.5126357 6513507
-0.5718534 -0.61949652 3.5051162 2894892
-0.52432823 -0.61901498 3.5156832 2894892
-0.49751058 -0.62006438 3.5216446 2894892
-0.68235171 -0.57468951 3.511826 6513507
-0.57216209 -0.57495207 3.5051076 2894892
-0.52433646 -0.57532901 3.5157394 2894892
-0.49751881 -0.57484567 3.5217035 2894892
-0.68217349 -0.52508551 3.5109088 6513507
-0.57209283 -0.52939785 3.5051842 2894892
-0.52434528 -0.5301854 3.5157986 2894892
-0.49752715 -0.52962565 3.5217624 2894892
-0.68199533 -0.47550741 3.5099921 6513507
-0.68181705 -0.42595506 3.5090752 6513507
-0.68163395 -0.37497252 3.5081322 6513507
-0.68145072 -0.32401714 3.5071893 6513507
-0.68127298 -0.27454388 3.5062742 6513507
-0.68109584 -0.22509672 3.505363 6513507
-0.68091851 -0.17567515 3.5044503 6513507
-0.68073583 -0.12482694 3.5035093 6513507
-0.68055296 -0.074005753 3.5025687 6513507
-0.68037575 -0.024662873 3.5016572 6513507
-0.68019879 0.024654327 3.5007458 6513507
-0.68008423 0.056552749 3.5001564 6513507
-0.72221744 0.11166836 3.5005553 6118749
-0.6904605 0.11169217 3.501302 6513507
-0.97120351 0.11137667 3.584516 10197915
-0.92545229 0.11141095 3.5856197 10197915
-0.87524158 0.1114486 3.5868316 10197915
-0.82499701 0.11148627 3.5880437 10197915
-0.77471846 0.11152396 3.5892572 7434609
-0.72440577 0.11156169 3.5904708 6513507
-0.70630211 -0.61932719 3.6196554 6513507
-0.70613444 -0.57420391 3.6187959 6513507
-0.7059499 -0.52459228 3.6178501 6513507
-0.7057656 -0.47500682 3.6169055 6513507
-0.70558113 -0.42544696 3.6159604 6513507
-0.70539683 -0.37591323 3.6150165 6513507
-0.70520711 -0.32490548 3.614044 6513507
-0.70502311 -0.27542406 3.6131003 6513507
-0.70483893 -0.22596863 3.6121566 6513507
-0.70464975 -0.17504154 3.6111877 6513507
-0.70446104 -0.12414182 3.6102202 6513507
-0.70427758 -0.074765079 3.6092799 6513507
-0.70409429 -0.025414301 3.6083403 6513507
-0.70390546 0.025405221 3.6073725 6513507
-0.70372218 0.074704126 3.6064339 6513507
-0.70361125 0.10457063 3.605865 6513507
-1.0087622 0.11123816 3.6781423 10197915
-0.97545606 0.1112631 3.6789672 10197915
-0.92546999 0.11130054 3.6802046 10197915
-0.87545091 0.11133799 3.6814432 10197915
-0.82539767 0.11137549 3.6826835 10197915
-0.77531111 0.11141301 3.683924 5789784
-0.73582584 0.11144257 3.6849017 6513507
-0.73158461 -0.6186769 3.7333708 6513507
-0.73141795 -0.57523888 3.7325196 6513507
-0.73122716 -0.52561891 3.7315454 6513507
-0.73103619 -0.47602457 3.730571 6513507
-0.73083925 -0.42490768 3.7295656 6513507
-0.73064232 -0.37381807 3.7285614 6513507
-0.73045152 -0.32430303 3.7275877 6513507
-0.73026091 -0.27481383 3.7266147 6513507
-0.73006922 -0.22535014 3.7256367 6513507
-0.72987813 -0.1759125 3.7246616 6513507
-0.72968209 -0.12495732 3.7236612 6513507
-0.72948611 -0.074029252 3.722661 6513507
-0.72929609 -0.0246707 3.7216918 6513507
-0.72910619 0.024662148 3.7207224 6513507
-0.72891641 0.073969319 3.7197542 6513507
-0.72879797 0.10477427 3.7191491 6513507
-1.021916 0.111112 3.7774627 7500402
-0.97371811 0.11114804 3.7786882 8355711
-0.92393279 0.1111853 3.7799549 8421504
-0.87411404 0.11122257 3.7812221 9211020
-0.82426196 0.11125987 3.7824903 7171437
-0.77437621 0.11129719 3.7837589 6513507
-0.74630243 0.11131822 3.7844739 6513507
-1.0613554 0.11095992 3.8816345 6579300
-1.0246214 0.11098737 3.8825948 6579300
-0.97508228 0.1110244 3.8838904 6579300
-0.92551082 0.11106145 3.885186 6579300
-0.87590563 0.11109852 3.8864832 6579300
-0.8246659 0.11113683 3.8878231 5395026
-0.78140551 0.11116914 3.8889534 6513507
-1.0641999 -0.56930089 3.9038832 6513507
-1.024368 -0.57007921 3.9127383 6513507
-0.97530001 -0.56893218 3.9236486 6513507
-0.92606491 -0.57012397 3.9345925 6513507
-0.87927902 -0.56875873 3.9449964 6513507
-1.0640546 -0.52530456 3.9039748 6513507
-1.0247068 -0.52491355 3.9127223 6513507
-0.9753142 -0.52505046 3.9237046 6513507
-0.92573529 -0.52508891 3.934727 6513507
-0.87929142 -0.52463847 3.9450536 6513507
-1.0643871 -0.47519857 3.9039681 6513507
-1.0244871 -0.47496548 3.9128392 6513507
-0.97503686 -0.47506085 3.9238324 6513507
-0.92614633 -0.47468075 3.9347026 6513507
-0.87930542 -0.47561443 3.9451153 6513507
-1.0642495 -0.4253782 3.9040661 6513507
-1.0243345 -0.42491519 3.9129395 6513507
-0.97564876 -0.42469916 3.9237633 6513507
-0.92591268 -0.42546889 3.9348207 6513507
-0.87922919 -0.42506644 3.9451995 6513507
-1.0642669 -0.37524459 3.9041286 6513507
-1.0246969 -0.37468326 3.9129252 6513507
-0.97536141 -0.37551874 3.9238944 6513507
-0.925928 -0.37494022 3.9348845 6513507
-0.87942982 -0.37441477 3.9452229 6513507
-1.0642838 -0.32510945 3.9041908 6513507
-1.0241628 -0.32521898 3.9131117 6513507
-0.97537732 -0.3251296 3.9239576 6513507
-0.92594284 -0.32441014 3.9349482 6513507
-0.8793481 -0.32526413 3.9453075 6513507
-1.0643015 -0.27497253 3.9042554 6513507
-1.0249208 -0.2750051 3.9130101 6513507
-0.97539318 -0.27473891 3.9240205 6513507
-0.9259575 -0.27550849 3.9350114 6513507
-0.87904227 -0.27516353 3.9454422 6513507
-1.0643188 -0.22483416 3.9043193 6513507
-1.0245696 -0.22534308 3.9131546 6513507
-0.97501582 -0.22523971 3.9241719 6513507
-0.92597246 -0.22497506 3.9350753 6513507
-0.87970275 -0.22453649 3.9453645 6513507
-1.0643361 -0.17469412 3.904382 6513507
-1.0245863 -0.17508948 3.9132195 6513507
-0.97581476 -0.17488858 3.9240625 6513507
-0.9259876 -0.17444006 3.9351401 6513507
-0.88019341 -0.17534503 3.9453194 6513507
-1.0643533 -0.12455244 3.9044454 6513507
-1.0246029 -0.12483434 3.9132814 6513507
-0.97544014 -0.125183 3.9242122 6513507
-0.92600226 -0.12553363 3.9352021 6513507
-0.88096303 -0.12585308 3.9452152 6513507
-1.0643704 -0.074409142 3.9045091 6513507
-1.0246197 -0.07457751 3.9133458 6513507
-0.97545618 -0.074785821 3.9242759 6513507
-0.9260177 -0.074995279 3.9352663 6513507
-0.88097769 -0.075186104 3.9452786 6513507
-1.0643878 -0.024264202 3.904572 6513507
-1.0246361 -0.024319112 3.913409 6513507
-0.97547203 -0.024387041 3.9243388 6513507
-0.92603213 -0.024455335 3.9353309 6513507
-0.88099241 -0.024517566 3.9453435 6513507
-1.0644045 0.024264708 3.904633 6513507
-1.0246522 0.02431963 3.913471 6513507
-0.97548729 0.024387546 3.9244015 6513507
-0.92604786 0.024455851 3.9353929 6513507
-0.88100576 0.024518082 3.9454067 6513507
-1.0644214 0.074412867 3.9046967 6513507
-1.0246689 0.074581295 3.9135344 6513507
-0.97550333 0.074789546 3.9244657 6513507
-0.92606246 0.074999064 3.9354575 6513507
-0.88102067 0.075189896 3.9454706 6513507
-1.0644321 0.10514953 3.9047346 6513507
-1.0246792 0.10538754 3.9135733 6513507
-0.97551316 0.1056819 3.924504 6513507
-0.92607158 0.1059779 3.9354966 6513507
-0.88102955 0.10624757 3.9455109 6513507
-0.85433728 -0.56955826 3.9505408 5921370
-0.82657266 -0.57006395 3.9567125 5723991
-0.78996527 -0.5685541 3.964853 6513507
-0.85434943 -0.52537584 3.9505963 6052956
-0.82578003 -0.52537388 3.956948 5460819
-0.79017919 -0.5242359 3.9648645 6513507
-0.85436344 -0.47464636 3.9506621 6052956
-0.82660258 -0.47459418 3.9568331 5395026
-0.79010302 -0.47472015 3.9649482 6513507
-0.85437745 -0.42391527 3.950726 6052956
-0.82621115 -0.42458695 3.9569871 5395026
-0.79011571 -0.425448 3.9650106 6513507
-0.85439098 -0.37481907 3.9507892 6052956
-0.82622439 -0.37541303 3.9570496 5395026
-0.78998125 -0.37568599 3.9651072 6513507
-0.85440469 -0.32572126 3.9508517 6052956
-0.82583362 -0.32539821 3.9572041 5460819
-0.79028434 -0.32480577 3.9651084 6513507
-0.85441864 -0.27498525 3.9509165 6052956
-0.82665569 -0.2746211 3.9570889 5395026
-0.79015392 -0.27433693 3.9652045 6513507
-0.8544327 -0.22424762 3.9509816 6052956
-0.82626492 -0.22460301 3.9572427 5395026
-0.79016674 -0.22505853 3.9652674 6513507
-0.85543299 -0.1727239 3.9508286 6118749
-0.82627779 -0.17542267 3.9573069 5395026
-0.79017931 -0.1757784 3.9653316 6513507
-0.85602129 -0.12602988 3.9507596 6184542
