# .PCD v0.7 - Point Cloud Data file format
VERSION 0.7
FIELDS x y z rgb
SIZE 4 4 4 4
TYPE F F F U
COUNT 1 1 1 1
WIDTH 1164
HEIGHT 1
VIEWPOINT 0 0 0 1 0 0 0
POINTS 1164
DATA ascii
0.066896178 -0.3709273 1.3816396 8803928
0.54900473 -0.35064289 1.3563923 3499673
0.55689341 -0.3551999 1.3642167 2840967
-0.9241367 -0.32513738 1.3969533 2111568
0.08544451 -0.32964972 1.3806432 2503498
0.10935004 -0.31399497 1.3777817 6638163
0.39769608 -0.30149201 1.3516629 2039583
0.40943661 -0.30505139 1.3505846 2039583
0.48509559 -0.30978683 1.3664345 2039583
0.52361357 -0.33417177 1.3648387 5202292
-0.92361051 -0.27512163 1.3970444 1848655
0.0971279 -0.29509401 1.3818513 9197913
0.12450997 -0.27450541 1.3771286 6906736
0.15294789 -0.2546041 1.3740406 1585482
0.33788389 -0.2572237 1.3572507 8685192
0.37796834 -0.27020958 1.3537924 1388102
0.41021815 -0.27940515 1.3535153 1649212
0.46009621 -0.29392713 1.3680876 2039583
-0.92323464 -0.22512703 1.3971611 1585997
0.1407235 -0.23442371 1.3770589 3032412
0.16388313 -0.2195491 1.3734781 1844783
0.29828086 -0.21952417 1.3609805 9671829
0.32273141 -0.22764194 1.3594719 7566195
0.36385566 -0.24102806 1.357829 1908771
-0.923015 -0.17529601 1.3972219 1256264
0.18189496 -0.17826556 1.3729954 1974047
0.21328838 -0.16813396 1.368879 2631720
0.2982493 -0.19565395 1.3613764 1322828
0.30505913 -0.19723278 1.3690372 4609640
1.042145 -0.16139767 1.3742692 6513507
1.0538172 -0.17806347 1.3881726 6513507
-0.9226687 -0.12489095 1.3972498 1322827
0.13918175 -0.10753611 1.3758222 2045775
0.17540653 -0.12547544 1.3732866 1780541
0.21001822 -0.14202893 1.3714504 5461335
1.0367261 -0.13757868 1.3740138 6513507
1.0629338 -0.11939207 1.3828262 6513507
-0.92220306 -0.074770801 1.397348 1191241
0.046457332 -0.053185318 1.3844328 2039583
0.078547016 -0.065284804 1.3817357 2039583
0.11927766 -0.087553993 1.3784682 2108215
0.15164356 -0.098773293 1.3827699 2768468
-0.9217602 -0.024979265 1.3974482 1125192
-0.013791908 -0.0087869512 1.3900881 2039583
0.024444375 -0.029206622 1.3867098 2039583
0.059158519 -0.044804592 1.3842779 2039583
-0.92128664 0.024767512 1.3975443 1125191
-0.10626145 0.045566898 1.3986479 1974047
-0.072831891 0.03131 1.3955858 2039583
-0.033647988 0.010023192 1.3920894 2039583
-0.9208107 0.074526757 1.3976403 5464174
-0.11138545 0.059058215 1.3991674 7172729
-0.093765803 0.053492922 1.3975626 7829367
-1.1032237 0.10893902 1.3912951 10132122
-1.0705447 0.1090587 1.3750848 10132122
-1.0249039 0.10915705 1.3721966 10132122
-0.9749893 0.10924889 1.3735497 10132122
-0.92266643 0.10649358 1.3874978 10132122
-0.87504321 0.10943478 1.375688 10132122
-0.8247354 0.10952747 1.3770123 10132122
-0.77475989 0.10962053 1.3780581 10132122
-0.72635657 0.10972534 1.3748486 10132122
-0.67490488 0.10982893 1.3736838 10197915
-0.62516248 0.10992151 1.3747351 6316128
-0.57496113 0.11001456 1.375899 6908265
-0.52353257 0.11012839 1.371776 10132122
-0.47512227 0.11022308 1.3714693 10132122
-0.42505398 0.11031606 1.3725864 10132122
-0.37504607 0.11040909 1.3736612 10132122
-0.3250919 0.11050128 1.3749309 10132122
-0.27491578 0.11059488 1.3759332 10132122
-0.22493626 0.110687 1.377238 10132122
-0.17501706 0.11077967 1.3783542 3754849
-0.12657315 0.11088488 1.3750499 3293784
-0.074937105 0.11098895 1.3738478 10132122
-0.024872053 0.11108184 1.3749948 10197915
0.025991451 0.11118084 1.3748168 10132122
0.074954785 0.11128981 1.3707274 10132122
0.12502466 0.11138374 1.3715665 10132122
0.17503798 0.11147584 1.3728979 10132122
0.21282491 0.11154104 1.3751631 10132122
0.29746419 0.1117593 1.3595206 10132122
0.32512519 0.11175562 1.3759289 10132122
0.37477604 0.11184634 1.3774614 10132122
0.42505968 0.11194018 1.3784571 10197915
0.47361767 0.11204532 1.3752432 10197915
0.52507138 0.11214877 1.3741077 9409690
0.57488227 0.11224084 1.3753427 1915485
0.62655497 0.11235224 1.3720624 6976124
0.67498738 0.11245009 1.3708658 10132122
0.72499651 0.11254289 1.3719971 10132122
0.77494246 0.11263546 1.3731654 10132122
0.82497054 0.11272868 1.3741807 10132122
0.8750813 0.11282128 1.3754308 10132122
0.92513216 0.1129147 1.3764075 10132122
0.97497112 0.11300636 1.3777668 10132122
1.0247498 0.11309941 1.3786987 10132122
1.059754 0.1131527 1.3828428 10197915
-1.1175097 -0.61856484 1.424027 3623001
-1.0752753 -0.61719376 1.4178303 4214620
-1.0253572 -0.6155259 1.4105065 4609117
-0.9771859 -0.61397195 1.4034392 3160384
-0.90207094 -0.61657482 1.415139 2039583
-0.89847869 -0.62204039 1.4395155 2039583
0.18930483 -0.60640556 1.4045937 4329231
0.21913783 -0.61654204 1.4166187 4329231
-1.1175202 -0.57501256 1.4241674 3425367
-1.0749996 -0.57501525 1.4179245 4017243
-1.025018 -0.57499188 1.4105861 4477789
-0.97650772 -0.57485694 1.4034636 4082779
-0.902273 -0.57486123 1.4144644 2105893
-0.8985911 -0.57544547 1.4395305 2039583
0.12397886 -0.56503528 1.407555 9132120
0.16407849 -0.59042758 1.4057848 5908263
0.23002002 -0.59854972 1.4264829 4329231
0.33066559 -0.59832501 1.4230828 4329231
0.37499693 -0.59824044 1.4240686 4329231
0.42500946 -0.59814072 1.4238662 4329231
0.4746646 -0.59804404 1.4244665 4329231
0.52495879 -0.59794527 1.4247756 4263695
0.57475805 -0.59784633 1.4245707 3492715
0.62475151 -0.59774631 1.4242992 2440017
0.67531711 -0.59764737 1.4246552 4476505
0.72502506 -0.59755081 1.4252332 6513507
0.77501941 -0.59745109 1.4250259 6513507
0.82499784 -0.59735143 1.4247854 6513507
0.87495935 -0.59725189 1.4245802 6513507
0.92493594 -0.59715199 1.4242517 6513507
0.97496217 -0.59705245 1.4240723 6513507
1.0141009 -0.59697682 1.4246447 6513507
-1.1176114 -0.52497447 1.4243404 3162710
-1.07512 -0.52499557 1.4181025 3688280
-1.0251437 -0.5250321 1.4107645 4148827
-0.97603381 -0.52484262 1.4035537 3885915
-0.90229267 -0.52508759 1.4151583 2702418
-0.89860672 -0.52503204 1.440268 2440018
-0.034470528 -0.5047766 1.4247181 9197913
0.035580792 -0.50903738 1.4118725 9197913
0.073975019 -0.53334552 1.410251 9197913
0.10020593 -0.549667 1.4144738 9197913
-1.1177666 -0.47501269 1.4245226 2900054
-1.0753026 -0.47501025 1.4182885 3425881
-1.0252905 -0.47502789 1.4109457 3754586
-0.9755488 -0.47483021 1.4036437 3491160
-0.90239149 -0.47499856 1.415326 2571346
-0.89870942 -0.47496375 1.4404067 2308432
-0.01607962 -0.47578612 1.4242607 9197913
0.015169607 -0.49403968 1.413847 9197913
-1.1178912 -0.42499375 1.4247024 2637140
-1.0753469 -0.42505786 1.4184546 2965590
-1.0253196 -0.4249326 1.4111105 3294296
-0.97518778 -0.42506424 1.4037495 3228760
-0.90307647 -0.42475662 1.4159772 2505811
-0.89869064 -0.42499876 1.4413729 2177104
-0.00096912897 -0.44923702 1.405229 9197913
0.016478745 -0.4246763 1.424909 9197913
-1.1174288 -0.37495378 1.4247934 2440275
-1.0748878 -0.37499124 1.4185474 2702932
-1.0248495 -0.37505722 1.4112009 2768725
-0.97475445 -0.37497598 1.4038455 2768725
-0.90503097 -0.37482116 1.4155005 2308690
-0.89879197 -0.3749893 1.4415214 2177361
0.041048236 -0.38582918 1.4234958 9197913
0.057053145 -0.36101159 1.4259119 8607063
-1.1174487 -0.32497466 1.4249567 1914190
-1.0749439 -0.32493037 1.4187165 2111312
-1.0249695 -0.32510987 1.4113777 2374482
-0.97485447 -0.32493901 1.40402 2374483
-0.90659869 -0.32469696 1.4156048 1980240
-0.89880985 -0.32545671 1.4422268 1914447
0.079924844 -0.32481241 1.424348 3619405
-1.1177461 -0.2750048 1.4251598 1782605
-1.0745282 -0.27504137 1.4188139 1848398
-1.0244784 -0.27498755 1.4114665 1979984
-0.97499257 -0.27493492 1.4042006 1848654
-0.90820253 -0.27490291 1.4153316 1783118
-0.89887601 -0.27498168 1.4426184 1651020
0.097786717 -0.296231 1.4209999 9197913
0.11381151 -0.27164575 1.4252172 8354683
1.1152271 -0.26900366 1.4382812 6513507
-1.1178212 -0.22497891 1.4253311 1849425
-1.0745403 -0.22496828 1.4189758 1783632
-1.0245278 -0.2250046 1.4116333 1783376
-0.97510296 -0.22501002 1.4043765 1651790
-0.9093982 -0.22467446 1.4153478 1585741
-0.89892256 -0.22564666 1.4431266 1322056
0.13855252 -0.23252979 1.4238107 3166061
0.15472768 -0.20755658 1.4269924 2440017
1.0740937 -0.20265496 1.4432288 6513507
-1.1178814 -0.17496298 1.4254999 1718096
-1.0748997 -0.17498963 1.4191891 1718096
-1.0248126 -0.17493153 1.4118359 1718096
-0.97464097 -0.17503947 1.4044687 1520205
-0.90909928 -0.17477687 1.415584 1322570
-0.89898384 -0.17552447 1.4435534 1520204
0.17516708 -0.17505394 1.4245486 1843752
1.0446537 -0.15854061 1.4228785 6513507
1.059648 -0.18184198 1.427331 6513507
-1.1181195 -0.12519445 1.425694 1586254
-1.0747764 -0.12500125 1.419331 1586254
-1.0250008 -0.12489064 1.4120225 1520718
-0.97474778 -0.12511379 1.4046432 1389133
-0.9101004 -0.12478433 1.4151481 1323083
-0.89915174 -0.12556678 1.4432472 1389133
0.1795399 -0.11521095 1.4240557 1910836
0.21481061 -0.13617031 1.4243302 6187637
1.0394647 -0.13919055 1.423807 6513507
1.0736941 -0.11523426 1.4252261 6513507
1.1001226 -0.10012022 1.4471146 6513507
-1.1182318 -0.074999616 1.4258704 1191498
-1.075205 -0.074994415 1.4195534 1257034
-1.0248871 -0.075134337 1.4121653 1257034
-0.97487098 -0.075077556 1.4048213 1257034
-0.91093701 -0.074928068 1.4153985 1257547
-0.89916468 -0.075123534 1.444003 1389388
0.089121498 -0.056935634 1.4232644 2039583
0.12502475 -0.079520561 1.4244751 1977918
0.1541781 -0.09770596 1.4283215 3031124
1.0984962 -0.099489726 1.4195929 6513507
1.1090697 -0.093987077 1.4374843 6513507
-1.1183884 -0.024812968 1.426054 1125448
-1.0750462 -0.025014818 1.4196891 1125448
-1.0251598 -0.025159875 1.4123653 1059912
-0.97499508 -0.025028709 1.4050002 1059913
-0.91190761 -0.024916923 1.415087 1191497
-0.89925867 -0.025128672 1.4441947 1322825
-0.0011670762 -0.00058493915 1.4119141 2039583
0.025026912 -0.016455691 1.4241102 2039583
0.063974321 -0.040941335 1.4256887 2039583
-1.1185291 0.024817126 1.4262334 1191497
-1.0751817 0.024988098 1.4198706 1191497
-1.0252905 0.025164157 1.4125456 1191497
-0.97511882 0.02503291 1.4051785 1191497
-0.91246909 0.025139157 1.4154806 1059142
-0.89925396 0.024871122 1.445067 1059398
-0.06513606 0.040427875 1.4241762 2039583
-0.025835751 0.015680579 1.4250267 2039583
-1.1183025 0.075193956 1.4263614 2177105
-1.0753075 0.074824087 1.4200478 2834775
-1.0252882 0.07511761 1.4127039 3689054
-0.97524232 0.075107239 1.4053559 4675432
-0.91324103 0.075099707 1.4153143 5726832
-0.8993488 0.075147398 1.4452641 6055539
-0.16533805 0.089117117 1.4048173 1125448
-0.13366555 0.072656982 1.4051051 1519177
-0.090026841 0.056166641 1.4248513 8487297
-1.117367 0.1052444 1.4243796 10132122
-1.0750263 0.10528222 1.4182593 10132122
-1.0259931 0.10499785 1.4122002 10132122
-0.97522914 0.10479687 1.4054407 10132122
-0.91325843 0.10470737 1.4153318 10132122
-0.88124835 0.10801828 1.4307636 10132122
-0.82478231 0.10935405 1.42678 10132122
-0.77479792 0.10944653 1.4279844 10132122
-0.72366983 0.1095608 1.4235747 10132122
-0.67517895 0.10965624 1.4231049 9737364
-0.62515301 0.109749 1.4242672 2763306
-0.57504213 0.10984158 1.42551 8289918
-0.52499205 0.10993479 1.4265423 10132122
-0.476486 0.11003987 1.4233183 10132122
-0.42486969 0.11014526 1.4217299 10132122
-0.37511855 0.11023737 1.4229187 10132122
-0.32528105 0.11032965 1.4241098 10132122
-0.27516571 0.11042202 1.4254225 10132122
-0.22496812 0.11051536 1.426507 10132122
-0.17388889 0.10705177 1.4175702 1782350
-0.12350491 0.11072306 1.423216 4477283
-0.075005941 0.1108181 1.4228804 10132122
-0.025070125 0.11091068 1.4240251 10197915
0.025098125 0.11100359 1.4252175 10197915
0.075052023 0.11109643 1.426317 10197915
0.12364535 0.11119129 1.4260656 10197915
0.17491327 0.1113059 1.4216244 10197915
0.21673319 0.1113816 1.4231237 10197915
0.32938382 0.11159497 1.4244299 10132122
0.37481987 0.11167659 1.4262408 10132122
0.42480424 0.11176917 1.4274203 10197915
0.47614688 0.11188345 1.4231288 10197915
0.52483332 0.1119794 1.4226065 9803674
0.57496315 0.11207213 1.4238321 2838136
0.62517816 0.11216558 1.4248842 2570834
0.67502582 0.11225762 1.4261408 10000537
0.72495914 0.11235043 1.4272325 10132122
0.7739827 0.11246063 1.4228227 10132122
0.82505465 0.11256025 1.4225897 10132122
0.87508208 0.11265336 1.4236467 10132122
0.92479014 0.11274546 1.4248106 10132122
0.97478431 0.11283766 1.4260961 10132122
1.0250558 0.11293123 1.4271585 10132122
1.075171 0.11303824 1.4242666 10132122
1.1098303 0.1130552 1.4386493 10132122
-0.89190364 -0.65690833 1.4837158 2039583
-0.89340448 -0.62496918 1.4740267 2039583
0.22997585 -0.61425263 1.4803627 4329231
-0.89350182 -0.57499695 1.4741956 2039583
0.23631193 -0.59867775 1.4755756 4329231
0.33604923 -0.59846067 1.4725183 4329231
0.37534317 -0.59838808 1.4742383 4329231
0.4250555 -0.59829229 1.4751072 4329231
0.47494462 -0.59819281 1.4748617 4329231
0.52499723 -0.59809321 1.4746393 4329231
0.57492387 -0.59799367 1.4744215 4738148
0.62490964 -0.59789383 1.4741268 2769756
0.67463863 -0.5977962 1.4745078 1585483
0.72496873 -0.59769857 1.4751097 4476762
0.77499169 -0.59759921 1.4749733 6513507
0.82499707 -0.59749925 1.4746495 6513507
0.87498701 -0.59739941 1.474378 6513507
0.92499661 -0.59729993 1.4742248 6513507
0.9749921 -0.59720027 1.4739331 6513507
1.0165737 -0.59712148 1.4751395 6513507
-0.89360666 -0.52501392 1.4743323 2045001
-0.029770195 -0.50467581 1.4745487 9197913
-0.89370203 -0.47500017 1.4745122 1979982
-0.013384186 -0.47886428 1.4742669 9197913
0.0028072835 -0.45405555 1.4787475 9197913
-0.89380229 -0.4249953 1.4746679 1848654
0.020950999 -0.42491493 1.4746064 9197913
-0.89390492 -0.37501878 1.4748089 2046033
0.043344934 -0.38945118 1.472934 9197913
0.059385899 -0.36458039 1.4753724 6309970
-0.89399624 -0.32501164 1.4750235 1848911
0.084132776 -0.32545584 1.4739718 4735312
0.10099211 -0.30142647 1.490957 11380647
1.1436168 -0.30804205 1.4827298 6513507
1.1561127 -0.32665765 1.492134 6513507
-0.89410341 -0.27501255 1.4751352 1585484
0.099539839 -0.29861951 1.456165 9197913
0.11635371 -0.27494335 1.4750761 7105387
1.1295029 -0.28708571 1.471602 6513507
-0.8943181 -0.22500409 1.4745085 1322056
0.14085835 -0.23621488 1.4737774 3166836
0.15688865 -0.21132188 1.4759506 2768468
1.0815456 -0.20947802 1.4791559 6513507
-0.89444327 -0.17485203 1.4744916 1520204
0.1792383 -0.17590912 1.4741509 1713715
1.0468146 -0.15509865 1.4717042 6513507
1.0626264 -0.17982301 1.4753183 6513507
-0.89463711 -0.12502971 1.4740028 1388875
0.18118817 -0.11229148 1.4740884 2107698
0.21768481 -0.1352888 1.4745864 4543846
1.0424538 -0.14069106 1.4736769 6513507
1.0753028 -0.11718208 1.4746609 6513507
1.1020337 -0.10098036 1.4814608 6513507
-0.894728 -0.075021558 1.4742157 1323339
0.091078453 -0.055471033 1.473603 2039583
0.12542355 -0.077069938 1.4748714 1977659
0.15599969 -0.096354552 1.4749568 2111310
1.1239349 -0.08707653 1.4764823 6513507
1.1556987 -0.068303458 1.4926014 6513507
-0.8948316 -0.024985051 1.4743441 1191240
0.02670145 -0.014855175 1.4736609 2039583
0.066324703 -0.039748173 1.4755939 2039583
-0.89493203 0.024988718 1.4745101 993092
-0.062654294 0.041517921 1.4737041 2039583
-0.025039457 0.017853014 1.4749111 2039583
0.0020532184 0.0010233467 1.4797969 2039583
-0.89502752 0.074988358 1.474691 6186611
-0.15277866 0.098204613 1.4705526 1059654
-0.12430508 0.08047542 1.4749089 5266283
-0.087413833 0.05719782 1.4748259 7763574
-0.88773948 0.10605206 1.4733325 10132122
-0.82475519 0.10919455 1.4725834 10132122
-0.77477425 0.10928688 1.4738289 10066329
-0.72511607 0.10937907 1.4749402 10132122
-0.67517281 0.10947181 1.4760555 7171437
-0.62514287 0.10956381 1.4774308 2105376
-0.5752309 0.10965557 1.4788008 9868950
-0.52523464 0.10974839 1.4799194 10132122
-0.47357801 0.10986476 1.4751978 10132122
-0.42502686 0.10996068 1.474631 10132122
-0.37645802 0.11005586 1.4742727 10132122
-0.32523775 0.11017256 1.4692229 10132122
-0.27495009 0.1102655 1.4704624 10132122
-0.22497974 0.11035744 1.4718188 10066329
-0.16859519 0.10901097 1.4722209 1651792
-0.12519702 0.1105419 1.4742788 5002855
-0.074974962 0.11063518 1.4753921 10132122
-0.024875503 0.1107278 1.4766243 10197915
0.024903068 0.11081982 1.4778509 10197915
0.074967615 0.11091194 1.4792151 10197915
0.12664126 0.11101715 1.4777123 10197915
0.17508574 0.1111243 1.4738511 10197915
0.22114207 0.11120559 1.476087 10197915
0.33421662 0.11144955 1.4688523 10197915
0.3747879 0.11152032 1.4710705 10197915
0.42510995 0.11161426 1.4720495 10197915
0.47511226 0.11170633 1.4733915 10197915
0.52498734 0.11179855 1.4746084 10197915
0.57494861 0.11189094 1.4758273 5796497
0.62478161 0.11198267 1.4771689 1125453
0.67470056 0.11207545 1.4782608 7041660
0.72490948 0.1121683 1.4794852 10132122
0.77598941 0.11228593 1.474087 10132122
0.82498956 0.11237998 1.4743017 10132122
0.87487435 0.11247292 1.47532 10132122
0.92305905 0.1125743 1.4729886 10132122
0.97497666 0.11268435 1.4702229 10132122
1.0251567 0.11277718 1.4714339 10132122
1.0750085 0.11286899 1.4727638 10132122
1.1225258 0.11295147 1.4754745 10132122
1.1549454 0.11296363 1.4899963 10132122
-0.88550073 -0.66662741 1.5271696 2039583
-0.88601875 -0.62500435 1.5243351 2039583
0.2343546 -0.61437654 1.528893 4329231
-0.88611513 -0.57491791 1.524516 2039583
0.24161236 -0.59880811 1.5240229 4329231
0.25192896 -0.59882587 1.5395136 4329231
0.34140992 -0.59859467 1.5212352 4329231
0.37468728 -0.5985378 1.5243413 4330521
0.42499566 -0.59844148 1.525385 4329231
0.4750503 -0.59834123 1.5250487 4329231
0.52504557 -0.59824181 1.5248985 4329231
0.57502282 -0.59814197 1.5245672 4268331
0.62494516 -0.59804243 1.5243133 3758715
0.674932 -0.59794283 1.5240657 2308431
0.72498631 -0.59784311 1.5238165 1848398
0.77533418 -0.59774595 1.524681 4608091
0.82496387 -0.59764814 1.5249134 6513507
0.87500328 -0.5975489 1.5247383 6513507
0.92502642 -0.59744877 1.5244042 6513507
0.97499359 -0.59734893 1.5241709 6513507
1.0183997 -0.5972665 1.5253334 6513507
-0.88621503 -0.5249055 1.5246738 1780797
-0.024864791 -0.50430977 1.5247693 9197913
-0.88631123 -0.47499236 1.524853 1717325
-0.010925274 -0.48228005 1.5240382 9197913
0.00488105 -0.45780578 1.5266658 9197913
-0.88641012 -0.42500269 1.5250223 1717325
0.025597479 -0.42492825 1.5246377 9197913
-0.88651264 -0.37500089 1.5251553 1519947
0.045567282 -0.39312172 1.5219047 9197913
0.061500032 -0.36855024 1.5252259 4800591
1.18416 -0.36549386 1.5341418 6513507
1.2025928 -0.39309943 1.5469935 6513507
-0.8867054 -0.32513788 1.5246788 1585997
0.086451963 -0.32908052 1.5236702 5786199
0.10274912 -0.3040953 1.5280802 11711154
1.146103 -0.306887 1.5190269 6513507
1.1618321 -0.33107993 1.525484 6513507
-0.88683832 -0.27499202 1.5246154 1454155
0.12077008 -0.27530226 1.524996 5329233
1.1383375 -0.29575333 1.5100977 6513507
-0.88705397 -0.22500233 1.5239784 1190727
0.14311293 -0.239989 1.5238031 3431039
0.15935896 -0.21465138 1.525256 2571347
1.089339 -0.21550006 1.524626 6513507
1.1035428 -0.23614356 1.5389752 6513507
-0.88715661 -0.1750138 1.5241231 1454667
0.18302006 -0.17730403 1.52433 1649985
1.0487062 -0.15215515 1.5139462 6513507
1.0648885 -0.17639026 1.5252291 6513507
-0.88725609 -0.12499254 1.5242789 1323339
0.18380566 -0.11124565 1.5243893 2239026
0.220028 -0.13410302 1.5242701 3162709
1.0456467 -0.14238355 1.5235513 6513507
1.0749367 -0.12040044 1.5245417 6513507
1.1040475 -0.10247426 1.5275065 6513507
-0.88734758 -0.074960172 1.5244924 1257545
0.093402043 -0.054267347 1.5233901 2039583
0.12476296 -0.073993608 1.524472 2042678
0.15789548 -0.094837084 1.5255618 1783117
1.1290703 -0.086717829 1.523967 6513507
1.1675882 -0.063022591 1.5279224 6513507
-0.88745296 -0.024982942 1.5246146 1059398
0.028702369 -0.013454527 1.5233245 2039583
0.06856776 -0.038481109 1.525615 2039583
1.1945168 -0.047156431 1.542418 6513507
1.2026125 -0.042450808 1.5478524 6513507
-0.88755071 0.024986615 1.5247817 927043
-0.06095526 0.043114845 1.5234761 2039583
-0.024958923 0.020487439 1.5249902 2039583
0.0039135371 0.0024270201 1.5278624 2039583
-0.88764095 0.074964173 1.5250061 6449782
-0.15128525 0.098989114 1.5027541 795202
-0.12539434 0.083830342 1.5246617 5726575
-0.086189553 0.059128761 1.5252411 7434609
-0.8819707 0.1058358 1.5231848 10132122
-0.8247245 0.10902537 1.5211593 10132122
-0.77475113 0.10911762 1.5224431 10066329
-0.7249043 0.10920957 1.523729 10132122
-0.67496991 0.1093017 1.5250112 4539717
-0.62495446 0.10939395 1.5263015 3289650
-0.5748511 0.10948637 1.5275875 10132122
-0.52508539 0.10957769 1.5290118 10132122
-0.47523451 0.10967015 1.5301517 10132122
-0.42529795 0.1097623 1.5314372 10132122
-0.37556657 0.1098713 1.52776 10132122
-0.32519501 0.11000574 1.517149 10132122
-0.27513456 0.11009717 1.5186994 10132122
-0.22558756 0.11019109 1.5192509 9540760
-0.16025585 0.10850542 1.5212146 1059142
-0.12508616 0.1102905 1.5226749 5726318
-0.074903108 0.11046726 1.5236571 10132122
-0.025057526 0.11055925 1.5249263 10197915
0.025085494 0.11065181 1.5262028 10197915
0.07509774 0.11074413 1.5274761 10197915
0.12498557 0.11083622 1.5287464 10197915
0.17495342 0.11092795 1.5301578 10197915
0.22479722 0.11101989 1.5314285 10197915
0.2518118 0.11102609 1.544662 10197915
0.33931831 0.11129612 1.5157439 10197915
0.37475216 0.11135487 1.5185447 10197915
0.4248035 0.11144734 1.5198051 10197915
0.47494182 0.11153996 1.5210679 10197915
0.52515978 0.11163266 1.5223324 10197915
0.57503766 0.11172428 1.5237269 8555415
0.62499982 0.11181703 1.5248464 1588071
0.67482829 0.11190908 1.526098 3030870
0.72474259 0.11200123 1.5273587 10132122
0.77495074 0.11209348 1.5287627 10132122
0.82481182 0.1121861 1.5298754 10132122
0.87475932 0.1122788 1.5309939 10132122
0.92675418 0.11239179 1.5274439 10132122
0.97404259 0.11251222 1.5191233 9605778
1.0250521 0.11261296 1.5185367 9013641
1.074792 0.11270433 1.5199163 10132122
1.1248242 0.11279773 1.5208855 10132122
1.1688167 0.11286411 1.5262718 10132122
-0.87649536 -0.70517397 1.5878601 2039583
-0.87849778 -0.67453754 1.5747325 2039583
-0.87865037 -0.62502658 1.5745218 2039583
0.23805612 -0.61436898 1.5699202 4329231
-0.87875879 -0.57503128 1.5746223 2039583
0.24413058 -0.59894222 1.5734509 4329231
0.25508317 -0.59893352 1.5779552 4329231
0.34635189 -0.59871888 1.5664966 4329231
0.37494594 -0.59868538 1.5742059 4003880
0.42495182 -0.59858513 1.5738957 4198419
0.47540361 -0.59848732 1.5745866 4329231
0.52499986 -0.59839094 1.5751463 4329231
0.57510537 -0.59829074 1.5748297 3936529
0.62515479 -0.59819078 1.5745846 4022145
0.67505389 -0.5980913 1.5743032 2637653
0.72502369 -0.59799188 1.5740957 1979982
0.77462518 -0.5978958 1.5748818 2045776
0.8250007 -0.59779745 1.5752953 4608347
0.87496638 -0.59769762 1.5749969 6513507
0.92500818 -0.59759796 1.5747757 6513507
0.975034 -0.59749824 1.5744903 6513507
1.0207477 -0.59740818 1.5747133 6513507
-0.87883657 -0.52505046 1.5749334 1713713
-0.020779412 -0.50521284 1.5748508 9197913
-0.87894702 -0.47503355 1.5750099 1388105
-0.0087886518 -0.48620066 1.5737966 9197913
0.0071257483 -0.46150532 1.5760747 9197913
1.2440505 -0.4519912 1.5985434 6513507
-0.87903851 -0.42500558 1.5752282 1717324
0.030119807 -0.42511195 1.5744982 9197913
1.2213457 -0.41795748 1.5829289 6513507
-0.87913764 -0.37499118 1.5753874 1453898
0.047940265 -0.39632359 1.5692915 9197913
0.064056799 -0.37183183 1.5751325 3684941
1.1889215 -0.36750877 1.5737077 6513507
1.2047559 -0.39234823 1.5767794 6513507
-0.87942427 -0.32508165 1.5742714 1388362
0.088794783 -0.33270976 1.5736527 7231841
0.10487123 -0.3079032 1.5769123 11711154
1.1675116 -0.3336181 1.5717194 6513507
-0.87960327 -0.27499226 1.5738947 1190214
0.1253209 -0.27546069 1.5749905 3487029
1.1195779 -0.25502208 1.5865471 6513507
-0.87970185 -0.22497877 1.5740578 1058885
0.14561656 -0.24323308 1.5728818 4287125
0.16199547 -0.2178624 1.5755385 2308948
1.0919802 -0.21282531 1.5734392 6513507
1.1076509 -0.23745017 1.5761731 6513507
-0.87979853 -0.17500287 1.5742373 1322825
0.1865906 -0.17889047 1.5735488 1651276
0.20058568 -0.15967861 1.5926714 1914190
1.0683866 -0.17500035 1.5746351 6513507
-0.87989593 -0.12501575 1.5744132 1323337
0.18561147 -0.10971657 1.5741519 2240059
0.22193041 -0.13262494 1.5742185 2372419
1.0481547 -0.142278 1.5684417 6513507
1.0725058 -0.12578343 1.5752418 6513507
1.1060331 -0.10413387 1.5760387 6513507
-0.87999117 -0.075042047 1.5746003 1191239
0.095866807 -0.053096324 1.5742279 2039583
0.12549864 -0.071758777 1.5748066 2107955
0.16059662 -0.093918979 1.5744646 1585997
1.1310242 -0.088493988 1.574129 6513507
1.1713432 -0.063496843 1.5750142 6513507
-0.88009393 -0.025033694 1.5747372 993604
0.03096793 -0.012195175 1.5734664 2039583
0.070769206 -0.037212245 1.5751801 2039583
1.1963494 -0.04778181 1.5720069 6513507
1.2150601 -0.036689539 1.5809346 6513507
-0.88019019 0.025013264 1.574917 860992
-0.059318986 0.044786513 1.5739042 2039583
-0.024993906 0.023164403 1.5745037 2039583
0.0060447878 0.0037283476 1.5772071 2039583
-0.88028491 0.075043641 1.575115 6713209
-0.12331834 0.085202001 1.5746678 6910074
-0.084055819 0.060460921 1.5751905 7171437
-0.87608403 0.10564722 1.5739549 10132122
-0.82469279 0.10884423 1.5731936 10132122
-0.77472544 0.10893628 1.5745198 10066329
-0.72510701 0.10902765 1.5758407 9737364
-0.67518604 0.10911959 1.57717 2236962
-0.62518328 0.10921111 1.5786575 4802889
-0.57509732 0.10930387 1.5798336 10132122
-0.52553701 0.10939687 1.5806683 10132122
-0.47490904 0.10951985 1.5734833 10132122
-0.42506605 0.10961166 1.5748025 10132122
-0.37227067 0.10972337 1.5720558 10132122
-0.32471174 0.10982738 1.5686122 10132122
-0.27490339 0.10991916 1.5699234 10132122
-0.2296555 0.11000598 1.5701241 9737881
-0.15636243 0.10845706 1.5715544 860993
-0.1259678 0.10989258 1.5743033 6318196
-0.075260535 0.11028708 1.575178 10132122
-0.025034295 0.1103796 1.5764998 10197915
0.025062213 0.1104719 1.5778184 10197915
0.07502263 0.1105635 1.5792872 10197915
0.12484483 0.1106564 1.5802863 10197915
0.17276001 0.11075222 1.5793768 10197915
0.22533201 0.11087206 1.5741709 10197915
0.25461024 0.11092049 1.5765233 10197915
0.34453589 0.11113916 1.5636981 10197915
0.374715 0.11117788 1.5693281 10197915
0.42491463 0.11127 1.5707854 10197915
0.47497657 0.1113633 1.5717821 10197915
0.52490526 0.11145432 1.5733893 10197915
0.57513446 0.11154744 1.5745443 10197915
0.62523007 0.11163981 1.5758436 3364739
0.67474461 0.11173113 1.5771326 927557
0.72478527 0.11182338 1.5784394 7830660
0.77512556 0.11191622 1.5797462 10132122
0.82511079 0.11200839 1.5810465 10132122
0.87271273 0.11211314 1.5774124 10132122
0.92519379 0.11222324 1.5749474 10132122
0.97652978 0.11234456 1.568639 7763574
1.0249432 0.11243726 1.5689135 3684408
1.0749997 0.11253066 1.5698968 9934743
1.1251431 0.11262263 1.5713371 10132122
1.1751484 0.11271487 1.5726244 10132122
1.2149572 0.11276471 1.5804307 10197915
-0.87051195 -0.71431416 1.628458 2039583
-0.87118608 -0.67525965 1.6245228 2039583
-0.8713606 -0.62501305 1.6241766 2039583
0.24300617 -0.61484241 1.6247729 4329231
1.0877606 -0.61199605 1.6376292 6513507
1.1202822 -0.61405605 1.6328645 6513507
1.1550964 -0.60347122 1.6297483 6513507
-0.87145889 -0.57509655 1.6243442 2039583
0.24619949 -0.59910178 1.6220708 4329231
0.25906774 -0.59907025 1.6267456 4329231
0.37758714 -0.59882462 1.6230215 3937055
0.42507121 -0.59873319 1.6238459 3937312
0.47455364 -0.59863675 1.6244229 4263696
0.52499646 -0.59853923 1.6252099 4329231
0.57518685 -0.59843874 1.6248168 3478548
0.62515855 -0.59833938 1.6246196 3359830
0.67495388 -0.5982396 1.6242533 3166061
0.72499239 -0.59814006 1.6240731 3359828
0.77543485 -0.59804249 1.6249281 2834003
0.82501245 -0.59794545 1.6253109 2308432
0.87503171 -0.59784621 1.6251422 4673883
0.92503494 -0.59774584 1.6247261 6513507
0.97502053 -0.59764642 1.6245574 6513507
1.0231925 -0.59755194 1.6247647 6513507
1.0963168 -0.59772676 1.6405668 6513507
1.1292369 -0.58445954 1.635321 6513507
1.1722333 -0.5712117 1.6296635 6513507
1.2157187 -0.55966574 1.6244073 6513507
-0.87155783 -0.52506047 1.6245075 1843751
-0.016466549 -0.50574285 1.6248269 9197913
1.1879641 -0.54227024 1.6338825 6513507
1.227643 -0.52667177 1.6279562 6513507
1.2558247 -0.52038342 1.6221449 6513507
-0.8716526 -0.47495955 1.6247021 1322308
-0.0066090128 -0.49001947 1.6233212 9197913
0.0095705483 -0.46490607 1.6255921 9197913
1.2473224 -0.45396259 1.6215776 6513507
1.2597113 -0.48098636 1.6337079 6513507
-0.8717522 -0.42498288 1.6248595 1519686
0.034384426 -0.42567497 1.6241826 9197913
0.051196255 -0.401068 1.6367095 9197913
1.2294539 -0.42501384 1.6246271 6513507
-0.87184542 -0.37496734 1.6250618 1453637
0.049915202 -0.39865607 1.6064572 9197913
0.066734716 -0.37483314 1.6244259 2831691
1.191095 -0.36393052 1.6236365 6513507
1.2068814 -0.38882971 1.6257465 6513507
-0.87203228 -0.32471901 1.6246278 1322052
0.091249816 -0.33616978 1.6236858 9466483
0.10719948 -0.31137908 1.6256902 10790052
1.177312 -0.34299719 1.6160954 6513507
-0.87217849 -0.27498999 1.6244673 1322052
0.13046405 -0.27470025 1.625072 2105635
0.94696403 -0.25231877 1.6497746 6513507
0.95097166 -0.25123879 1.6494151 6513507
1.1281376 -0.26286799 1.6277575 6513507
-0.8722803 -0.22498131 1.6246114 1124161
0.1479976 -0.24629602 1.6194053 4813727
0.16392574 -0.22212818 1.6254359 2572894
0.94761646 -0.23005223 1.6497902 6513507
0.97174758 -0.21970268 1.6476407 6513507
1.0116379 -0.20716833 1.6440709 6513507
1.0941458 -0.20928439 1.6230148 6513507
1.1099299 -0.23409823 1.6256889 6513507
-0.87237984 -0.17498785 1.6247694 1190723
0.18881448 -0.18264529 1.6231102 1651277
0.20159739 -0.1633181 1.6284178 1717069
0.98657972 -0.19086063 1.6465236 6513507
1.0267644 -0.17731366 1.6429663 6513507
1.0679487 -0.17377931 1.6285292 6513507
-0.87251711 -0.12518582 1.6246666 1256516
0.18722545 -0.10806913 1.6238656 2307398
0.22453879 -0.13155504 1.6248605 2108729
1.0455157 -0.14662805 1.6415446 6513507
1.0718268 -0.12935387 1.6244484 6513507
1.1091138 -0.1052025 1.6260632 6513507
-0.87271422 -0.075011291 1.6241635 1124931
0.097335212 -0.051353563 1.6240064 2039583
0.12468172 -0.068600237 1.6241018 2040615
0.16174035 -0.091912024 1.6253502 1784924
1.1338879 -0.089695655 1.6241314 6513507
1.174095 -0.064762399 1.6249242 6513507
-0.87280822 -0.025034674 1.6243613 1058881
0.032540388 -0.010485231 1.6238574 2039583
0.072401278 -0.035566639 1.6250725 2039583
1.1984403 -0.049152013 1.6167785 6513507
1.2247566 -0.033275634 1.6247101 6513507
1.2609473 -0.01141709 1.635223 6513507
-0.87290496 0.025038369 1.6245421 860220
-0.057019304 0.046027329 1.6241018 2039583
-0.025318509 0.026049806 1.6244962 2039583
0.0077513852 0.0052555287 1.6257674 2039583
1.2816679 0.0006828279 1.648196 6513507
-0.87300646 0.075010076 1.6246823 7041659
-0.12107245 0.086447649 1.6243225 8685195
-0.081233494 0.06134228 1.6248333 6776679
-0.8702566 0.10531951 1.6250139 10132122
-0.82466012 0.10864963 1.6290802 10066329
-0.77688521 0.10874639 1.6278325 10066329
-0.72543412 0.10886619 1.622018 7631988
-0.67526776 0.10895803 1.6235193 2039583
-0.62501818 0.10905086 1.6247687 6118749
-0.57501352 0.1091428 1.6261389 10132122
-0.52404106 0.10923946 1.6267 10132122
-0.47478539 0.10936007 1.6194328 10132122
-0.42482117 0.10945201 1.6207935 10132122
-0.37477669 0.10954405 1.6221575 10132122
-0.32486644 0.10963529 1.6236857 10132122
-0.27509978 0.10972744 1.6248724 10132122
-0.23435168 0.10980649 1.6247963 10000537
-0.15413587 0.10897037 1.6233915 794944
-0.12659833 0.10937817 1.629124 6909817
-0.076286308 0.11009832 1.6288053 10132122
-0.024864249 0.11022045 1.6223007 10197915
0.024891794 0.11031201 1.6236483 10197915
0.075064443 0.11040479 1.6248817 10197915
0.12532355 0.11049684 1.6263684 10197915
0.17755499 0.11060894 1.6231846 10197915
0.22478314 0.11071222 1.6197562 10197915
0.25799513 0.11076614 1.6227283 10197915
0.34897014 0.11100574 1.6044514 10197915
0.37639663 0.11099505 1.6227696 10197915
0.42502895 0.11108144 1.6249782 10197915
0.47501761 0.11117285 1.6264956 10197915
0.52508736 0.11126562 1.6276728 10197915
0.57478398 0.1113571 1.6290101 10197915
0.62436908 0.11145016 1.6298256 7110034
0.67550147 0.11157477 1.6224469 1192280
0.72516274 0.1116662 1.6237767 4082784
0.77456206 0.11175761 1.6249716 10132122
0.82472676 0.11184952 1.6264426 10132122
0.87723559 0.11197106 1.6207168 10132122
0.92517328 0.11206716 1.6197627 10132122
0.9751811 0.11215866 1.6212641 5921370
1.0252769 0.1122515 1.6224278 2039583
1.0752276 0.11234352 1.6237577 5395026
1.1250279 0.11243462 1.6252507 10132122
1.1749094 0.11252704 1.6264107 10132122
1.2248763 0.11261911 1.6277404 10197915
1.2627653 0.11265254 1.6391822 10197915
-0.86095083 -0.75365114 1.6929257 2039583
-0.86355555 -0.7237283 1.6756897 2039583
-0.86388278 -0.67472523 1.6742711 2039583
-0.86405873 -0.62498885 1.6739172 2039583
0.24832816 -0.61452633 1.6837686 4329231
1.0835043 -0.60662025 1.6630152 6513507
-0.86415982 -0.57500792 1.6740602 2039583
0.24841617 -0.59921211 1.6674923 4329231
0.26325843 -0.59921199 1.6773911 4329231
0.38312757 -0.59896421 1.6738551 4198162
0.42502117 -0.59888464 1.6750618 3872034
0.4750137 -0.59878498 1.6747907 4068639
0.52504301 -0.5986855 1.6745788 4263695
0.57526761 -0.59858459 1.6741247 3020567
0.62521082 -0.59848547 1.6739514 2106408
0.67497689 -0.59838599 1.6736673 4088713
0.72499287 -0.59828615 1.6733876 2702930
0.77445751 -0.59819084 1.6742383 5462110
0.82497817 -0.59809256 1.6748477 2899795
0.87496227 -0.5979923 1.6744189 2440017
0.92526996 -0.59789389 1.6747452 4673626
0.97496659 -0.59779882 1.6759171 6513507
1.0248429 -0.5976994 1.6757542 6513507
1.0906174 -0.59810352 1.6657805 6513507
1.1242313 -0.58121842 1.6613562 6513507
1.1619636 -0.55768192 1.6597741 6513507
-0.86425483 -0.52501398 1.6742591 2039583
-0.011779629 -0.50559264 1.6741751 9197913
1.1867851 -0.54217947 1.658417 6513507
1.2235996 -0.51921952 1.6569445 6513507
1.2521555 -0.50141865 1.6559401 6513507
-0.86435026 -0.4750393 1.6744349 2039583
-0.0042195767 -0.49353191 1.6730063 9197913
0.011819509 -0.46862999 1.6752121 9197913
1.2489022 -0.45174873 1.6551257 6513507
1.2617952 -0.48085999 1.6553346 6513507
-0.86444676 -0.42502415 1.6746188 2039583
0.036686566 -0.4293201 1.6738361 9197913
0.052871577 -0.40448365 1.6780584 8082006
1.2316631 -0.42400134 1.656776 6513507
-0.86454123 -0.37502715 1.6748123 2039583
0.071254909 -0.37505725 1.6745397 2635083
0.73364162 -0.36478189 1.6721573 1782605
0.7646935 -0.35934007 1.6659175 9211793
1.1939201 -0.36360604 1.6578848 6513507
1.2082188 -0.38643026 1.6578643 6513507
-0.86463928 -0.32501915 1.6749814 2039583
0.093536563 -0.33978549 1.6729732 10652812
0.10949925 -0.31505513 1.6755313 8092539
0.7374748 -0.34193042 1.6769122 1585483
0.77802694 -0.32697946 1.6696217 8290434
0.82118094 -0.3164351 1.6612144 3881787
0.85814834 -0.30487174 1.6576387 6513507
-0.86473501 -0.27499965 1.6751646 2039583
0.13443816 -0.27563703 1.6741878 2039584
0.15117782 -0.25131086 1.6878582 2309460
0.79956961 -0.29983872 1.6637807 2039583
0.82971495 -0.28696054 1.6693398 5526612
0.87383193 -0.2721684 1.6602137 6513507
0.91715896 -0.26167089 1.6524415 6513507
1.1351023 -0.26920813 1.6615915 6513507
-0.8648243 -0.22502768 1.6753906 2039583
0.16695787 -0.22453929 1.6745032 2508132
0.89134872 -0.24434134 1.6679368 6513507
0.92610794 -0.23006444 1.6593533 6513507
0.95533192 -0.20340833 1.6707505 6513507
1.0958741 -0.20647126 1.6624936 6513507
1.1114597 -0.23131742 1.6626965 6513507
-0.86498857 -0.17528173 1.6751121 2039583
0.19118419 -0.18625373 1.6732402 1717069
0.20310362 -0.16793717 1.6761732 1453898
0.97994763 -0.18795125 1.6680045 6513507
1.019962 -0.16302072 1.666823 6513507
1.0863835 -0.19131352 1.6625674 6513507
-0.86521477 -0.12480318 1.6744071 2039583
0.18976693 -0.10700996 1.6735195 2505553
0.22440268 -0.12877275 1.6751485 1976371
0.25108302 -0.14565106 1.6742733 3294038
1.045303 -0.14718834 1.6653404 6513507
1.0744081 -0.12903599 1.6641631 6513507
1.1104243 -0.10659891 1.6631454 6513507
-0.86543626 -0.075036071 1.673739 2039583
0.098160677 -0.050109997 1.6569108 2039583
0.12509908 -0.066165164 1.6744252 1974048
0.16485247 -0.091197379 1.6752936 1851491
1.135294 -0.091032714 1.6612132 6513507
1.173969 -0.066934705 1.6600431 6513507
1.2009537 -0.050240759 1.6612343 6513507
-0.86550826 -0.02502596 1.6740882 2039583
0.03530845 -0.0095172618 1.6744769 2039583
0.074633032 -0.034309592 1.6747737 2039583
1.2247604 -0.0352384 1.6576809 6513507
1.2651973 -0.010006757 1.655856 6513507
-0.86560369 0.025029646 1.674273 2039583
-0.055273984 0.047593854 1.6738515 2039583
-0.025359994 0.028751913 1.6744024 2039583
0.010304639 0.0063057994 1.6753945 2039583
1.2844642 0.0019670308 1.6557944 6513507
-0.86572582 0.075004108 1.674288 7500402
-0.11942467 0.088070698 1.6739799 9934744
-0.08040446 0.063509189 1.6749989 6645093
-0.86469978 0.10473011 1.6747862 10132122
-0.82470399 0.10847727 1.6785283 10066329
-0.77208871 0.10858991 1.6754079 10132122
-0.7246412 0.10869666 1.6711217 4934475
-0.67489612 0.10878736 1.6727105 2039583
-0.6250695 0.10887945 1.6739324 8026746
-0.57493228 0.10897151 1.675348 10197915
-0.52493483 0.10906333 1.6767596 10132122
-0.47485456 0.10915592 1.6779845 10132122
-0.42730188 0.10926013 1.6744831 10132122
-0.37484622 0.10937433 1.6708404 10132122
-0.32492882 0.10946553 1.6723788 10132122
-0.27493107 0.10955782 1.6736425 10132122
-0.23555742 0.1096305 1.6746395 8883862
-0.15195048 0.10911559 1.6733866 729150
-0.12786315 0.10884357 1.6776453 7238524
-0.073044486 0.1099379 1.676641 10132122
-0.025145585 0.11005141 1.6706662 10132122
0.025173753 0.11014386 1.6720695 10132122
0.075110599 0.11023567 1.673458 10132122
0.12490284 0.11032648 1.6750349 10132122
0.17500722 0.11041979 1.6760608 10132122
0.22519554 0.11051071 1.6778314 10132122
0.2630347 0.11057507 1.6803731 10132122
0.3812741 0.11083461 1.671535 10197915
0.42494208 0.11091291 1.6733074 10197915
0.47489312 0.1110052 1.6745529 10197915
0.52493834 0.11109671 1.6760809 10197915
0.57505679 0.11118932 1.6773301 10197915
0.6255483 0.11128488 1.6779264 9606553
0.67513651 0.11140758 1.6702428 1786482
0.72533059 0.11149988 1.6716212 1256006
0.77513516 0.11159144 1.6729947 9014159
0.82502609 0.11168316 1.6743696 10132122
0.8749947 0.11177508 1.6757466 10132122
0.92481172 0.111866 1.6773056 10132122
0.97471362 0.1119584 1.6784954 3881787
1.0225041 0.11205959 1.6759717 2039583
1.0750357 0.11217733 1.6713428 2039583
1.1247656 0.11226834 1.6728443 7960953
1.1749362 0.11236056 1.6742188 10132122
1.2251892 0.11245301 1.6755961 10197915
1.2744755 0.11254315 1.6770893 10197915
1.3067763 0.11256872 1.6876775 10197915
-0.85561502 -0.76182824 1.7291329 2039583
-0.85641724 -0.72486883 1.7242875 2039583
-0.85652965 -0.67498779 1.7243553 2039583
-0.85662627 -0.62502068 1.7245326 2039583
0.25285804 -0.61488736 1.7339675 4329231
-0.85672158 -0.57494897 1.7247218 2039583
0.26838505 -0.5993498 1.7268801 4329231
0.38846454 -0.59910142 1.7237133 4329231
0.4249115 -0.59903449 1.7254579 4133141
0.47498947 -0.59893453 1.7251599 3938084
0.52499229 -0.59883475 1.7249371 4133658
0.57467848 -0.59873527 1.7245595 2628122
0.62471068 -0.59863538 1.7242562 2039583
0.67501837 -0.59853518 1.724089 4020340
0.72501272 -0.59843516 1.7236823 2770528
0.7750504 -0.5983355 1.7234889 4016727
0.82507193 -0.59823549 1.7231854 5856352
0.87501609 -0.59813571 1.7228498 2834259
0.92506063 -0.59804112 1.7243308 2505553
0.97500378 -0.59794855 1.7265149 4542038
1.0250188 -0.5978483 1.7261063 6513507
1.0528774 -0.59780455 1.7299317 6513507
-0.85681921 -0.52492696 1.7248988 2039583
-0.0069892346 -0.50543123 1.7245592 9197913
-0.85691434 -0.47498792 1.7250869 2039583
-0.0020138493 -0.49700153 1.7204252 9197913
0.014177499 -0.47223541 1.7251961 9197913
-0.85715181 -0.42509967 1.7243068 2039583
0.03911886 -0.43283296 1.7239861 9197913
0.055153143 -0.40793148 1.7261435 4144461
-0.85726768 -0.37502041 1.724354 2039583
0.076093912 -0.37479159 1.7247339 3948627
0.57848215 -0.35959795 1.7467512 1974047
0.72657019 -0.36534229 1.7046021 2243154
-0.85735345 -0.32501677 1.7246104 2039583
0.096016355 -0.34299141 1.7215357 11579311
0.11185808 -0.31866926 1.7255819 6381921
0.54654956 -0.33796734 1.7497112 1585997
0.56026685 -0.34347656 1.7484643 1517884
0.73563123 -0.3419123 1.7044296 2045519
0.77168477 -0.31941462 1.7027839 5858417
0.80128568 -0.3009226 1.7010791 2039583
-0.85746092 -0.27500212 1.7247136 2039583
0.13678741 -0.27915838 1.7235023 2039583
0.15307346 -0.25423732 1.7282318 2173749
0.81377918 -0.29315454 1.7009783 2894892
-0.85754514 -0.22497635 1.7249755 2039583
0.17150854 -0.22476052 1.7249254 2245475
-0.85772163 -0.17471522 1.7246151 2039583
0.19362077 -0.18961695 1.7224133 1585740
0.20466922 -0.17274265 1.7258413 1190471
-0.85789138 -0.12500624 1.7242941 2039583
0.1910505 -0.10515592 1.7231989 2308431
0.22533171 -0.12668639 1.7249902 2239542
0.25393152 -0.14450876 1.7290902 1979982
-0.85801518 -0.074980542 1.7242851 2039583
0.12682705 -0.064607099 1.7238137 2039583
0.16631523 -0.089425795 1.7255435 1850459
-0.858078 -0.024977108 1.7246931 2039583
0.037150282 -0.0080080219 1.7242938 2039583
0.074741669 -0.031720739 1.7243335 2039583
0.1018962 -0.04843406 1.7321166 2039583
-0.85817266 0.024980795 1.7248851 2039583
-0.052293252 0.048259541 1.7213358 2039583
-0.024436185 0.030858217 1.7245533 2039583
0.01243505 0.0076428028 1.7253944 2039583
-0.85830045 0.075006366 1.7248573 7237230
-0.11774052 0.089674734 1.7237091 10132122
-0.077225655 0.06419377 1.7251673 6316128
-0.85798734 0.10455347 1.724508 10132122
-0.82530606 0.10833043 1.7203717 10066329
-0.77535695 0.108422 1.7218256 9934743
-0.72497469 0.10851488 1.7231411 2434341
-0.67485458 0.10860671 1.7245994 2302755
-0.62501073 0.10869756 1.7262019 10066329
-0.57507402 0.10878963 1.7275041 10197915
-0.52506346 0.10888078 1.7291117 10197915
-0.47531673 0.10897198 1.7305598 10197915
-0.4228839 0.10909475 1.724431 10197915
-0.37491941 0.10919372 1.7226515 10197915
-0.32499284 0.10928458 1.7242967 10197915
-0.27522662 0.10937726 1.7253289 10197915
-0.23653294 0.10944804 1.7264879 7042950
-0.15071937 0.10967841 1.7079968 662844
-0.12801096 0.10884816 1.7202855 8422537
-0.075202271 0.10978065 1.7206017 10132122
-0.024968501 0.10987229 1.722195 10132122
0.024996275 0.10996393 1.723632 10132122
0.075044498 0.11005576 1.7250712 10132122
0.1248097 0.11014757 1.7263478 10132122
0.17466961 0.11023849 1.7279357 10132122
0.22460176 0.11033057 1.7292163 10132122
0.26674476 0.11040583 1.7310266 10132122
0.38670304 0.11067215 1.7211829 10197915
0.42508098 0.11073584 1.7242215 10197915
0.47525042 0.1108272 1.7258532 10132122
0.52501673 0.11091854 1.727275 10132122
0.5725767 0.11102358 1.7235258 10197915
0.62515998 0.11113908 1.7195566 10197915
0.67522979 0.11123047 1.7211298 4482187
0.725025 0.11132187 1.7225447 1059918
0.77453727 0.11141329 1.7237991 4871783
0.82485741 0.11150514 1.7253802 10132122
0.87525994 0.11159818 1.7266597 10132122
0.92501843 0.11168899 1.7282249 9737364
0.97486168 0.11178102 1.7294881 2302755
1.0273497 0.11189848 1.7249136 2039583
1.0748314 0.11200086 1.7219099 2039583
1.1249768 0.11209293 1.723325 2894892
1.1747205 0.11218353 1.724931 9342606
1.2247907 0.11227618 1.7261428 10197915
1.2751826 0.1123687 1.7275649 10197915
1.3177553 0.11245427 1.726644 10197915
-0.84581447 -0.80156362 1.795221 2039583
-0.85122401 -0.76781785 1.7589397 2039583
-0.84756768 -0.77383375 1.7837433 2039583
-0.8512848 -0.72510207 1.7592407 2039583
-0.84767604 -0.72493416 1.7838254 2039583
-0.85137564 -0.67506957 1.7594618 2039583
-0.84776348 -0.67498195 1.7840663 2039583
0.23824838 -0.6574198 1.7765288 4329231
0.25647765 -0.6643368 1.7748499 4329231
-0.85147482 -0.62502563 1.7596226 2039583
-0.84785968 -0.62501794 1.7842474 2039583
0.14479816 -0.60289383 1.7852058 9197913
0.18056396 -0.61399257 1.7819201 8342604
0.22419335 -0.62653476 1.7792648 5052954
0.25437859 -0.63291472 1.7776865 4329231
-0.85142148 -0.57448626 1.7608355 2039583
-0.8478089 -0.57516259 1.7854279 2039583
0.085740142 -0.55888212 1.7907238 9197913
0.12688275 -0.57150161 1.7872146 9197913
0.17026876 -0.58488947 1.7845839 8868948
0.20538719 -0.59679055 1.7867684 6566193
0.27474183 -0.59948105 1.775828 4329231
0.39371786 -0.59923214 1.7712849 4329231
0.42500573 -0.5991798 1.7745547 4329231
0.47505414 -0.59907991 1.7742943 4068380
0.52501702 -0.59898007 1.7740102 4003877
0.57476276 -0.59888083 1.7737026 2040104
0.6248287 -0.59878093 1.7734222 2039583
0.67499363 -0.59868723 1.7753537 2569280
0.72500736 -0.59858721 1.7749835 3693696
0.775006 -0.59848726 1.7747087 2768466
0.82498723 -0.59838754 1.7744123 6184801
0.87507468 -0.59828752 1.7740951 5725023
0.92457342 -0.59819269 1.7751791 2899795
0.97495413 -0.59809464 1.775745 2176071
1.025009 -0.59799463 1.7754263 4539717
1.0550555 -0.59793907 1.7767512 6513507
-0.85149181 -0.52493525 1.761182 2039583
-0.84787154 -0.52480173 1.7858447 2039583
-0.0031759264 -0.50639731 1.7721461 9197913
0.0011107081 -0.5017091 1.7861794 9197913
0.085062467 -0.53706521 1.7911628 9197913
0.11179919 -0.54200649 1.7899672 9197913
-0.85158378 -0.47512916 1.7613914 2039583
-0.84796768 -0.47491458 1.7860249 2039583
0.016964428 -0.47510922 1.774791 9197913
-0.85180438 -0.42449325 1.760736 2039583
-0.84802645 -0.42526811 1.7864554 2039583
0.041351564 -0.43663463 1.7739639 9197913
0.057380866 -0.41158986 1.7750885 2372683
-0.85177106 -0.37489435 1.7617948 2039583
-0.84797913 -0.37507617 1.7876192 2039583
0.080618091 -0.37501916 1.7749157 5855591
0.59059721 -0.35477069 1.7687516 2039583
-0.85186654 -0.32489944 1.7619845 2039583
-0.84807026 -0.32508796 1.7878374 2039583
0.097865842 -0.34701133 1.7688861 11711154
0.11417606 -0.32229862 1.7752994 5197647
0.49023512 -0.30587003 1.7549373 1908770
0.52233106 -0.32172397 1.753529 1453895
0.56649792 -0.33955345 1.7690128 1584450
-0.85196644 -0.27496085 1.7621366 2039583
-0.8482756 -0.27562127 1.7872643 2039583
0.139015 -0.28297719 1.7735424 2039583
0.15516742 -0.25802746 1.7766401 2106924
0.39759958 -0.25162315 1.7635393 4215397
0.42921081 -0.26392838 1.761488 2236962
0.46989501 -0.28681514 1.7590268 2039583
0.50216699 -0.29880089 1.772162 2039583
-0.85196626 -0.22441566 1.7629861 2039583
-0.84834647 -0.22571923 1.787618 2039583
0.1761408 -0.22475892 1.7747011 2179425
0.39220399 -0.23867474 1.7650889 1980240
0.40882599 -0.24426968 1.7659764 1648952
-0.85198212 -0.17493838 1.763705 2039583
-0.84835833 -0.17502172 1.7883844 2039583
0.1956535 -0.19369994 1.7721642 1388106
0.20575425 -0.17834987 1.7758231 1190727
0.28120652 -0.16614732 1.7754217 7568002
-0.85206926 -0.12496051 1.763947 2039583
-0.84844095 -0.12498152 1.7886605 2039583
0.19388528 -0.10428002 1.7728866 1782861
0.22526164 -0.12400165 1.7742356 2699836
0.25854751 -0.14473711 1.7807802 2440018
-0.85217822 -0.074851729 1.7640448 2039583
-0.84854978 -0.075180359 1.7887557 2039583
0.12914596 -0.063378654 1.774007 2039583
0.16893668 -0.088448137 1.7746189 1849170
-0.85211581 -0.024581324 1.7653141 2039583
-0.84849042 -0.025658449 1.7899886 2039583
0.039435707 -0.0067451801 1.7747344 2039583
0.075335808 -0.029397981 1.7746428 2039583
0.10458149 -0.047682237 1.7777309 2039583
-0.8521806 0.024871746 1.7656996 2039583
-0.84855199 0.025219977 1.7904212 2039583
-0.050161723 0.048707761 1.754773 2039583
-0.025237815 0.034066737 1.77496 2039583
0.014230589 0.0091525391 1.7746758 2039583
-0.85228974 0.074903116 1.7657914 6974058
-0.84865594 0.075205117 1.7905524 6908265
-0.1138312 0.089887105 1.7736641 10132122
-0.0749797 0.065431587 1.774676 6118749
-0.85228258 0.10428058 1.7655476 10132122
-0.83216268 0.10688782 1.7801522 10066329
-0.77767217 0.10824934 1.7701 8355711
-0.7252081 0.10836093 1.7671962 2039583
-0.67489392 0.10845242 1.7688619 4079166
-0.62449694 0.10854526 1.7702025 10197915
-0.57473987 0.10863578 1.7718521 10197915
-0.52489889 0.10872758 1.773176 10197915
-0.47497585 0.1088184 1.7748308 10197915
-0.42496595 0.10891052 1.7761593 10197915
-0.37487587 0.10900164 1.7778199 10197915
-0.32506362 0.10909282 1.7793068 10197915
-0.27480412 0.10918538 1.7806422 10197915
-0.23696311 0.10925406 1.7819366 4610672
-0.12461819 0.10874915 1.7736067 10132122
-0.075015627 0.10959119 1.7750964 10197915
-0.026937019 0.10968629 1.7745005 10197915
0.024895243 0.10981215 1.7671565 10197915
0.075104006 0.10990468 1.7684749 10197915
0.12539983 0.10999626 1.7701197 10132122
0.17504235 0.11008777 1.7714157 10132122
0.22476727 0.11017825 1.7730479 10132122
0.27055362 0.11026074 1.774798 10132122
0.39275452 0.11049217 1.7762284 10197915
0.42486405 0.11054538 1.7787794 10197915
0.47500491 0.11063668 1.7804251 10132122
