# .PCD v0.7 - Point Cloud Data file format
VERSION 0.7
FIELDS x y z rgb
SIZE 4 4 4 4
TYPE F F F U
COUNT 1 1 1 1
WIDTH 1173
HEIGHT 1
VIEWPOINT 0 0 0 1 0 0 0
POINTS 1173
DATA ascii
-0.47137752 -0.12498183 0.97415596 2894892
-0.47139481 -0.074993052 0.97413868 2894892
-0.47137997 -0.024986178 0.97417569 2894892
-0.47138149 0.024986358 0.9741798 2894892
-0.47140124 0.074994445 0.97415453 2894892
-0.4701955 0.108462 0.9733296 8355711
-0.42500225 0.11484155 0.97265482 10197915
-0.374486 0.11479322 0.97461689 10197915
-0.32515463 0.11474812 0.97528607 10197915
-0.27494821 0.11470412 0.97490942 10197915
-0.22498198 0.11466029 0.97450948 10197915
-0.17500345 0.11461649 0.97413146 10197915
-0.12501289 0.1145726 0.97375715 10197915
-0.075009614 0.11452856 0.97348791 10197915
-0.025807187 0.11448214 0.97500461 10197915
0.025011759 0.11443513 0.97606373 10197915
0.075008146 0.11439132 0.9756729 10197915
0.12502444 0.11434749 0.97526956 10197915
0.17500241 0.11430362 0.97490954 10197915
0.22499958 0.11425973 0.97456759 10197915
0.27507338 0.1142158 0.97417855 10197915
0.32510838 0.11417188 0.9738186 10197915
0.37504929 0.11412805 0.97346056 10197915
0.42494932 0.1140844 0.97300977 10197915
0.47498506 0.11404038 0.97272867 10197915
0.52525157 0.11399593 0.9725287 10197915
0.57503593 0.11394687 0.97528338 10197915
0.6250006 0.11390293 0.97499013 10197915
0.67497694 0.11385912 0.97459501 10197915
0.72506648 0.11381521 0.97417879 10197915
0.76549089 0.11376625 0.98173892 10197915
-0.45101464 -0.45059738 1.0086335 2960685
-0.43521985 -0.45662549 1.0354208 2960685
-0.45304739 -0.42465383 1.0051934 2960685
-0.43856955 -0.42499053 1.0297527 2960685
-0.45306972 -0.37495711 1.0051666 2960685
-0.438566 -0.37498027 1.0297654 2960685
-0.45307642 -0.32495272 1.0051645 2960685
-0.43857065 -0.3249698 1.0297694 2960685
-0.4530772 -0.27498326 1.0051709 2960685
-0.43856928 -0.27498615 1.0297817 2894892
-0.4532665 -0.22464074 1.0048593 2894892
-0.43856859 -0.2250008 1.0297921 2894892
-0.45331684 -0.17496146 1.0047839 2894892
-0.43858191 -0.17499794 1.0297787 2894892
-0.45315623 -0.12461113 1.0050656 2894892
-0.43840647 -0.12510312 1.0300828 2894892
-0.45309192 -0.07498949 1.0051885 2894892
-0.43833563 -0.075000003 1.0302143 2894892
-0.45308426 -0.0249868 1.0052108 2894892
-0.43832886 -0.025009941 1.0302366 2894892
-0.45308658 0.024987003 1.0052214 2894892
-0.43833119 0.025010128 1.0302418 2894892
-0.45309982 0.074990839 1.0052091 2894892
-0.43834242 0.075001515 1.0302304 2894892
-0.45308712 0.10764441 1.0050946 8158332
-0.43338183 0.10957365 1.0270169 8750469
-0.37590241 0.11470934 1.0242108 10197915
-0.32502162 0.11466265 1.0249995 10197915
-0.27501562 0.11461864 1.024704 10197915
-0.22497852 0.11457486 1.0242697 10197915
-0.17497943 0.11453103 1.0238554 10197915
-0.12501864 0.11448724 1.0234864 10197915
-0.074209258 0.11443789 1.0258782 10197915
-0.024970602 0.11439313 1.0264307 10197915
0.025018584 0.11434922 1.0260937 10197915
0.075028434 0.11430542 1.0256808 10197915
0.12500052 0.11426159 1.0253072 10197915
0.17499474 0.11421792 1.0248233 10197915
0.22501141 0.11417394 1.0245026 10197915
0.27498955 0.11413008 1.024146 10197915
0.32511002 0.11408619 1.0237172 10197915
0.37507293 0.11404248 1.0232844 10197915
0.4249354 0.11399874 1.0228951 10197915
0.47500175 0.11395469 1.0225911 10197915
0.52480048 0.11391082 1.0223414 10197915
0.57496673 0.11386076 1.0254937 10197915
0.62492973 0.11381688 1.0251317 10197915
0.67506546 0.11377303 1.0246735 10197915
0.72516215 0.11372898 1.0243618 10197915
0.77515131 0.11368524 1.0239348 10197915
0.81086123 0.11363816 1.0328326 10197915
-0.4120692 -0.46542796 1.0746843 2960685
-0.39868882 -0.47044474 1.0973758 2960685
-0.4135468 -0.42500362 1.0721852 2960685
-0.39870489 -0.42498115 1.0973575 2960685
-0.41355082 -0.37501112 1.0721883 2960685
-0.39870536 -0.37506577 1.0973661 2960685
-0.4135505 -0.32502711 1.0722002 2894892
-0.39870813 -0.32505894 1.0973735 2894892
-0.41355374 -0.27501562 1.0722051 2894892
-0.39871415 -0.27496076 1.0973732 2894892
-0.41355145 -0.2250126 1.0722204 2894892
-0.398716 -0.22495256 1.0973793 2894892
-0.413562 -0.17501763 1.0722113 2894892
-0.39871493 -0.17503506 1.0973927 2894892
-0.41355526 -0.1250131 1.0722344 2894892
-0.39871702 -0.12502572 1.0973983 2894892
-0.41356665 -0.074990325 1.0722243 2894892
-0.39871898 -0.075015873 1.0974048 2894892
-0.41356146 -0.024985509 1.0722433 2894892
-0.39872175 -0.025005426 1.0974118 2894892
-0.41356298 0.024985664 1.0722506 2894892
-0.39872429 0.02500562 1.0974181 2894892
-0.4135724 0.074991807 1.0722418 2894892
-0.3987262 0.075017199 1.0974246 2894892
-0.41313633 0.10807351 1.0714414 8421504
-0.37933338 0.11322647 1.0771451 9803157
-0.32479727 0.11458173 1.0720077 10197915
-0.2750265 0.11453811 1.0716125 10197915
-0.2250706 0.11449441 1.0711544 10197915
-0.17452079 0.11444894 1.071419 10197915
-0.12495732 0.11439959 1.0744789 10197915
-0.075848795 0.11435194 1.0767889 10197915
-0.025006291 0.11430503 1.0777502 10197915
0.024993533 0.11426128 1.0773382 10197915
0.075028233 0.11421735 1.0769861 10197915
0.12502439 0.11417367 1.0765123 10197915
0.17498261 0.11412995 1.0760641 10197915
0.22497685 0.11408609 1.0756744 10197915
0.27493221 0.11404225 1.0753112 10197915
0.32514536 0.11399829 1.0748979 10197915
0.37524736 0.11395448 1.0744447 10197915
0.42508751 0.11391076 1.0740584 10197915
0.47503713 0.11386707 1.0735987 10197915
0.52502322 0.11382325 1.073199 10197915
0.5750435 0.11377936 1.0728327 10197915
0.62502635 0.11373559 1.0724213 10197915
0.67489588 0.11369194 1.0719953 10197915
0.72494906 0.11364815 1.0715607 10197915
0.77503645 0.11360434 1.0711083 10197915
0.82328713 0.11355942 1.0722603 10197915
0.8598358 0.11349782 1.0891739 10197915
-0.3742035 -0.50476938 1.1388948 2960685
-0.38252351 -0.47430968 1.1247883 2960685
-0.38285047 -0.42499635 1.1242399 2960685
-0.38286099 -0.37505016 1.1242319 2894892
-0.38285345 -0.32503912 1.1242577 2894892
-0.38286319 -0.27498934 1.1242553 2894892
-0.38286734 -0.22499505 1.1242602 2894892
-0.38287112 -0.17501895 1.1242625 2894892
-0.382862 -0.12501399 1.1242884 2894892
-0.38287848 -0.075018339 1.1242706 2894892
-0.38286641 -0.025031772 1.124305 2894892
-0.38286939 0.025031988 1.1243107 2894892
-0.38288519 0.075019598 1.1242944 2894892
-0.37958539 0.10883088 1.1232784 8684676
-0.32478687 0.11449343 1.1234487 10197915
-0.275038 0.11444997 1.1229676 10197915
-0.22501558 0.1144061 1.1225656 10197915
-0.17548753 0.11436172 1.1227436 10197915
-0.12485705 0.1143106 1.1262512 10197915
-0.074904278 0.11426713 1.1256852 10197915
-0.024991667 0.11422322 1.1253902 10197915
0.025071882 0.11417956 1.124892 10197915
0.075002119 0.11413573 1.1245283 10197915
0.12489443 0.11409222 1.1239971 10197915
0.17493446 0.11404829 1.1236326 10197915
0.22502925 0.11400446 1.1232016 10197915
0.27508554 0.11396071 1.1227368 10197915
0.32592574 0.11391232 1.1245568 10197915
0.37472889 0.11386569 1.1264098 10197915
0.42488673 0.11382165 1.1260458 10197915
0.47492781 0.11377811 1.1254709 10197915
0.52493107 0.11373411 1.1251509 10197915
0.57497364 0.11369046 1.1246483 10197915
0.62497711 0.11364657 1.1242844 10197915
0.67501938 0.11360278 1.123852 10197915
0.72510076 0.11355904 1.1233763 10197915
0.77498937 0.11351522 1.1230139 10197915
0.82491493 0.11347166 1.1224978 10197915
0.87116134 0.11342349 1.1265866 10197915
0.90438491 0.11336674 1.1424128 10197915
-0.35804868 -0.51092881 1.1662922 2960685
-0.34382451 -0.5162819 1.1904163 2960685
-0.35899282 -0.47502351 1.1647044 2960685
-0.34410372 -0.47496229 1.1899506 2960685
-0.35899496 -0.42501605 1.1647108 2894892
-0.34410089 -0.42498153 1.189968 2894892
-0.35899413 -0.37502524 1.1647223 2894892
-0.34410942 -0.37491834 1.1899648 2894892
-0.35901347 -0.32501754 1.1646992 2894892
-0.34411001 -0.32493675 1.1899749 2894892
-0.35900185 -0.27499121 1.1647282 2894892
-0.34411255 -0.27500895 1.1899796 2894892
-0.35900795 -0.22499859 1.16473 2894892
-0.34411258 -0.2249987 1.189988 2894892
-0.35900438 -0.17498834 1.1647434 2894892
-0.34411326 -0.17496052 1.1899953 2894892
-0.35900685 -0.12499485 1.1647457 2894892
-0.34411982 -0.12497651 1.1899954 2894892
-0.359016 -0.074966386 1.1647369 2894892
-0.34410691 -0.075018868 1.1900281 2894892
-0.35901004 -0.024955202 1.1647596 2894892
-0.34412745 -0.025007389 1.1900028 2894892
-0.35901186 0.024955379 1.164768 2894892
-0.34412929 0.025007574 1.1900105 2894892
-0.35902163 0.074967824 1.1647578 2894892
-0.34411314 0.075020291 1.1900505 2894892
-0.3587974 0.10768333 1.1645581 8421504
-0.33438835 0.11066938 1.1824107 9211020
-0.27505264 0.11436124 1.1746222 10197915
-0.22503655 0.11431736 1.1742504 10197915
-0.17505918 0.1142737 1.1737612 10197915
-0.1251201 0.11422998 1.1733526 10197915
-0.075023875 0.11418641 1.1727506 10197915
-0.024968112 0.11414238 1.1724532 10197915
0.025052458 0.1140987 1.172004 10197915
0.075031541 0.11405522 1.1714025 10197915
0.12497448 0.11401127 1.1711061 10197915
0.1750719 0.11396752 1.1706194 10197915
0.22513096 0.11392366 1.1702062 10197915
0.27540374 0.11387211 1.1741732 10197915
0.32374007 0.11382563 1.1761713 10197915
0.37492198 0.11377584 1.1786443 10197915
0.42505291 0.113732 1.1781873 10197915
0.47495225 0.11368823 1.1778139 10197915
0.52490997 0.11364465 1.1772826 10197915
0.57492614 0.11360092 1.1768318 10197915
0.62500077 0.11355699 1.1764541 10197915
0.67503786 0.11351349 1.1758471 10197915
0.72503388 0.11346943 1.1755863 10197915
0.77509052 0.11342587 1.1750188 10197915
0.825109 0.11338196 1.1746409 10197915
0.8749907 0.11333847 1.1741136 10197915
0.91854185 0.11329249 1.1783469 10197915
-0.31270587 -0.55307257 1.2431871 2960685
-0.3229239 -0.52322596 1.2258639 2960685
-0.32369587 -0.47499749 1.224568 2894892
-0.32367101 -0.42500338 1.2246215 2894892
-0.32368627 -0.37494814 1.2246032 2894892
-0.32367945 -0.32496476 1.2246253 2894892
-0.32368925 -0.27500567 1.2246166 2894892
-0.32369226 -0.22498517 1.2246245 2894892
-0.32368821 -0.1749758 1.2246419 2894892
-0.32369974 -0.12499042 1.2246333 2894892
-0.32368541 -0.075004309 1.224668 2894892
-0.32369703 -0.024994399 1.2246587 2894892
-0.32369906 0.024994591 1.2246648 2894892
-0.32369086 0.074993595 1.2246876 2894892
-0.32205036 0.10830005 1.2239107 8684676
-0.27486661 0.11427305 1.2258793 10197915
-0.22490577 0.11422931 1.225454 10197915
-0.17498504 0.11418568 1.2249874 10197915
-0.12499962 0.11414208 1.2244741 10197915
-0.074951939 0.11409809 1.2241359 10197915
-0.024942236 0.11405468 1.2235359 10197915
0.02492955 0.11401109 1.2230692 10197915
0.074963741 0.11396722 1.2226881 10197915
0.12506126 0.11392349 1.222176 10197915
0.17501873 0.1138799 1.2216619 10197915
0.22493871 0.11383616 1.2212816 10197915
0.27436692 0.11378511 1.2253891 10197915
0.32484111 0.11373963 1.2256733 10197915
0.37484059 0.11369603 1.2251751 10197915
0.42492706 0.11365213 1.2247574 10197915
0.4749732 0.11360849 1.224232 10197915
0.5249815 0.11356504 1.2235986 10197915
0.57495278 0.11352111 1.2232904 10197915
0.62534845 0.11347606 1.2234112 10197915
0.67484832 0.11342464 1.2276919 10197915
0.72492427 0.11338086 1.2272216 10197915
0.77495933 0.11333718 1.2267449 10197915
0.82485688 0.1132934 1.2263619 10197915
0.87491572 0.11324981 1.2258028 10197915
0.92493713 0.11320598 1.2253705 10197915
0.96509999 0.11315807 1.2324785 10197915
-0.30384734 -0.55650645 1.2582099 2960685
-0.28842226 -0.56231028 1.2843696 2960685
-0.30425611 -0.52506077 1.2575227 2894892
-0.28956264 -0.5249666 1.2824457 2894892
-0.30425677 -0.47504956 1.2575327 2894892
-0.28955919 -0.47496766 1.2824645 2894892
-0.30425373 -0.42503774 1.2575482 2894892
-0.28956568 -0.42496875 1.2824608 2894892
-0.3042548 -0.3749817 1.2575583 2894892
-0.28956246 -0.37496909 1.2824767 2894892
-0.30426347 -0.3249253 1.2575535 2894892
-0.28957182 -0.32496825 1.2824714 2894892
-0.30426165 -0.27499887 1.257567 2894892
-0.28956875 -0.27498701 1.2824869 2894892
-0.30425695 -0.22502768 1.2575853 2894892
-0.28956088 -0.22500478 1.2825111 2894892
-0.30426309 -0.17496921 1.2575837 2894892
-0.28957626 -0.17500252 1.2824949 2894892
-0.3042804 -0.12495414 1.2575639 2894892
-0.28958049 -0.12498034 1.282496 2894892
-0.3042661 -0.074982375 1.2575989 2894892
-0.28957647 -0.074996062 1.2825105 2894892
-0.30426154 -0.025008751 1.2576176 2894892
-0.28957215 -0.025013186 1.2825291 2894892
-0.30426344 0.025008952 1.2576257 2894892
-0.28957349 0.025013406 1.2825377 2894892
-0.30427209 0.074983694 1.2576221 2894892
-0.28958139 0.074997328 1.2825366 2894892
-0.30427891 0.10719692 1.2575755 8421504
-0.28413758 0.10926926 1.2798851 9013641
-0.22498617 0.11414354 1.2754579 10197915
-0.17498101 0.11409961 1.2750936 10197915
-0.12488277 0.11405593 1.274574 10197915
-0.074953817 0.11401249 1.274024 10197915
-0.025064759 0.11396877 1.2736003 10197915
0.025051931 0.11392505 1.2731118 10197915
0.074997351 0.11388137 1.2726547 10197915
0.12490344 0.11383797 1.2720752 10197915
0.17490432 0.11379424 1.2716488 10197915
0.2248667 0.11375066 1.2711012 10197915
0.27560207 0.11370468 1.2715948 10197915
0.32499272 0.1136532 1.2759355 10197915
0.3749637 0.11360942 1.2755461 10197915
0.42499787 0.11356603 1.2748591 10197915
0.47499663 0.11352202 1.2745651 10197915
0.52506059 0.11347844 1.2739786 10197915
0.57508624 0.11343469 1.2735332 10197915
0.62467521 0.11339085 1.2733915 10197915
0.67499131 0.11333751 1.2783833 10197915
0.72502619 0.11329374 1.2778906 10197915
0.77502209 0.11325006 1.2774597 10197915
0.82510769 0.11320657 1.276814 10197915
0.87502688 0.11316288 1.276319 10197915
0.92490721 0.11311919 1.2759525 10197915
0.97487903 0.11307558 1.2754296 10197915
1.0106835 0.11302824 1.2844486 10197915
-0.2520082 -0.6011188 1.3461217 11711154
-0.24993502 -0.6021924 1.3496376 11711154
-0.2638177 -0.57149518 1.3260958 5526612
-0.24993581 -0.57535553 1.3496419 6579300
-0.26497886 -0.52499497 1.324141 2894892
-0.24993731 -0.52503598 1.3496497 2894892
-0.26496428 -0.47499862 1.3241783 2894892
-0.24993873 -0.47471589 1.3496577 2894892
-0.26496157 -0.42500043 1.3241928 2894892
-0.24994022 -0.42495421 1.3496656 2894892
-0.26497394 -0.37500313 1.3241823 2894892
-0.24994166 -0.37519205 1.3496735 2894892
-0.2649802 -0.32500443 1.3241814 2894892
-0.24994314 -0.32487017 1.3496814 2894892
-0.26497 -0.27500522 1.324211 2894892
-0.24994458 -0.27510679 1.3496895 2894892
-0.26497084 -0.22500564 1.3242191 2894892
-0.24994595 -0.22534275 1.3496968 2894892
-0.26497746 -0.17500538 1.3242137 2894892
-0.24994735 -0.17501907 1.3497046 2894892
-0.26498735 -0.12502015 1.3242056 2894892
-0.2499489 -0.12469482 1.3497125 2894892
-0.26498169 -0.075003415 1.3242246 2894892
-0.24995036 -0.07492917 1.3497205 2894892
-0.26497158 -0.024986334 1.3242522 2894892
-0.24995181 -0.025162905 1.3497283 2894892
-0.26497293 0.024986494 1.3242587 2894892
-0.24995327 0.02516311 1.3497363 2894892
-0.26498559 0.075004794 1.3242493 2894892
-0.24995475 0.074930534 1.3497443 2894892
-0.26448897 0.10783036 1.3232783 8750469
-0.22676343 0.11357716 1.3253928 10066329
-0.17500147 0.1140171 1.32318 10197915
-0.12507184 0.11397345 1.3226746 10197915
-0.075041682 0.11393006 1.3220674 10197915
-0.02491482 0.11388621 1.3216265 10197915
0.024902133 0.11384269 1.3211219 10197915
0.074952245 0.11379918 1.3205489 10197915
0.12510256 0.11375517 1.3201414 10197915
0.17507641 0.11371178 1.3195006 10197915
0.22514772 0.11366775 1.3192303 10197915
0.27443379 0.11362412 1.3191143 10197915
0.32634163 0.11356077 1.3291333 10197915
0.37498647 0.11351576 1.3301176 10197915
0.42496902 0.11347196 1.329676 10197915
0.47504756 0.11342858 1.3289921 10197915
0.52509063 0.11338464 1.328583 10197915
0.57509387 0.11334103 1.3281063 10197915
0.62506026 0.11329751 1.3275605 10197915
0.67512172 0.11325383 1.3269818 10197915
0.7251482 0.11321014 1.3265371 10197915
0.77513349 0.11316656 1.325959 10197915
0.82508248 0.11312289 1.3255155 10197915
0.87499112 0.11307955 1.3249378 10197915
0.92499882 0.11303567 1.3245285 10197915
0.97496682 0.11299204 1.3239859 10197915
1.0234002 0.11294757 1.3248049 10197915
1.0572333 0.11289417 1.3383857 10197915
-0.23162946 -0.60887551 1.3806832 11711154
-0.23520426 -0.5750165 1.374632 6513507
-0.23520067 -0.52502459 1.3746471 2894892
-0.23519634 -0.47503242 1.3746613 2894892
-0.23521142 -0.42502216 1.3746433 2894892
-0.23520663 -0.37502933 1.3746634 2894892
-0.2352076 -0.32505235 1.3746672 2894892
-0.23521514 -0.27502367 1.3746663 2894892
-0.23521028 -0.22499366 1.3746836 2894892
-0.23520395 -0.17501542 1.3747071 2894892
-0.23521501 -0.12501904 1.3746998 2894892
-0.23520304 -0.074987523 1.3747296 2894892
-0.23522483 -0.024991559 1.374702 2894892
-0.2352269 0.024991736 1.3747157 2894892
-0.23520799 0.074988872 1.3747611 2894892
-0.23138671 0.10860457 1.3739462 8947848
-0.1750236 0.11392807 1.3750361 10197915
-0.12498944 0.11388462 1.3743958 10197915
-0.074994572 0.11384074 1.3740616 10197915
-0.025038145 0.1137975 1.3733449 10197915
0.025025336 0.11375389 1.3728181 10197915
0.075047724 0.11370981 1.3725208 10197915
0.12503067 0.1136668 1.3716892 10197915
0.17497824 0.1136231 1.3712397 10197915
0.22488494 0.11357916 1.3709437 10197915
0.27489784 0.11353602 1.3701509 10197915
0.32343015 0.11348592 1.3741822 10197915
0.37489274 0.11343713 1.3759257 10197915
0.42489091 0.11339347 1.3753991 10197915
0.47504285 0.11334963 1.3749696 10197915
0.52496451 0.1133064 1.3742368 10197915
0.57484913 0.1132626 1.3739144 10197915
0.62488478 0.11321909 1.3732836 10197915
0.67507082 0.11317555 1.37265 10197915
0.72577089 0.11312039 1.3784589 10197915
0.7749722 0.11307669 1.3784306 10197915
0.82505399 0.11303281 1.3780162 10197915
0.87509465 0.11298919 1.3774427 10197915
0.9250977 0.1129456 1.3769528 10197915
0.97506213 0.11290222 1.3763041 10197915
1.025129 0.1128584 1.3758507 10197915
1.0717638 0.11281246 1.3784561 10197915
1.1049821 0.11275329 1.3957005 10197915
-0.20962618 -0.61664438 1.4179993 11711154
-0.19537717 -0.6181199 1.4421649 11711154
-0.21016933 -0.57499027 1.4170843 6513507
-0.19537541 -0.57497281 1.4421771 6513507
-0.21017815 -0.52501136 1.4170821 2894892
-0.19537914 -0.52491969 1.4421837 2894892
-0.21017504 -0.47500613 1.4170966 2894892
-0.19537495 -0.47493374 1.4421984 2894892
-0.21017161 -0.42499885 1.4171143 2894892
-0.19537902 -0.42494628 1.4422015 2894892
-0.21018319 -0.37507203 1.4171052 2894892
-0.19538017 -0.37502515 1.4422113 2894892
-0.21016949 -0.32503739 1.417142 2894892
-0.19537313 -0.32503706 1.4422344 2894892
-0.21019503 -0.27497599 1.417107 2894892
-0.1953797 -0.27491537 1.4422331 2894892
-0.21018088 -0.22499378 1.4171414 2894892
-0.19539118 -0.22499263 1.4422224 2894892
-0.2101808 -0.17501099 1.4171511 2894892
-0.19537668 -0.17506893 1.4422596 2894892
-0.21018089 -0.12500088 1.4171627 2894892
-0.19538036 -0.12501158 1.4422621 2894892
-0.21017389 -0.074990265 1.4171838 2894892
-0.1954025 -0.075088397 1.4422339 2894892
-0.21020408 -0.025006883 1.417141 2894892
-0.19538021 -0.025095847 1.4422816 2894892
-0.21020533 0.025007078 1.4171474 2894892
-0.19538106 0.025096044 1.442293 2894892
-0.21017775 0.074991666 1.4172029 2894892
-0.19540587 0.075089768 1.4422609 2894892
-0.2099037 0.107385 1.4169968 8750469
-0.18392673 0.110686 1.4320836 9539985
-0.12500606 0.11380057 1.4233612 10197915
-0.075053245 0.11375725 1.4227041 10197915
-0.024944771 0.11371364 1.4221584 10197915
0.02493207 0.11367019 1.4216151 10197915
0.074963801 0.11362657 1.4210696 10197915
0.12667468 0.11357347 1.4251841 10197915
0.17501906 0.11352692 1.4272485 10197915
0.22504477 0.11348354 1.4265695 10197915
0.27502981 0.1134396 1.4262382 10197915
0.32512578 0.11339609 1.4256043 10197915
0.37518427 0.11335249 1.425056 10197915
0.42490733 0.11330932 1.4244227 10197915
0.47474211 0.11326567 1.4240079 10197915
0.52497697 0.11322221 1.4232897 10197915
0.57502759 0.11317836 1.4228669 10197915
0.62489128 0.11313479 1.4224055 10197915
0.67471832 0.11309153 1.4217747 10197915
0.72379166 0.11303847 1.4272069 10197915
0.77477074 0.11299187 1.4279294 10197915
0.82473874 0.11294834 1.4273796 10197915
0.87486225 0.11290444 1.4269431 10197915
0.92494541 0.11286101 1.4262761 10197915
0.97499317 0.11281742 1.4257253 10197915
1.0248041 0.11277398 1.4251765 10197915
1.0747757 0.11273068 1.4245144 10197915
1.1176668 0.11268694 1.4277439 10197915
-0.17851698 -0.61810929 1.4707623 11711154
-0.1785429 -0.5750221 1.4707233 6579300
-0.17851983 -0.52503693 1.4707768 2894892
-0.17854105 -0.47502682 1.4707499 2894892
-0.17852968 -0.42501628 1.470781 2894892
-0.17853367 -0.37507862 1.4707847 2894892
-0.17853357 -0.32506609 1.4707946 2894892
-0.17852575 -0.27500507 1.470819 2894892
-0.17855133 -0.22499226 1.4707845 2894892
-0.17852673 -0.17502744 1.4708356 2894892
-0.17853351 -0.12503797 1.4708331 2894892
-0.17856331 -0.075022638 1.4707935 2894892
-0.17852376 -0.025033673 1.4708706 2894892
-0.17852481 0.025033886 1.4708785 2894892
-0.17856686 0.075024031 1.4708195 2894892
-0.17531952 0.1084846 1.4707752 9079434
-0.1250218 0.11371092 1.4755799 10197915
-0.075016223 0.11366703 1.4752527 10197915
-0.025048986 0.11362392 1.4744515 10197915
0.025036165 0.11358033 1.4738857 10197915
0.07492689 0.11353648 1.4735588 10197915
0.12309096 0.11348838 1.4766034 10197915
0.1749555 0.11343633 1.4800369 10197915
0.22494456 0.11339257 1.4795978 10197915
0.27489659 0.1133493 1.4789011 10197915
0.32501119 0.1133057 1.4783348 10197915
0.37509042 0.11326209 1.4777632 10197915
0.42512792 0.1132185 1.4771978 10197915
0.47513038 0.11317497 1.4766266 10197915
0.52509081 0.11313146 1.4760624 10197915
0.57521772 0.11308761 1.4756182 10197915
0.62510419 0.11304461 1.4747977 10197915
0.67494923 0.1130008 1.4744854 10197915
0.72496217 0.11295746 1.4737918 10197915
0.77493566 0.11291372 1.4733492 10197915
0.82486618 0.11287069 1.4725301 10197915
0.87496459 0.11282685 1.4720879 10197915
0.92502475 0.11278326 1.4715189 10197915
0.97504407 0.11273952 1.4710752 10197915
1.0250249 0.11269618 1.4703833 10197915
1.0749696 0.11265272 1.4698155 10197915
1.1250737 0.11260912 1.4692469 10197915
1.1620243 0.11256485 1.475855 10197915
-0.16004571 0.11364301 1.5332918 10197915
-0.12504107 0.11361375 1.5321832 10197915
-0.075080104 0.11357058 1.5314572 10197915
-0.024948858 0.11352695 1.5308683 10197915
0.024936149 0.11348356 1.5302837 10197915
0.074990556 0.11344 1.5296967 10197915
0.12501016 0.11339648 1.5291103 10197915
0.17498785 0.11335299 1.5285243 10197915
0.22514136 0.11330936 1.5279351 10197915
0.27525195 0.11326554 1.527488 10197915
0.32532674 0.11322222 1.5267586 10197915
0.37515453 0.11317886 1.5261745 10197915
0.42494047 0.11313556 1.5255902 10197915
0.47490197 0.11309208 1.5250051 10197915
0.52503175 0.11304823 1.5245569 10197915
0.57491302 0.11300507 1.5238307 10197915
0.62475955 0.11296196 1.5231094 10197915
0.67498147 0.11291776 1.5227973 10197915
0.72496045 0.11287453 1.5220709 10197915
0.77510577 0.1128309 1.521486 10197915
0.82521594 0.11278732 1.5208943 10197915
0.87507683 0.11274367 1.52045 10197915
0.92510659 0.11270063 1.5195867 10197915
0.97509885 0.11265667 1.5192763 10197915
1.0252601 0.11261327 1.5185516 10197915
1.0751771 0.11256984 1.5179623 10197915
1.125052 0.11252644 1.517381 10197915
1.1741748 0.11248224 1.5176581 10197915
1.2094107 0.11242971 1.5299777 10197915
-0.16254199 0.11357182 1.5760294 10197915
-0.12496293 0.11354017 1.5749959 10197915
-0.075012423 0.11349658 1.5745091 10197915
-0.025106145 0.1134534 1.5737926 10197915
0.026813481 0.1134044 1.5754169 10197915
0.074909836 0.11335112 1.5815042 10197915
0.1248781 0.11330768 1.5809035 10197915
0.17502311 0.11326382 1.580449 10197915
0.22491156 0.11322074 1.5796895 10197915
0.27498257 0.1131772 1.5790818 10197915
0.3252289 0.1131335 1.5784719 10197915
0.37522441 0.11308981 1.5780202 10197915
0.4249588 0.11304681 1.5772622 10197915
0.47487265 0.1130037 1.5765013 10197915
0.52475053 0.11296007 1.576052 10197915
0.57502282 0.11291608 1.575597 10197915
0.62525707 0.11287269 1.5748339 10197915
0.67523313 0.11282922 1.5742269 10197915
0.72517508 0.11278583 1.573622 10197915
0.77507442 0.11274244 1.5730178 10197915
0.8251549 0.1126989 1.5724089 10197915
0.87497759 0.11265559 1.5718048 10197915
0.92497998 0.11261187 1.5713513 10197915
0.97515869 0.11256851 1.5705901 10197915
1.0248661 0.11252531 1.5699867 10197915
1.0749685 0.11248173 1.5693837 10197915
1.1252437 0.11243804 1.5687692 10197915
1.1750548 0.11239474 1.568166 10197915
1.2221619 0.11234927 1.5702189 10197915
1.255591 0.11229397 1.5851046 10197915
-0.16503045 0.11349504 1.6220258 10197915
-0.12487575 0.11346222 1.6203527 10197915
-0.07494434 0.1134183 1.6200694 10197915
-0.025048064 0.11337522 1.6192837 10197915
0.023655206 0.1133308 1.61991 10197915
0.075175144 0.11327208 1.6273904 10197915
0.12535873 0.11322827 1.6268902 10197915
0.17516784 0.113185 1.6262685 10197915
0.22526909 0.11314169 1.6255171 10197915
0.27533981 0.11309799 1.6250178 10197915
0.32536533 0.11305473 1.6242679 10197915
0.37535796 0.11301109 1.6237698 10197915
0.42530778 0.11296791 1.6230206 10197915
0.47522262 0.11292436 1.6225232 10197915
0.52509689 0.11288123 1.6217749 10197915
0.57738352 0.1128251 1.6273539 10197915
0.62489378 0.11277821 1.6300488 10197915
0.67527872 0.11273445 1.6294162 10197915
0.72518069 0.1126911 1.628785 10197915
0.77481747 0.112648 1.6281663 10197915
0.82486665 0.1126045 1.6275383 10197915
0.87509614 0.11256085 1.6269081 10197915
0.92506713 0.11251719 1.6264495 10197915
0.97499901 0.11247411 1.6256533 10197915
1.0251124 0.11243058 1.625024 10197915
1.0749681 0.11238729 1.6243981 10197915
1.1250048 0.1123438 1.6237701 10197915
1.1750062 0.11230036 1.623142 10197915
1.2249651 0.11225698 1.6225154 10197915
1.2704507 0.11221039 1.6260765 10197915
1.3023787 0.11215682 1.6407385 10197915
-0.16840556 0.11339857 1.6799518 9013641
-0.1251878 0.11336202 1.6788815 10197915
-0.07508187 0.11331919 1.6778662 10197915
-0.025021868 0.1132751 1.6775948 10197915
0.025009079 0.11323167 1.6769514 10197915
0.074992381 0.11318891 1.6759374 10197915
0.12494491 0.11314496 1.6756667 10197915
0.1748552 0.11310226 1.6746536 10197915
0.22472763 0.11305829 1.6743838 10197915
0.2747947 0.11301516 1.6735573 10197915
0.3252807 0.11297136 1.6729083 10197915
0.3752712 0.11292794 1.6722606 10197915
0.42498887 0.11288478 1.6716262 10197915
0.47513264 0.11284126 1.6709818 10197915
0.5250051 0.11279766 1.6705235 10197915
0.57253891 0.11274918 1.6741116 10197915
0.62503237 0.11269396 1.6790425 10197915
0.67451245 0.11265077 1.6785446 10197915
0.72464877 0.1126075 1.6777582 10197915
0.7747426 0.11256382 1.6772486 10197915
0.82480282 0.11252058 1.6764629 10197915
0.87481797 0.11247692 1.6759542 10197915
0.92480218 0.11243375 1.6751696 10197915
0.9750852 0.11238965 1.6747959 10197915
1.0253307 0.11234652 1.6738696 10197915
1.0751982 0.11230299 1.6733626 10197915
1.1250211 0.11226 1.6725802 10197915
1.1751541 0.11221648 1.6719322 10197915
1.2249004 0.11217307 1.6714265 10197915
1.2749554 0.11212961 1.6707793 10197915
1.3154689 0.11208986 1.6729524 10197915
-0.17106269 0.11331269 1.7313411 9079434
-0.12474563 0.11327292 1.7305479 10197915
-0.07489004 0.11322998 1.7297324 10197915
-0.025075538 0.11318649 1.7292271 10197915
0.025062693 0.113143 1.7285628 10197915
0.074801035 0.11310012 1.727749 10197915
0.12450437 0.11305676 1.7272449 10197915
0.17488262 0.1130133 1.7264272 10197915
0.22522216 0.11296938 1.7259102 10197915
0.27516827 0.11292606 1.7252485 10197915
0.32507563 0.11288329 1.7242829 10197915
0.37493685 0.11283953 1.7239268 10197915
0.42476824 0.1127963 1.723266 10197915
0.4749189 0.11275305 1.7224514 10197915
0.52502275 0.11270934 1.7219372 10197915
0.57473916 0.11266621 1.7212781 10197915
0.62477094 0.11262307 1.720466 10197915
0.67476255 0.11257944 1.7199533 10197915
0.72471863 0.11253638 1.7191415 10197915
0.77463216 0.11249283 1.7186301 10197915
0.82577097 0.11244625 1.7192444 10197915
0.87523508 0.1123874 1.7278637 10197915
0.92522675 0.11234371 1.7273983 10197915
0.97494251 0.11230128 1.7263272 10197915
1.0248572 0.11225766 1.7258683 10197915
1.0749651 0.11221384 1.7253999 10197915
1.1250386 0.11217075 1.7245325 10197915
1.1750747 0.11212736 1.7238657 10197915
1.2250707 0.11208365 1.723398 10197915
1.2750243 0.11204069 1.7225327 10197915
1.3249441 0.1119974 1.7218668 10197915
1.3644177 0.11194223 1.7335258 10197915
-0.17355175 0.11323935 1.7753345 9145227
-0.12495923 0.11319852 1.7739953 10197915
-0.074951231 0.1131546 1.7736461 10197915
-0.02497524 0.11311129 1.7729671 10197915
0.024962494 0.11306801 1.7722883 10197915
0.075224854 0.11302471 1.7714435 10197915
0.12545173 0.1129809 1.7709234 10197915
0.17527445 0.1129377 1.7702464 10197915
0.22505572 0.11289512 1.7692406 10197915
0.27479631 0.11285145 1.7688941 10197915
0.32450503 0.11280836 1.7682186 10197915
0.37454119 0.11276526 1.7673768 10197915
0.42490229 0.11272105 1.7670164 10197915
0.4763909 0.11267373 1.7678691 10197915
0.52504641 0.112615 1.7768494 10197915
0.57511926 0.11257198 1.7759463 10197915
0.62515849 0.11252899 1.7750373 10197915
0.67490917 0.11248513 1.7748002 10197915
0.72487181 0.1124422 1.7738984 10197915
0.7752775 0.11239851 1.7732098 10197915
0.82447767 0.11235473 1.7732112 10197915
0.87469852 0.11229268 1.7832978 10197915
0.92458075 0.11224948 1.7826111 10197915
0.97478914 0.11220626 1.7817549 10197915
1.0249577 0.11216248 1.78123 10197915
1.0750892 0.11211933 1.7803748 10197915
1.1251792 0.11207565 1.7798507 10197915
1.1748687 0.1120326 1.7791669 10197915
1.2248813 0.11198954 1.7783134 10197915
1.274858 0.11194595 1.7777908 10197915
1.3247948 0.11190297 1.7769389 10197915
1.3746935 0.11185946 1.776417 10197915
1.4090544 0.11181663 1.7835263 10197915
-0.20140736 0.11317822 1.825375 2894892
-0.17502838 0.11316215 1.8210686 9474192
-0.1251872 0.11311908 1.8203756 10197915
-0.07500761 0.11307592 1.8194999 10197915
-0.024869733 0.11303217 1.818977 10197915
0.024857104 0.11298911 1.818284 10197915
0.074918233 0.11294607 1.8174102 10197915
0.1249443 0.11290242 1.8168888 10197915
0.17493014 0.11285942 1.8160163 10197915
0.224878 0.11281585 1.815496 10197915
0.27478886 0.11277293 1.8146243 10197915
0.32712334 0.11271586 1.8207235 10197915
0.37479609 0.11266582 1.8251407 10197915
0.4252905 0.11262211 1.8244317 10197915
0.47434798 0.11257748 1.8249791 10197915
0.52494234 0.11251535 1.8349398 10197915
0.5745185 0.11247212 1.8344254 10197915
0.62481374 0.11242888 1.833535 10197915
0.67506814 0.11238503 1.8330051 10197915
0.72490948 0.11234189 1.832301 10197915
0.77508473 0.11229875 1.8314129 10197915
0.82522637 0.11225501 1.8308845 10197915
0.87532538 0.11221194 1.8299977 10197915
0.92538786 0.11216829 1.82947 10197915
0.97503734 0.1121253 1.8287688 10197915
1.0250175 0.11208232 1.8278834 10197915
1.0749677 0.11203876 1.8273573 10197915
1.1248726 0.11199586 1.8264732 10197915
1.1751199 0.11195236 1.8257637 10197915
1.2249467 0.1119089 1.8252394 10197915
1.2747432 0.11186609 1.8243572 10197915
1.3248688 0.11182206 1.8240069 10197915
1.3749545 0.11177932 1.822942 10197915
1.4226627 0.11173563 1.8236443 10197915
1.4542462 0.11168975 1.8339758 10197915
1.3350425 -0.82325459 1.8912079 2039583
1.3739995 -0.81795156 1.8683 2039583
1.4022664 -0.81429505 1.8516761 2039583
1.3353531 -0.77524638 1.8911316 2039583
1.3752291 -0.77484739 1.8676713 2039583
1.4023571 -0.7752018 1.8517104 2039583
1.3351753 -0.72506517 1.8913497 2039583
1.3750986 -0.724998 1.8678607 2039583
1.4024 -0.7249825 1.8517973 2039583
1.3352352 -0.6750356 1.8914262 2039583
1.3751661 -0.67505687 1.8679332 1451832
1.4024464 -0.67495066 1.8518826 1256776
1.3353064 -0.62497193 1.8914968 2039840
1.3752207 -0.62504464 1.8680137 1585224
1.4025294 -0.62511212 1.8519455 1257290
1.3353673 -0.57493418 1.8915741 2370869
1.3752793 -0.57502931 1.8680903 1782348
1.402564 -0.57487768 1.852037 1520205
1.3354173 -0.52498287 1.891656 2306109
1.3752495 -0.52506506 1.8682201 1782861
1.4025677 -0.52439243 1.8521479 1454925
1.335447 -0.47499731 1.8917513 2240574
1.3748496 -0.47499344 1.8685681 1783118
1.4021622 -0.47506237 1.8524975 1520718
1.3357759 -0.4252221 1.8916695 2175038
1.3749008 -0.42501286 1.8686485 1519948
1.4022014 -0.42488441 1.8525871 1125706
1.3361353 -0.3749949 1.89157 2043454
1.3749468 -0.37501109 1.8687352 1454155
1.4020035 -0.37640592 1.8528121 1191498
1.3361977 -0.32504269 1.8916456 1912125
1.3750278 -0.32500523 1.8687984 1256264
1.4018078 -0.32473412 1.8530434 992838
1.3362236 -0.27502319 1.8917421 1714748
1.3750612 -0.27499485 1.8688929 1124422
1.4018664 -0.27484557 1.8531202 926788
1.3362848 -0.22499944 1.8918178 1649211
1.3751295 -0.22499809 1.8689623 1256777
1.4019248 -0.2249528 1.8531971 1059657
1.3363532 -0.17503479 1.8918887 1649468
1.3752134 -0.17496212 1.8690263 1125448
1.4019831 -0.17505591 1.8532752 1059400
1.3364801 -0.12519309 1.8919262 1583675
1.3751903 -0.12495708 1.8691506 1125447
1.4020417 -0.12515478 1.8533521 993606
1.3364482 -0.075250059 1.8920577 1517626
1.3753864 -0.074829698 1.8691486 1059398
1.4021001 -0.075249501 1.8534297 993092
1.3366208 -0.025257112 1.892066 1452089
1.3753461 -0.024832882 1.8692837 1125447
1.4021587 -0.025340049 1.853507 1125960
1.3371152 0.025081368 1.8918897 1386297
1.3754054 0.024834272 1.869361 993605
1.4022183 0.025341481 1.8535856 1059141
1.3371706 0.075246893 1.8919692 3884885
1.3755567 0.074839428 1.8693836 1124420
1.402277 0.075259276 1.853663 927555
-0.20386243 0.11309954 1.8724918 3947580
-0.17465396 0.11307889 1.8693917 10132122
-0.12465064 0.11303534 1.8688689 10197915
-0.075070158 0.1129924 1.8681592 10197915
-0.025146361 0.11294951 1.8672532 10197915
0.02513344 0.11290601 1.8665339 10197915
0.074980713 0.11286253 1.8660116 10197915
0.12479823 0.11281975 1.8651077 10197915
0.17495602 0.11277566 1.8647718 10197915
0.22507487 0.11273296 1.8636726 10197915
0.27516201 0.11268959 1.8629559 10197915
0.32185909 0.11264004 1.8676122 10197915
0.37480932 0.11256017 1.8866602 10197915
0.42505899 0.11251637 1.8861276 10197915
0.47488666 0.11247325 1.8854046 10197915
0.52506161 0.11243016 1.8844815 10197915
0.57519913 0.11238644 1.8839494 10197915
0.62491184 0.11234345 1.8832304 10197915
0.67496747 0.11230049 1.8823074 10197915
0.72499299 0.11225682 1.8817774 10197915
0.77497315 0.11221395 1.8808578 10197915
0.82491988 0.11217037 1.8803278 10197915
0.87482476 0.11212754 1.8794096 10197915
0.92469323 0.11208405 1.8788812 10197915
0.97452265 0.11204126 1.8779632 10197915
1.0250846 0.11199718 1.8774246 10197915
1.0752246 0.11195382 1.8766975 10197915
1.1249349 0.11191113 1.8757819 10197915
1.1749985 0.11186782 1.8750563 10197915
1.2250209 0.11182385 1.8747199 10197915
1.2749977 0.11178128 1.8736057 10197915
1.3338528 0.10748763 1.8866693 10197915
1.3747978 0.1063216 1.8690006 8094087
1.4196956 0.10916498 1.8614552 8488330
1.4704959 0.11160603 1.8743148 10197915
1.2419503 -0.86026108 1.9458981 2039583
1.2705762 -0.85656804 1.9290643 2039583
1.3069854 -0.85177076 1.9076524 2039583
1.242233 -0.82491338 1.9458113 2039583
1.2752967 -0.82501709 1.9263576 2039583
1.3104005 -0.82478082 1.9057038 2039583
1.2428493 -0.7751078 1.9455596 2039583
1.27536 -0.77497065 1.926432 2039583
1.3106015 -0.77503604 1.9056966 2039583
1.2429231 -0.72504121 1.9456286 2039583
1.2754102 -0.72499311 1.9265141 2039583
1.3106229 -0.72502029 1.9057955 2039583
1.2429752 -0.67509454 1.9457097 2039583
1.2753656 -0.67513686 1.9266527 2039583
1.3105866 -0.67482793 1.9059303 2039583
1.2430347 -0.62507606 1.9457867 2039583
1.2749569 -0.62502402 1.9270055 2039583
1.3101952 -0.62506396 1.9062717 2039583
1.2430793 -0.57505375 1.9458731 2039583
1.2749943 -0.57499456 1.9270943 2039583
1.3102427 -0.57500106 1.9063561 2039583
1.2431422 -0.5250271 1.945948 2039583
1.2750601 -0.5249781 1.9271683 2039583
1.3103218 -0.52501738 1.9064215 2039583
1.2432005 -0.47506413 1.9460247 2039583
1.2751051 -0.47497749 1.9272541 2039583
1.310326 -0.47502965 1.9065306 2039583
1.2432492 -0.42509604 1.9461082 2039583
1.2751707 -0.42500952 1.9273255 2039583
1.3106842 -0.42467216 1.9064331 2039583
1.2435564 -0.37549984 1.9460388 2039583
1.2752078 -0.37503704 1.9274162 2039583
1.3110385 -0.37498552 1.9063357 2039583
1.2439264 -0.32488945 1.9459347 2039583
1.2752737 -0.32504258 1.9274909 2039583
1.311083 -0.32492602 1.9064229 2039583
1.2439781 -0.27491796 1.9460163 2039583
1.2752947 -0.27502388 1.9275899 2039583
1.3111217 -0.27498353 1.9065109 2039583
1.2440302 -0.22494204 1.9460975 2039583
1.2753644 -0.22502106 1.9276611 2039583
1.311168 -0.22503465 1.9065959 2039583
1.2440823 -0.17496231 1.9461792 2039583
1.2754263 -0.17499426 1.9277371 2039583
1.3113183 -0.17504461 1.90662 2039583
1.243993 -0.1254283 1.946342 2039583
1.2752757 -0.12487231 1.9279375 2039583
1.3112713 -0.12484968 1.9067591 2039583
1.2436007 -0.075003289 1.9466858 2039583
1.2750361 -0.07481984 1.9281895 2039583
1.3113601 -0.075087786 1.9068185 2039583
1.2436528 -0.025002036 1.9467671 2039583
1.2749979 -0.02482087 1.9283264 2039583
1.311524 -0.025066219 1.9068339 2039583
1.243705 0.025003413 1.9468483 2039583
1.2750491 0.024822224 1.9284043 2039583
1.3120137 0.025277171 1.9066591 2039583
1.2443227 0.074913621 1.9465969 2039583
1.2751958 0.074829631 1.9284329 2039583
1.3120859 0.075082615 1.906728 3289650
-0.20701769 0.11301582 1.9228774 6052956
-0.17545675 0.11299176 1.9205624 10197915
-0.12488098 0.11294769 1.9200279 10197915
-0.074739173 0.11290432 1.9192908 10197915
-0.025039814 0.11286169 1.9183511 10197915
0.025027007 0.11281839 1.9176157 10197915
0.075051956 0.11277441 1.9172968 10197915
0.12503114 0.11273189 1.9161453 10197915
0.17498292 0.1126887 1.9154109 10197915
0.22528793 0.11264482 1.9148797 10197915
0.27516133 0.1126017 1.9141462 10197915
0.32382986 0.11255922 1.9136447 10197915
0.37497467 0.1124929 1.9257665 10197915
0.42507383 0.11244958 1.925025 10197915
0.47513422 0.11240629 1.9242837 10197915
0.52515626 0.11236303 1.9235432 10197915
0.57550204 0.11229755 1.9355694 10197915
0.6250096 0.11225323 1.9357052 10197915
0.6752615 0.11221052 1.93453 10197915
0.72508109 0.11216708 1.9340004 10197915
0.77485538 0.1121244 1.9330456 10197915
0.82499617 0.11208107 1.9322981 10197915
0.87509328 0.11203703 1.9319768 10197915
0.92514741 0.11199448 1.9308051 10197915
0.97517186 0.11195125 1.9300596 10197915
1.024757 0.11190801 1.9295334 10197915
1.0747027 0.11186482 1.9287885 10197915
1.1250005 0.1118217 1.9278265 10197915
1.1748707 0.11177859 1.9270833 10197915
1.234657 0.10871499 1.9365118 8421504
1.2745016 0.10642196 1.9274659 7105644
1.3120991 0.10585405 1.906782 8421504
1.4487544 0.11156438 1.909871 10197915
1.4781322 0.11152133 1.9196963 10197915
1.5160913 0.11147515 1.9268932 9146001
1.2327973 -0.86174566 1.95128 2039583
1.2538871 -0.87054896 1.9898796 2039583
1.2328348 -0.82539296 1.951339 2039583
1.2538029 -0.82515264 1.989746 2039583
1.233447 -0.77478909 1.9510921 2039583
1.2537086 -0.77481037 1.9895966 2039583
1.2335272 -0.72508138 1.9511564 2039583
1.2536188 -0.72530246 1.9894539 2039583
1.568725 -0.71918529 1.9783639 1257290
1.233579 -0.67499262 1.9512384 2039583
1.2535275 -0.67497659 1.9893088 2039583
1.5686684 -0.67505622 1.9782777 1323340
1.233631 -0.62489969 1.9513198 2039583
1.2534363 -0.62465823 1.989164 2039583
1.5686723 -0.62505335 1.9782935 1520462
1.2336823 -0.57480246 1.9514016 2039583
1.2533462 -0.57517171 1.9890214 2039583
1.568596 -0.57505047 1.9781742 1455182
1.2337344 -0.52470088 1.9514838 2039583
1.2532551 -0.52486783 1.9888768 2039583
1.5685989 -0.5250507 1.9781897 1652047
1.2337862 -0.47459537 1.9515653 2039583
1.2531641 -0.4745712 1.9887317 2039583
1.5685116 -0.4749155 1.9780504 1191756
1.2338375 -0.4244855 1.9516475 2039583
1.2530742 -0.42510635 1.9885894 2039583
1.568603 -0.42532811 1.978218 1059144
1.2341787 -0.37327805 1.9515612 2039583
1.2529826 -0.3748242 1.9884444 2039583
1.5685796 -0.37533006 1.9781888 1125450
1.2345296 -0.3250035 1.9514633 2039583
1.2528915 -0.32454941 1.9882997 2039583
1.5684404 -0.324927 1.9779614 1125706
1.2345884 -0.27521503 1.9515399 2039583
1.252802 -0.27510595 1.9881573 2039583
1.5684419 -0.27493379 1.9779751 1125706
1.2346476 -0.22542258 1.9516174 2039583
1.2527106 -0.2248458 1.9880128 2039583
1.5684706 -0.22494309 1.9780333 1059657
1.2346835 -0.1754593 1.9517074 2039583
1.2526196 -0.17459291 1.9878677 2039583
1.568395 -0.17495199 1.977916 1059656
1.2347356 -0.12533329 1.9517897 2039583
1.2525296 -0.12517096 1.9877255 2039583
1.5684744 -0.12496438 1.9780619 993606
1.2347872 -0.075203069 1.951871 2039583
1.2524384 -0.074932523 1.9875808 2039583
1.5684255 -0.074977383 1.9779885 1059141
1.2348392 -0.025068624 1.9519529 2039583
1.2523475 -0.024701426 1.9874364 2039583
1.5682991 -0.024995133 1.9777833 1125960
1.2348911 0.025070027 1.9520351 2039583
1.2522577 0.024699066 1.987294 2039583
1.5682757 0.024994649 1.9777547 1059398
1.235516 0.075330876 1.9517801 2039583
1.2521667 0.07491564 1.9871496 2039583
1.5683557 0.074973881 1.9779001 861763
-0.20954937 0.11292597 1.9764996 7434609
-0.17466635 0.11289831 1.974588 10197915
-0.12512414 0.11285511 1.9740669 10197915
-0.075207695 0.11281193 1.9733124 10197915
-0.024927283 0.11276893 1.9723248 10197915
0.024914594 0.11272584 1.9715712 10197915
0.075117812 0.11268207 1.9710399 10197915
0.12529194 0.11263909 1.9700541 10197915
0.17501178 0.11259533 1.9697571 10197915
0.22469318 0.11255317 1.9685514 10197915
0.27475244 0.11250953 1.9680222 10197915
0.32476345 0.1124667 1.9670391 10197915
0.37474403 0.11242313 1.9665105 10197915
0.42468005 0.11238036 1.9655287 10197915
0.47458211 0.11233684 1.9650012 10197915
0.52485186 0.11229338 1.9642411 10197915
0.57355052 0.11223058 1.9755921 10197915
0.62478596 0.11218335 1.976539 10197915
0.67529225 0.1121397 1.9757702 10197915
0.72494566 0.11209681 1.9750144 10197915
0.77456093 0.11205393 1.9742594 10197915
0.82495093 0.1120104 1.9734919 10197915
0.87530148 0.1119669 1.9727256 10197915
0.92750478 0.1119175 1.9744314 10197915
0.97504169 0.11185604 1.9856067 10197915
1.0248164 0.11181384 1.9843787 10197915
1.0749673 0.11177011 1.9838421 10197915
1.1250707 0.1117272 1.9828418 10197915
1.1751426 0.11168358 1.9823065 10197915
1.2284293 0.10916708 1.9694192 8750469
1.2524831 0.10815733 1.9900367 7368816
1.4941673 0.11143219 1.9633046 5595760
1.5271037 0.11138213 1.9753981 1519177
1.5656753 0.10758007 1.9794168 862276
1.277643 -0.90419102 2.0302491 2039583
1.2775884 -0.87471527 2.0301623 2039583
1.2774965 -0.82503265 2.0300162 2039583
1.2774047 -0.77535719 2.0298705 2039583
1.2773113 -0.7248472 2.029722 2039583
1.5902978 -0.7193163 2.0150337 1256778
1.6051477 -0.7193085 2.0402758 1191241
1.2772194 -0.67518616 2.0295763 2039583
1.5902765 -0.67506272 2.0150068 1323340
1.60507 -0.67506546 2.0401525 1323340
1.2771277 -0.62553215 2.0294306 2039583
1.5902524 -0.62496561 2.0149758 1586511
1.6051022 -0.62490571 2.0402186 1586767
1.2770345 -0.57504421 2.0292821 2039583
1.5902286 -0.57487023 2.0149462 1454926
1.6050782 -0.57474631 2.0401876 1454926
1.2769412 -0.52456325 2.029134 2039583
1.5902047 -0.52477622 2.0149157 1586511
1.6049976 -0.5251537 2.040061 1520975
1.2768493 -0.47493109 2.0289879 2039583
1.5901811 -0.47496206 2.0148861 1125707
1.6050302 -0.47499788 2.0401266 1125706
1.2767576 -0.42530596 2.0288422 2039583
1.5913632 -0.42366731 2.0169058 1059400
1.6058866 -0.42750567 2.0415921 1059144
1.2766645 -0.37484705 2.0286939 2039583
1.5925946 -0.37555802 2.0190094 1125706
1.6074847 -0.3751913 2.0443192 1125962
1.2765712 -0.32439554 2.0285456 2039583
1.5925101 -0.32515711 2.0188754 1125706
1.6074177 -0.32479021 2.0442157 1125706
1.2764791 -0.27479208 2.0283999 2039583
1.592485 -0.27496836 2.0188427 1125706
1.6074785 -0.27482444 2.0443296 1125706
1.2763876 -0.22519575 2.0282543 2039583
1.5925227 -0.22499184 2.0189178 1059913
1.6073693 -0.22485 2.0441539 1059913
1.2762944 -0.17476608 2.028106 2039583
1.5924985 -0.17480446 2.0188873 1059656
1.6074306 -0.17488016 2.0442686 1059656
1.2762024 -0.12518409 2.0279603 2039583
1.5924548 -0.12482759 2.0188222 993349
1.6073214 -0.12491575 2.0440931 927813
1.2761109 -0.075609252 2.0278146 2039583
1.5923885 -0.075064883 2.0187221 993605
1.6073828 -0.074941859 2.044208 993606
1.2760178 -0.025201445 2.0276666 2039583
1.5924277 -0.025090966 2.0187979 1125960
1.6072737 -0.024987496 2.0440328 1125960
1.2759244 0.025198996 2.0275183 2039583
1.5924045 0.02509048 2.0187676 993605
1.6072497 0.024986999 2.0440023 993605
1.2758315 0.075592078 2.0273705 2039583
1.5923183 0.075061418 2.0186317 861507
1.6073111 0.074938379 2.0441167 861507
-0.21308762 0.11283115 2.0335801 7960953
-0.17509161 0.11280014 2.0320103 10197915
-0.12496338 0.11275728 2.0309811 10197915
-0.075283304 0.11271435 2.0302086 10197915
-0.025227778 0.11267076 2.0296791 10197915
0.025214784 0.11262719 2.0288942 10197915
0.07519339 0.11258448 2.0278683 10197915
0.12513781 0.11254091 2.0273407 10197915
0.17504188 0.11249823 2.0263155 10197915
0.22490785 0.11245477 2.0257883 10197915
0.2751573 0.11241136 2.0250068 10197915
0.32494235 0.11236881 2.0239842 10197915
0.37469786 0.1123254 2.0234587 10197915
0.42524403 0.1122822 2.0224319 10197915
0.47534087 0.11223897 2.0216453 10197915
0.52497178 0.11219564 2.0211213 10197915
0.57498974 0.11215249 2.0203431 10197915
0.62496954 0.11210931 2.0195658 10197915
0.6753189 0.11206622 2.018543 10197915
0.72522336 0.11202317 2.0177588 10197915
0.77466601 0.11198005 2.0172372 10197915
0.82490909 0.11193708 2.0162168 10197915
0.87510359 0.11189336 2.0156748 10197915
0.92368418 0.1118501 2.0156868 10197915
0.97493976 0.11178207 2.0287013 10197915
1.0249717 0.11173891 2.0279179 10197915
1.0749648 0.11169574 2.0271344 10197915
1.1249195 0.11165262 2.0263519 10197915
1.1748356 0.11160949 2.0255699 10197915
1.224713 0.11156646 2.0247886 10197915
1.2660052 0.1099029 2.0250823 8289918
1.5405406 0.11129382 2.0198402 861506
1.580319 0.10935317 2.0293925 861763
1.6066595 0.10725585 2.0452571 796483
1.3023391 -0.91344035 2.0722213 2039583
1.3022662 -0.87475926 2.0721052 2039583
1.3021723 -0.82490963 2.0719557 2039583
1.3020782 -0.77506709 2.071806 2039583
1.3019841 -0.72523218 2.0716565 2039583
1.6256121 -0.71932155 2.0750616 1191754
1.3018904 -0.67540431 2.0715075 2039583
1.6254739 -0.6749571 2.0748358 1389132
1.3017968 -0.62558353 2.0713582 2039583
1.6254487 -0.6249181 2.0748031 1521231
1.3017009 -0.57491118 2.0712063 2039583
1.6254957 -0.57505447 2.0748932 1455182
1.3016057 -0.52424628 2.0710542 2039583
1.6254014 -0.52501917 2.0747418 1389646
1.3015119 -0.47444731 2.0709052 2039583
1.625375 -0.47515923 2.0747094 1125193
1.3014181 -0.4246555 2.0707557 2039583
1.6254232 -0.42547026 2.0748012 1125193
1.3013241 -0.37487087 2.0706065 2039583
1.6252931 -0.37526363 2.0745902 1125962
1.3012304 -0.32509339 2.0704567 2039583
1.6253734 -0.32506755 2.0747378 1125962
1.3011365 -0.27532321 2.0703077 2039583
1.6253493 -0.27503821 2.0747061 1125450
1.3010428 -0.22556013 2.0701585 2039583
1.6252546 -0.224841 2.0745556 1059913
1.3009475 -0.17494644 2.0700068 2039583
1.6252289 -0.17498773 2.0745223 1059656
1.3008519 -0.12434015 2.0698552 2039583
1.6252418 -0.12513657 2.0745535 927557
1.3007582 -0.074598819 2.0697057 2039583
1.6251818 -0.074945167 2.0744631 993862
1.3006645 -0.024864689 2.069557 2039583
1.6252283 -0.024924474 2.0745535 1125960
1.300571 0.024862297 2.0694075 2039583
1.6252038 0.024923977 2.0745215 993348
1.3004773 0.0745821 2.0692587 2039583
1.625109 0.074941717 2.0743704 861250
-0.21518652 0.11275743 2.0776453 8355711
-0.17467849 0.11272254 2.0770028 10197915
-0.12472309 0.11267942 2.0762084 10197915
-0.074805886 0.11263636 2.0754147 10197915
-0.024926824 0.11259332 2.0746217 10197915
0.024914132 0.11255032 2.0738294 10197915
0.074717045 0.11250735 2.0730376 10197915
0.1244819 0.11246441 2.0722463 10197915
0.17506573 0.11242076 2.0714424 10197915
0.22561055 0.11237714 2.0706384 10197915
0.27526033 0.1123343 2.069849 10197915
0.32890275 0.11227536 2.0763562 10197915
0.37464884 0.11222186 2.083802 10197915
0.42498133 0.11217889 2.0827334 10197915
0.47527999 0.11213504 2.08219 10197915
0.52511096 0.11209204 2.0813923 10197915
0.57532263 0.11204919 2.0803249 10197915
0.62507898 0.11200627 2.0795193 10197915
0.67436206 0.1119633 2.0790017 10197915
0.72446877 0.11192053 2.0779362 10197915
0.77453017 0.11187689 2.0773971 10197915
0.8245616 0.11183418 2.0763335 10197915
