# .PCD v0.7 - Point Cloud Data file format
VERSION 0.7
FIELDS x y z rgb
SIZE 4 4 4 4
TYPE F F F U
COUNT 1 1 1 1
WIDTH 1179
HEIGHT 1
VIEWPOINT 0 0 0 1 0 0 0
POINTS 1179
DATA ascii
0.39675391 -1.0262915 3.5338612 2039583
0.72468913 -1.0245668 3.5481744 2039583
0.7753256 -1.0250498 3.5444844 2039583
0.82586747 -1.0253714 3.540802 2039583
0.87486011 -1.0243378 3.5372357 2039583
0.92504114 -1.0253859 3.5335779 2039583
0.97541559 -1.0251417 3.5299087 2039583
1.0257465 -1.0243326 3.5262439 2039583
1.0753504 -1.0256754 3.5226274 2039583
1.1254716 -1.0248837 3.5189788 2039583
1.175629 -1.0245245 3.5153251 2039583
1.2249138 -1.0255973 3.5117331 2039583
1.2746013 -1.0246252 3.5081153 3684408
1.324155 -1.0249449 3.5045042 6710886
1.3678709 -1.0255421 3.5013189 6710886
0.39656982 -0.97606111 3.5322216 2039583
0.7250368 -0.97487909 3.5482588 2039583
0.77537286 -0.97490942 3.5445921 2039583
0.82589245 -0.97552615 3.54091 2039583
0.87488681 -0.97454351 3.5373433 2039583
0.92521787 -0.97499657 3.5336752 2039583
0.97544551 -0.9754495 3.5300162 2039583
1.0255692 -0.97444081 3.5263665 2039583
1.0754544 -0.97523099 3.5227311 2039583
1.1255057 -0.97534472 3.5190852 2039583
1.1753203 -0.97433954 3.5154576 2039583
1.2247467 -0.97534555 3.5118551 2039583
1.2746401 -0.97524077 3.5082207 3684408
1.3243523 -0.97448838 3.5046008 6710886
1.3681997 -0.97484612 3.501406 6710886
0.39638588 -0.92587733 3.5305836 2039583
0.72618198 -0.92463773 3.5482855 2039583
0.7754342 -0.9246847 3.5446975 2039583
0.82591742 -0.92567754 3.5410185 2039583
0.87491339 -0.92474502 3.5374501 2039583
0.92545408 -0.92452639 3.5337696 2039583
0.97547525 -0.92575443 3.530123 2039583
1.0256003 -0.92479724 3.5264738 2039583
1.0759604 -0.9244566 3.5228052 2039583
1.1254607 -0.92571974 3.5191977 2039583
1.1753563 -0.92484987 3.5155644 2039583
1.2254297 -0.92455697 3.5119171 2039583
1.2744747 -0.92558771 3.5083425 3684408
1.3241873 -0.92490131 3.5047221 6710886
1.3696264 -0.92456514 3.5014133 6710886
0.39620209 -0.87574017 3.5289466 2435115
0.72526991 -0.89401811 3.5484185 2039583
0.77698427 -0.89481783 3.5446506 2039583
0.82593298 -0.89488757 3.5410845 2039583
0.87492973 -0.89398611 3.5375166 2039583
0.92448562 -0.89424938 3.5339065 2039583
0.97549349 -0.89505911 3.5301881 2039583
1.0256194 -0.89413399 3.5265398 2039583
1.0742832 -0.89358264 3.5229955 2039583
1.1259018 -0.89513552 3.519232 2039583
1.175378 -0.89428079 3.51563 2039583
1.2250918 -0.89336002 3.5120099 2039583
1.2747024 -0.89483374 3.5083938 3750201
1.3242115 -0.89442676 3.5047877 6710886
1.3693907 -0.89358741 3.5014987 6710886
0.39601851 -0.82564938 3.5273113 4148828
0.3958351 -0.77560508 3.5256779 4083035
0.39565185 -0.72560698 3.5240455 3885914
0.39546859 -0.67565483 3.5224133 3622488
0.39528552 -0.62574911 3.5207825 3425368
0.39510274 -0.57588971 3.519155 3096918
0.39492017 -0.52607632 3.5175288 2834005
0.39473775 -0.47630909 3.5159037 2571604
0.39455014 -0.42512628 3.5142329 2177105
0.39436269 -0.37399164 3.5125625 1716812
0.39418063 -0.32436457 3.5109417 1848912
0.39399895 -0.27478343 3.5093236 1717840
0.39381745 -0.22524802 3.5077064 1717839
0.39363608 -0.17575821 3.5060911 1520718
0.39344957 -0.12486066 3.5044301 1191498
0.39326322 -0.074010819 3.5027699 1125705
0.39308238 -0.024660185 3.5011592 1124935
0.39297074 0.0058002081 3.5001652 1323339
-0.66857851 0.10726663 3.5468218 10197915
-0.6247614 0.10731228 3.5483322 10197915
-0.58822095 0.1073504 3.5495918 10197915
0.39874655 -1.5699738 3.55161 2039583
0.67517233 -1.5695187 3.5505843 2039583
0.39862078 -1.5356467 3.5504894 2039583
0.67656958 -1.5251551 3.5505791 2039583
0.67666191 -1.4754181 3.5506825 2039583
0.67813331 -1.4254053 3.5506845 2039583
0.67815393 -1.3754326 3.5507929 2039583
0.67962527 -1.325418 3.5507956 2039583
0.67974126 -1.2752675 3.5508971 2039583
0.68111736 -1.225425 3.5509069 2039583
0.68132555 -1.1751542 3.5510023 2039583
0.68155706 -1.1249647 3.5510957 2039583
0.68145406 -1.0751404 3.551213 2039583
0.68265063 -1.0254496 3.5512347 2039583
0.68267137 -0.97545797 3.5513439 2039583
0.70153695 -0.95597279 3.5500116 2039583
0.68269229 -0.92546248 3.5514512 2039583
0.70155013 -0.9251048 3.5500782 2039583
0.67860341 -0.8799904 3.5518494 1974047
0.70156342 -0.89423597 3.5501454 2039583
0.66930234 -0.84297514 3.552608 4149084
0.40113017 -0.71726334 3.5994043 3754073
0.40097407 -0.67524832 3.5980039 3490903
0.40078464 -0.62427241 3.5963039 3294296
0.40060094 -0.5748418 3.5946555 3096919
0.40041742 -0.52545685 3.5930083 2768468
0.40022856 -0.47462249 3.5913141 2571604
0.39997905 -0.40741366 3.5890751 2045006
0.40006781 -0.43130088 3.5898721 2111312
0.39986259 -0.37608087 3.5880301 1716556
0.39967418 -0.32538727 3.5863397 1849168
0.39948598 -0.27474141 3.5846508 1717840
0.39929736 -0.22414289 3.582958 1717839
0.39911485 -0.17507812 3.581321 1586254
0.3989327 -0.12605876 3.5796859 1191498
0.39874524 -0.075600505 3.5780036 1191497
0.3985579 -0.025189638 3.576323 1059399
0.3983708 0.025173888 3.5746441 1257546
0.39818385 0.075490139 3.5729666 4740968
-0.56335735 0.10737631 3.5504484 10197915
-0.52530628 0.10741598 3.5517607 10197915
-0.4755066 0.10746789 3.553477 10197915
-0.42565885 0.10751986 3.5551953 10197915
-0.37576273 0.10757188 3.5569146 10197915
-0.32581839 0.10762393 3.5586369 10197915
-0.27582568 0.10767605 3.5603592 10197915
-0.22578456 0.10772822 3.5620852 10197915
-0.17569485 0.10778044 3.5638113 10197915
-0.1255566 0.10783271 3.5655391 10197915
-0.075369708 0.10788503 3.5672691 10197915
-0.025134081 0.1079374 3.569001 10197915
0.02515034 0.10798981 3.570734 10197915
0.075483628 0.10804228 3.5724688 10197915
0.12586583 0.1080948 3.5742056 10197915
0.17481287 0.10814583 3.5758932 10197915
0.2238066 0.1081969 3.5775816 10197915
0.27433318 0.10824958 3.5793235 10197915
0.32490891 0.1083023 3.5810668 10197915
0.37783828 0.1078347 3.5810583 10197915
0.4044545 -1.6118044 3.6292343 2039583
0.40431845 -1.5751904 3.6280136 2039583
0.40413147 -1.5248848 3.6263359 2039583
0.40394473 -1.4746252 3.6246598 2039583
0.40375814 -1.4244126 3.6229856 2039583
0.4035717 -1.3742459 3.6213126 2039583
0.40339109 -1.3256438 3.6196921 2039583
0.40320498 -1.2755688 3.618022 2039583
0.40301904 -1.2255392 3.6163538 2039583
0.40283334 -1.1755565 3.614687 2039583
0.40264773 -1.1256194 3.6130221 2039583
0.40246236 -1.0757285 3.6113586 2039583
0.40227151 -1.0243738 3.6096456 2039583
0.40208647 -0.97457558 3.6079853 2039583
0.40190157 -0.92482376 3.6063261 2039583
0.4017168 -0.87511718 3.6046686 3226179
0.40153229 -0.82545686 3.6030128 4149084
0.4013423 -0.77433914 3.6013079 4017243
0.40121946 -0.74128664 3.6002057 3951451
-0.70241362 0.1070201 3.6383512 10197915
-0.675457 0.10704817 3.6393056 10197915
-0.62600279 0.10709962 3.6410542 10197915
-0.57500029 0.10715267 3.6428585 10197915
-0.52544987 0.10720424 3.6446109 10197915
-0.47585124 0.10725583 3.6463652 10197915
-0.4246999 0.10730904 3.6481745 10197915
-0.38555142 0.10734978 3.649559 10197915
0.40926754 -1.3504297 3.6999311 2039583
0.40916815 -1.3240515 3.6990323 2039583
0.40898106 -1.2744298 3.6973414 2039583
0.40879419 -1.2248534 3.6956522 2039583
0.40860748 -1.1753222 3.6939642 2039583
0.40842095 -1.1258364 3.6922774 2039583
0.40822878 -1.0748515 3.6905403 2039583
0.40803674 -1.0239143 3.6888046 2039583
0.40785074 -0.97456652 3.6871226 2039583
0.4076649 -0.92526376 3.6854424 2039583
0.40747923 -0.87600583 3.683764 4017499
0.40728793 -0.82525587 3.6820347 4017499
0.40709683 -0.774553 3.6803064 3951451
0.40691164 -0.72543228 3.6786325 3754073
0.40672082 -0.67482352 3.6769083 3425366
0.40653026 -0.6242618 3.6751852 3228504
0.40634561 -0.57527769 3.6735153 2965846
0.40615535 -0.52480954 3.6717963 2702932
0.4059653 -0.47438827 3.6700776 2505812
0.40578118 -0.42554015 3.6684136 1979727
0.40559146 -0.3752121 3.6666982 1651020
0.40540192 -0.32493073 3.6649847 1849168
0.40521255 -0.27469674 3.6632726 1783376
0.4050236 -0.22450927 3.6615646 1652303
0.40483469 -0.17436901 3.6598561 1585998
0.4046458 -0.12427507 3.6581488 1191497
0.40446222 -0.075743802 3.6564891 1191241
0.40427375 -0.025742326 3.6547852 1059399
0.40407971 0.025725875 3.6530318 1257546
0.40389165 0.075633317 3.6513312 4412261
-0.36144465 0.10737486 3.6504118 10197915
-0.32526115 0.10741252 3.6516914 10197915
-0.27547005 0.10746431 3.6534531 10197915
-0.22563039 0.10751617 3.655216 10197915
-0.1742304 0.10756964 3.6570339 10197915
-0.12429348 0.1076216 3.6588001 10197915
-0.074307822 0.10767359 3.6605682 10197915
-0.024274316 0.10772566 3.6623375 10197915
0.024289481 0.10777617 3.6640556 10197915
0.07441888 0.10782832 3.6658285 10197915
0.12459632 0.10788053 3.6676037 10197915
0.17482288 0.1079328 3.6693799 10197915
0.22509763 0.10798512 3.6711586 10197915
0.27542159 0.10803744 3.6729383 10197915
0.32579392 0.10808986 3.67472 10197915
0.37468669 0.10814073 3.6764493 10197915
0.40315294 0.10587682 3.6611805 10197915
0.41041753 -1.6555043 3.7103271 2039583
0.4103058 -1.6258577 3.709317 2039583
0.41011769 -1.5759597 3.7076163 2039583
0.40992975 -1.5261074 3.7059176 2039583
0.40974203 -1.4763007 3.7042208 2039583
0.40954855 -1.4249858 3.7024717 2039583
0.40936121 -1.3752712 3.7007778 2039583
0.4116908 -0.40392309 3.7499275 1782605
0.41158354 -0.37586305 3.74895 1650763
0.41139284 -0.3260113 3.7472131 1849169
0.41120222 -0.27620566 3.7454777 1783633
0.411006 -0.22489221 3.7436898 1652303
0.4108099 -0.17362723 3.7419035 1520461
0.41061994 -0.12396263 3.7401731 1191241
0.41043013 -0.074343957 3.7384448 1191241
0.41024053 -0.024771137 3.7367177 1125191
0.41005114 0.024755897 3.7349923 1257546
0.40986139 0.074237153 3.7332642 3820640
-0.71191728 0.10678767 3.7356796 10197915
-0.67501438 0.10682598 3.7370198 10197915
-0.62577128 0.1068771 3.7388079 10197915
-0.57493955 0.10692988 3.7406545 10197915
-0.52405828 0.10698272 3.7425029 10197915
-0.4746705 0.10703398 3.7442966 10197915
-0.42523533 0.10708532 3.7460914 10197915
-0.37575275 0.10713668 3.7478886 10197915
-0.33396599 0.10718009 3.7494066 10197915
0.40974912 0.10359689 3.7322416 10197915
0.41399416 -1.0060841 3.7709081 2039583
0.41387358 -0.97455716 3.7698097 2039583
0.41368073 -0.92414916 3.7680533 2830904
0.41348815 -0.87378812 3.7662988 4083036
0.41330168 -0.82504535 3.7646 3886171
0.41311538 -0.77634704 3.7629037 3885658
0.41292328 -0.72612363 3.7611539 3622488
0.41273132 -0.67594671 3.7594054 3359575
0.41253954 -0.62581664 3.7576587 3162968
0.41234797 -0.57573301 3.7559137 2900054
0.41215658 -0.52569604 3.7541704 2702676
0.41196537 -0.4757053 3.7524285 2374483
0.41178629 -0.42888072 3.7507975 1979727
-0.30918756 0.10720579 3.7503066 10197915
-0.27509475 0.1072412 3.7515447 10197915
-0.22391662 0.10729434 3.7534037 10197915
-0.17424065 0.10734591 3.7552078 10197915
-0.12451688 0.10739751 3.7570136 10197915
-0.074745283 0.1074492 3.7588212 10197915
-0.024925761 0.10750093 3.7606311 10197915
0.02494175 0.1075527 3.7624426 10197915
0.074857317 0.10760453 3.764255 10197915
0.124821 0.1076564 3.7660697 10197915
0.17483291 0.10770833 3.7678862 10197915
0.22489306 0.1077603 3.7697048 10197915
0.27500159 0.10781233 3.7715247 10197915
0.32515848 0.1078644 3.7733462 10197915
0.37536383 0.10791653 3.7751698 10197915
0.40676492 0.10794912 3.77631 10197915
-0.72194278 0.10654245 3.8383579 10197915
-0.67454737 0.10659155 3.8401268 10197915
-0.62394476 0.10664397 3.8420153 10197915
-0.57487613 0.1066948 3.8438466 10197915
-0.52576023 0.10674566 3.8456795 10197915
-0.47501108 0.10679824 3.8475735 10197915
-0.43056539 0.1068443 3.8492327 10197915
-0.40515119 0.10687061 3.8501806 10197915
-0.37495264 0.10690189 3.8513081 10197915
-0.32564586 0.106953 3.8531485 10197915
-0.2746993 0.10700576 3.8550496 10197915
-0.22529711 0.10705695 3.8568933 10197915
-0.17584716 0.10710817 3.8587391 10197915
-0.12475262 0.1071611 3.860646 10197915
-0.075206876 0.10721243 3.8624952 10197915
-0.025613133 0.1072638 3.8643458 10197915
0.02563002 0.1073169 3.8662584 10197915
0.075319961 0.10736836 3.8681133 10197915
0.1250581 0.10741989 3.8699691 10197915
0.17484352 0.10747147 3.8718278 10197915
0.22467728 0.10752311 3.8736877 10197915
0.27455837 0.10757479 3.8755491 10197915
0.32448798 0.1076265 3.8774126 10197915
0.37446517 0.10767829 3.8792787 10197915
0.41157487 0.10771672 3.8806629 10197915
-0.75688505 0.10625819 3.9459052 10197915
-0.72441727 0.10629174 3.9471514 10197915
-0.67567956 0.10634212 3.9490218 10197915
-0.6252684 0.10639422 3.9509568 10197915
-0.57480842 0.10644636 3.952893 10197915
-0.52592885 0.10649689 3.9547696 10197915
-0.47537091 0.10654914 3.9567101 10197915
-0.4247638 0.10660145 3.958652 10197915
-0.37574163 0.10665211 3.9605334 10197915
-0.3250362 0.10670453 3.9624801 10197915
-0.27428138 0.10675699 3.9644279 10197915
-0.22511601 0.1068078 3.966315 10197915
-0.17590384 0.10685866 3.968204 10197915
-0.12500173 0.10691126 3.9701576 10197915
-0.074049987 0.10696392 3.9721129 10197915
-0.0246938 0.10701495 3.9740071 10197915
0.024709495 0.10706601 3.9759033 10197915
0.074159957 0.1071171 3.9778011 10197915
0.12365767 0.10716827 3.9797008 10197915
0.17485523 0.10722119 3.9816663 10197915
0.22610287 0.10727415 3.9836335 10197915
0.27574584 0.10732546 3.9855382 10197915
0.32543632 0.10737681 3.9874454 10197915
0.37517446 0.10742823 3.9893553 10197915
0.4183183 0.10747282 3.9910104 10197915
-0.76879889 0.10598337 4.0606427 5526612
-0.72536522 0.10602815 4.0623579 6645093
-0.67520481 0.10607985 4.0643396 8158332
-0.62499529 0.10613162 4.0663233 9868950
-0.57473689 0.10618343 4.0683084 10197915
-0.52442938 0.10623529 4.0702953 10197915
-0.47407264 0.10628722 4.0722842 10197915
-0.42366681 0.10633919 4.0742764 10197915
-0.37489444 0.10638948 4.0762019 10197915
-0.32607546 0.10643981 4.0781307 10197915
-0.27552465 0.10649194 4.0801282 10197915
-0.22492437 0.10654411 4.0821261 10197915
-0.17427444 0.10659632 4.0841269 10197915
-0.12526593 0.10664684 4.0860634 10197915
-0.076210372 0.10669741 4.0880003 10197915
-0.025414543 0.10674978 4.0900068 10197915
0.025431167 0.10680221 4.0920157 10197915
0.074629247 0.10685293 4.0939589 10197915
0.12387462 0.10690369 4.0959039 10197915
0.17486711 0.10695627 4.0979185 10197915
0.21399385 0.10699663 4.0994644 10197915
0.23952799 0.10702294 4.1004729 10197915
0.27529851 0.10705982 4.1018858 10197915
0.32473481 0.10711081 4.1038389 10197915
0.37592506 0.10716357 4.1058612 10197915
0.42545673 0.10721464 4.1078176 10197915
-0.80549669 0.10566732 4.181272 2039583
-0.7745474 0.10569916 4.1825323 2039583
-0.72464889 0.10575046 4.1845622 2039583
-0.67470133 0.10580182 4.1865945 2039583
-0.62470573 0.10585324 4.1886292 6777969
-0.57466102 0.1059047 4.1906648 2374226
-0.52456814 0.1059562 4.1927032 3689054
-0.474426 0.10600776 4.1947436 5661553
-0.42423555 0.10605936 4.1967854 7634052
-0.37572926 0.10610925 4.19876 8751502
-0.34799263 0.10613776 4.1998878 10197915
-0.32197279 0.10616454 4.2009473 10197915
-0.27510646 0.10621272 4.2028537 10197915
-0.22472118 0.10626454 4.2049046 10197915
-0.17428724 0.10631639 4.2069559 10197915
-0.12554546 0.10636652 4.2089391 10197915
-0.075014107 0.10641848 4.2109957 10197915
-0.024433937 0.10647047 4.2130532 10197915
0.0244493 0.10652076 4.2150426 10197915
0.075127333 0.10657287 4.2171054 10197915
0.1258544 0.10662502 4.2191687 10197915
0.17487969 0.10667545 4.2211642 10197915
0.22395134 0.10672589 4.2231603 10197915
0.2748248 0.10677821 4.2252302 10197915
0.32574758 0.10683057 4.2273026 10197915
0.37496212 0.10688118 4.2293043 10197915
0.42422333 0.10693185 4.2313104 10197915
0.45591405 0.10696441 4.2325983 10197915
-0.81787032 0.10535897 4.3103952 2039583
-0.77533239 0.1054026 4.31218 2039583
-0.72566122 0.10545351 4.3142633 2039583
-0.67594212 0.10550451 4.3163495 3289650
-0.62617487 0.10555554 4.3184371 2900054
-0.57635945 0.10560661 4.3205271 927298
-0.52649587 0.10565775 4.322619 796227
-0.47658396 0.10570891 4.3247123 993605
-0.42662367 0.10576015 4.3268085 994118
-0.37661499 0.10581144 4.3289065 928068
-0.3265577 0.10586278 4.3310061 1256006
-0.27645186 0.10591413 4.3331084 3491676
-0.22629735 0.10596557 4.3352122 4938090
-0.17609408 0.10601705 4.3373184 6252661
-0.12584205 0.10606859 4.339427 8028295
-0.075541139 0.10612015 4.3415365 9672086
-0.025191277 0.10617179 4.3436489 10197915
0.025207605 0.10622347 4.3457637 10197915
0.075655572 0.10627522 4.3478804 10197915
0.11352225 0.10631403 4.3494682 10197915
0.13878314 0.10633995 4.3505282 10197915
0.17489268 0.10637696 4.3520427 10197915
0.22367911 0.10642697 4.3540897 10197915
0.27432063 0.10647891 4.356214 10197915
0.32501152 0.10653089 4.3583403 10197915
0.375752 0.10658292 4.3604693 10197915
0.42472702 0.10663316 4.362524 10197915
0.46284968 0.10667223 4.3641229 10197915
-0.85661978 0.10500502 4.4466481 2039583
-0.82555014 0.1050368 4.4479938 2039583
-0.78897762 0.10507417 4.4495769 2039583
-0.76335996 0.10510037 4.4506865 2039583
-0.72490853 0.10513968 4.4523511 2039583
-0.67543012 0.10519026 4.454493 2963267
-0.62406892 0.10524277 4.4567165 927555
-0.574494 0.10529346 4.4588628 927298
-0.52487063 0.10534419 4.4610114 862276
-0.4752 0.10539497 4.463161 993861
-0.42548084 0.10544578 4.4653139 928582
-0.37571442 0.10549667 4.4674692 927298
-0.32589921 0.10554761 4.469625 926785
-0.27418858 0.10560048 4.4718647 1059142
-0.22427589 0.1056515 4.4740248 926786
-0.17431436 0.10570258 4.4761882 794173
-0.12430514 0.1057537 4.4783535 728638
-0.074246883 0.10580488 4.4805212 926530
-0.024140757 0.10585613 4.4826899 1715529
0.024155749 0.1059055 4.4847813 3490906
0.074357823 0.1059568 4.4869542 5332589
0.12460799 0.10600818 4.48913 6713209
0.17490752 0.10605962 4.4913073 8159879
0.22525522 0.10611109 4.4934874 9737622
0.27565241 0.1061626 4.4956689 10197915
0.326098 0.10621417 4.4978528 10197915
0.36349562 0.10625241 4.4994721 10197915
0.38781917 0.10627726 4.500524 10197915
0.42526451 0.10631557 4.5021467 10197915
0.4721058 0.10636345 4.5041738 10197915
-0.86960149 0.10465682 4.5930629 2039583
-0.82429606 0.10470299 4.5950894 2039583
-0.77517056 0.10475305 4.5972867 2039583
-0.73167491 0.10479736 4.5992317 2039583
-0.70707494 0.10482245 4.6003323 2039842
-0.6748842 0.10485524 4.6017718 1058884
-0.62372005 0.10490738 4.6040597 1059140
-0.57440251 0.10495763 4.6062651 862019
-0.52503777 0.10500795 4.6084728 862276
-0.47562557 0.10505828 4.610683 928325
-0.42616603 0.1051087 4.612895 928582
-0.37665904 0.10515916 4.6151099 861249
-0.32519725 0.10521162 4.6174116 926529
-0.27368468 0.1052641 4.6197147 993605
-0.22403114 0.1053147 4.6219358 860737
-0.17432976 0.10536535 4.6241589 794173
-0.12458061 0.10541605 4.6263843 794688
-0.074783571 0.10546681 4.6286116 926273
-0.024938535 0.1055176 4.6308408 926530
0.024954535 0.10556845 4.6330724 794687
0.07489571 0.10561933 4.6353049 992323
0.12488504 0.10567029 4.6375418 1058371
0.17492267 0.10572127 4.6397791 728637
0.22500858 0.10577232 4.6420193 992579
0.27514285 0.10582341 4.6442614 1321799
0.32532561 0.10587454 4.6465058 3622747
0.37555689 0.10592575 4.6487522 4872040
0.40262267 0.10595334 4.6499634 6187380
0.4277713 0.10597896 4.6510878 6384245
0.47616535 0.10602827 4.6532521 8225416
0.50522113 0.10605785 4.6545506 8488586
-0.91077441 0.10425715 4.7481842 2039583
-0.88542008 0.1042829 4.7493577 2039583
-0.017439814 -2.1237798 4.7987833 2039583
0.025268631 -2.1227663 4.7956758 2039583
0.075437665 -2.1222606 4.7920213 2039583
0.12497498 -2.1206641 4.7884159 2039583
0.1744387 -2.1210504 4.7848125 2039583
0.22382715 -2.1194568 4.7812171 2039583
0.27444541 -2.1186845 4.7775307 2039583
0.32631859 -2.1181262 4.7737527 2039583
0.37548023 -2.116538 4.770175 2039583
0.42456678 -2.1169262 4.7665977 2039583
0.47553974 -2.1152785 4.762888 2039583
0.51253337 -2.1143761 4.7601953 2039583
-0.0161494 -2.0750327 4.7987976 2039583
0.02634014 -2.0751767 4.7957015 2039583
0.075439319 -2.0746598 4.7921252 2039583
0.12482622 -2.0749207 4.788527 2039583
0.17444228 -2.075501 4.7849102 2039583
0.22335027 -2.0746803 4.7813492 2039583
0.27562937 -2.0752354 4.7775402 2039583
0.32632503 -2.0746577 4.7738481 2039583
0.37533826 -2.0749044 4.7702761 2039583
0.42457482 -2.0754952 4.7666888 2039583
0.47507095 -2.0746167 4.7630119 2039583
0.5128848 -2.0750172 4.7602558 2039583
-0.015672266 -2.0254209 4.798872 2039583
0.025825869 -2.0246136 4.7958498 2039583
0.075441033 -2.0250726 4.7922344 2039583
0.12512192 -2.0253863 4.7886147 2039583
0.17403015 -2.0246458 4.7850513 2039583
0.22432721 -2.0252502 4.7813873 2039583
0.27512467 -2.0248625 4.7776871 2039583
0.32596123 -2.0247869 4.773984 2039583
0.37563527 -2.0255587 4.7703633 2039583
0.42432633 -2.0244904 4.766819 2039583
0.47604588 -2.0253754 4.7630477 2039583
0.51276243 -2.025414 4.7603731 2039583
-0.014746414 -1.9750448 4.7989154 2039583
0.02582646 -1.9749873 4.7959585 2039583
0.075442776 -1.9754831 4.7923422 2039583
0.12450042 -1.9747361 4.7887707 2039583
0.17487776 -1.9751765 4.785099 2039583
0.223842 -1.9749892 4.7815337 2039583
0.2746875 -1.9747947 4.7778292 2039583
0.32669559 -1.9754204 4.7740388 2039583
0.37550464 -1.9743781 4.7704854 2039583
0.42486742 -1.9751889 4.7668867 2039583
0.47557017 -1.975307 4.7631931 2039583
0.51277441 -1.9741843 4.7604847 2039583
-0.013918038 -1.9245331 4.798965 2039583
0.025827046 -1.9253587 4.7960687 2039583
0.074984841 -1.9247099 4.7924881 2039583
0.12547813 -1.9252285 4.7888083 2039583
0.17445432 -1.9249761 4.7852397 2039583
0.22335662 -1.9247241 4.7816782 2039583
0.27556732 -1.9253955 4.777873 2039583
0.32634759 -1.9244807 4.7741756 2039583
0.37551311 -1.9250128 4.7705932 2039583
0.42460394 -1.9255445 4.767014 2039583
0.47522721 -1.9244835 4.76333 2039583
0.51278603 -1.9249225 4.7605929 2039583
-0.013918487 -1.8968068 4.7992392 2039583
0.025837339 -1.89619 4.7976804 2039583
0.077882849 -1.8961813 4.7950625 2039583
0.12508035 -1.8960836 4.7923927 2039583
0.1746638 -1.8955061 4.7909365 2039583
0.2258404 -1.8957601 4.7881684 2039583
0.27898371 -1.8908968 4.7838731 2039583
0.32620448 -1.874917 4.7742953 2039583
0.37552166 -1.8756455 4.7707009 2039583
0.42447367 -1.8743852 4.7671366 2039583
0.47596145 -1.8752263 4.7633843 2039583
0.51279753 -1.875658 4.7606997 2039583
0.29879978 -1.8244596 4.7764025 2039583
0.32650298 -1.8255244 4.7743826 2039583
0.37553045 -1.8243011 4.7708139 2039583
0.42477348 -1.8250672 4.7672238 2039583
0.47560287 -1.8254586 4.7635202 2039583
0.51280963 -1.8244212 4.7608118 2039583
0.29880658 -1.7750295 4.7765107 2039583
0.32622939 -1.7744297 4.7745142 2039583
0.37553903 -1.774929 4.7709203 2039583
0.42463309 -1.7755728 4.7673426 2039583
0.47547391 -1.7743349 4.7636418 2039583
0.51282132 -1.7751522 4.7609186 2039583
0.29881334 -1.7255974 4.7766194 2039583
0.3265278 -1.7250321 4.7746015 2039583
0.37554747 -1.7255542 4.771029 2039583
0.42450297 -1.7244066 4.7674656 2039583
0.47577444 -1.7250508 4.7637277 2039583
0.51283276 -1.7258817 4.7610269 2039583
0.29882008 -1.6761628 4.7767272 2039583
0.32566473 -1.6759588 4.7747722 2039583
0.37462252 -1.6738803 4.7712102 2039583
0.4248026 -1.6750817 4.7675519 2039583
0.47563565 -1.6755904 4.7638464 2039583
0.5128448 -1.6746378 4.7611375 2039583
0.29882711 -1.6247488 4.7768397 2039583
0.32416886 -1.6244291 4.7749949 2039583
0.37374899 -1.6250318 4.7713809 2039583
0.42466229 -1.6255804 4.7676697 2039583
0.47564647 -1.624315 4.7639594 2039583
0.51285625 -1.625362 4.7612467 2039583
0.29883391 -1.5753096 4.776948 2039583
0.32470146 -1.5750406 4.7750635 2039583
0.37360713 -1.5754899 4.7714987 2039583
0.42467219 -1.5742621 4.7677827 2039583
0.47565734 -1.5750095 4.7640662 2039583
0.51286787 -1.5760844 4.7613525 2039583
0.29884064 -1.5258683 4.7770557 2039583
0.32443926 -1.525273 4.7751923 2039583
0.37335709 -1.524419 4.7716308 2039583
0.42468193 -1.5249159 4.7678905 2039583
0.47566822 -1.5257014 4.7641735 2039583
0.51287985 -1.5248338 4.7614646 2039583
0.29884771 -1.4744471 4.7771688 2039583
0.32403234 -1.4745057 4.7753334 2039583
0.37389806 -1.4750611 4.771699 2039583
0.42469138 -1.4755672 4.7679977 2039583
0.47567931 -1.4744185 4.7642856 2039583
0.51268017 -1.4748635 4.7615891 2039583
0.29885444 -1.4250011 4.7772765 2039583
0.32487956 -1.4251305 4.7753797 2039583
0.37363291 -1.4253528 4.7718277 2039583
0.42470148 -1.4242424 4.7681098 2039583
0.47569007 -1.4251058 4.7643933 2039583
0.51310939 -1.4256397 4.7616668 2039583
0.29886121 -1.3755531 4.7773848 2039583
0.32446161 -1.3750163 4.7755203 2039583
0.37328646 -1.3744216 4.771965 2039583
0.42471102 -1.3748891 4.768218 2039583
0.4757008 -1.3757913 4.7645016 2039583
0.51291525 -1.3750088 4.7617903 2039583
0.29886824 -1.3241248 4.7774973 2039583
0.32404321 -1.3248991 4.7756605 2039583
0.37402102 -1.3250686 4.7720203 2039583
0.42472062 -1.3255337 4.7683249 2039583
0.4757117 -1.3245018 4.7646136 2039583
0.51272094 -1.3243752 4.7619162 2039583
0.298875 -1.2746722 4.7776051 2039583
0.32489073 -1.2755193 4.7757072 2039583
0.37365863 -1.2751949 4.7721567 2039583
0.42473066 -1.2742012 4.7684364 2039583
0.47572267 -1.2751825 4.7647195 2039583
0.51214945 -1.2762676 4.762064 2039583
0.29888177 -1.2252172 4.7777133 2039583
0.32448381 -1.224739 4.7758493 2039583
0.37318775 -1.2245525 4.7723002 2039583
0.42474014 -1.2248415 4.7685452 2039583
0.47573337 -1.2258612 4.7648268 2039583
0.51099294 -1.2252004 4.7622609 2039583
0.2988888 -1.1737818 4.7778258 2634817
0.3244912 -1.1753014 4.7759571 2568509
0.37416404 -1.175209 4.7723384 2633785
0.42474979 -1.1754793 4.768652 2633270
0.47574452 -1.1745642 4.7649403 2567475
0.51100487 -1.1739314 4.762372 2567217
0.29889557 -1.1243224 4.7779346 3030868
0.32449856 -1.1258613 4.7760663 3096661
0.37368438 -1.1250168 4.7724843 3491416
0.42475969 -1.1241407 4.7687645 3623001
0.47575545 -1.1252379 4.7650461 3820122
0.51101643 -1.1246318 4.7624798 3951707
0.29890236 -1.0748608 4.7780423 2899283
0.32450613 -1.0744412 4.7761774 3030867
0.37320438 -1.0748219 4.7726297 3425881
0.42476934 -1.0747737 4.7688723 3623002
0.47576603 -1.0759097 4.7651553 3820379
0.51102793 -1.0753298 4.7625875 3886171
0.29890916 -1.0253968 4.778151 3031125
0.32451352 -1.0249971 4.7762861 3096917
0.37418085 -1.0254731 4.7726665 3294296
0.42477906 -1.0254042 4.76898 3557209
0.47577712 -1.0246065 4.7652678 3754330
0.51104009 -1.0240542 4.7626987 3885915
0.29891592 -0.97593075 4.7782593 2899796
0.32452089 -0.97554994 4.7763944 3031125
0.37371004 -0.97481823 4.7728133 3162711
0.42478898 -0.97405809 4.7690926 3360088
0.47578791 -0.97527325 4.7653747 3622745
0.5110516 -0.97474784 4.7628064 3754074
0.29892296 -0.92448342 4.7783713 2702162
0.32452852 -0.92412251 4.7765069 2833747
0.37356818 -0.92524475 4.7729311 3031124
0.42479864 -0.92468506 4.7692003 3293782
0.47579849 -0.92593843 4.7654829 3425367
0.51106322 -0.92543936 4.7629142 3622488
0.29892972 -0.8750127 4.7784801 2637140
0.32453588 -0.87467128 4.7766147 2768468
0.37386736 -0.87584895 4.7730174 2965333
0.42480826 -0.87530935 4.7693086 3096917
0.47580981 -0.87462753 4.765594 3293782
0.51107508 -0.87415606 4.7630262 3359574
0.29893649 -0.82553971 4.7785883 2571604
0.32454333 -0.82521743 4.7767224 2637141
0.3737357 -0.82459885 4.77314 2834262
0.42467791 -0.82409877 4.7694306 2899797
0.47582069 -0.82528806 4.7657022 3097175
0.51108664 -0.82484317 4.7631335 3162711
0.29894355 -0.77408546 4.7787008 2440276
0.32409438 -0.774575 4.7768669 2571605
0.37374407 -0.7751801 4.7732491 2768726
0.42497778 -0.77473778 4.7695174 2834261
0.4758313 -0.77594626 4.7658091 2900054
0.51109821 -0.77552807 4.7632413 3097432
0.29895031 -0.72460794 4.7788086 2374740
0.32502058 -0.72518289 4.7769084 2374740
0.37375271 -0.72575867 4.7733564 2506069
0.42483738 -0.72519308 4.7696362 2637140
0.47584262 -0.72462809 4.7659206 2768469
0.51111025 -0.72423786 4.7633529 2834261
0.29895705 -0.67512804 4.7789173 2112339
0.32456556 -0.67486471 4.7770519 2243411
0.37376136 -0.67435843 4.773469 2374740
0.42449233 -0.67426479 4.769773 2505811
0.47585335 -0.67528188 4.7660284 2637140
0.51112169 -0.67491806 4.7634602 2637139
0.29896387 -0.62564611 4.7790251 2177619
0.32457277 -0.62540174 4.7771602 2177619
0.37376988 -0.62493271 4.7735763 2308948
0.42522728 -0.62492681 4.7698278 2440275
0.47586417 -0.62593323 4.7661362 2506068
0.51113319 -0.62559605 4.7635679 2506068
0.29897058 -0.5761618 4.7791338 1585228
0.32458025 -0.57593703 4.7772684 1585228
0.37377825 -0.57550502 4.7736845 1782863
0.42486653 -0.5750562 4.7699637 2045519
0.47587517 -0.57460845 4.7662482 2111312
0.51114523 -0.57429856 4.7636795 2111312
0.29897767 -0.52469581 4.7792459 1585741
0.32458782 -0.52449095 4.77738 1651277
0.37378711 -0.52409744 4.7737975 1716814
0.42436713 -0.52471715 4.770112 1914190
0.47588593 -0.52525544 4.7663565 1848141
0.5111568 -0.5249722 4.7637873 1848398
0.29898441 -0.47520697 4.7793541 1585999
0.32459515 -0.47502148 4.7774887 1651535
0.37379557 -0.47466514 4.7739053 1651534
0.42539191 -0.47539437 4.7701445 1782606
0.47589689 -0.4758999 4.7664642 1585227
0.51116836 -0.4756434 4.7638946 1584971
0.2989912 -0.42571586 4.7794628 1717841
0.32460257 -0.42554954 4.777596 1783633
0.37380403 -0.42523035 4.774014 1783633
0.42489573 -0.42489886 4.7702913 1980753
0.4759078 -0.42456803 4.7665758 1980497
0.51118022 -0.42433921 4.7640066 1914961
0.29899824 -0.37424272 4.7795749 1520719
0.32461032 -0.37409654 4.777709 1586255
0.37355375 -0.37410155 4.7741427 1586254
0.42490533 -0.37550059 4.7703991 1849168
0.47591865 -0.37520805 4.7666845 1783632
0.5111919 -0.37500584 4.7641139 1717840
0.29900503 -0.32474706 4.7796831 1389134
0.32461756 -0.32462031 4.7778177 1454926
0.37409487 -0.32470074 4.7742133 1454926
0.42491519 -0.32609999 4.7705069 1783375
0.47592953 -0.32584593 4.7667909 1783376
0.51120341 -0.32567039 4.7642217 1783632
0.29901177 -0.27524915 4.7797914 1586767
0.32462496 -0.27514169 4.7779255 1652303
0.37382978 -0.27493525 4.7743416 1652304
0.424925 -0.27472088 4.7706189 1718096
0.47594067 -0.27450696 4.7669029 1652304
0.51121539 -0.27435899 4.7643337 1652303
0.2990188 -0.22376893 4.7799044 1585998
0.32463226 -0.22566088 4.7780347 1585998
0.3738381 -0.22549164 4.7744493 1586254
0.42493454 -0.22531581 4.7707267 1585997
0.47595125 -0.22514026 4.7670102 1520462
0.51122689 -0.22501895 4.764441 1520461
0.29757345 -0.17062248 4.7801266 1256521
0.32463953 -0.17617781 4.7781429 1256778
0.37384668 -0.17604564 4.7745576 1257034
0.42494428 -0.17590837 4.7708354 1257034
0.47596204 -0.17577134 4.767118 1257034
0.5112384 -0.17567658 4.7645493 1257034
0.29706091 -0.1247655 4.7802639 1125705
0.32464725 -0.12471306 4.778255 1125705
0.37385541 -0.12461947 4.7746706 1191241
0.42495415 -0.12452233 4.770946 1191498
0.47597322 -0.12442534 4.7672305 1191498
0.51125062 -0.12435824 4.7646604 1257034
0.29706764 -0.075257063 4.7803726 1190984
0.32465455 -0.075225413 4.7783628 1125449
0.37386382 -0.075168982 4.7747784 1125705
0.42496374 -0.075110376 4.7710547 1125449
0.47598404 -0.075051837 4.7673383 1125448
0.51126206 -0.075011395 4.7647681 1125192
0.29707435 -0.025746349 4.7804804 1124935
0.32466188 -0.025735525 4.7784705 1059399
0.3738724 -0.025716215 4.7748852 1059399
0.42497343 -0.025696162 4.771162 1059399
0.47599494 -0.025676152 4.7674456 1124935
0.5112735 -0.025662305 4.7648759 1125191
0.29708135 0.025747158 4.7805934 1190984
0.32466963 0.025736328 4.778583 1191241
0.37388116 0.025717024 4.7749982 1257290
0.42498332 0.025696967 4.771275 1257546
0.47600615 0.025676947 4.7675581 1323082
0.51128554 0.025663106 4.764987 1323082
0.29708806 0.07526242 4.7807012 1124678
0.32467699 0.07523077 4.7786922 1124935
0.3738896 0.075174339 4.775106 1125191
0.42499298 0.075115696 4.7713828 1125447
0.47601655 0.075057186 4.7676659 1190984
0.51129705 0.07501673 4.7650952 1125447
-0.86005414 0.10430866 4.7505302 2039583
-0.82490891 0.10434436 4.7521563 2039583
-0.77410376 0.10439594 4.7545061 2039583
-0.72520542 0.10444561 4.7567673 1647666
-0.67626005 0.10449532 4.7590313 993347
-0.62530762 0.10454705 4.7613883 927811
-0.57430488 0.10459887 4.7637472 862019
-0.52521628 0.10464872 4.7660174 927812
-0.47608027 0.10469861 4.7682896 928325
-0.42492947 0.10475059 4.7706561 928069
-0.37372783 0.10480259 4.773025 861250
-0.32444784 0.10485264 4.7753043 926786
-0.27512008 0.10490271 4.7775855 1058884
-0.22376959 0.10495488 4.7799611 926273
-0.17434621 0.10500508 4.7822471 794173
-0.12487494 0.10505532 4.7845354 860737
-0.075356923 0.1051056 4.7868257 992323
-0.02579084 0.10515595 4.7891183 926530
0.025807954 0.10520836 4.7915044 860480
0.07547038 0.10525877 4.7938018 992836
0.12518109 0.10530928 4.7961016 926529
0.17493884 0.1053598 4.7984023 859966
0.2048149 0.10539013 4.7997842 925759
0.29709184 0.10299186 4.7807622 1124165
0.32468104 0.10294855 4.7787519 1058628
0.37389433 0.10287131 4.7751665 1058628
0.42499834 0.1027911 4.7714434 1124934
0.47602278 0.10271101 4.7677259 1124934
0.51130354 0.10265565 4.7651553 1125447
-0.71083111 -2.1599243 4.8492208 2039583
-0.67561245 -2.1589282 4.8466568 2039583
-0.62600428 -2.1589024 4.8430429 2039583
-0.57540655 -2.1572607 4.8393598 2039583
-0.52628261 -2.1570523 4.8357816 2039583
-0.47444016 -2.1559849 4.8320074 2039583
-0.42571849 -2.1547661 4.8284612 2039583
-0.37578979 -2.1547778 4.8248229 2039583
-0.32557181 -2.1531458 4.8211679 2039583
-0.27829227 -2.153033 4.8177238 2039583
-0.22536254 -2.151881 4.8138704 2039583
-0.18336302 -2.1505144 4.8108139 2039583
-0.70916164 -2.1254742 4.849175 2039583
-0.67428964 -2.1248939 4.8466358 2039583
-0.62601405 -2.1248264 4.8431177 2039583
-0.57541507 -2.1252136 4.8394318 2039583
-0.52453566 -2.125118 4.8357253 2039583
-0.47496969 -2.1250398 4.8321152 2039583
-0.42370757 -2.1248915 4.8283801 2039583
-0.37579498 -2.124824 4.8248892 2039583
-0.32572958 -2.1250501 4.8212414 2039583
-0.27517179 -2.1252759 4.8175569 2039583
-0.22588101 -2.1248841 4.8139677 2039583
-0.1749412 -2.1250577 4.810256 2039583
-0.12545769 -2.1247578 4.8066516 2039583
-0.075616531 -2.1251423 4.8030195 2039583
-0.043170244 -2.1230454 4.8006601 2039583
-0.70917785 -2.0752983 4.849287 2039583
-0.67514777 -2.0750356 4.846808 2039583
-0.62602836 -2.074713 4.8432302 2039583
-0.57542819 -2.0751379 4.8395429 2039583
-0.52518088 -2.0752149 4.8358817 2039583
-0.47393823 -2.0750868 4.832149 2039583
-0.42444226 -2.0748935 4.8285422 2039583
-0.37580359 -2.074899 4.8250008 2039583
-0.32543999 -2.0751758 4.8213305 2039583
-0.27590927 -2.0748909 4.8177218 2039583
-0.22485168 -2.0751188 4.8140016 2039583
-0.17537726 -2.0745986 4.8103991 2039583
-0.12546052 -2.0750213 4.8067617 2039583
-0.075618289 -2.0754442 4.8031282 2039583
-0.041766502 -2.074379 4.8006663 2039583
-0.70845526 -2.0263748 4.8493414 2039583
-0.67421669 -2.0249314 4.8468499 2039583
-0.62630594 -2.0249188 4.8433599 2039583
-0.57544154 -2.0250599 4.839653 2039583
-0.52465367 -2.0252035 4.8359537 2039583
-0.47499132 -2.0250397 4.8323355 2039583
-0.42372701 -2.0249662 4.8285999 2039583
-0.3758122 -2.0249717 4.8251114 2039583
-0.32587045 -2.0251145 4.8214712 2039583
-0.27498022 -2.0250874 4.8177643 2039583
-0.22573721 -2.0248055 4.8141766 2039583
-0.17538127 -2.0248225 4.8105087 2039583
-0.12546341 -2.0252829 4.8068705 2039583
-0.076088019 -2.0248892 4.8032742 2039583
-0.041767444 -2.0247035 4.8007746 2039583
-0.70717967 -1.9748788 4.8493614 2039583
-0.67518508 -1.9750606 4.8470311 2039583
-0.62577969 -1.974828 4.843431 2039583
-0.57545483 -1.9749806 4.8397636 2039583
-0.52508134 -1.9753066 4.8360944 2039583
-0.47395989 -1.9750825 4.8323698 2039583
-0.42436785 -1.9748021 4.8287573 2039583
-0.37582073 -1.9750428 4.8252201 2039583
-0.32533389 -1.9752475 4.8215423 2039583
-0.27591577 -1.9748527 4.8179417 2039583
-0.22500323 -1.9750237 4.8142333 2039583
-0.17538524 -1.9750445 4.8106184 2039583
-0.12591532 -1.97491 4.8070145 2039583
-0.075159952 -1.9752355 4.8033171 2039583
-0.040459972 -1.9738977 4.8007913 2039583
-0.707196 -1.9246973 4.8494725 2039583
-0.67425388 -1.9249544 4.8470726 2039583
-0.6264289 -1.9248408 4.8435879 2039583
-0.57546777 -1.9248986 4.8398757 2039583
-0.52479678 -1.9252785 4.8361826 2039583
-0.47501335 -1.9250281 4.8325572 2039583
-0.4238404 -1.9248618 4.8288288 2039583
-0.37582937 -1.9251112 4.8253293 2039583
-0.3260577 -1.9250128 4.8217044 2039583
-0.27498671 -1.9250468 4.8179841 2039583
-0.22538601 -1.9247279 4.8143706 2039583
-0.17554092 -1.9250898 4.810739 2039583
-0.12503377 -1.9252077 4.8070588 2039583
-0.075882196 -1.9246638 4.8034787 2039583
-0.039779373 -1.9252886 4.8008475 2039583
-0.70576119 -1.8759066 4.8494754 2039583
-0.67473245 -1.8976766 4.8471675 2039583
-0.6224336 -1.8969882 4.843359 2039583
-0.57558596 -1.8972212 4.8408818 2039583
-0.52524018 -1.8964716 4.8389711 2039583
-0.47227648 -1.8965559 4.835937 2039583
-0.42454964 -1.8964471 4.8338056 2039583
-0.3750326 -1.8959174 4.8327255 2039583
-0.32349426 -1.8962355 4.8290615 2039583
-0.27497691 -1.8959551 4.8278718 2039583
-0.22497366 -1.8955995 4.8261557 2039583
-0.17462789 -1.8959349 4.8231735 2039583
-0.12506939 -1.8956414 4.8211126 2039583
-0.074455328 -1.8954279 4.8205829 2039583
-0.027878288 -1.8954215 4.8198986 2039583
0.025020923 -1.8948742 4.8243122 2039583
0.074917831 -1.89482 4.8249884 2039583
0.12494627 -1.8947616 4.8240256 2039583
0.17632897 -1.8947128 4.8278031 2039583
0.22489348 -1.8946604 4.8287926 2039583
0.27487734 -1.8946061 4.8296328 2039583
-0.70519769 -1.8242713 4.8495474 2039583
-0.70521331 -1.7760921 4.8496552 2039583
-0.70319873 -1.72585 4.8496189 2039583
-0.70321488 -1.6756603 4.8497295 2039583
-0.70274633 -1.6292804 4.8497977 2039583
-0.70121646 -1.5752254 4.8498044 2039583
-0.70123255 -1.52503 4.8499165 2039583
-0.70124292 -1.4929038 4.8499875 2039583
0.23072407 0.10541646 4.8009834 992323
0.27260306 0.105459 4.8029194 992835
-1.2712659 -2.1718907 4.8900242 2039583
-1.2248137 -2.1682177 4.8866487 2039583
-1.1738296 -2.1670332 4.882937 2039583
-1.1239215 -2.1669791 4.8793006 2039583
-1.0746158 -2.1653857 4.8757119 2039583
-1.0261279 -2.1651015 4.8721805 2039583
-0.97622162 -2.1642194 4.8685465 2039583
-0.92578608 -2.1629999 4.8648744 2039583
-0.87403435 -2.1629257 4.8611045 2039583
-0.82509589 -2.1613407 4.857542 2039583
-0.77724582 -2.1610467 4.8540564 2039583
-0.73713934 -2.1602774 4.8511367 2039583
-1.2590754 -2.1409948 4.8892045 2039583
-1.2236385 -2.1266642 4.8866544 2039583
-1.1729448 -2.1246388 4.8829651 2039583
-1.1243052 -2.125057 4.8794203 2039583
-1.0746359 -2.125026 4.8758025 2039583
-1.0249698 -2.1248298 4.8721838 2039583
-0.97668159 -2.1252406 4.8686647 2039583
-0.92472053 -2.1247914 4.864881 2039583
-0.87431467 -2.1250207 4.861207 2039583
-0.82510972 -2.1251521 4.8576236 2039583
-0.77581304 -2.1249566 4.854032 2039583
-0.73580986 -2.124789 4.8511176 2039583
-1.2107518 -2.0843241 4.8858085 2039583
-1.1735058 -2.0754333 4.8831139 2039583
-1.1235913 -2.0746055 4.8794794 2039583
-1.0750228 -2.0750599 4.8759389 2039583
-1.0254246 -2.0750666 4.8723273 2039583
-0.9758305 -2.0749071 4.8687148 2039583
-0.92563432 -2.0751867 4.8650556 2039583
-0.87379014 -2.074748 4.86128 2039583
-0.82512867 -2.0748889 4.8577356 2039583
-0.77625877 -2.0753789 4.8541732 2039583
-0.73533887 -2.0746377 4.8511939 2039583
-1.1654763 -2.030973 4.882627 2039583
-1.1241504 -2.0254335 4.8796277 2039583
-1.0743078 -2.0246441 4.8759975 2039583
-1.025714 -2.0249715 4.8724575 2039583
-0.97628349 -2.025177 4.8688564 2039583
-0.92464995 -2.0248899 4.8650947 2039583
-0.87457925 -2.0250754 4.8614464 2039583
-0.82514709 -2.0246222 4.8578453 2039583
-0.77627689 -2.0251496 4.8542843 2039583
-0.73501867 -2.0244763 4.8512807 2039583
-1.1521188 -1.9948038 4.8817329 2039583
-1.1198049 -1.9785024 4.8794146 2039583
-1.0748652 -1.9755051 4.8761482 2039583
-1.0251909 -1.9745805 4.8725309 2039583
-0.97645116 -1.9749556 4.868979 2039583
-0.92516923 -1.9752979 4.8652406 2039583
-0.87361979 -1.9748212 4.8614869 2039583
-0.8255952 -1.9750029 4.8579884 2039583
-0.77629459 -1.9749184 4.8543973 2039583
-0.73326862 -1.975018 4.8512626 2039583
-1.1058093 -1.9395789 4.87848 2039583
-1.0729959 -1.9265572 4.8761196 2039583
-1.0258719 -1.9253008 4.8726873 2039583
-0.97617334 -1.9245869 4.8690705 2039583
-0.92519015 -1.9249531 4.8653541 2039583
-0.87412941 -1.9254954 4.8616323 2039583
-0.82474458 -1.9247776 4.858037 2039583
-0.77645689 -1.9248445 4.8545194 2039583
-0.73360604 -1.92546 4.8513956 2039583
-1.0603825 -1.8852143 4.8752904 2039583
-1.0250059 -1.8750683 4.872736 2039583
-0.97683156 -1.8751734 4.869226 2039583
-0.92521179 -1.8746048 4.8654661 2039583
-0.87414974 -1.8751853 4.8617444 2039583
-0.82557827 -1.8752987 4.8582063 2039583
-0.77617598 -1.8746241 4.8546085 2039583
-0.73202324 -1.874737 4.8513908 2039583
-0.68104923 -1.8893728 4.8732166 2039583
-0.6250447 -1.8957137 4.872972 2039583
-0.57535958 -1.8956579 4.8729944 2039583
-0.52527291 -1.895601 4.8726854 2039583
-0.47479808 -1.895545 4.8728709 2039583
-0.42512044 -1.8954884 4.8723874 2039583
-0.37545317 -1.8954327 4.872417 2039583
-0.32497901 -1.8953758 4.8722682 2039583
-0.27492017 -1.8953189 4.8717828 2039583
-0.22523558 -1.8952647 4.8724856 2039583
-0.17480664 -1.8952053 4.8713374 2039583
-0.12513365 -1.8951507 4.8716898 2039583
-0.074674368 -1.8950934 4.8715434 2039583
-0.024218058 -1.8950367 4.8713975 2039583
0.024217125 -1.8949819 4.8712568 2039583
0.074667461 -1.8949252 4.8711104 2039583
0.12511481 -1.8948681 4.870965 2039583
0.17325842 -1.8948189 4.87287 2039583
0.22520877 -1.8947685 4.8763003 2039583
0.27471444 -1.8947115 4.8757381 2039583
0.3009693 -1.8946818 4.8756614 2039583
-1.0152278 -1.8313383 4.8721199 2039583
-0.97589856 -1.8248361 4.8692689 2039583
-0.92575914 -1.8251582 4.8656144 2039583
-0.87416959 -1.8248734 4.861856 2039583
-0.82486314 -1.8250638 4.8582649 2039583
-0.77681971 -1.8250215 4.854763 2039583
-0.73160779 -1.8249948 4.8514705 2039583
-0.69862843 -1.8253206 4.8738275 2039583
-1.0030067 -1.7981467 4.8713017 2039583
-0.97065669 -1.7793185 4.8689861 2039583
-0.92472398 -1.7748572 4.8656511 2039583
-0.87445462 -1.7748796 4.8619876 2039583
-0.8252418 -1.7752697 4.8584018 2039583
-0.77588761 -1.7748333 4.8548074 2039583
-0.73145407 -1.7745992 4.8515692 2039583
-0.69867128 -1.77495 4.8741264 2039583
-0.95707673 -1.7440708 4.8680744 2039583
-0.92355412 -1.7265027 4.8656707 2039583
-0.87393039 -1.7245936 4.8620601 2039583
-0.82526058 -1.72499 4.8585119 2039583
-0.77666217 -1.7253853 4.8549719 2039583
-0.72960955 -1.724526 4.8515463 2039583
-0.69871426 -1.7245737 4.8744264 2039583
-0.92120701 -1.6751002 4.865612 2039583
-0.87467092 -1.67524 4.8622231 2039583
-0.82527953 -1.6747082 4.8586254 2039583
-0.7761367 -1.6751711 4.8550429 2039583
-0.72997463 -1.6748409 4.8516817 2039583
-0.69878364 -1.6751938 4.8743463 2039583
-0.92122865 -1.6247442 4.8657246 2039583
-0.87381983 -1.624969 4.8622704 2039583
-0.82565814 -1.6249057 4.8587623 2039583
-0.77641892 -1.625244 4.855175 2039583
-0.72842413 -1.6241322 4.8516798 2039583
-0.69877219 -1.6248159 4.8753939 2039583
-0.92159992 -1.5749111 4.8658624 2039583
-0.87426955 -1.5752913 4.8624129 2039583
-0.82494336 -1.5746616 4.8588204 2039583
-0.77643687 -1.574994 4.8552856 2039583
-0.72800106 -1.5753258 4.8517561 2039583
-0.69886965 -1.5744183 4.8749466 2039583
-0.92090702 -1.5245974 4.8659205 2039583
-0.87428981 -1.5249659 4.8625245 2039583
-0.82571054 -1.5253341 4.8589845 2039583
-0.77489889 -1.5243515 4.8552837 2039583
-0.72586566 -1.5255936 4.8517094 2039583
-0.69888449 -1.5250269 4.8756146 2039583
-0.92129105 -1.4756743 4.8660564 2039583
-0.87430978 -1.474637 4.8626366 2039583
-0.82499552 -1.4750868 4.8590436 2039583
-0.77480549 -1.4748863 4.8553867 2039583
-0.7240721 -1.4749531 4.8516908 2039583
-0.69889945 -1.4756181 4.8762827 2039583
-0.92131269 -1.4253087 4.8661685 2039583
-0.87475938 -1.4249519 4.8627777 2039583
-0.82537413 -1.4252745 4.8591795 2039583
-0.77407146 -1.4246721 4.855444 2039583
-0.7236135 -1.4251105 4.8517661 2039583
-0.69899696 -1.4252253 4.8758345 2039583
-0.92133361 -1.3749408 4.8662806 2039583
-0.8739087 -1.3746721 4.8628263 2039583
-0.8253929 -1.3749788 4.8592911 2039583
-0.77493107 -1.3752959 4.8556142 2039583
-0.72362971 -1.3748913 4.8518782 2039583
-0.69898558 -1.3747782 4.8768826 2039583
-0.92149913 -1.3247432 4.8664026 2039583
-0.87436926 -1.3256524 4.862968 2039583
-0.82541192 -1.3246806 4.8594036 2039583
-0.77404672 -1.3250868 4.8556609 2039583
-0.72364658 -1.3246701 4.8519893 2039583
-0.69908303 -1.3243883 4.8764348 2039583
-0.92122233 -1.2743913 4.8664956 2039583
-0.87438953 -1.2753152 4.8630819 2039583
-0.82579052 -1.2748604 4.85954 2039583
-0.77450848 -1.2754188 4.8558035 2039583
-0.72366315 -1.274447 4.8521004 1974048
-0.69909793 -1.2749476 4.8771033 1778475
-0.92155057 -1.2256432 4.8666253 2039583
-0.87440991 -1.2249746 4.8631921 2039583
-0.82507533 -1.2246041 4.8595982 2039583
-0.77452618 -1.2251542 4.8559136 2039583
-0.7241075 -1.224862 4.8522429 1582386
-0.69914091 -1.2245097 4.8774033 1191241
-0.92127377 -1.175287 4.8667169 2039583
-0.87442994 -1.1746334 4.8633032 2039583
-0.82562298 -1.1756067 4.8597465 2039583
-0.774544 -1.1748877 4.8560276 2039583
-0.72325677 -1.1746898 4.8522911 1519174
-0.699184 -1.1740659 4.8777037 1125192
-0.92143947 -1.1250802 4.8668385 2039583
-0.8744505 -1.124289 4.8634167 2039583
-0.82534266 -1.1253189 4.8598356 2039583
-0.77456176 -1.124619 4.8561401 2039583
-0.72386676 -1.1255926 4.8524427 1716811
-0.69922543 -1.1256338 4.8779922 1126218
-0.92146033 -1.0746982 4.8669496 2039583
-0.87484473 -1.075428 4.863553 2039583
-0.82550627 -1.0751674 4.8599586 2039583
-0.77457958 -1.0743471 4.8562503 2039583
-0.72358495 -1.0753795 4.8525314 1716810
-0.69926846 -1.0751777 4.8782926 992581
-0.92148161 -1.0243138 4.8670621 2039583
-0.87412953 -1.0251279 4.8636112 2039583
-0.82552522 -1.0248557 4.8600712 2039583
-0.77512485 -1.025124 4.8563986 2039583
-0.72310394 -1.0248522 4.8531065 1782603
-0.69917256 -1.0279275 4.8804436 1257034
-0.92165583 -0.97574794 4.8671813 2039583
-0.87450975 -0.97525668 4.8637481 2039583
-0.82554424 -0.97454143 4.8601823 2039583
-0.77409047 -0.9749127 4.8564334 2039583
-0.72193712 -0.97501367 4.8540564 1716810
-0.698672 -0.97611529 4.8882318 1191242
-0.92137933 -0.92538106 4.8672724 2039583
-0.87453014 -0.92490298 4.8638601 2039583
-0.82603538 -0.92503083 4.8603263 2039583
-0.77463257 -0.92553043 4.8565812 2039583
-0.72195637 -0.92476398 4.8541851 1716811
-0.69871515 -0.92554402 4.8885336 1520462
-0.92154461 -0.87516254 4.867394 2039583
-0.87455016 -0.87454677 4.8639731 2039583
-0.82510293 -0.8747775 4.8603702 2039583
-0.77465034 -0.8752504 4.8566923 2039583
-0.72210681 -0.87466294 4.8542304 1651274
-0.69875818 -0.87496656 4.8888354 1520974
-0.92156565 -0.8247689 4.867507 2039583
-0.8750599 -0.82516187 4.8641191 2039583
-0.82560056 -0.82559752 4.8605142 2039583
-0.77466816 -0.8249675 4.8568048 2039583
-0.72185856 -0.82442021 4.8545675 1585482
-0.69880128 -0.82438272 4.8891373 1125963
-0.92158699 -0.77437299 4.867619 2039583
-0.87410027 -0.77487022 4.8641572 2039583
-0.8256194 -0.7752741 4.8606267 2039583
-0.7746861 -0.77468222 4.8569164 2039583
-0.72251624 -0.77520996 4.8545914 1585225
-0.69884443 -0.77379274 4.8894386 1059913
-0.92160738 -0.72599107 4.8677268 2039583
-0.87460971 -0.7254802 4.8643041 2039583
-0.82563853 -0.72494823 4.8607378 2039583
-0.7747038 -0.72439498 4.8570261 2039583
-0.72154969 -0.72501141 4.854754 1453896
-0.69888586 -0.72522044 4.8897285 1059914
-0.92162883 -0.67559016 4.8678393 2039583
-0.87462997 -0.67511517 4.8644152 2039583
-0.82565749 -0.67462015 4.8608499 2039583
-0.77524894 -0.67515355 4.8571768 2039583
-0.72205895 -0.67549264 4.8548822 1453640
-0.69892907 -0.67461818 4.8900299 1191498
-0.92164999 -0.62518746 4.8679519 2039583
-0.87465012 -0.62474811 4.8645291 2039583
-0.82567668 -0.62428975 4.8609619 2039583
-0.77421457 -0.62493145 4.8572111 2039583
-0.72220933 -0.62538123 4.8549223 1321797
-0.69897223 -0.62400967 4.8903322 861252
-0.92167097 -0.57478237 4.8680634 2039583
-0.87467009 -0.57437825 4.8646402 2039583
-0.8256948 -0.57597041 4.8610687 2039583
-0.77475679 -0.57553083 4.8573589 2039583
-0.72196198 -0.57511574 4.8552699 1190212
-0.69901353 -0.5754196 4.8906221 926788
-0.92169231 -0.5243749 4.868176 2039583
-0.87469041 -0.52400625 4.8647523 2039583
-0.82571399 -0.52563536 4.8611808 2039583
-0.77477443 -0.52523422 4.8574719 2039583
-0.72225064 -0.52484453 4.8552008 1190211
-0.69905668 -0.52479881 4.8909245 860995
