# .PCD v0.7 - Point Cloud Data file format
VERSION 0.7
FIELDS x y z rgb
SIZE 4 4 4 4
TYPE F F F U
COUNT 1 1 1 1
WIDTH 1172
HEIGHT 1
VIEWPOINT 0 0 0 1 0 0 0
POINTS 1172
DATA ascii
-0.12501502 -0.59489214 1.975196 2955288
-0.075010136 -0.59490126 1.9752666 1387589
-0.025006657 -0.59491038 1.9751165 1847107
0.025007175 -0.59491891 1.9751478 2039583
0.075013705 -0.59492886 1.9753565 4022661
0.12502475 -0.59493738 1.9753482 2571347
0.17512846 -0.5949468 1.9752984 4871003
0.22505231 -0.59495586 1.9753678 6447714
0.27488548 -0.59496498 1.9754193 3162708
0.32490402 -0.59497446 1.9753897 2439243
0.37492198 -0.59498334 1.9755185 5855577
0.42494261 -0.59499264 1.9754901 6513507
0.47496414 -0.5950011 1.9754999 6513507
0.50509351 -0.59500277 1.97144 6513507
-1.4006584 -0.52507442 1.9969784 11711154
-1.3972224 -0.52497476 1.9710763 11711154
-1.400606 -0.47514188 1.996878 11184810
-1.3971831 -0.47503662 1.971076 11645361
-1.4005666 -0.42494023 1.9968736 2039583
-1.3971336 -0.42504653 1.9709977 2434341
-1.4005145 -0.37501448 1.9967728 2039583
-1.3970878 -0.37495148 1.9709476 2039583
-1.4004666 -0.32509327 1.9967051 2039583
-1.3970391 -0.32496852 1.9708737 2039583
-1.4004141 -0.27490169 1.9966043 2039583
-1.3969855 -0.27504358 1.9707514 2039583
-1.4005203 -0.22670077 1.9976887 2039583
-1.3971039 -0.22478187 1.9719493 2039583
-1.400516 -0.17547856 1.9979539 2039583
-1.3970817 -0.17499323 1.9720725 2039583
-1.4004676 -0.12498282 1.9978845 2039583
-1.3970288 -0.1251002 1.9719663 2039583
-1.4004189 -0.074490555 1.9978158 2039583
-1.3970011 -0.075107679 1.9720428 2039583
-1.4003716 -0.024829434 1.9977479 2039583
-1.3969276 -0.025021371 1.9717853 2039583
-1.4003236 0.024828302 1.9976798 2039583
-1.3968792 0.025020244 1.9717177 2039583
-1.4002761 0.074482664 1.9976121 4013373
-1.3968564 0.075099714 1.97184 4276545
0.89152759 0.087648101 1.958838 6513507
0.90586233 0.096557841 1.9604571 6579300
-1.4002444 0.10758382 1.9975666 10066329
-1.3903576 0.11006189 1.9706808 10066329
-1.324679 0.11572081 1.9669433 10066329
-1.2749996 0.11568677 1.9665915 10132122
-1.2253526 0.11565308 1.9657919 10197915
-1.1749142 0.1156185 1.9654315 10197915
-1.1245044 0.11558431 1.964623 10197915
-1.0749465 0.11555032 1.9642724 10197915
-1.0288336 0.11551616 1.9673598 10066330
-0.97454876 0.1154716 1.9767587 1125707
-0.92514193 0.11543791 1.9761819 1059655
-0.87494111 0.11540367 1.9755962 6515574
-0.84614968 0.11538405 1.9752599 10197915
-0.71466213 0.11529439 1.9737252 10197915
-0.67525631 0.11526752 1.9732652 10197915
-0.62520367 0.11523339 1.9726809 10197915
-0.57099408 0.11519116 1.9790497 10197915
-0.52518898 0.11515482 1.9852848 10197915
-0.47528562 0.11512063 1.9849274 10197915
-0.42540985 0.11508679 1.9841115 10197915
-0.37474382 0.11505207 1.9837456 10197915
-0.32451475 0.11501782 1.9831545 10197915
-0.28372595 0.11499086 1.9816 10197915
-0.15803568 0.11490376 1.981933 10197915
-0.12513612 0.11488207 1.9805822 10197915
-0.0750653 0.11484762 1.9804513 10132122
-0.02501641 0.11481382 1.979405 10066329
0.025006501 0.11477967 1.9788175 10132122
0.074995942 0.11474528 1.9786869 3364998
0.12494792 0.11471156 1.9776425 993092
0.17488182 0.11467753 1.9770554 6975867
0.22519021 0.11464303 1.9766923 10066329
0.27547023 0.11460892 1.9758731 10066329
0.3249 0.11457504 1.9755199 9671571
0.37471339 0.11454108 1.9749347 3026478
0.42490005 0.11450702 1.9741167 2039583
0.47506121 0.11447268 1.9737549 2368548
0.52518976 0.11443866 1.9729379 9868950
0.57528913 0.11440431 1.9725767 10066329
0.62535983 0.11437037 1.9717603 10197915
0.67539769 0.11433606 1.9713999 10197915
0.72541022 0.11430215 1.9705843 10197915
0.7574628 0.11427525 1.9769189 10197915
0.89243096 0.11419333 1.9619066 10197915
0.92114347 0.10971022 1.9647161 9671571
1.2943759 0.11392448 1.9502736 6513507
1.3218076 0.11389067 1.970032 6513507
1.3751909 0.11384854 1.9770169 6513507
1.4255422 0.11381422 1.9764206 6513507
1.4750521 0.11378047 1.975834 6513507
1.5245322 0.11374673 1.9752487 6513507
1.5602061 0.11372241 1.9748266 6513507
1.617751 -0.90707529 2.0429273 6513507
-1.4045093 -0.86711991 2.0240004 3229018
1.6178427 -0.87502724 2.0424213 6513507
-1.4044697 -0.82502174 2.0239525 10856360
1.6178752 -0.82501543 2.0424752 6513507
-1.4044179 -0.7750811 2.0238543 3421236
1.6179087 -0.77510786 2.0425179 6513507
-1.4043651 -0.7250939 2.0237429 2039583
1.6179421 -0.72509181 2.0425644 6513507
-1.4043254 -0.67506117 2.0237384 2039583
1.6179807 -0.67507434 2.0425723 6513507
-1.4042945 -0.62520486 2.0238032 5395026
-0.31589442 -0.6124137 2.0333321 4329231
1.6180092 -0.62505352 2.0426593 6513507
-1.4044199 -0.57500398 2.0250406 11711154
-0.30781785 -0.59500337 2.0285699 4329231
-0.28670999 -0.59491366 2.0242748 4329231
-0.15974611 -0.59493881 2.02633 3347733
-0.1249379 -0.59494412 2.0255005 2039326
-0.075056456 -0.59495342 2.0254889 1714490
-0.025083432 -0.59496242 2.025563 1848397
0.02508394 -0.5949713 2.0255926 1908771
0.075059958 -0.59498113 2.0255833 4022146
0.12494762 -0.59498954 2.0256572 2571862
0.1749288 -0.59499884 2.0256031 4476761
0.22500424 -0.59500748 2.0257173 6447714
0.27508184 -0.59501702 2.0257509 4871003
0.32506886 -0.59502637 2.0257368 2110537
0.37505633 -0.59503591 2.0258348 4013373
0.42504525 -0.59504443 2.0258205 6513507
0.47441185 -0.59505332 2.0253863 6513507
0.50163907 -0.59503895 2.0069387 6513507
1.618047 -0.57503271 2.0426657 6513507
-1.4043803 -0.52501613 2.0250363 11711154
1.6180788 -0.52500772 2.0427282 6513507
-1.404331 -0.47497812 2.0249553 10197915
1.6181139 -0.47498223 2.0427589 6513507
-1.4042802 -0.42499599 2.0248704 2039583
1.618148 -0.42506018 2.0428011 6513507
-1.4042307 -0.37501755 2.02479 2039583
1.6181799 -0.37492383 2.0428612 6513507
-1.4041858 -0.32499024 2.0247393 2039583
1.618215 -0.32489079 2.042891 6513507
-1.4041336 -0.27496588 2.0246394 2039583
1.6182462 -0.27496263 2.0429564 6513507
-1.404089 -0.22494595 2.0245948 2039583
1.6182852 -0.22492604 2.0429575 6513507
-1.4040333 -0.17492831 2.0244706 2039583
1.6183114 -0.17499183 2.0430615 6513507
-1.4039974 -0.12491528 2.0244951 2039583
1.6183569 -0.12495525 2.0430162 6513507
-1.4039359 -0.075061738 2.0243199 2039583
1.6183749 -0.075010218 2.0431752 6513507
-1.4039016 -0.025108799 2.0243554 2039583
1.6184242 -0.025081467 2.0431013 6513507
-1.4040027 0.025347695 2.0254135 2039583
1.6184583 0.025082162 2.0431437 6513507
-1.4039956 0.07503479 2.0256484 3947580
1.6184766 0.075015113 2.0433033 6513507
-1.4039198 0.1080071 2.0256705 10066329
-1.3751372 0.11571269 2.0240541 10066329
-1.3248571 0.11567862 2.0232091 10066329
-1.2750211 0.11564465 2.022615 10066329
-1.2248031 0.11561022 2.0222611 10066329
-1.175028 0.11557629 2.021668 10132122
-1.1252819 0.11554238 2.0210743 10197915
-1.0751514 0.11550839 2.0202315 10197915
-1.0250418 0.11547403 2.0198793 6188155
-0.97496855 0.11544011 2.0190372 1191240
-0.92492026 0.11540579 2.0186853 1518920
-0.87844658 0.11537541 2.0163991 9408659
-0.72099459 0.11526591 2.0174074 10197915
-0.67471105 0.11523522 2.0157018 10197915
-0.62484425 0.11520142 2.014863 10197915
-0.57831651 0.11516735 2.0174334 10197915
-0.52519488 0.11512247 2.0283232 10197915
-0.47547674 0.11508858 2.0277259 10197915
-0.42494574 0.11505415 2.0271192 10197915
-0.37444499 0.11501972 2.0265124 10197915
-0.32481536 0.11498588 2.0259166 10197915
-0.28698105 0.11496008 2.0254622 10197915
-0.15931322 0.11487308 2.0239289 10197915
-0.12491062 0.11484963 2.0235157 10197915
-0.075427748 0.1148159 2.0229216 10197915
-0.025135908 0.11478162 2.0223176 10132122
0.025125911 0.11474736 2.0217137 10066329
0.075357728 0.11471311 2.0211108 3562119
0.12947829 0.11466984 2.0288982 993606
0.17531821 0.11463381 2.0346732 6186611
0.2249853 0.11459995 2.0340722 10066329
0.27462292 0.11456615 2.0334716 10066329
0.32464439 0.11453222 2.0326164 5592405
0.37464446 0.11449797 2.0322616 2039583
0.42460844 0.1144641 2.0314076 2039583
0.474547 0.11442988 2.0310533 2039583
0.52487624 0.11439557 2.0304444 7566195
0.57474649 0.11436176 2.0295916 10132122
0.62460011 0.11432762 2.0292377 10197915
0.67525017 0.11429326 2.028384 10197915
0.72546101 0.11425906 2.0277684 10197915
0.76774055 0.11422816 2.0300176 10197915
0.92962593 0.11412105 2.0237553 10197915
0.95246547 0.11409303 2.0399659 10197915
1.3375432 0.113846 2.0149751 6513507
1.3750019 0.1138166 2.0196729 6513507
1.4247844 0.1137823 2.0195594 6513507
1.4745454 0.11374839 2.0189576 6513507
1.5246921 0.1137144 2.0181105 6513507
1.5732548 0.11368031 2.0188091 6513507
1.617071 0.10760359 2.0417461 6513507
1.6130968 -0.91497159 2.0783811 6513507
-1.4112066 -0.86718118 2.074486 10133153
1.6135681 -0.8749997 2.0750134 6513507
-1.4111718 -0.82499009 2.0744696 11711154
1.6136049 -0.8249982 2.0750792 6513507
-1.4111238 -0.77495593 2.0744014 7434609
1.6136788 -0.7752049 2.0747812 6513507
-1.4110667 -0.72497922 2.0742631 2039583
1.6137929 -0.72499806 2.074183 6513507
-1.4110254 -0.67495209 2.0742497 2039583
1.6138294 -0.67500681 2.0742347 6513507
-1.4109807 -0.62492853 2.0742083 2105376
-0.32513809 -0.61232883 2.0817285 4329231
1.6138628 -0.62498015 2.0743058 6513507
-1.4109311 -0.57496178 2.0741243 9605778
-0.3125031 -0.59503591 2.0770147 4329231
-0.2900919 -0.59496462 2.074096 4329231
-0.1618828 -0.59499007 2.0760891 2039583
-0.12510368 -0.59499627 2.0753798 2039583
-0.075021818 -0.59500539 2.0753868 1844269
-0.024936615 -0.59501475 2.0755739 1914190
0.024937127 -0.59502333 2.0756056 1976628
0.075025424 -0.59503251 2.0754831 3956094
0.12511344 -0.59504187 2.0755389 2572377
0.17488192 -0.59505075 2.0756357 4148055
0.22486757 -0.59505975 2.0756314 6447714
0.27506879 -0.59506917 2.0757008 8224126
0.3250581 -0.59507859 2.0756142 3556951
0.37504637 -0.59508729 2.0757895 3618615
0.42503899 -0.59509659 2.0757568 6513507
0.47016579 -0.59510386 2.0749395 6513507
1.6138955 -0.57498407 2.0743117 6513507
-1.4108665 -0.52494442 2.0739279 7368816
1.6139289 -0.52501988 2.0743697 6513507
-1.4108373 -0.47493136 2.074002 8487297
1.6139616 -0.47501981 2.0744436 6513507
-1.4107813 -0.42492101 2.0738807 2039583
1.6140006 -0.4249849 2.074455 6513507
-1.4107354 -0.37496814 2.0738165 2039583
1.6140273 -0.37498063 2.0745168 6513507
-1.4106876 -0.32501838 2.0737531 2039583
1.6140696 -0.32500777 2.0745156 6513507
-1.4106338 -0.27501908 2.0736396 2039583
1.6140999 -0.27503327 2.074604 6513507
-1.4105983 -0.22496815 2.0736611 2039583
1.6141316 -0.22502215 2.0746384 6513507
-1.4105377 -0.17497557 2.073498 2039583
1.6141669 -0.17501028 2.0746582 6513507
-1.4104903 -0.12509364 2.0734377 2039583
1.6142036 -0.12509485 2.0746956 6513507
-1.4104344 -0.075000882 2.0733051 2039583
1.6142471 -0.075013459 2.0746946 6513507
-1.4104104 -0.024910919 2.0734186 2039583
1.6142534 -0.024928523 2.0749037 6513507
-1.410516 0.024627846 2.0745103 2039583
1.6142905 0.024929229 2.0749462 6513507
-1.4104985 0.075010501 2.0746758 3750201
1.6143452 0.075018294 2.074825 6513507
-1.4101087 0.10867698 2.0757904 10066329
-1.3750651 0.11566769 2.0836692 10066329
-1.3250443 0.11563384 2.0827861 10066329
-1.2750471 0.11559954 2.0824416 10066329
-1.2250829 0.11556571 2.0815594 10066329
-1.1751471 0.11553144 2.0812151 10066329
-1.1252391 0.11549766 2.0803337 10066329
-1.0753646 0.11546347 2.0799901 9212052
-1.0250807 0.11542923 2.0793726 1585998
-0.97526544 0.11539546 2.0784931 1059911
-0.92547488 0.11536134 2.07815 5594989
-0.88862163 0.11533887 2.0741677 10132122
-0.75525558 0.11523896 2.0845532 10197915
-0.72488654 0.11522468 2.0756881 10197915
-0.67481041 0.11519054 2.075073 10197915
-0.62520069 0.11515693 2.0741966 10197915
-0.57518172 0.11512285 2.0735912 10197915
-0.52477312 0.11508828 2.0732315 10197915
-0.47481555 0.11505426 2.0726182 10197915
-0.42488748 0.11502023 2.0720055 10197915
-0.37456626 0.11498611 2.0711291 10197915
-0.32469526 0.11495215 2.070508 10197915
-0.28979683 0.11492912 2.0690768 10197915
-0.16158259 0.11484038 2.0693371 10197915
-0.12509972 0.11481594 2.0683253 10197915
-0.074950911 0.11478196 2.0674517 10197915
-0.024836021 0.11474761 2.0670948 10197915
0.024826264 0.11471376 2.0664847 10132122
0.07488171 0.11467987 2.0656126 3891081
0.12116475 0.11464515 2.0692689 1059658
0.17491466 0.11460005 2.079844 5397868
0.22482389 0.11456607 2.0792272 10066329
0.27470353 0.11453209 2.0786104 9408399
0.32455352 0.11449812 2.0779939 2302755
0.374374 0.11446415 2.0773778 2039583
0.42502311 0.11442964 2.0767515 2039583
0.47564182 0.11439516 2.0761254 2039583
0.52537274 0.11436127 2.0755105 5789784
0.57507426 0.1143274 2.0748959 10197915
0.62474626 0.11429358 2.0742819 10197915
0.67438895 0.11425974 2.073668 10197915
0.72485733 0.11422535 2.0730441 10197915
0.77529562 0.11419098 2.0724201 10197915
0.80093163 0.11417353 2.0721033 10197915
0.94178283 0.11407755 2.0703614 10197915
0.95883977 0.11406592 2.0701506 10197915
1.3799819 0.11377042 2.0765147 6513507
1.4247284 0.11373713 2.0796716 6513507
1.4746907 0.11370289 2.0793126 6513507
1.5246291 0.11366909 2.0784273 6513507
1.5745299 0.11363488 2.0780687 6513507
1.6137912 0.10743926 2.0747697 6513507
1.6048484 -0.9537918 2.1410623 6513507
1.60683 -0.92382169 2.1261299 6513507
-1.41782 -0.86717826 2.1243408 11711154
1.6069639 -0.87499863 2.1254044 6513507
-1.4177772 -0.82496899 2.1242611 11711154
1.6069946 -0.82503617 2.1254642 6513507
-1.4177318 -0.77495515 2.1242113 8028809
1.6070755 -0.77474153 2.1251485 6513507
-1.4176828 -0.72494483 2.1241388 2105377
1.6071957 -0.72492367 2.1245337 6513507
-1.4176354 -0.67493784 2.1240733 2039583
1.6072292 -0.67497098 2.124583 6513507
-1.4175892 -0.62493396 2.124023 2039583
-0.33483067 -0.61311972 2.1324735 4329231
1.6072605 -0.62498236 2.1246431 6513507
-1.4175227 -0.57505071 2.123812 2697513
-0.31724513 -0.59507483 2.1259794 4329231
-0.2934106 -0.59501463 2.1226091 4329231
-0.16396616 -0.59504098 2.1253476 2039583
-0.1249949 -0.59504694 2.1246831 2039583
-0.074931271 -0.59505647 2.1248951 1974048
-0.024981232 -0.59506541 2.1246789 1782604
0.024981748 -0.59507471 2.1247125 2307142
0.07493484 -0.59508383 2.1249931 3890043
0.12500465 -0.59509319 2.1248477 2507100
0.17496546 -0.59510189 2.1249068 3753814
0.22492813 -0.59511149 2.1250503 6908265
0.27511007 -0.59512019 2.1249452 9868950
0.32507676 -0.59512949 2.1249764 8882314
0.37504378 -0.59513861 2.1249819 3421236
0.42501089 -0.59514809 2.1252086 6513507
0.4654111 -0.59515375 2.123764 6513507
1.6073011 -0.57499188 2.1246312 6513507
-1.4174943 -0.52499592 2.1238935 2039583
1.6073273 -0.52499926 2.1247368 6513507
-1.4174415 -0.47500193 2.1237824 3750201
1.6073648 -0.47500411 2.1247475 6513507
-1.417382 -0.42507088 2.1236327 2039583
1.6073959 -0.42504111 2.1248212 6513507
-1.4173436 -0.37502536 2.1236367 2039583
1.6074263 -0.3750422 2.124876 6513507
-1.4172928 -0.32504168 2.1235416 2039583
1.6074958 -0.3251738 2.1246526 6513507
-1.4172448 -0.27506211 2.1234677 2039583
1.6076214 -0.27502942 2.1240015 6513507
-1.4172015 -0.22508593 2.123441 2039583
1.6076598 -0.22501974 2.1240005 6513507
-1.4173285 -0.17480248 2.1246948 2039583
1.6076959 -0.1750074 2.1240299 6513507
-1.4173111 -0.12489592 2.1248522 2039583
1.6077336 -0.12495745 2.1240494 6513507
-1.4172853 -0.074878886 2.124953 2039583
1.6077439 -0.07490477 2.124265 6513507
-1.4172059 -0.024980957 2.1246479 2039583
1.6078091 -0.024960792 2.1240666 6513507
-1.4171568 0.024979834 2.1245747 2039583
1.6078428 0.024961496 2.1241167 6513507
-1.4171398 0.074870892 2.124737 3421236
1.607847 0.074874252 2.1243804 6513507
-1.4165727 0.10817954 2.1250348 10066329
-1.3752335 0.1156325 2.1306212 10066329
-1.3254139 0.11559857 2.1299958 10066329
-1.2756232 0.11556464 2.1293709 10066329
-1.2249736 0.11553015 2.1287353 10066329
-1.1743542 0.11549567 2.1280999 10066329
-1.124652 0.11546181 2.1274757 10066329
-1.0749792 0.11542796 2.1268525 5333363
-1.0253356 0.11539416 2.1262293 1191497
-0.97483522 0.11535973 2.1255953 927042
-0.92436486 0.11532538 2.1249619 9737622
-0.89604247 0.11530606 2.1246061 10066329
-0.75988048 0.11521331 2.1228969 10197915
-0.72455019 0.11518925 2.1224535 10197915
-0.67511171 0.11515557 2.1218333 10197915
-0.62482005 0.1151213 2.121202 10197915
-0.57455796 0.11508704 2.1205709 10197915
-0.52520698 0.11505345 2.1199512 10197915
-0.47500443 0.11501925 2.1193213 10197915
-0.42483154 0.11498509 2.1186917 10197915
-0.3746886 0.1149509 2.1180625 10197915
-0.32239059 0.1149043 2.1320043 10197915
-0.29363534 0.11488634 2.1294937 10197915
-0.16427173 0.11479465 2.1326027 10197915
-0.12492632 0.1147688 2.130811 10197915
-0.075017676 0.11473461 2.1304634 10197915
-0.025149675 0.11470087 2.1295488 10197915
0.025139667 0.11466659 2.1289132 10197915
0.074948482 0.11463244 2.1285665 4219530
0.12473869 0.11459877 2.1276536 1125710
0.17493002 0.11456417 2.1275849 4674661
0.22509097 0.11453042 2.1263845 10066329
0.27523097 0.11449624 2.1257503 5395026
0.32489434 0.11446223 2.1254053 2039583
0.3749727 0.11442811 2.1247718 2039583
0.4254542 0.11439392 2.1238503 2039583
0.47503328 0.11435993 2.1235065 2039583
0.52458024 0.11432641 2.122597 3618615
0.57497495 0.11429188 2.1222422 10197915
0.62534052 0.11425777 2.1213226 10197915
0.67479771 0.11422386 2.1209791 10197915
0.72466779 0.11418992 2.1203485 10197915
0.77493894 0.11415589 2.1194308 10197915
0.81085104 0.11412753 2.1241517 10197915
0.94895917 0.11404923 2.1014481 10197915
0.97073448 0.11402193 2.1177225 10197915
1.3946328 0.11372165 2.1278989 6513507
1.4252253 0.11370084 2.1275094 6513507
1.4750251 0.1136669 2.1268747 6513507
1.5247951 0.11363298 2.1262405 6513507
1.5754077 0.11359856 2.1255958 6513507
1.6078174 0.10683572 2.1242559 6513507
1.5985091 -0.96467906 2.1893566 6513507
1.6016854 -0.95926291 2.1651564 6513507
1.5985714 -0.92541951 2.1891046 6513507
1.601849 -0.92448366 2.1641195 6513507
-1.4245291 -0.86708903 2.1749134 11711154
1.5985183 -0.87491995 2.1898248 6513507
1.6017901 -0.87501717 2.1648657 6513507
-1.4244787 -0.82489711 2.1747799 11250861
1.5985504 -0.82495111 2.1898746 6513507
1.6018301 -0.82500196 2.1648567 6513507
-1.4244374 -0.77507573 2.1747644 3623516
1.5985881 -0.7750687 2.1898899 6513507
1.6018633 -0.77504891 2.1649075 6513507
-1.4243903 -0.72507668 2.1747005 2173492
1.5986168 -0.72500336 2.1899748 6513507
1.6018916 -0.72509462 2.1649888 6513507
-1.4243357 -0.67496115 2.1745818 2039583
1.5986527 -0.674936 2.1899974 6513507
1.6019241 -0.67507255 2.1650424 6513507
-1.4242959 -0.62496948 2.1745737 2039583
-0.34501117 -0.6121456 2.1857767 4263696
1.5986844 -0.62495679 2.1900544 6513507
1.6019639 -0.62505013 2.1650429 6513507
-1.4242363 -0.57498181 2.174417 2039583
-0.32211748 -0.59509337 2.1774454 4263697
-0.29676816 -0.595065 2.1716907 4329231
-0.16615154 -0.59509432 2.1770201 2039583
-0.12510695 -0.59510112 2.1764448 2039583
-0.075177312 -0.59511018 2.1764338 2039583
-0.02513708 -0.5951196 2.1764965 1978176
0.025137603 -0.59512824 2.1765299 2374225
0.075071067 -0.59513754 2.1764276 3824509
0.12515117 -0.59514326 2.1733711 2441823
0.17487589 -0.59515232 2.1730566 3425364
0.22497088 -0.59516162 2.1734042 8684676
0.27513885 -0.59517086 2.1733675 10000536
0.32518235 -0.59517998 2.1734362 9408399
0.37496728 -0.59518898 2.1734691 3289650
0.42488515 -0.59519815 2.1735029 6513507
0.46070653 -0.59520268 2.1716619 6513507
1.598719 -0.57497621 2.1900959 6513507
1.6020033 -0.5750249 2.1650429 6513507
-1.424191 -0.52499557 2.174376 2105376
1.5987275 -0.52536088 2.1903286 6513507
1.6020035 -0.52474469 2.1653464 6513507
-1.4241418 -0.47501469 2.174293 2039583
1.5986423 -0.47498477 2.1912744 6513507
1.6019269 -0.47498402 2.1662307 6513507
-1.4240873 -0.42503649 2.1741757 2039583
1.5986811 -0.4250637 2.1912873 6513507
1.601961 -0.42491618 2.1662672 6513507
-1.4240487 -0.37500182 2.1741784 2039583
1.598713 -0.37504044 2.1913416 6513507
1.6019946 -0.37496594 2.1663182 6513507
-1.4239919 -0.3249703 2.1740444 2039583
1.5987504 -0.32511649 2.1913617 6513507
1.6020569 -0.32466605 2.1661458 6513507
-1.4239504 -0.27494255 2.1740212 2039583
1.5987792 -0.27508819 2.1914418 6513507
1.6021973 -0.27490076 2.1653721 6513507
-1.423896 -0.22497836 2.1739039 2039583
1.5988177 -0.22495756 2.1914446 6513507
1.6022339 -0.22500584 2.1653953 6513507
-1.4240412 -0.17530197 2.1752923 2039583
1.5988826 -0.17568192 2.191257 6513507
1.6022589 -0.17499529 2.1655011 6513507
-1.4240299 -0.12502182 2.1755044 2039583
1.5990218 -0.12512261 2.1904988 6513507
1.6022921 -0.12492737 2.1655526 6513507
-1.423978 -0.075125754 2.1754069 2039583
1.598907 -0.075095788 2.1916745 6513507
1.6022073 -0.075135678 2.1664977 6513507
-1.42393 -0.0251082 2.1753373 2039583
1.5989547 -0.025169387 2.1916125 6513507
1.6022233 -0.025133478 2.166676 6513507
-1.4238812 0.025107047 2.1752613 2039583
1.5989877 0.025170101 2.1916568 6513507
1.6022576 0.025134174 2.1667202 6513507
-1.4238316 0.075117707 2.1751823 3158064
-0.75497252 0.096667998 2.1954844 10066329
-0.73965281 0.091183968 2.198405 9539985
1.5990067 0.07510069 2.1918132 6513507
1.6023077 0.075140625 2.1666331 6513507
-1.4217503 0.10928423 2.1764841 10066329
-1.3749506 0.11559541 2.1796796 10066329
-1.3253493 0.11556142 2.1793482 10066329
-1.275315 0.11552732 2.178705 10066329
-1.2248596 0.11549321 2.177753 10066329
-1.1748819 0.11545914 2.1771102 10066329
-1.1249468 0.11542469 2.1770785 9146259
-1.0750339 0.11539116 2.1758287 1783120
-1.0251445 0.1153572 2.1751883 1125704
-0.97484159 0.11532271 2.1748464 4477283
-0.92919844 0.11529333 2.1719763 10066329
-0.76240849 0.10923823 2.1870317 10132122
-0.72929221 0.11266845 2.1767552 10132122
-0.67497122 0.11511872 2.1706913 10132122
-0.62487644 0.11508439 2.1703522 10197915
-0.57479966 0.11505051 2.1694043 10197915
-0.52476656 0.11501621 2.169066 10197915
-0.47474667 0.11498236 2.1681201 10197915
-0.4247753 0.11494809 2.1677818 10197915
-0.37437057 0.11491378 2.1671348 10197915
-0.32783222 0.11487346 2.1780105 10197915
-0.29752195 0.1148489 2.1828339 10197915
-0.16626626 0.11475951 2.1811354 10197915
-0.12466978 0.1147312 2.1805968 10197915
-0.074960858 0.11469734 2.1799536 10197915
-0.025281413 0.11466352 2.1793108 10197915
0.025271297 0.1146291 2.1786563 10197915
0.074891835 0.11459532 2.1780143 4482700
0.12448293 0.11456154 2.1773725 1125969
0.17494579 0.11452717 2.1767194 4017247
0.22537832 0.11449284 2.1760669 8882055
0.27488098 0.11445914 2.1754262 2105376
0.32435432 0.11442544 2.1747859 2039583
0.37469736 0.11439116 2.174134 2039583
0.4250102 0.11435691 2.1734831 2039583
0.47529298 0.11432266 2.1728323 2039583
0.52554554 0.11428844 2.1721823 2236962
0.57576817 0.11425424 2.1715317 10197915
0.62506479 0.11422067 2.1708941 10197915
0.67433214 0.11418713 2.1702564 10197915
0.72446579 0.11415299 2.1696074 10197915
0.77456933 0.11411888 2.1689589 10197915
0.81927985 0.11408842 2.1683805 10197915
0.98806918 0.1139735 2.1661961 10066329
1.0063816 0.11395246 2.1773446 8355711
1.4330616 0.11366183 2.172121 6513507
1.4749234 0.11362956 2.17662 6513507
1.5245262 0.11359555 2.1762834 6513507
1.5864701 0.11026209 2.1830575 6513507
1.6023031 0.10687217 2.1667278 6513507
1.5911622 -1.0023844 2.2451634 6513507
1.5936065 -0.97258264 2.226702 6513507
1.593853 -0.9249602 2.2251086 6513507
-1.4313095 -0.86717039 2.2260296 11711154
1.5938822 -0.87500077 2.2251794 6513507
-1.4312763 -0.82498664 2.2260115 6713982
1.5939219 -0.82503617 2.2251842 6513507
-1.4312296 -0.77502865 2.2259655 2571602
1.5939509 -0.77503175 2.2252567 6513507
-1.4311748 -0.72500789 2.2258458 7765122
1.5939901 -0.72502303 2.2252617 6513507
-1.4311291 -0.67499226 2.2257938 2039583
1.5940149 -0.67501384 2.2253785 6513507
-1.4310805 -0.62504411 2.2257261 2039583
-0.46904778 -0.60168624 2.2493615 4329231
-0.3557103 -0.61297309 2.2417917 4068382
1.5940528 -0.62500226 2.2253833 6513507
-1.4310199 -0.57503331 2.2255521 2039583
-0.5053975 -0.5683313 2.2424536 6107189
-0.48216656 -0.57283372 2.2468908 5842728
-0.35313463 -0.59557688 2.2397645 4069670
-0.32555294 -0.59511721 2.2267759 4133400
-0.29938394 -0.59510428 2.2099292 4329231
-0.16834362 -0.59514648 2.2276013 2039583
-0.1252258 -0.59515411 2.2272902 2039583
-0.075006619 -0.59516323 2.227181 2039583
-0.02491509 -0.59517252 2.227396 2042162
0.024915608 -0.59518147 2.2274299 2308688
0.075136952 -0.59519023 2.2271416 3891333
0.12518977 -0.59519607 2.2240477 2376546
0.16598411 -0.59519994 2.2204239 2308432
0.22632249 -0.59521353 2.2230124 9934743
0.2751523 -0.59522319 2.2240233 10000536
0.32514402 -0.59523267 2.2241192 9474192
0.37490612 -0.59524179 2.2241549 3158064
0.42501444 -0.5952509 2.2241423 6513507
0.45590901 -0.59525287 2.2206914 6513507
1.5940912 -0.57498831 2.2253935 6513507
-1.4309964 -0.52496219 2.2256739 2171170
-0.60942894 -0.50679767 2.2231343 9197913
-0.59358048 -0.50875103 2.2256732 9197913
-0.49149561 -0.54631257 2.245352 3938084
1.5941142 -0.52497262 2.2255254 6513507
-1.4309351 -0.47495788 2.225498 2039583
-0.60787892 -0.48894998 2.2251544 9198170
-0.58251947 -0.47275639 2.2280245 10057591
1.5941565 -0.47499469 2.2254956 6513507
-1.4308789 -0.42495868 2.2253683 2039583
-0.56398147 -0.43007365 2.2318928 8553090
-0.5409618 -0.41469443 2.2358224 4416128
1.5941875 -0.42501464 2.2255652 6513507
-1.4308425 -0.37502819 2.2253888 2039583
-0.55290306 -0.3951782 2.2350712 2039583
-0.52515441 -0.37504819 2.2390013 2901600
-0.49730295 -0.35388821 2.244226 1651276
1.5942167 -0.37499258 2.2256422 6513507
-1.4307749 -0.3250351 2.2251744 2039583
-0.50946683 -0.33526269 2.2421224 2702675
-0.48728284 -0.32005757 2.2461767 1713713
1.5942572 -0.32496816 2.2256289 6513507
-1.4307454 -0.27497998 2.2252495 2039583
-0.47726259 -0.28455967 2.2481432 1974048
1.5942842 -0.27498186 2.2257371 6513507
-1.4306819 -0.22499335 2.2250543 2039583
1.5943153 -0.22499312 2.2257934 6513507
-1.4306349 -0.1750778 2.2249978 2039583
1.5944983 -0.1750268 2.2247014 6513507
-1.4305978 -0.12509775 2.2250123 2039583
1.5946631 -0.12504846 2.2237413 6513507
-1.4305292 -0.074926049 2.2247853 2039583
-0.51143563 -0.057396069 2.2418387 1323083
-0.48413676 -0.072216488 2.2470512 1778476
1.5947176 -0.074904084 2.2236221 6513507
-1.4305052 -0.024887357 2.2248969 2039583
-0.60308075 -0.0026331709 2.2243919 2039583
-0.57219619 -0.015995177 2.2306015 2039583
-0.53291184 -0.039079744 2.2379539 1653854
1.5947263 -0.024875557 2.2238672 6513507
-1.4304563 0.024886215 2.2248216 2039583
-0.66277164 0.041192438 2.2137821 2039583
-0.62553561 0.019470254 2.2210655 2039583
-0.59308314 0.00385363 2.2274311 2039583
1.594759 0.024876244 2.2239094 6513507
-1.4303824 0.074918099 2.2245581 2894892
-0.716501 0.077944726 2.2060497 4276545
-0.68520308 0.059257135 2.2108941 2039583
1.5948176 0.074908964 2.2237625 6513507
-1.4285008 0.10875571 2.2255466 10066329
-1.3746591 0.11555629 2.2314193 10066329
-1.3243462 0.11552203 2.230758 10066329
-1.2749934 0.11548845 2.2301092 10066329
-1.22567 0.11545486 2.2294605 10066329
-1.1754453 0.11542065 2.2288005 10066329
-1.1252503 0.11538652 2.2281406 5201778
-1.0750852 0.11535236 2.2274814 1191496
-1.0249496 0.11531823 2.2268219 993092
-0.97484362 0.11528411 2.2261636 8751244
-0.93774635 0.11525884 2.2256758 10197915
-0.76887184 0.11318272 2.2243283 10066329
-0.72679192 0.11380005 2.2223544 10066329
-0.67482954 0.11507987 2.2222195 10066329
-0.62493056 0.1150459 2.2215633 10066329
-0.57506102 0.11501196 2.2209077 10197915
-0.52522087 0.11497802 2.2202525 10197915
-0.47541007 0.11494412 2.2195978 10197915
-0.4256286 0.11491022 2.2189434 10197915
-0.37495562 0.11487572 2.2182772 10197915
-0.3243129 0.11484125 2.2176116 10197915
-0.16797237 0.11473481 2.2155564 10197915
-0.12480081 0.11470544 2.2149889 10197915
-0.072381295 0.11465806 2.2298224 10197915
-0.024961306 0.11462411 2.2314119 10197915
0.024951447 0.11459012 2.2307503 10197915
0.075290166 0.11455611 2.2297614 4679821
0.12560384 0.11452162 2.2294164 1126226
0.17496246 0.11448826 2.2284286 3162455
0.22475897 0.11445437 2.2277808 7105644
0.27497137 0.11441994 2.2274373 2039583
0.32470644 0.11438609 2.2267783 2039583
0.3748731 0.11435218 2.2257919 2039583
0.42500088 0.11431783 2.2254496 2039583
0.47464725 0.11428401 2.224791 2039583
0.52471936 0.1142502 2.2238064 2039583
0.57476288 0.11421589 2.2234647 8816262
0.62477756 0.11418208 2.2224808 10197915
0.67475897 0.11414781 2.2221396 10197915
0.72471637 0.11411406 2.2211568 10197915
0.77463609 0.11407983 2.2208159 10197915
0.8245362 0.1140461 2.2198341 10197915
0.85677469 0.1140133 2.2338419 10197915
0.99631053 0.11394219 2.2002506 7960953
1.0144089 0.11391397 2.2211635 6645093
1.4491893 0.11360758 2.2294605 6513507
1.4748232 0.11359014 2.2291181 6513507
1.5251557 0.11355589 2.2284458 6513507
1.5920508 0.10760361 2.2243621 6513507
1.5865587 -1.0101429 2.2802258 6513507
1.5872597 -0.97507077 2.2751071 6513507
1.5872843 -0.92504704 2.2752004 6513507
-1.4379241 -0.86711341 2.275887 9936032
1.5873244 -0.87498212 2.2752137 6513507
-1.4378927 -0.82487589 2.2758958 2834517
1.5873585 -0.82499909 2.2752435 6513507
-1.4378506 -0.77494955 2.2758739 4938861
1.5873917 -0.77501386 2.2753007 6513507
-1.4377887 -0.72495365 2.2756977 11711154
1.5874257 -0.72498381 2.275326 6513507
-1.4377536 -0.67496133 2.2757292 4539717
-0.37012306 -0.6586436 2.2681968 4263695
1.5874563 -0.67499489 2.2754104 6513507
-1.437687 -0.62497288 2.2755201 2039583
-0.45648563 -0.60567009 2.2517569 4329231
-0.41997406 -0.61671692 2.2593083 4002588
-0.38182446 -0.62794715 2.2688293 4003103
1.5874866 -0.62500334 2.275466 6513507
-1.4376597 -0.57506019 2.2756066 2039583
-0.46113208 -0.5742746 2.2582407 4395024
-0.43124035 -0.58776093 2.2635703 4263695
-0.35633481 -0.59516609 2.2793622 3937828
-0.32873604 -0.59516793 2.2760706 4533568
-0.17034106 -0.59519792 2.277205 2039583
-0.12518492 -0.59520549 2.2768285 2039583
-0.075192153 -0.59521484 2.2770991 2039583
-0.025069408 -0.59522384 2.2767823 1974307
0.025069918 -0.59523302 2.2768176 2177103
0.075061657 -0.5952422 2.2770865 4153989
0.12505923 -0.59525108 2.2771213 2376805
0.15655752 -0.59524924 2.2695167 2965589
0.23255225 -0.59526926 2.2755675 10000536
0.27506742 -0.59527868 2.2769918 10000536
0.32493341 -0.59528792 2.2773397 9605778
0.37494081 -0.5952968 2.2772183 3026478
0.42482015 -0.59530574 2.2770545 6513507
0.45228845 -0.59529841 2.2650323 6513507
1.5875292 -0.57500994 2.2754486 6513507
-1.4375944 -0.52507633 2.2754068 2039583
-0.63166827 -0.50239396 2.2774155 9197913
-0.48992378 -0.54518974 2.2665243 4069413
1.5875523 -0.52501488 2.2755818 6513507
-1.4375482 -0.47502631 2.275351 1974048
-0.6150912 -0.4771401 2.2751019 10388612
-0.58684218 -0.47342482 2.2591565 10256255
1.5875911 -0.47497419 2.2755718 6513507
-1.4375061 -0.42497823 2.2753298 2039583
-0.5818435 -0.42511836 2.2750647 5263440
1.5876237 -0.42497441 2.2756364 6513507
-1.4374527 -0.37500644 2.275219 2039583
-0.55810493 -0.38712925 2.277878 2965072
-0.54136455 -0.36298954 2.2709663 2706284
1.5876544 -0.37501523 2.2756786 6513507
-1.4373906 -0.32503763 2.2750406 2039583
-0.51827043 -0.32541439 2.2757761 2440018
-0.46576381 -0.30373469 2.2503033 2039583
1.5876892 -0.32501128 2.2757368 6513507
-1.4373615 -0.27507296 2.2751169 2039583
-0.50295341 -0.29702437 2.2906108 1322824
-0.46300212 -0.27293858 2.2544785 1974048
-0.44356665 -0.26074514 2.2545884 2039583
1.5877168 -0.27500606 2.2758138 6513507
-1.4373024 -0.22503906 2.2749639 2039583
-0.45626858 -0.2388455 2.2601197 1715263
-0.43149921 -0.22405086 2.2574558 2503488
1.5877572 -0.22499824 2.2758238 6513507
-1.4372483 -0.17493574 2.2748518 2039583
-0.42925957 -0.19763766 2.2596838 2637139
-0.35987553 -0.15663673 2.2706845 2900051
-0.32898661 -0.17189336 2.2769568 2763822
1.5880231 -0.1747936 2.2740834 6513507
-1.4371948 -0.12497967 2.2747397 2039583
-0.45149812 -0.10237282 2.2532399 2039583
-0.4201566 -0.11408266 2.2602477 3158064
-0.37966266 -0.13746355 2.2682376 4279899
-0.34840241 -0.14971891 2.2728832 2039583
1.5881245 -0.125021 2.2736213 6513507
-1.4371892 -0.075028233 2.2749913 2039583
-0.50555432 -0.052848462 2.2780952 1257032
-0.46248093 -0.084646001 2.2567067 1974047
-0.44192141 -0.09457396 2.2582932 2039583
1.5881252 -0.075098991 2.2739058 6513507
-1.4370872 -0.025013793 2.2745204 2039583
-0.57023329 -0.012665252 2.2754247 2041647
-0.52926201 -0.037850767 2.2748537 1323859
1.5882045 -0.025052724 2.2736073 6513507
-1.4370383 0.025012661 2.2744415 2039583
-0.66177994 0.04368211 2.276089 2039583
-0.62672186 0.022322437 2.2739937 2039583
-0.59593105 0.0038850305 2.2694385 2039583
1.5882386 0.025010692 2.2736499 6513507
-1.4370345 0.075092413 2.2747028 2631720
-0.75132066 0.097582035 2.2869499 10132122
-0.72267002 0.081314482 2.2752328 5131854
-0.684376 0.057916276 2.2735076 2039583
1.5882251 0.075060986 2.2740548 6513507
-1.4340444 0.10907593 2.2732482 10066329
-1.3750863 0.11552967 2.2671807 10066329
-1.3249136 0.11549554 2.2665105 10066329
-1.2747701 0.11546142 2.2658403 10066329
-1.2246568 0.1154273 2.2651713 10066329
-1.1745727 0.11539321 2.2645025 10066329
-1.1254625 0.11535979 2.2638464 1914708
-1.0711232 0.11531426 2.2744594 1125447
-1.0252162 0.1152777 2.2809293 3885662
-0.97532505 0.11524401 2.2799098 10197915
-0.9443776 0.11523654 2.2614279 10197915
-0.80765772 0.1151257 2.2832568 10197915
-0.7682938 0.11291853 2.2755129 10132122
-0.72487247 0.11507356 2.2765381 10066329
-0.67467535 0.11503941 2.2758627 10066329
-0.62499249 0.11500534 2.2755404 10066329
-0.57485741 0.11497123 2.2748654 10066329
-0.52475178 0.11493714 2.2741904 10197915
-0.47515973 0.11490362 2.2731762 10197915
-0.4251107 0.11486956 2.2725024 10197915
-0.37462878 0.11483496 2.2721691 10197915
-0.32787049 0.11480407 2.2703161 10197915
-0.16972217 0.11469519 2.2698362 10197915
-0.12500559 0.11466506 2.2688079 10197915
-0.078515582 0.11462466 2.2798386 10197915
-0.024622334 0.11458299 2.285769 10197915
0.024612743 0.11454948 2.2851012 10197915
0.074764937 0.11451536 2.2844203 5074062
0.12488745 0.11448126 2.2837398 1192278
0.1749799 0.11444717 2.2830601 2439505
0.22504275 0.11441311 2.2823803 7368816
0.27507564 0.11437907 2.2817011 2039583
0.32507893 0.11434504 2.2810221 2039583
0.37505227 0.11431103 2.280344 2039583
0.42499611 0.11427705 2.2796659 2039583
0.47490999 0.11424308 2.2789886 2039583
0.52479452 0.11420914 2.2783115 2039583
0.57464916 0.11417521 2.2776346 6974058
0.62541419 0.11414069 2.2769458 10197915
0.67520916 0.11410677 2.2762699 10197915
0.72497457 0.1140729 2.2755942 10197915
0.77471066 0.11403907 2.274919 10197915
0.82441705 0.11400528 2.2742443 10197915
0.86472398 0.11397783 2.2736971 10197915
1.0341727 0.11386252 2.2713971 6513507
1.4846756 0.11355615 2.2652848 6513507
1.5246642 0.11352893 2.2647419 6513507
1.5860754 0.10765294 2.2725048 6513507
1.577509 -1.0500507 2.3490186 6513507
1.580379 -1.0205581 2.3272953 6513507
1.5807079 -0.97509205 2.3250737 6513507
1.5807348 -0.92511278 2.3251586 6513507
-1.4443419 -0.86740279 2.3242633 3360861
1.5807739 -0.87499523 2.3251784 6513507
-1.4443138 -0.82488388 2.3243039 2440275
1.5808038 -0.82501233 2.3252385 6513507
-1.4445031 -0.77491915 2.3260159 10067361
1.5808387 -0.77493668 2.3252878 6513507
-1.4444553 -0.72493273 2.3259599 11711154
1.580869 -0.72495037 2.3253415 6513507
-1.4444134 -0.67502433 2.3259268 6515054
1.5809083 -0.67500675 2.3253493 6513507
-1.4443543 -0.62497085 2.3257756 2039583
-0.40340677 -0.60272741 2.3019781 4133657
-0.37433377 -0.61481994 2.3021541 4003877
1.5809309 -0.6249699 2.3254812 6513507
-1.4443001 -0.57484651 2.3256621 2039583
-0.41458043 -0.59566152 2.300473 4329231
-0.36119884 -0.59531856 2.3250091 3938084
-0.33192232 -0.59521717 2.3241267 4212587
-0.17209868 -0.59524745 2.3251991 2039583
-0.12473357 -0.59525555 2.3249433 2039583
-0.074972168 -0.59526455 2.3249288 2039583
-0.02504459 -0.59527391 2.3250875 2039583
0.025045112 -0.59528309 2.3251233 2176070
0.074975714 -0.59529197 2.3250365 3562367
0.1216138 -0.59529907 2.3237274 2312044
0.23866506 -0.59532005 2.3234408 10000536
0.27486536 -0.59532869 2.3251548 10000536
0.3248032 -0.59533751 2.3252654 9671571
0.37506235 -0.59534711 2.3253741 2894892
0.42170879 -0.59535462 2.3245049 6513507
1.5809789 -0.57497728 2.3254125 6513507
-1.4442599 -0.52487493 2.3256519 2039583
-0.64143962 -0.50253457 2.3282816 9197913
1.5809948 -0.52498287 2.325587 6513507
-1.4442114 -0.47505373 2.3255832 2039583
-0.62345356 -0.4753654 2.324995 11049626
1.5810373 -0.47498494 2.3255634 6513507
-1.4441582 -0.42508787 2.3254712 2039583
-0.6037178 -0.44361418 2.327898 6842472
-0.58749497 -0.41931179 2.3242514 2368548
1.5810716 -0.42498547 2.3256149 6513507
-1.4441123 -0.37505206 2.325413 2039583
-0.56289196 -0.380447 2.3254626 3296875
-0.54630423 -0.35593492 2.3206022 1783376
-0.056556474 -0.35442692 2.3284116 1388362
-0.04163171 -0.35757658 2.3314114 1322569
1.5811042 -0.37498495 2.3256509 6513507
-1.4440557 -0.32501915 2.3252881 2039583
-0.52701521 -0.32461607 2.3244007 2440018
-0.11637804 -0.31076837 2.3173277 2039583
-0.077552967 -0.33259955 2.3249698 1910062
-0.044679489 -0.34609166 2.3318698 1388362
1.5811323 -0.32498154 2.3257561 6513507
-1.4440078 -0.2749896 2.3252201 2039583
-0.50679141 -0.29174304 2.3285055 1713455
-0.49016622 -0.2675966 2.3222206 1647663
-0.17103726 -0.27318001 2.3079071 1975080
-0.13703002 -0.29170281 2.315093 2039583
1.581166 -0.27502158 2.3257861 6513507
-1.4439632 -0.22503789 2.3251755 2039583
-0.46455416 -0.22633797 2.3261673 2308690
-0.44627297 -0.2020646 2.3116086 1914704
-0.1921609 -0.24952237 2.3076322 3359574
1.5812007 -0.22506006 2.3258321 6513507
-1.4439142 -0.17501463 2.3250949 2039583
-0.44186965 -0.19755295 2.3036196 1848911
-0.3317686 -0.1635035 2.3078904 2039583
1.5813718 -0.17490141 2.3248184 6513507
-1.4438456 -0.12492204 2.3248756 2039583
-0.41800374 -0.1124346 2.3254321 2039583
-0.38266838 -0.13361223 2.3203611 2436406
1.5814372 -0.12494126 2.3246288 6513507
-1.4438063 -0.074982628 2.3248763 2039583
-0.50859141 -0.056664072 2.3259757 1517365
-0.47435883 -0.077603422 2.324625 2039583
-0.44320959 -0.096676879 2.323565 2039583
1.5814642 -0.07503619 2.324712 6513507
-1.4437749 -0.025043061 2.3249259 2039583
-0.60057962 -0.00096711697 2.3344071 2039583
-0.57445484 -0.015948823 2.3249729 1912383
-0.53368217 -0.041057531 2.3247848 1191497
1.5816342 -0.025029944 2.3237298 6513507
-1.443725 0.025041921 2.3248458 2039583
-0.66493613 0.039905384 2.3242598 2039583
-0.62478638 0.015154175 2.324296 2039583
1.5816677 0.025030637 2.3237789 6513507
-1.4436586 0.074974619 2.3246379 2302755
-0.75510156 0.095158689 2.326968 10000536
-0.72435981 0.076444559 2.3249977 3158064
-0.69066465 0.055739999 2.3244591 2039583
1.5817096 0.075001262 2.3237445 6513507
-1.4370023 0.11004184 2.324537 10000536
-1.374781 0.11548764 2.3227937 10066329
-1.3248327 0.11545338 2.322484 10066329
-1.274902 0.11541969 2.3214266 10066329
-1.2250152 0.11538546 2.3211179 10066329
-1.1746625 0.11535122 2.3204284 5727863
-1.1248252 0.11531757 2.3193731 1125704
-1.0791031 0.11528192 2.3248317 1059398
-1.0245254 0.11523475 2.3374059 8751244
-0.98069483 0.11520494 2.3368008 10197915
-0.82212192 0.11509705 2.3346128 10197915
-0.77123249 0.1116436 2.3301008 10132122
-0.72498637 0.11503099 2.3332727 10197915
-0.67451942 0.11499666 2.3325758 10197915
-0.62505209 0.11496298 2.3318937 10132122
-0.57561386 0.11492936 2.3312113 10066329
-0.52523595 0.11489509 2.3305156 10197915
-0.47488812 0.11486083 2.3298211 10197915
-0.42457023 0.1148266 2.3291266 10197915
-0.37428236 0.1147924 2.3284326 10197915
-0.33175385 0.11476346 2.3278465 10197915
-0.17246538 0.1146551 2.3256485 10197915
-0.12521961 0.11462296 2.324996 10197915
-0.075109921 0.11458886 2.3243048 10197915
-0.025030021 0.11455481 2.3236144 10197915
0.025020109 0.11452075 2.3229239 10197915
0.075040489 0.11448673 2.3222332 5205647
0.12503116 0.11445273 2.3215435 1192536
0.17499214 0.11441875 2.3208539 1847627
0.22492345 0.11438476 2.3201647 7500402
0.27482516 0.11435083 2.3194764 2039583
0.32469717 0.11431689 2.3187883 2039583
0.37453964 0.114283 2.3181002 2039583
0.4243525 0.1142491 2.3174129 2039583
0.47509295 0.11421459 2.3167129 2039583
0.52580285 0.1141801 2.3160131 2039583
0.57552606 0.11414626 2.3153269 5987163
0.62522 0.11411247 2.3146412 10197915
0.67488426 0.11407867 2.313956 10197915
0.72451931 0.1140449 2.3132708 10197915
0.77507854 0.11401051 2.3125734 10197915
0.82560742 0.11397612 2.3118758 10197915
0.87749344 0.11393261 2.3221009 10197915
0.90433234 0.11389332 2.3496871 10197915
1.0454824 0.11382656 2.3088422 6513507
1.0619251 0.11379588 2.3345215 6513507
1.4948521 0.113521 2.3026443 6513507
1.5276695 0.11348666 2.3181975 6513507
1.5788634 0.10792168 2.3227794 6513507
1.5731711 -1.0578519 2.3820603 6513507
1.5741498 -1.024969 2.3747892 6513507
1.574187 -0.97520745 2.3748112 6513507
1.574218 -0.92524523 2.3748722 6513507
-1.4523778 -0.86735243 2.3848379 2440019
-1.4488494 -0.86735028 2.3582428 2637140
1.5742508 -0.87503648 2.3749228 6513507
-1.4523401 -0.82508987 2.3848028 6451325
-1.4488238 -0.82564545 2.3582897 3558240
1.5742741 -0.82497311 2.3750479 6513507
-1.4522862 -0.7750479 2.3846908 11711154
-1.4490232 -0.77510744 2.3600919 11711154
1.5743228 -0.775006 2.3749726 6513507
-1.4522325 -0.72500694 2.3845787 10922154
-1.4489683 -0.72521949 2.3599718 11711154
1.5743513 -0.72503668 2.3750632 6513507
-1.452184 -0.67497116 2.3845074 2374482
-1.4489157 -0.67508608 2.3598702 4083553
1.574373 -0.67496663 2.3751993 6513507
-1.4521462 -0.62493688 2.3845172 2172201
-1.4488771 -0.62520576 2.3598692 2039583
-0.37884793 -0.61183423 2.3629339 3938084
1.5744134 -0.62494463 2.3751893 6513507
-1.4520836 -0.57503337 2.3843336 2039583
-1.4488171 -0.57532477 2.3597093 2039583
-0.36599135 -0.59529978 2.3763616 3546156
-0.33530247 -0.59526819 2.3737741 2577028
-0.17431669 -0.59529942 2.3755417 2039583
-0.12482516 -0.59530783 2.3750827 2039583
-0.07478223 -0.59531718 2.3752508 2039583
-0.024885677 -0.59532601 2.3750663 2039583
0.024886196 -0.59533513 2.375103 2239800
0.074785799 -0.59534448 2.37536 3233403
0.11303025 -0.59534788 2.3719723 2906245
0.24417755 -0.59536886 2.3691757 10000536
0.27484462 -0.5953809 2.3753288 10000536
0.32489938 -0.5953902 2.3754115 9737364
0.37509441 -0.59539914 2.3754902 2763306
0.41699085 -0.59540522 2.3740871 6513507
1.5744568 -0.57496858 2.3751619 6513507
-1.4520396 -0.52512813 2.3842933 2039583
-1.44877 -0.52520275 2.3596482 2039583
-0.65070313 -0.50061685 2.3833899 9858927
-0.64931381 -0.5031665 2.3675313 9197913
1.5744776 -0.52503943 2.375298 6513507
-1.4519894 -0.4749836 2.384212 2039583
-1.4487227 -0.47508752 2.3595865 2039583
-0.65164107 -0.49889719 2.3940911 11711154
-0.63186008 -0.47369549 2.3747692 10987174
1.5745145 -0.47506034 2.3753259 6513507
-1.4519389 -0.42496368 2.3841195 2039583
-1.4486758 -0.42497456 2.3595262 2039583
-0.60858434 -0.43665296 2.3768368 2039583
-0.59285349 -0.41310972 2.3732255 2039583
1.5745426 -0.42497984 2.3754091 6513507
-1.4521708 -0.37493947 2.3861687 2039583
-1.4488895 -0.37489092 2.3614311 2039583
-0.56991571 -0.37670058 2.3749423 2968683
-0.54958695 -0.35044712 2.3562732 2308948
-0.040271424 -0.35065606 2.3708863 1191239
0.095892273 -0.35619691 2.3736348 3302037
0.1231328 -0.36339074 2.3591907 1719910
0.15738806 -0.35480684 2.3641887 1717069
1.5745808 -0.3749463 2.3754191 6513507
-1.4521155 -0.32493526 2.38604 2039583
-1.4488487 -0.32498857 2.361414 2039583
-0.55178112 -0.34551901 2.3843451 2899797
-0.53440851 -0.32152936 2.3736069 2242896
-0.10913511 -0.30598217 2.3521256 2039583
-0.071515121 -0.32985348 2.3578806 1975854
-0.040993899 -0.34840605 2.3556941 1257034
0.096339211 -0.34782282 2.3765333 3236501
0.12992625 -0.33526972 2.3669753 1653084
0.17366263 -0.32294577 2.3690331 1454154
0.21746245 -0.31038016 2.3756595 2565927
1.5746129 -0.32496086 2.3754792 6513507
-1.4520599 -0.27493757 2.3859117 2039583
-1.4487908 -0.27508432 2.36127 2039583
-0.50937313 -0.28156734 2.3762312 1713197
-0.4933446 -0.25824088 2.3703284 1519947
-0.12967858 -0.29348308 2.3534999 2039583
0.1890142 -0.29336363 2.3786416 1322567
0.22859049 -0.28042832 2.3798423 4737096
0.27132985 -0.26825246 2.3860254 6447714
0.30893967 -0.25656477 2.3931217 6513507
1.5746483 -0.27497268 2.3755023 6513507
-1.4520164 -0.22508098 2.3858767 2039583
-1.448745 -0.22499067 2.3612208 2039583
-0.47354722 -0.22608475 2.3742666 2242897
0.28198749 -0.23975721 2.3895261 6447714
0.32286844 -0.22759944 2.395874 6513507
1.5746773 -0.22503056 2.3755839 6513507
-1.4519631 -0.17508875 2.385772 2039583
-1.4486961 -0.17509511 2.36114 2039583
0.34011763 -0.19838491 2.3990874 6513507
1.5747098 -0.17508803 2.3756351 6513507
-1.4519264 -0.12509841 2.3857839 2039583
-1.4486376 -0.12501086 2.3609955 2039583
-0.45080185 -0.10006811 2.3915083 2039583
-0.42409015 -0.11453175 2.3746674 2039583
-0.39126858 -0.13442488 2.3718266 1975339
1.5747453 -0.12504461 2.3756695 6513507
-1.4518546 -0.074835218 2.3855388 2039583
-1.4486055 -0.075115308 2.361043 2039583
-0.51461595 -0.058865581 2.3757691 1713198
-0.47526881 -0.083009452 2.3748567 2039583
-0.4469662 -0.098782465 2.3607831 2039583
1.5747657 -0.074853212 2.3758106 6513507
-1.4518199 -0.024708005 2.3855729 2039583
-1.4485387 -0.025239643 2.3608339 2039583
-0.60635227 -0.0033658289 2.3845534 2039583
-0.57546914 -0.02113435 2.373889 1782602
-0.53968453 -0.042980913 2.372122 1191497
1.5749902 -0.024926219 2.3744059 6513507
-1.4517709 0.024706881 2.3854921 2039583
-1.4484888 0.025238479 2.3607528 2039583
-0.67094797 0.037489541 2.3757923 2039583
-0.63054961 0.012870702 2.3734226 2039583
1.5750227 0.024926921 2.3744564 6513507
-1.4517049 0.074827261 2.3852944 2039583
-1.4484556 0.075107306 2.3607996 2105376
-0.76435125 0.094627574 2.3794341 9211020
-0.72806776 0.072797939 2.3749361 2302755
-0.6959191 0.05365311 2.3692915 2039583
1.5750172 0.074906722 2.3747988 6513507
-1.4516493 0.10799551 2.3852336 9868950
-1.4391084 0.11061747 2.36902 10000536
-1.3744653 0.11544316 2.3816607 10066329
-1.3247424 0.11540933 2.3809633 10066329
-1.2750489 0.11537554 2.3802657 10066329
-1.2253841 0.11534176 2.3795691 9475223
-1.1757488 0.11530802 2.3788724 1059657
-1.1251502 0.1152736 2.3781631 1191497
-1.0745821 0.11523922 2.3774536 2767955
-1.0250349 0.11520549 2.3767579 10197915
-0.98838753 0.11518058 2.3762436 10197915
-0.83504075 0.11507629 2.3740921 10197915
-0.77691573 0.11270368 2.3736365 10132122
-0.72440934 0.11500104 2.3725398 10197915
-0.67506671 0.11496749 2.3718479 10197915
-0.62476689 0.11493329 2.3711419 10197915
-0.57449669 0.11489908 2.3704367 10197915
-0.52524126 0.11486561 2.3697453 10197915
-0.47503048 0.11483144 2.369041 10197915
-0.42484936 0.11479732 2.3683364 10197915
-0.37469822 0.11476321 2.3676329 10197915
-0.33440128 0.1147358 2.3670678 10197915
-0.17439085 0.11462697 2.3648226 10197915
-0.12536868 0.11459363 2.3641348 10197915
-0.07539513 0.11455964 2.3634331 10197915
-0.025451433 0.11452569 2.3627324 10197915
0.025441183 0.11449107 2.3620188 10197915
0.07532531 0.11445713 2.3613191 5336975
0.12517968 0.11442324 2.3606191 1258331
0.17677155 0.11438589 2.3628879 1124420
0.22522426 0.11434033 2.3790154 7697782
0.27541852 0.11430615 2.3783054 2039583
0.32508191 0.11427209 2.3779986 2039583
0.37472361 0.11423863 2.3769004 2039583
0.42530763 0.11420394 2.3765802 2039583
0.47537994 0.1141699 2.3758717 2039583
0.52492708 0.11413648 2.3747749 2039583
0.57494247 0.11410248 2.3740678 4276545
0.62491333 0.11406791 2.3741505 10197915
0.67486238 0.11403453 2.3726537 10197915
0.72478843 0.11400058 2.3719475 10197915
0.7751627 0.11396602 2.3716295 10197915
0.82502645 0.11393213 2.3709238 10197915
0.87085068 0.11389808 2.3741069 10066329
0.91185337 0.11385795 2.3898084 7566195
1.0830175 0.11374157 2.3873658 6513507
1.5436145 0.11342856 2.3807957 6513507
1.5740883 0.10719184 2.3749232 6513507
1.567313 -1.0678953 2.4266815 6513507
1.5676831 -1.0250543 2.4241185 6513507
1.5677203 -0.97480881 2.424135 6513507
1.5677546 -0.92476952 2.4241662 6513507
-1.4576954 -0.86725593 2.4249234 2111826
1.5677755 -0.87499601 2.4243228 6513507
-1.4576515 -0.82503772 2.4248426 10396325
1.5678118 -0.8250075 2.4243445 6513507
-1.4576023 -0.77505678 2.4247611 11711154
1.5678496 -0.77506936 2.42435 6513507
-1.4575564 -0.72507727 2.4247091 7174532
1.5678788 -0.72502321 2.4244294 6513507
-1.4574916 -0.67501217 2.4245162 3032154
1.5679107 -0.67497587 2.4244905 6513507
-1.4574505 -0.62504077 2.4244964 6711144
-0.39137691 -0.61272085 2.4285283 4068638
