# .PCD v0.7 - Point Cloud Data file format
VERSION 0.7
FIELDS x y z rgb
SIZE 4 4 4 4
TYPE F F F U
COUNT 1 1 1 1
WIDTH 1162
HEIGHT 1
VIEWPOINT 0 0 0 1 0 0 0
POINTS 1162
DATA ascii
0.17467459 0.1083061 0.77383709 10197915
0.22499585 0.1081123 0.77433616 10197915
0.275552 0.10792263 0.77421641 10197915
0.32502371 0.10773814 0.77395809 10197915
0.37480378 0.10754502 0.77461916 10197915
0.42507771 0.10736338 0.77363491 10197915
0.47510868 0.10716811 0.77444953 10197915
0.52443743 0.10698194 0.77446365 10197915
0.57490182 0.10679373 0.77420169 10197915
0.61234075 0.10657482 0.78376114 10197915
-0.65915918 0.11091259 0.84005779 10197915
-0.62397087 0.11090171 0.82505822 10197915
-0.57495791 0.11071885 0.8248269 10197915
-0.524939 0.11054064 0.82354522 10197915
-0.47486386 0.11034438 0.82445818 10197915
-0.42562053 0.11015753 0.82459104 10197915
-0.37488952 0.10996816 0.82434261 10197915
-0.32447746 0.10978449 0.8235575 10197915
-0.27509004 0.10959318 0.82417274 10197915
-0.2250208 0.10939597 0.82520372 10197915
-0.17499509 0.10921848 0.82382751 10197915
-0.12441377 0.10902878 0.82369947 10197915
-0.075607091 0.10883555 0.82482767 10197915
-0.024982022 0.10864588 0.82467115 10197915
0.024995849 0.10846826 0.82333052 10197915
0.075403675 0.10827381 0.82386535 10197915
0.12502974 0.10807298 0.82554251 10197915
0.17498223 0.10789599 0.82413751 10197915
0.22500765 0.10771789 0.82284319 10197915
0.27440095 0.10751315 0.82511324 10197915
0.32503802 0.10732283 0.8250373 10197915
0.37500265 0.10714582 0.82362688 10197915
0.42542493 0.1069613 0.82293415 10197915
0.47493184 0.10675087 0.8258509 10197915
0.52500194 0.10657303 0.8245008 10197915
0.57504022 0.10639518 0.8231625 10197915
0.62415254 0.10619543 0.82494473 10197915
0.65892214 0.10594435 0.83969945 10197915
-0.70579618 0.11064706 0.89435351 10197915
-0.67237091 0.11065391 0.87800342 10197915
-0.62494403 0.11050301 0.87456208 10197915
-0.57498944 0.1103263 0.87312561 10197915
-0.52476507 0.11012863 0.87413061 10197915
-0.47514483 0.1099301 0.87553465 10197915
-0.42496425 0.10975105 0.87428999 10197915
-0.37485516 0.10957327 0.87290412 10197915
-0.3251729 0.10937207 0.87460184 10197915
-0.27498055 0.10917552 0.87549692 10197915
-0.22496444 0.10899837 0.87408596 10197915
-0.17498869 0.10882145 0.87266654 10197915
-0.12563702 0.10861494 0.87516385 10197915
-0.074988283 0.10842308 0.87527138 10197915
-0.024987085 0.10824604 0.87385261 10197915
0.025090439 0.10806827 0.87247801 10197915
0.074472956 0.10785526 0.87578326 10197915
0.12498434 0.10767046 0.87507272 10197915
0.17504701 0.10749363 0.8736074 10197915
0.22520728 0.10731394 0.87243301 10197915
0.27501094 0.10709454 0.87632251 10197915
0.32497594 0.10691822 0.87482423 10197915
0.37497485 0.10674129 0.8733958 10197915
0.42468625 0.10655671 0.8730374 10197915
0.47496501 0.10634274 0.87602997 10197915
0.52502304 0.10616553 0.87461561 10197915
0.57499409 0.10598896 0.87314516 10197915
0.62465101 0.1057975 0.87365913 10197915
0.67220122 0.10557994 0.87836593 10197915
0.70548177 0.10532993 0.89367735 10197915
-0.75226498 0.11038456 0.94819927 10197915
-0.71952099 0.11041178 0.92966306 10197915
-0.67493951 0.1102872 0.924303 10197915
-0.62488353 0.11010855 0.92305756 10197915
-0.57500011 0.10990988 0.92435098 10197915
-0.52530301 0.10971253 0.92557108 10197915
-0.47499645 0.10953216 0.92442364 10197915
-0.42495385 0.10935535 0.92295212 10197915
-0.37456122 0.10915555 0.92415082 10197915
-0.32503158 0.10895514 0.92582351 10197915
-0.27496523 0.10877687 0.92452395 10197915
-0.22499935 0.10860071 0.92301434 10197915
-0.17444345 0.10840406 0.92374855 10197915
-0.1250381 0.1081987 0.92608654 10197915
-0.074990138 0.10802221 0.92457908 10197915
-0.025008716 0.10784563 0.9231137 10197915
0.025642727 0.10765216 0.92341262 10197915
0.075011365 0.10744327 0.92620659 10197915
0.12502603 0.10726678 0.92470801 10197915
0.17506678 0.1070902 0.9232167 10197915
0.22552104 0.10690083 0.92310071 10197915
0.27501202 0.10668768 0.9263587 10197915
0.32503575 0.10651213 0.92474693 10197915
0.37513039 0.10633497 0.92330503 10197915
0.42528811 0.10615054 0.92272472 10197915
0.4751063 0.10593238 0.92644209 10197915
0.52499276 0.10575663 0.9249199 10197915
0.57499665 0.10558056 0.92338121 10197915
0.62459439 0.10540166 0.92237496 10197915
0.67501009 0.10517763 0.92654103 10197915
0.7191723 0.10498679 0.929528 10197915
0.75150836 0.10472482 0.94675136 10197915
-0.76503104 0.11017259 0.98018885 10197915
-0.72479022 0.11007369 0.97368944 10197915
-0.67506075 0.10987519 0.97503805 10197915
-0.62517416 0.10969876 0.97360104 10197915
-0.575019 0.10949548 0.9753325 10197915
-0.52499598 0.10931993 0.97371829 10197915
-0.47437948 0.10912205 0.97457528 10197915
-0.42502883 0.10894128 0.97391629 10197915
-0.3752569 0.10874223 0.97530752 10197915
-0.32488421 0.10856151 0.97417092 10197915
-0.27425778 0.10837432 0.97371387 10197915
-0.22500151 0.10818334 0.97434592 10197915
-0.17572211 0.10799134 0.97510844 10197915
-0.12499975 0.10780342 0.97468549 10197915
-0.0750416 0.10762928 0.97292697 10197915
-0.024807988 0.10742626 0.97460461 10197915
0.024167756 0.10723825 0.97500867 10197915
0.075011998 0.10704646 0.97501212 10197915
0.12501164 0.10687049 0.97346222 10197915
0.17584333 0.10667636 0.97376382 10197915
0.2242308 0.10648504 0.97484428 10197915
0.27498007 0.10628799 0.9755379 10197915
0.32495961 0.10611282 0.97389597 10197915
0.3753221 0.10593174 0.97281224 10197915
0.42444631 0.10573148 0.97466344 10197915
0.47502351 0.10552989 0.97598791 10197915
0.52503657 0.1053549 0.97431755 10066329
0.57499683 0.10517948 0.9727146 9934743
0.62555283 0.10498035 0.9737528 9474192
0.6750294 0.10477172 0.97646183 9079434
0.72501576 0.10459674 0.97479618 8947848
0.76446658 0.10440736 0.97979128 8158332
0.48819998 -0.45955452 1.0482099 6513507
0.52432406 -0.45823735 1.0426631 6513507
0.57384491 -0.45653972 1.0350487 6513507
0.62357122 -0.45483768 1.0274073 6513507
0.67298073 -0.45313591 1.0198138 6513507
0.71987277 -0.45152488 1.0126071 6513507
0.75411612 -0.45030019 1.0073451 6513507
0.48931506 -0.42572618 1.0483348 6513507
0.5251807 -0.4248884 1.0428185 6513507
0.57508641 -0.42500952 1.0351222 6513507
0.62495875 -0.42505342 1.0274513 6513507
0.67508882 -0.42502961 1.0197345 6513507
0.72522634 -0.42494208 1.0120143 6513507
0.77310431 -0.42464137 1.0046453 6513507
0.49057344 -0.37561926 1.0485746 6513507
0.52509451 -0.37502241 1.0432627 6513507
0.5752579 -0.37497741 1.0355415 6513507
0.62512672 -0.37498978 1.0278622 6513507
0.67498291 -0.37501329 1.0201863 6513507
0.72497749 -0.37509167 1.0124873 6513507
0.77334183 -0.37491673 1.0050414 6513507
0.49207047 -0.32567459 1.0487812 6513507
0.52493924 -0.32501903 1.0437231 6513507
0.57501173 -0.3250744 1.0360147 6513507
0.62524933 -0.32491839 1.0282811 6513507
0.6752224 -0.3250066 1.020584 6513507
0.72510755 -0.32501042 1.0129036 6513507
0.77352625 -0.32499629 1.0054482 6513507
0.49353912 -0.27580023 1.0489883 6513507
0.52512234 -0.27502275 1.0441333 6513507
0.57495582 -0.27499416 1.0364573 6513507
0.62491059 -0.27506077 1.028769 6513507
0.6750654 -0.27503037 1.0210435 6513507
0.72521853 -0.27496588 1.0133218 6513507
0.77376544 -0.27496454 1.0058465 6513507
0.49500427 -0.2263972 1.0491934 6513507
0.52525026 -0.22493736 1.0445508 6513507
0.57519114 -0.22498485 1.036857 6513507
0.62509078 -0.22499861 1.0291759 6513507
0.67497253 -0.22501259 1.0214938 6513507
0.7249074 -0.22501969 1.013805 6513507
0.77375203 -0.224996 1.0062842 6513507
0.49614745 -0.17655003 1.0494516 6513507
0.5250333 -0.17512305 1.0450168 6513507
0.57524896 -0.17489733 1.0372809 6513507
0.62530184 -0.17498015 1.029578 6513507
0.67526466 -0.175046 1.0218838 6513507
0.72521776 -0.17500496 1.0141927 6513507
0.77406645 -0.17496511 1.0066714 6513507
0.49764213 -0.12756732 1.0496485 6513507
0.52489495 -0.1250243 1.0454757 6513507
0.57487243 -0.12502477 1.0377718 6513507
0.62495041 -0.12500402 1.0300664 6513507
0.67507756 -0.12503208 1.0223486 6513507
0.72512531 -0.12502955 1.0146427 6513507
0.77414346 -0.124895 1.0070953 6513507
0.49902096 -0.08096163 1.049842 6513507
0.52519655 -0.07510493 1.0458635 6513507
0.57510233 -0.07494016 1.0381814 6513507
0.62491578 -0.075009145 1.0305078 6513507
0.67497283 -0.074999385 1.0228007 6513507
0.72489786 -0.074994504 1.0151137 6513507
0.77429789 -0.07506644 1.0075059 6513507
0.49981615 -0.049155112 1.0499965 6513507
0.52577299 -0.025319012 1.0462061 6513507
0.57524496 -0.024954442 1.038587 6513507
0.62532443 -0.02503073 1.0308814 6513507
0.6752342 -0.025008341 1.0231968 6513507
0.7253601 -0.024973979 1.0154774 6513507
0.77454466 -0.025052194 1.0079038 6513507
0.5270462 0.024764236 1.0464479 6513507
0.57503074 0.024965396 1.0390595 6513507
0.625144 0.0249957 1.0313457 6513507
0.67497373 0.025047136 1.023672 6513507
0.7249704 0.02498854 1.0159733 6513507
0.77448875 0.02508462 1.0083489 6513507
0.52840203 0.074817166 1.0466751 6513507
0.57490349 0.074943163 1.0395186 6513507
0.62481719 0.075014651 1.0318291 6513507
0.67503726 0.07503961 1.0240967 6513507
0.72506744 0.074946836 1.0163922 6513507
0.77486551 0.075073458 1.0087273 6513507
-0.81215888 0.1098981 1.0358169 10197915
-0.77487612 0.10985375 1.0239793 10197915
-0.72527218 0.1096785 1.0225223 10197915
-0.67456138 0.10947088 1.0245359 10197915
-0.62488931 0.10926977 1.0262314 10197915
-0.57488835 0.10909379 1.0246776 10197915
-0.52498704 0.10891955 1.0229613 10197915
-0.47581607 0.10872637 1.0239111 10197915
-0.42402878 0.10852053 1.0252036 10197915
-0.37489462 0.10833315 1.0254585 10197915
-0.32490456 0.10815779 1.0238366 10197915
-0.27584153 0.10797763 1.0232362 10197915
-0.22496796 0.1077783 1.0241559 10197915
-0.17452443 0.1075749 1.0257726 10066329
-0.12499032 0.10739684 1.0246947 9934743
-0.074959368 0.10722262 1.0229135 9803157
-0.025250576 0.1070198 1.0248016 9539985
0.025678281 0.10683172 1.0243108 9276813
0.075008668 0.10663597 1.0255044 8816262
0.12505612 0.10646117 1.0237857 8684676
0.17405158 0.10627409 1.0240664 8421504
0.22502558 0.10608047 1.0242352 8092539
0.27585137 0.10588273 1.024986 7829367
0.32503748 0.10570031 1.024597 7566195
0.37458014 0.10552225 1.0235227 7368816
0.42488194 0.10532023 1.02504 6776679
0.47498149 0.10514394 1.0234771 6579300
0.52630329 0.10383163 1.0333588 6513507
0.57506901 0.1035383 1.0291165 6513507
0.62459558 0.10327804 1.0253837 6513507
0.6747427 0.10301323 1.0203068 6513507
0.72455788 0.10277859 1.0142591 6513507
0.77385205 0.1025072 1.0080334 6513507
0.17537166 -0.47039047 1.0962849 6513507
0.22467804 -0.46851361 1.0887095 6513507
0.27455476 -0.46682903 1.0810437 6513507
0.32455403 -0.46509552 1.0733595 6513507
0.37470549 -0.4633666 1.0656531 6513507
0.42454046 -0.46167791 1.0579947 6513507
0.46297303 -0.4602938 1.0520884 6513507
0.177035 -0.42524567 1.096422 6513507
0.22512825 -0.42499018 1.0890199 6513507
0.27505073 -0.42501765 1.0813318 6513507
0.3251394 -0.42499676 1.07362 6513507
0.37520683 -0.42507496 1.0659088 6513507
0.42510456 -0.42492709 1.0582278 6513507
0.46428204 -0.42462766 1.0521977 6513507
0.17847432 -0.37523913 1.0966357 6513507
0.22521539 -0.37501627 1.0894415 6513507
0.27516297 -0.37499642 1.0817504 6513507
0.32526857 -0.3749941 1.0740352 6513507
0.3750883 -0.37498957 1.0663636 6513507
0.42501789 -0.37500647 1.0586755 6513507
0.46580151 -0.37465036 1.0523974 6513507
0.17991373 -0.32525232 1.0968503 6513507
0.22530626 -0.32500377 1.0898626 6513507
0.2752856 -0.32499856 1.0821674 6513507
0.32526749 -0.32509604 1.0744699 6513507
0.37508133 -0.32489544 1.0668019 6513507
0.42515782 -0.32501736 1.05909 6513507
0.46726716 -0.32467437 1.052608 6513507
0.18138406 -0.27528301 1.0970584 6513507
0.22540233 -0.27499178 1.0902834 6513507
0.27538857 -0.27500033 1.0825865 6513507
0.3251043 -0.27501354 1.0749316 6513507
0.3749496 -0.27498698 1.0672557 6513507
0.42501223 -0.2751005 1.0595474 6513507
0.4685002 -0.27460048 1.0528533 6513507
0.1826922 -0.22546379 1.0972915 6513507
0.22531804 -0.22493026 1.0907323 6513507
0.27520767 -0.22507915 1.0830489 6513507
0.3249577 -0.22491845 1.0753903 6513507
0.37506536 -0.22500806 1.0676732 6513507
0.42509702 -0.22497413 1.05997 6513507
0.46990186 -0.22476798 1.0530721 6513507
0.1838097 -0.1753965 1.0975564 6513507
0.22485118 -0.17510314 1.0912386 6513507
0.27489477 -0.17489961 1.0835344 6513507
0.3249068 -0.17503908 1.0758319 6513507
0.37523115 -0.17501253 1.0680833 6513507
0.42522189 -0.17495103 1.060387 6513507
0.47141391 -0.17476065 1.0532756 6513507
0.18524306 -0.12547326 1.0977697 6513507
0.22470836 -0.12498409 1.0916973 6513507
0.27478683 -0.12499741 1.0839854 6513507
0.32509714 -0.12497997 1.0762396 6513507
0.37506211 -0.12506142 1.0685455 6513507
0.42501521 -0.1249833 1.0608542 6513507
0.47284514 -0.12474168 1.0534916 6513507
0.18669337 -0.075508274 1.0979815 6513507
0.22494869 -0.074899018 1.0920966 6513507
0.27494341 -0.075077854 1.0843968 6513507
0.32514685 -0.074942566 1.0766674 6513507
0.37497541 -0.074999198 1.0689948 6513507
0.42519009 -0.075102791 1.0612613 6513507
0.47447628 -0.074647658 1.0536765 6513507
0.18814425 -0.025527857 1.0981934 6513507
0.22492397 -0.024892762 1.092535 6513507
0.27507803 -0.025097266 1.0848117 6513507
0.3252432 -0.02500842 1.0770876 6513507
0.37529871 -0.024945913 1.0693812 6513507
0.42488071 -0.025070876 1.061744 6513507
0.47503972 -0.024895171 1.0540228 6513507
0.50108349 -0.012901543 1.0501171 6513507
0.18959481 0.024466626 1.098406 6513507
0.22501066 0.024905518 1.0929564 6513507
0.27521208 0.025063975 1.0852277 6513507
0.32496482 0.025001291 1.0775656 6513507
0.37502414 0.024926985 1.0698575 6513507
0.42504552 0.025083866 1.0621568 6513507
0.47483671 0.024902711 1.0544881 6513507
0.50192952 0.027368618 1.0503371 6513507
0.19104627 0.0744728 1.098618 6513507
0.22519512 0.074885696 1.0933632 6513507
0.27516702 0.075020239 1.0856699 6513507
0.32509121 0.07502953 1.0779827 6513507
0.37508079 0.074951336 1.0702847 6513507
0.42531782 0.075086869 1.0625504 6513507
0.4751198 0.074891731 1.05488 6513507
0.50340581 0.076538086 1.0505388 6513507
-0.85869426 0.10963065 1.0903049 10197915
-0.82391638 0.10961244 1.0764122 10197915
-0.77489138 0.10944819 1.0738702 10197915
-0.72501761 0.10927388 1.072176 10197915
-0.67478901 0.10906824 1.0741649 10197915
-0.62505019 0.10885804 1.0769445 10197915
-0.57505232 0.10868435 1.0751193 10197915
-0.52498662 0.10850943 1.0734029 10197915
-0.47493178 0.10833441 1.0717115 10197915
-0.42586517 0.10811717 1.0756701 9671571
-0.37489924 0.10791882 1.0764271 7697781
-0.3248716 0.10774428 1.0746833 7500402
-0.27500752 0.10757012 1.0729741 7368816
-0.22449942 0.10738897 1.0718299 7171437
-0.1754362 0.10716242 1.0769325 6645093
-0.12496528 0.10697997 1.0759568 6513507
-0.074993469 0.10680605 1.0741675 6513507
-0.024962148 0.10663123 1.0724623 6513507
0.025126027 0.10643847 1.0729369 6513507
0.075043358 0.10621488 1.077282 6513507
0.12504439 0.10604137 1.0754299 6513507
0.17916989 0.1051253 1.079831 6513507
0.2246345 0.10414889 1.0825348 6513507
0.27450582 0.10383038 1.0785695 6513507
0.32508942 0.10360833 1.0736314 6513507
0.37463433 0.10336913 1.0676329 6513507
0.42440313 0.1030948 1.061304 6513507
0.47416523 0.10279957 1.0546416 6513507
0.50405025 0.1022902 1.0506638 6513507
-0.16298221 -0.50685573 1.1480674 6513507
-0.12620075 -0.50557274 1.142415 6513507
-0.076675288 -0.5038597 1.1348035 6513507
-0.028088266 -0.50218719 1.127337 6513507
0.011985408 -0.50080293 1.1211785 6513507
-0.16191536 -0.4755128 1.1481756 6513507
-0.12496158 -0.47502151 1.1424901 6513507
-0.074748278 -0.47500238 1.1347582 6513507
-0.024750225 -0.47498527 1.1270599 6513507
0.024991302 -0.47495025 1.119401 6513507
0.074766055 -0.47367772 1.1117479 6513507
0.12499078 -0.47193763 1.1040289 6513507
0.15111594 -0.46161634 1.1000966 6513507
-0.16052246 -0.42561892 1.148396 6513507
-0.1250086 -0.4250038 1.142933 6513507
-0.074765541 -0.42499796 1.1351967 6513507
-0.024744565 -0.42498755 1.1274946 6513507
0.025068799 -0.42500174 1.1198244 6513507
0.075130723 -0.42500848 1.112115 6513507
0.12508161 -0.42509124 1.1044233 6513507
0.1519001 -0.42113391 1.1003284 6513507
-0.15914816 -0.37574634 1.1486185 6513507
-0.1250494 -0.37497607 1.143375 6513507
-0.07481084 -0.37501627 1.1356388 6513507
-0.024782559 -0.37499335 1.1279359 6513507
0.025042722 -0.37499139 1.1202637 6513507
0.075094953 -0.37501681 1.1125566 6513507
0.12494206 -0.3749854 1.1048812 6513507
0.15317705 -0.37366319 1.1005454 6513507
-0.15775214 -0.32582286 1.1488384 6513507
-0.1250785 -0.32498232 1.1438144 6513507
-0.074822798 -0.32503128 1.1360762 6513507
-0.02478048 -0.32500479 1.1283715 6513507
0.025053693 -0.32499301 1.1206974 6513507
0.075166076 -0.32500374 1.1129814 6513507
0.12501648 -0.32498515 1.1053057 6513507
0.15460673 -0.32408711 1.100757 6513507
-0.15642361 -0.27603027 1.1490676 6513507
-0.12515791 -0.27498615 1.1442621 6513507
-0.074853741 -0.27502576 1.1365167 6513507
-0.024782287 -0.27502137 1.1288068 6513507
0.025079791 -0.27499902 1.1211298 6513507
0.075165451 -0.27498463 1.1134175 6513507
0.12503454 -0.27500382 1.1057379 6513507
0.1560569 -0.27418369 1.100969 6513507
-0.15500133 -0.22643471 1.1492807 6513507
-0.12520444 -0.22495063 1.1447054 6513507
-0.074910887 -0.2250521 1.1369601 6513507
-0.024783656 -0.22498196 1.129243 6513507
0.025112154 -0.22503515 1.1215594 6513507
0.075244151 -0.22497785 1.1138403 6513507
0.12512217 -0.2250258 1.1061598 6513507
0.15750219 -0.22417112 1.1011819 6513507
-0.15366378 -0.17691465 1.1495057 6513507
-0.12520626 -0.1749776 1.1451414 6513507
-0.074911617 -0.17505737 1.1373968 6513507
-0.024811786 -0.17498231 1.1296827 6513507
0.025078706 -0.17504141 1.1220007 6513507
0.075212218 -0.17498176 1.1142809 6513507
0.12512928 -0.17502542 1.1065943 6513507
0.15891637 -0.17419983 1.1013989 6513507
-0.15206082 -0.12662371 1.1496974 6513507
-0.12517545 -0.12510204 1.145571 6513507
-0.074913353 -0.12499809 1.1378319 6513507
-0.024809754 -0.12505941 1.1301177 6513507
0.025068883 -0.12500808 1.1224372 6513507
0.075296566 -0.12496396 1.1147034 6513507
0.1252878 -0.12500308 1.107006 6513507
0.16035804 -0.12440365 1.101611 6513507
-0.15060738 -0.083341159 1.1498507 6513507
-0.12482868 -0.075103439 1.1459531 6513507
-0.075009152 -0.074979067 1.1382825 6513507
-0.024851907 -0.074938416 1.1305602 6513507
0.025208574 -0.075127259 1.1228504 6513507
0.075338483 -0.07491678 1.1151332 6513507
0.12511274 -0.074982211 1.1074684 6513507
0.16186455 -0.074651852 1.1018121 6513507
-0.1242425 -0.025398664 1.1462959 6513507
-0.075038277 -0.025001632 1.1387237 6513507
-0.024807982 -0.024894558 1.1309896 6513507
0.025101282 -0.025128406 1.1233019 6513507
0.075304031 -0.024955552 1.1155738 6513507
0.12538488 -0.024984946 1.107862 6513507
0.16326325 -0.024657054 1.1020323 6513507
-0.12284419 0.024850072 1.1465182 6513507
-0.075067215 0.025014522 1.1391639 6513507
-0.024862541 0.024853703 1.1314318 6513507
0.025111001 0.025141414 1.1237386 6513507
0.075249732 0.024900153 1.1160161 6513507
0.12533697 0.025015024 1.1083058 6513507
0.1647111 0.025518734 1.1022464 6513507
-0.12150406 0.074750707 1.1467464 6513507
-0.07509619 0.075069338 1.1396039 6513507
-0.024782451 0.074870028 1.1318539 6513507
0.025214992 0.075114124 1.1241581 6513507
0.074905477 0.074935518 1.1165051 6513507
0.12484695 0.074991874 1.108816 6513507
0.16623038 0.075454034 1.1024469 6513507
-0.90412104 0.10938787 1.141238 10197915
-0.87195259 0.10939018 1.1260313 10197915
-0.82483858 0.10921059 1.126261 10197915
-0.77505767 0.1090357 1.1246819 10197915
-0.72505122 0.10886066 1.1230137 10197915
-0.67584926 0.10866225 1.1245934 10197915
-0.62507921 0.10847817 1.1236829 10197915
-0.57458538 0.10826889 1.1260023 10197915
-0.52494013 0.10809255 1.1246598 10197915
-0.47494343 0.10791848 1.12288 10197915
-0.42505607 0.107711 1.1252569 8289918
-0.37484217 0.10753482 1.1236315 6513507
-0.3243109 0.10732704 1.1257457 6513507
-0.27494955 0.10715061 1.1245425 6513507
-0.2255263 0.10697537 1.1231767 6513507
-0.17502974 0.10676667 1.125424 6513507
-0.12283965 0.1047822 1.1356984 6513507
-0.075062513 0.10453007 1.1315 6513507
-0.025465455 0.10428944 1.1256571 6513507
0.023963971 0.10395489 1.1204262 6513507
0.07489565 0.10351577 1.1154242 6513507
0.12471706 0.10329115 1.1085868 6513507
0.16638483 0.10298338 1.1026564 6513507
-0.30333978 -0.51170295 1.1696395 6513507
-0.2758387 -0.51068008 1.1654119 6513507
-0.22570689 -0.50899458 1.1577073 6513507
-0.18786609 -0.50762194 1.1518916 6513507
-0.30344111 -0.47503304 1.17003 6513507
-0.27525526 -0.47497699 1.1656325 6513507
-0.22497194 -0.4750149 1.1578896 6513507
-0.18672994 -0.47452617 1.1520053 6513507
-0.30281159 -0.42426372 1.1703242 6513507
-0.27507776 -0.42512545 1.1660395 6513507
-0.22509408 -0.42500833 1.1583437 6513507
-0.18539023 -0.4245685 1.1522343 6513507
-0.30263704 -0.37507862 1.1707188 6513507
-0.27484167 -0.3748948 1.1664414 6513507
-0.22501209 -0.37511232 1.1587662 6513507
-0.18397488 -0.37459013 1.1524515 6447714
-0.30277854 -0.3250964 1.1712176 6513507
-0.27457589 -0.32499141 1.1668346 6513507
-0.22474106 -0.32499686 1.1591612 6513507
-0.18262413 -0.32464933 1.1526781 6513507
-0.30262312 -0.27603543 1.1716052 6513507
-0.27465597 -0.27501759 1.1672823 6513507
-0.22484611 -0.27501532 1.1596124 6513507
-0.18122815 -0.2746467 1.1528991 6513507
-0.30248469 -0.22500296 1.1720029 6513507
-0.27480826 -0.22499463 1.1677412 6513507
-0.22490375 -0.22503404 1.1600578 6513507
-0.17985412 -0.22466736 1.1531234 6513507
-0.30262157 -0.17486745 1.1724896 6513507
-0.27484241 -0.17497174 1.1681823 6513507
-0.22494607 -0.17501362 1.1604989 6513507
-0.17839476 -0.17472938 1.1533335 6513507
-0.30261576 -0.12597744 1.1729375 6513507
-0.27505016 -0.12493939 1.1686497 6513507
-0.22510299 -0.12503201 1.160959 6513507
-0.17718852 -0.12476752 1.153583 6447714
-0.30234158 -0.07485459 1.1732882 6513507
-0.27514693 -0.075051628 1.1690997 6513507
-0.22514069 -0.075000487 1.1614 6513507
-0.17554919 -0.074682973 1.1537669 6513507
-0.30246136 -0.024798088 1.1737533 6513507
-0.27516809 -0.025107631 1.1695379 6513507
-0.22480068 -0.025026647 1.1617825 6513507
-0.17453623 -0.024859954 1.1540444 6513507
-0.14864492 -0.015593117 1.1501385 6513507
-0.30214584 0.025414843 1.1742036 6513507
-0.27481434 0.025008382 1.1699201 6513507
-0.22488746 0.025039561 1.1622322 6513507
-0.17460312 0.024872713 1.1544881 6513507
-0.14747553 0.027721932 1.1503358 6513507
-0.30169064 0.074815966 1.1744938 6513507
-0.27504689 0.075017057 1.1703917 6513507
-0.22493127 0.075097494 1.1626753 6513507
-0.17455195 0.074869618 1.1549158 6513507
-0.14612402 0.076635033 1.1505535 6513507
-0.91802979 0.10915729 1.1760535 10197915
-0.87459737 0.10900793 1.1742717 10197915
-0.8252663 0.10879812 1.1771971 10197915
-0.77496272 0.10862038 1.1757255 10197915
-0.72479957 0.10844615 1.1738831 10197915
-0.67479557 0.10827347 1.1719286 10197915
-0.62385041 0.10806993 1.1733279 10197915
-0.57539922 0.10785509 1.1772766 10197915
-0.52503306 0.10767481 1.1760837 10197915
-0.47505906 0.10750172 1.1741924 10132122
-0.42504802 0.10732912 1.1722248 6974058
-0.37384954 0.10713574 1.1722556 6513507
-0.32476866 0.10658558 1.1761447 6513507
-0.27502289 0.10411996 1.1685745 6513507
-0.22528377 0.10393371 1.1619774 6513507
-0.17555331 0.10357625 1.1550363 6513507
-0.14539772 0.10344636 1.1506755 6513507
-0.96489751 0.10888778 1.230944 10197915
-0.92507029 0.1088136 1.2215948 10197915
-0.87557721 0.10860442 1.224362 10197915
-0.82376665 0.10839123 1.2265481 10197915
-0.77484441 0.10820906 1.2262633 10197915
-0.72502035 0.10803734 1.2242689 10197915
-0.67504615 0.10786403 1.2224026 10197915
-0.62640536 0.10767208 1.2234497 10197915
-0.57440525 0.10746646 1.2246183 10197915
-0.52502406 0.10726088 1.2269939 10197915
-0.47505179 0.10708808 1.2250679 9211020
-0.42503405 0.10691548 1.2230932 6513507
-0.37614202 0.10673334 1.2228153 6513507
-0.33296937 0.10656381 1.2236454 6513507
-1.0106699 0.10863308 1.2835107 10197915
-0.97507024 0.10858901 1.2724131 10197915
-0.92472214 0.10837315 1.2755995 10197915
-0.87509978 0.10819986 1.2739002 10197915
-0.82636583 0.1080029 1.2755147 10197915
-0.77501172 0.10780838 1.2756193 10197915
-0.72510439 0.10763644 1.2736208 10197915
-0.67417324 0.10745055 1.2728573 10197915
-0.62499094 0.10724548 1.275269 10197915
-0.57548767 0.10707031 1.2738428 10197915
-0.52489203 0.10685576 1.2767655 10197915
-0.47493204 0.10668299 1.274839 7763574
-0.42486507 0.10651039 1.2728446 6513507
-0.37346384 0.10630891 1.2737821 6513507
-0.3391946 0.10619789 1.2715386 6513507
-1.0570219 0.10836865 1.3375326 10197915
-1.0232897 0.1083636 1.322505 10197915
-0.97377431 0.10818096 1.3219968 10197915
-0.92555743 0.10794485 1.3286722 10197915
-0.87492025 0.107767 1.3270609 10197915
-0.82494599 0.10759459 1.3250915 10197915
-0.77499115 0.10742354 1.3229481 10197915
-0.72491568 0.10725162 1.3208684 10197915
-0.67454743 0.10704413 1.3230219 10197915
-0.62517476 0.10680971 1.32895 10197915
-0.57511055 0.10663792 1.3268515 10197915
-0.52506918 0.10646763 1.3245817 10000536
-0.47504988 0.10629442 1.3226917 6645093
-0.42505071 0.10612486 1.3203549 6513507
-0.37502006 0.10589945 1.3248659 6513507
-0.34563217 0.10581955 1.3210591 6513507
-1.105094 0.10808186 1.3951111 10197915
-1.0716364 0.10810444 1.3768148 10197915
-1.0250162 0.1079701 1.3717083 10197915
-0.97674078 0.10778682 1.3718605 10197915
-0.92402858 0.10756077 1.3752091 10197915
-0.87494111 0.10735016 1.378343 10197915
-0.82494873 0.10718036 1.3760349 10197915
-0.77511472 0.10700923 1.3739657 10197915
-0.72485733 0.10683791 1.3717268 10197915
-0.67665082 0.10665095 1.3723581 10197915
-0.62481439 0.10644014 1.3742416 10197915
-0.5749265 0.10621885 1.3783131 10197915
-0.52497041 0.1060472 1.3762593 8684676
-0.47503036 0.10587776 1.3739303 6513507
-0.42496413 0.10570599 1.3718313 6513507
-0.3791846 0.1055313 1.3720814 6513507
-1.117676 0.10787292 1.4266472 10197915
-1.0733204 0.10771672 1.425281 10197915
-1.0250684 0.10752672 1.4262706 10197915
-0.97507727 0.1073586 1.4237546 10197915
-0.92585498 0.10718287 1.4225371 10197915
-0.8749885 0.10695986 1.4263704 10197915
-0.82522136 0.10679051 1.4241149 10197915
-0.77388579 0.10660335 1.4233199 10197915
-0.72509718 0.10639147 1.4267492 10197915
-0.67510462 0.10622245 1.4243467 10197915
-0.62497228 0.10605025 1.4222708 10197915
-0.57503849 0.10582355 1.4269888 10197915
-0.52512783 0.10565391 1.4247015 7303023
-0.47497666 0.10548253 1.4225178 6513507
-0.42386821 0.10526017 1.4261589 6513507
-0.38387054 0.10513373 1.4231553 6513507
-1.1628896 0.10758109 1.4835143 10197915
-1.1249037 0.10751049 1.4745779 10197915
-1.0767158 0.10732007 1.4756467 10197915
-1.0250062 0.10711109 1.4773601 10197915
-0.97511202 0.10694195 1.4750258 10197915
-0.92516214 0.1067725 1.4726895 10197915
-0.87495643 0.10660221 1.4703438 10197915
-0.82467932 0.10637069 1.4754993 10197915
-0.77580971 0.10619586 1.4743335 10197915
-0.72505587 0.10597035 1.478524 10197915
-0.67496836 0.10580067 1.4761599 10197915
-0.62504399 0.1056316 1.4737974 10197915
-0.57506883 0.10546229 1.4714383 9671571
-0.52321076 0.10525872 1.4724245 6513507
-0.47507244 0.1050607 1.4744453 6513507
-0.42645124 0.10484932 1.4778943 6513507
-0.39079779 0.10473239 1.4757373 6513507
-1.2081449 0.10732141 1.5364536 10000536
-1.1761684 0.10726158 1.5289788 10066329
-1.1251644 0.10706868 1.5290422 10197915
-1.0751011 0.10689835 1.5267706 10197915
-1.0249825 0.10672786 1.5244908 10197915
-0.97502029 0.10656016 1.5219399 10197915
-0.92499793 0.10639112 1.5195258 10197915
-0.87328231 0.10617845 1.5216922 10197915
-0.82517445 0.10592405 1.5306673 10197915
-0.77488685 0.10575211 1.5284885 10197915
-0.72497183 0.10558362 1.5260543 10197915
-0.67499685 0.10541496 1.5236167 10197915
-0.62496823 0.10524496 1.5213165 10197915
-0.5748899 0.1050782 1.5185953 8355711
-0.52515775 0.10483809 1.5250653 6513507
-0.47485489 0.10460502 1.5303971 6513507
-0.42493001 0.10443792 1.5277922 6513507
-0.39623621 0.10441235 1.5176206 6513507
-1.255609 0.10709798 1.5859563 10197915
-1.2243665 0.1070957 1.5717382 10132122
-1.1731598 0.10683495 1.5800587 10197915
-1.1248208 0.1066592 1.5792505 10197915
-1.0746956 0.10648793 1.5770638 10197915
-1.0249536 0.10632174 1.5744257 10197915
-0.97514659 0.10615403 1.5719479 10197915
-0.92504591 0.1059854 1.5694504 10197915
-0.8774789 0.10579745 1.5705036 10197915
-0.82300603 0.10551715 1.5797105 10197915
-0.77511555 0.1053401 1.5792726 10197915
-0.72488201 0.10517122 1.5767417 10197915
-0.67480516 0.10500286 1.5742172 10197915
-0.62489265 0.10483506 1.5717025 10132122
-0.57491457 0.10466705 1.5691833 6908265
-0.5271219 0.10446362 1.5720344 6513507
-0.47269702 0.10420018 1.579188 6513507
-0.42884195 0.10404314 1.5781635 6513507
-1.302914 0.10681853 1.6422698 10197915
-1.2706803 0.10683028 1.6258755 10197915
-1.2252396 0.10670751 1.6198884 10197915
-1.1774952 0.10650171 1.6230584 10197915
-1.1252131 0.10629818 1.6238397 10197915
-1.0740036 0.10606046 1.6293256 10197915
-1.0251567 0.105889 1.6277522 10197915
-0.97505111 0.10571826 1.6255105 10197915
-0.92486662 0.10555138 1.6227555 10197915
-0.87484437 0.10538233 1.6203451 10197915
-0.827402 0.10518268 1.6228918 10197915
-0.77520591 0.10497423 1.6243197 10197915
-0.72244984 0.10474883 1.6275679 10197915
-0.6748302 0.10456325 1.6283029 10197915
-0.62526733 0.10439729 1.6257236 9079434
-0.57517207 0.10422961 1.6231127 6513507
-0.52501315 0.1040603 1.6206681 6513507
-0.47741789 0.10386086 1.6231198 6513507
-0.4348377 0.10369041 1.6243336 6513507
-1.3155978 0.10659871 1.6751943 10132122
-1.275147 0.10641663 1.6788226 10197915
-1.2252328 0.10624982 1.6761906 10197915
-1.1752305 0.10608113 1.6737404 10197915
-1.1249132 0.10591594 1.6707178 10197915
-1.0763739 0.10569093 1.6758736 10197915
-1.0248194 0.10550133 1.6752791 10197915
-0.97504306 0.10533389 1.6727802 10197915
-0.92286605 0.10510603 1.6766005 10197915
-0.87504303 0.10492114 1.6771612 10197915
-0.82485229 0.10475214 1.6746672 10197915
-0.77482253 0.10458665 1.6718124 10197915
-0.72768641 0.10439427 1.6736064 10197915
-0.67540443 0.10417534 1.6762835 10197915
-0.62508523 0.10400524 1.6738611 7697781
-0.57403862 0.10382731 1.6720655 6513507
-0.52515721 0.10359335 1.6781653 6513507
-0.47502443 0.10342631 1.6754588 6513507
-0.44070795 0.10334091 1.6700393 6513507
-1.3653879 0.10630491 1.7344302 10000536
-1.3255033 0.10625574 1.7219713 10066329
-1.274601 0.10600815 1.7288164 10197915
-1.2250614 0.10584192 1.7262795 10197915
-1.1753021 0.10567622 1.723577 10197915
-1.1249589 0.10550858 1.7208424 10197915
-1.0732765 0.10527042 1.7261624 10197915
-1.0251995 0.10509514 1.7254182 10197915
-0.97503805 0.10492495 1.723084 10197915
-0.92742932 0.10472578 1.7254968 10197915
-0.87509465 0.10451021 1.7277342 10197915
-0.82547122 0.10434394 1.7251621 10197915
-0.77527291 0.10417829 1.7222522 10197915
-0.72488546 0.10400579 1.7200919 10197915
-0.67528236 0.10376061 1.7272398 9803157
-0.62489951 0.10359324 1.7244544 6579300
-0.5755859 0.10342263 1.7225599 6513507
-0.52483881 0.10317589 1.7293702 6513507
-0.47499606 0.10300921 1.7267504 6513507
-0.44725585 0.10297427 1.7181782 6513507
-1.4100095 0.10605965 1.785298 10132122
-1.3746403 0.10599665 1.7766397 10132122
-1.3251034 0.10583087 1.77405 10132122
-1.2753373 0.1056657 1.7712818 10197915
-1.2253503 0.10550114 1.7683343 10197915
-1.1751255 0.10524569 1.7764511 10197915
-1.125016 0.10508125 1.7734295 10197915
-1.0769759 0.10486192 1.7781209 10197915
-1.0248427 0.10465878 1.7789216 10197915
-0.97502911 0.10449234 1.7762852 10197915
-0.92499012 0.10432655 1.7734663 10197915
-0.87473595 0.10416134 1.7704718 10197915
-0.82363671 0.10397891 1.769207 10197915
-0.77474397 0.10374204 1.775661 10197915
-0.72528005 0.10357282 1.7735281 10197915
-0.67490095 0.10331998 1.7812589 8355711
-0.62482357 0.10315298 1.7785692 6513507
-0.57490003 0.10298917 1.7755557 6513507
-0.52514452 0.10282324 1.7728839 6513507
-0.47879338 0.10267614 1.7694757 6513507
-1.4562218 0.10581014 1.8374269 10197915
-1.4234899 0.10578697 1.8250899 10197915
-1.3751551 0.10563646 1.8211824 10197915
-1.3251638 0.10546958 1.8185124 10197915
-1.272522 0.10525092 1.8209871 10197915
-1.2253033 0.10504734 1.8241235 10197915
-1.1758323 0.10479321 1.832435 10197915
-1.1250679 0.1046213 1.8300309 10197915
-1.0752392 0.10445825 1.8269695 10197915
-1.025166 0.10429285 1.8240834 10197915
-0.97486734 0.10412531 1.8213561 10197915
-0.9251132 0.10396104 1.8184824 10197915
-0.87311476 0.10375933 1.8191714 10197915
-0.82577443 0.10353392 1.8249372 10197915
-0.77496165 0.1032776 1.8328894 10197915
-0.7248202 0.10311089 1.8301377 10197915
-0.6748361 0.10294759 1.8270327 7105644
-0.62501627 0.10278194 1.824299 6513507
-0.57496649 0.10261697 1.8213711 6513507
-0.52469605 0.10245275 1.8182504 6513507
-0.48436242 0.1023278 1.8149042 6513507
-1.5006586 0.10557004 1.8875763 10197915
-1.4716706 0.10555047 1.8765332 10197915
-1.4255137 0.10542031 1.8711282 10197915
-1.3748885 0.105255 1.8679758 10197915
-1.3244209 0.10508713 1.865214 10197915
-1.2762654 0.10480884 1.8771039 10197915
-1.2255257 0.10456599 1.8834376 10197915
-1.1752801 0.10440063 1.8804663 10197915
-1.1247983 0.104233 1.8776695 10197915
-1.0748721 0.10406873 1.8747107 10197915
-1.0251036 0.10390507 1.8717612 10197915
-0.97509795 0.10374211 1.8686047 10197915
-0.92484379 0.10357675 1.8656269 10197915
-0.87435168 0.1033259 1.8730538 10197915
-0.82477784 0.10304809 1.8842263 10197915
-0.77474332 0.10288221 1.8814194 10197915
-0.7248795 0.10272008 1.8782287 9408399
-0.67476749 0.10255554 1.8752207 6513507
-0.62521923 0.10239127 1.8724415 6513507
-0.57542843 0.10222779 1.8694519 6513507
-0.52500933 0.10206224 1.8664246 6513507
-0.49055198 0.10197084 1.861683 6513507
-1.5180597 0.10528836 1.9302871 10197915
-1.4753635 0.10518435 1.9232723 10197915
-1.4253182 0.10501999 1.9202747 10197915
-1.3750235 0.10485315 1.9174629 10197915
-1.3252937 0.10468987 1.9144769 10197915
-1.2731903 0.10436541 1.9302177 10197915
-1.2246026 0.10415358 1.9337311 10197915
-1.174679 0.10399007 1.9306868 10197915
-1.1253368 0.1038266 1.9279033 10197915
-1.0753103 0.10366436 1.924648 10197915
-1.0250429 0.10349623 1.9220109 10197915
-0.97492927 0.10333543 1.918541 10197915
-0.92496914 0.10317171 1.9155016 10197915
-0.87916791 0.10298069 1.917752 10197915
-0.82427967 0.10263341 1.9350055 10197915
-0.77533871 0.10247142 1.9322253 10197915
-0.72493845 0.10230487 1.9293315 7960953
-0.67469567 0.10214229 1.9260198 6513507
-0.6246205 0.10197681 1.9231457 6513507
-0.5746972 0.1018153 1.9198532 6513507
-0.52494425 0.10165085 1.9169983 6513507
-0.49629855 0.10162749 1.9065825 6513507
-1.5653279 0.10500728 1.9867886 10197915
-1.524633 0.10492 1.9786491 10197915
-1.4752303 0.10476036 1.9753681 10197915
-1.425542 0.10459778 1.9723117 10197915
-1.3751611 0.10442935 1.9696575 10197915
-1.3249433 0.10426881 1.9661083 10197915
-1.2792926 0.10407998 1.9681567 10197915
-1.2208118 0.10377181 1.9789306 10197915
-1.1744746 0.10355637 1.9839356 10197915
-1.124627 0.1033956 1.9805888 10197915
-1.0749331 0.10323154 1.9777125 10197915
-1.0253948 0.10307176 1.9743857 10197915
-0.97517169 0.102906 1.9714757 10197915
-0.92510182 0.10274448 1.9681163 10197915
-0.87519968 0.10257977 1.9652256 10197915
-0.82646048 0.10232491 1.973968 10197915
-0.77062851 0.10205767 1.9809357 9868950
-0.72458184 0.10186683 1.9830476 6645093
-0.67461997 0.10170604 1.9796467 6513507
-0.62482399 0.10154197 1.9767239 6513507
-0.57476372 0.10137898 1.9735502 6513507
-0.52927321 0.10124225 1.9692676 6513507
-1.6054727 0.10485061 2.0246902 10197915
-1.5728093 0.10471532 2.0261772 10197915
-1.5254296 0.10447656 2.0335634 10197915
-1.4755293 0.10431203 2.0306487 10197915
-1.4253408 0.10414863 2.0274673 10197915
-1.3748747 0.10398634 2.0240211 10197915
-1.3249967 0.10382392 2.0208602 10197915
-1.2748537 0.1036586 2.0179284 10197915
-1.2273482 0.10348571 2.0171604 10197915
-1.1748577 0.10321913 2.0255952 10197915
-1.1226838 0.10302108 2.0257487 10197915
-1.0749662 0.10277748 2.0335774 10197915
-1.0249 0.10261683 2.0301077 10197915
-0.97499532 0.10245265 2.0271511 10197915
-0.9248113 0.10228962 2.0239253 10197915
-0.87522221 0.10213054 2.0204873 10197915
-0.82535279 0.10196844 2.0172904 10197915
-0.77943271 0.1017805 2.0191035 9342606
-0.72494429 0.10152481 2.0252767 6513507
-0.67234939 0.1013319 2.0246048 6513507
-0.62503868 0.10108223 2.0333731 6513507
-0.57525957 0.10092087 2.030127 6513507
-0.53689867 0.10081554 2.0252841 6513507
-1.6545204 0.10454148 2.0854554 10197915
-1.6221572 0.10453457 2.0712953 10197915
-1.5771352 0.10439985 2.0669804 10197915
-1.5248131 0.10412056 2.0770583 10197915
-1.4752004 0.10395955 2.0738466 10197915
-1.4213418 0.1037209 2.0782175 10197915
-1.3754697 0.10351688 2.0820334 10197915
-1.3255167 0.10335276 2.0790474 10197915
-1.2752697 0.1031899 2.0757706 10197915
-1.2247422 0.10302825 2.0722163 10197915
-1.1743653 0.10286279 2.0691907 10197915
-1.1266934 0.10270119 2.0669525 10197915
-1.074993 0.10242064 2.0774858 10197915
-1.0242897 0.10225647 2.074156 10197915
-0.97198409 0.10205634 2.0745077 10197915
-0.9249472 0.10181177 2.0827653 10197915
-0.87480509 0.10165178 2.0791831 10197915
-0.82481813 0.10148798 2.0761418 10197915
-0.77499163 0.10132901 2.0725813 7631988
-0.72532403 0.10116629 2.0695605 6513507
-0.67659163 0.10100202 2.0671544 6513507
-0.62498623 0.10071991 2.0779116 6513507
-0.5749948 0.10055842 2.0745804 6513507
-0.54262316 0.10045389 2.0724235 6513507
-0.55568403 0.099987708 2.1358254 6513507
-1.7028434 0.10420118 2.1497324 10197915
-1.671327 0.10420576 2.1345518 10197915
-1.6246419 0.10407439 2.1290517 10197915
-1.5745574 0.10391242 2.1257389 10197915
-1.5246286 0.10375097 2.1224353 10197915
-1.4744033 0.10359084 2.1188331 10197915
-1.4278027 0.1034095 2.1195226 10197915
-1.3743263 0.10314013 2.1278422 10197915
-1.3246598 0.10297972 2.1245329 10197915
-1.2751474 0.10281981 2.1212337 10197915
-1.2216697 0.1025437 2.1303871 9803157
-1.1745931 0.10236736 2.1302409 9605778
-1.1247296 0.10220882 2.1266086 9276813
-1.0750196 0.10204615 2.1235564 9276813
-1.0254653 0.10188861 2.1199462 9276813
-0.97683614 0.10171969 2.118166 9211020
-0.92528331 0.10143648 2.1290896 8092539
-0.87538087 0.1012757 2.1257148 7434609
-0.82473314 0.10111252 2.1222901 7368816
-0.77122068 0.10088667 2.1252458 6513507
-0.72540724 0.10066518 2.1312342 6513507
-0.67531186 0.10050163 2.1281111 6513507
-0.62538493 0.1003433 2.1244204 6513507
-0.57765394 0.10020003 2.1199024 6513507
-0.54728103 0.10021864 2.103528 6513507
-0.62120324 0.099931888 2.173095 6513507
-0.57992029 0.099799573 2.1702178 6513507
-1.7180592 0.10401533 2.1796572 10197915
-1.6751925 0.1038525 2.1798003 10197915
-1.6247849 0.1036901 2.1763918 10197915
-1.5754819 0.10353128 2.1730578 10197915
-1.5253862 0.10336986 2.1696703 10197915
-1.4725356 0.10308033 2.1807609 8553090
-1.4245421 0.10291238 2.1791584 8224125
-1.3750181 0.10275551 2.175477 7895160
-1.3247046 0.10259113 2.1723561 7895160
-1.2745486 0.10243224 2.168633 7895160
-1.2286869 0.10221064 2.1746097 7171437
-1.1750077 0.10197789 2.1783373 6579300
-1.1254166 0.10181853 2.1749334 6579300
-1.0750482 0.10165667 2.1714761 6579300
-1.0221902 0.101452 2.1721282 6579300
-0.97497517 0.1012004 2.1811788 6513507
-0.92470211 0.10103904 2.1777012 6513507
-0.87505794 0.10088227 2.1739554 6513507
-0.82556623 0.10072092 2.1708441 6513507
-0.77811617 0.1005519 2.1696188 6513507
-0.72535175 0.10026566 2.1803534 6513507
-0.6754958 0.10010589 2.1768787 6513507
-0.64693987 0.10001436 2.1748884 6513507
-0.71655017 0.099802993 2.2331712 6513507
-0.67521185 0.099690452 2.2278352 6513507
-0.62482405 0.099526972 2.22457 6513507
-0.58636224 0.09943042 2.2186041 6513507
-1.7571558 0.10384861 2.2182977 7434609
-1.7210773 0.10364325 2.2268217 7105644
-1.6755195 0.10344856 2.2296336 6579300
-1.6254231 0.10329053 2.2258375 6513507
-1.5754795 0.10312752 2.2227144 6513507
-1.5252055 0.10296622 2.2192371 6513507
-1.4778095 0.10272141 2.227361 6513507
-1.4249573 0.10250786 2.2291114 6513507
-1.3757393 0.10235015 2.2256811 6513507
-1.3257116 0.10218978 2.2221949 6513507
-1.274883 0.10202689 2.218652 6513507
-1.2206794 0.10174649 2.2279916 6513507
-1.1744816 0.10156528 2.2288492 6513507
-1.1246983 0.10140596 2.2253523 6513507
-1.0746074 0.10124827 2.2215106 6513507
-1.0263522 0.10107959 2.2198703 6513507
-0.97458464 0.10078658 2.2318952 6513507
-0.92504758 0.10062825 2.2283893 6513507
-0.87471819 0.1004674 2.2248271 6513507
-0.8245486 0.10030705 2.221276 6513507
-0.77453971 0.1001472 2.2177365 6513507
-0.73877621 0.10003292 2.2152052 6513507
-0.90557802 0.099984922 2.298491 6513507
-0.87521964 0.099888436 2.296273 6513507
-0.82023793 0.099789374 2.2829502 6513507
-0.77469486 0.099718802 2.2704983 6513507
-0.72902602 0.099486165 2.2779329 6513507
-0.67492002 0.099251956 2.2816415 6513507
-0.6247617 0.099092588 2.2779772 6513507
-0.59396869 0.098994724 2.275728 6513507
-1.8120301 0.10346315 2.2911675 6513507
-1.7739716 0.10347487 2.2720737 6513507
-1.7297202 0.10329743 2.2733686 6513507
-1.6758647 0.10302795 2.2815294 6513507
-1.6250956 0.1028657 2.2779367 6513507
-1.5744854 0.10270392 2.2743547 6513507
-1.5250227 0.10254586 2.270854 6513507
-1.4747276 0.1023851 2.2672942 6513507
-1.4209384 0.10209975 2.277436 6513507
-1.3745229 0.10192253 2.2777009 6513507
-1.3247982 0.10176101 2.2745037 6513507
-1.2752279 0.10160563 2.2706189 6513507
-1.2292424 0.10139181 2.2755806 6513507
-1.1749126 0.10113839 2.2815492 6513507
-1.1249325 0.1009791 2.277956 6513507
-1.0751085 0.1008203 2.2743735 6513507
-1.025442 0.10066201 2.270803 6513507
-0.97496158 0.10050113 2.2671735 6513507
-0.9231568 0.10026657 2.2719948 6513507
-0.87448281 0.10018091 2.2599497 6513507
-0.83312178 0.10004909 2.2569761 6513507
-1.0027931 0.099988066 2.3431957 6513507
-0.97475129 0.099899225 2.3411138 6513507
-0.92478889 0.09974096 2.3374047 6513507
-0.87498474 0.099583171 2.3337073 6513507
-0.82533783 0.099425897 2.3300211 6513507
-0.77485973 0.099265985 2.3262739 6513507
-0.7245428 0.09910658 2.3225379 6513507
-0.67536956 0.098950803 2.3188872 6513507
-0.62537229 0.098792419 2.3151758 6513507
-1.8515862 0.10329495 2.3301988 6513507
-1.8249941 0.10321021 2.3282871 6513507
-1.7749848 0.10305084 2.3246913 6513507
-1.7251287 0.10289193 2.3211069 6513507
-1.6754271 0.10273354 2.317534 6513507
-1.6215822 0.10251167 2.3198478 6513507
-1.5749602 0.10226574 2.3284712 6513507
-1.5248332 0.10210314 2.3252172 6513507
-1.4743441 0.10194247 2.321558 6513507
-1.4290123 0.10173003 2.3266573 6513507
-1.3752671 0.10147742 2.3328013 6513507
-1.3248497 0.10131721 2.3291183 6513507
-1.2745911 0.10115752 2.3254471 6513507
-1.2244905 0.1009983 2.3217874 6513507
-1.1745478 0.10083961 2.3181388 6513507
-1.1247613 0.10068141 2.3145022 6513507
-1.0737264 0.10037579 2.3284137 6513507
-1.0266987 0.10022655 2.324954 6513507
-0.97535139 0.10020663 2.3035877 6513507
-0.93796754 0.10008784 2.3008571 6513507
-1.1038662 0.099991463 2.3896768 6513507
-1.0751772 0.099900849 2.3875113 6513507
-1.0250843 0.099742681 2.3837306 6513507
-0.97515053 0.099584982 2.379962 6513507
-0.92435992 0.099424601 2.3761289 6513507
-0.87474281 0.099267893 2.3723838 6513507
-0.82528323 0.099111691 2.3686512 6513507
-0.77497363 0.098952807 2.3648543 6513507
-0.72088045 0.098711237 2.3694749 6513507
-0.67506409 0.098479018 2.3767805 6513507
-0.63245833 0.09836445 2.37111 6513507
-1.8675094 0.1030416 2.3687594 6513507
-1.8248745 0.10290613 2.3656447 6513507
-1.7711827 0.10265723 2.3713486 6513507
-1.7256552 0.10243446 2.377629 6513507
-1.6752614 0.10227775 2.3735263 6513507
-1.6273479 0.10210442 2.3726175 6513507
-1.5754708 0.1018023 2.3857114 6513507
-1.5256602 0.10164449 2.3820136 6513507
-1.4749718 0.10148391 2.3782504 6513507
-1.4244419 0.10132384 2.3744991 6513507
-1.3750986 0.10116751 2.3708355 6513507
-1.3248842 0.10100845 2.3671076 6513507
-1.2748266 0.10084984 2.3633914 6513507
-1.2228298 0.10054383 2.3769178 6513507
-1.174996 0.10037484 2.3755126 6513507
-1.1269249 0.10023657 2.3702188 6513507
-1.097321 0.10028753 2.3502135 6513507
-0.75826532 -1.0734407 2.4488249 6513507
-0.72518468 -1.0716287 2.4437468 6513507
-0.67554468 -1.0700107 2.4361184 6513507
-0.64361644 -1.0686629 2.4312134 6513507
-0.75678408 -1.0261334 2.4490092 6513507
-0.72502798 -1.0249325 2.4441299 6513507
-0.67451161 -1.0248742 2.4363525 6513507
-0.64304245 -1.0253339 2.4315023 6513507
-0.75551617 -0.97652048 2.4492469 6513507
-0.7251668 -0.97499186 2.4445868 6513507
-0.67439002 -0.97507161 2.4367666 6513507
-0.64284867 -0.97459126 2.4319141 6513507
-0.75427222 -0.92622912 2.4494929 6513507
-0.72521204 -0.92511821 2.4450262 6513507
-0.6744929 -0.92497694 2.4372194 6513507
-0.64241451 -0.92398107 2.4322886 6513507
-0.75283653 -0.8780719 2.4496911 6513507
-0.72546363 -0.87509823 2.445502 6513507
-0.67458898 -0.87486619 2.4376702 6513507
-0.64194357 -0.87521845 2.4326408 6513507
-0.75092912 -0.82488799 2.449861 6513507
-0.72498262 -0.82524306 2.4458625 6513507
-0.67473042 -0.82490295 2.4381275 6513507
-0.64206314 -0.82541353 2.4330931 6513507
-0.7500816 -0.79677135 2.4499753 6513507
-0.7243728 -0.7750892 2.4462059 6513507
-0.67485619 -0.77504987 2.4385805 6513507
-0.64221948 -0.77529889 2.4335539 6513507
-0.72334713 -0.72525632 2.4464812 6513507
-0.6750738 -0.72509176 2.439049 6513507
-0.64234 -0.72502536 2.4340098 6513507
-0.72204673 -0.67522639 2.4467165 6513507
-0.67514384 -0.67502975 2.4394965 6513507
-0.64246053 -0.67473292 2.4344673 6513507
-0.72029656 -0.62536848 2.4468827 6513507
-0.67519313 -0.62499392 2.4399402 6513507
-0.64258099 -0.62442154 2.4349239 6513507
-0.71931243 -0.57525718 2.4471669 6513507
-0.67518896 -0.57502323 2.4403737 6513507
-0.64207643 -0.57406867 2.4352849 6513507
-0.71801275 -0.52526134 2.447402 6513507
-0.67561877 -0.5249474 2.4408765 6513507
-0.64170307 -0.5254752 2.4356511 6513507
-0.71617693 -0.47534406 2.4475543 6513507
-0.67560565 -0.47503838 2.4413095 6513507
-0.64188659 -0.47535759 2.436116 6513507
-0.71423542 -0.42527154 2.4476919 6513507
-0.67459995 -0.42510575 2.4415903 6513507
-0.64200699 -0.42497468 2.4365728 6513507
-0.71279866 -0.37525669 2.4479053 6513507
-0.67468578 -0.37517235 2.4420381 6513507
-0.64212769 -0.37457275 2.4370296 6513507
-0.71136165 -0.32578066 2.4481153 6513507
-0.67495304 -0.32482085 2.4425197 6513507
-0.64232767 -0.32477427 2.4374945 6513507
-0.71009922 -0.2754882 2.4483588 6513507
-0.67532647 -0.27475441 2.4430118 6513507
-0.64228463 -0.27536008 2.4379187 6513507
-0.70872653 -0.22586192 2.44858 6513507
-0.67495567 -0.22521619 2.4433851 6513507
-0.64166433 -0.22473565 2.4382637 6513507
-0.70747411 -0.17626488 2.4488194 6513507
-0.67498219 -0.17491704 2.4438291 6513507
-0.6412406 -0.17541368 2.4386282 6513507
-0.70600492 -0.12576164 2.449033 6513507
-0.67439985 -0.12454812 2.444175 6513507
-0.64065677 -0.12440532 2.4389827 6513507
-0.70472485 -0.07644368 2.4492657 6513507
-0.67452472 -0.07494501 2.4446268 6513507
-0.64069957 -0.074916184 2.4394205 6513507
-0.70346379 -0.027269054 2.4494996 6513507
-0.67464882 -0.025323385 2.4450805 6513507
-0.64085609 -0.025269506 2.4398773 6513507
-0.70204616 0.021566669 2.4497068 6513507
-0.67477596 0.025329741 2.44554 6513507
-0.64097685 0.025275838 2.440336 6513507
-1.2048295 0.099981643 2.4377136 6513507
-1.174423 0.099885941 2.4353802 6513507
-1.1242118 0.099727891 2.4315267 6513507
-1.0741591 0.099570341 2.4276857 6513507
-1.0242645 0.099413298 2.423856 6513507
-0.9745273 0.099256746 2.4200392 6513507
-0.92494589 0.099100687 2.4162343 6513507
-0.87552071 0.098945118 2.4124413 6513507
-0.82092619 0.098658413 2.4223759 6513507
-0.7746318 0.098459899 2.425317 6513507
-0.723526 0.091981471 2.4286747 6513507
-0.67489219 0.074974783 2.4456561 6513507
-0.64107454 0.074938871 2.4405298 6513507
-1.9079354 0.10279056 2.4183857 6513507
-1.8753159 0.10259337 2.4275103 6513507
-1.8252118 0.10243488 2.4237611 6513507
-1.7785287 0.10224649 2.4252808 6513507
-1.7251383 0.10195341 2.4365647 6513507
-1.6750947 0.10179538 2.4327879 6513507
-1.6252044 0.1016378 2.4290226 6513507
-1.57547 0.10148074 2.4252691 6513507
-1.524835 0.10132084 2.4214475 6513507
-1.4743592 0.10116148 2.4176383 6513507
-1.4250885 0.10100587 2.4139197 6513507
-1.371622 0.10076246 2.4190545 6513507
