# .PCD v0.7 - Point Cloud Data file format
VERSION 0.7
FIELDS x y z rgb
SIZE 4 4 4 4
TYPE F F F U
COUNT 1 1 1 1
WIDTH 1156
HEIGHT 1
VIEWPOINT 0 0 0 1 0 0 0
POINTS 1156
DATA ascii
-1.4163258 -0.02489128 2.0719111 1588576
-1.3922408 -0.025031356 2.0834918 1388875
-1.4168006 0.024902398 2.0726049 1522270
-1.3923887 0.025034914 2.0837131 1257290
-1.564146 0.092799157 2.0845389 10132122
-1.524933 0.09288837 2.0761817 4745356
-1.4750711 0.092895024 2.0756669 1523303
-1.4180293 0.072947256 2.0725811 1456991
-1.3912857 0.07309518 2.0828121 1125448
-1.3471791 0.093056083 2.0607052 10000536
-1.2574779 0.092729241 2.09185 10000536
-1.2240076 0.092888303 2.0768671 9869207
-1.1866282 0.092961833 2.0699906 5074319
-1.1084521 0.092732102 2.0919149 9737365
-1.0752137 0.092897065 2.076375 6124428
-1.0253319 0.092898004 2.0763972 3229279
-0.9750222 0.092901759 2.0761549 10197915
-0.92471105 0.092899956 2.0764403 10197915
-0.88029838 0.092930682 2.0736315 10197915
-0.72124821 0.092883356 2.0784719 1391208
-0.67528814 0.092904761 2.0765479 3360089
-0.62497181 0.092908509 2.0763059 10000536
-0.57465279 0.092906721 2.076591 10000536
-0.52476037 0.092907675 2.0766129 10066329
-0.4753058 0.092911489 2.0763612 10132122
-0.42540938 0.092912361 2.0763919 10197915
-0.37509 0.092910558 2.0766773 10197915
-0.32519346 0.092911534 2.0766985 10197915
-0.27487057 0.092915252 2.0764565 10197915
-0.22454351 0.092913441 2.0767422 10197915
-0.17507692 0.092917293 2.0764909 10197915
-0.12561002 0.092915356 2.0767846 10197915
-0.075279132 0.092919134 2.0765429 10197915
-0.024951702 0.092917316 2.0768282 10197915
0.024952047 0.092918269 2.0768495 10197915
0.075281583 0.092922032 2.0766079 10197915
0.12561667 0.092920199 2.0768933 10197915
0.17508973 0.092924051 2.0766418 10197915
0.22456449 0.092922114 2.0769355 10197915
0.27490202 0.092925876 2.0766935 10197915
0.32523745 0.092924073 2.0769792 10197915
0.37514848 0.092925027 2.0770006 9342606
0.42506048 0.092925981 2.0770221 6447714
0.45771825 0.092897616 2.079782 6447714
-1.5236299 -0.66070956 2.138694 6566193
-1.4749724 -0.66041136 2.1153793 6566193
-1.4461657 -0.6599595 2.1015792 6566193
-1.5232358 -0.6250152 2.1388712 6566193
-1.4752858 -0.62500972 2.1158936 6566193
-1.446568 -0.62470949 2.1021349 6566193
-1.5230712 -0.57533652 2.139302 6505026
-1.475839 -0.57502282 2.1166713 6505026
-1.4457519 -0.5750373 2.1022537 6505026
-1.5217308 -0.52486163 2.1391797 5921370
-1.4740549 -0.52493501 2.1163325 6447714
-1.4445966 -0.52422249 2.1022227 6447714
-1.5222752 -0.49866155 2.1397097 2039583
-1.4748228 -0.4985348 2.1169715 5855577
-1.4445301 -0.49834934 2.102457 6447714
-1.5206347 -0.3720457 2.1402254 6184542
-1.4759246 -0.36455712 2.1188772 4944796
-1.4437276 -0.36052632 2.1034892 2181745
-1.6097347 -0.30775979 2.1337602 2039583
-1.5744383 -0.30763328 2.1219606 2106407
-1.5249282 -0.30762336 2.1216228 3495284
-1.4797788 -0.31055889 2.116626 4549006
-1.4425817 -0.34774229 2.1030712 2115435
-1.3841835 -0.053070515 2.1000087 1257545
-1.3842657 -0.025231289 2.1001329 1257288
-1.384414 0.025234899 2.1003585 1125190
-1.6039629 0.09238404 2.123759 10000536
-1.5749372 0.092384599 2.1237719 6847634
-1.5248016 0.092385553 2.1237943 1589098
-1.4825811 0.092386372 2.1238127 1920382
-1.3864075 0.076616935 2.1063864 2242895
-1.2670698 0.092390507 2.1239076 10000536
-1.2266041 0.09239129 2.1239257 7307667
-1.1166402 0.092393383 2.1239741 9868950
-1.0752923 0.092394173 2.1239922 1720427
-1.0251461 0.092395149 2.1240141 7304574
-0.97499883 0.092396103 2.1240363 10197915
-0.92485058 0.092397079 2.1240585 10197915
-0.89053804 0.092397727 2.1240735 10197915
-0.75416267 0.092400335 2.1241338 1986438
-0.7251271 0.092400908 2.1241469 1258072
-0.67497355 0.092401855 2.1241686 6186868
-0.6248191 0.092402831 2.124191 10066329
-0.57466352 0.092403777 2.1242127 10197915
-0.52450687 0.092404746 2.1242352 10197915
-0.47522923 0.092405684 2.1242568 10197915
-0.42507058 0.09240666 2.124279 10197915
-0.37491089 0.092407607 2.1243007 10197915
-0.32475013 0.092408568 2.1243234 10197915
-0.27458832 0.092409536 2.1243453 10197915
-0.22530553 0.092410497 2.124367 10197915
-0.17514165 0.092411444 2.1243892 10197915
-0.12497675 0.092412412 2.1244113 10197915
-0.074810788 0.092413373 2.1244333 10197915
-0.024643781 0.092414342 2.1244555 10197915
0.024644118 0.092415266 2.1244774 10197915
0.074813195 0.092416242 2.1244993 10197915
0.12498331 0.092417203 2.1245215 10197915
0.17515449 0.092418164 2.1245437 10197915
0.2253267 0.092419133 2.1245658 10197915
0.27461964 0.092420079 2.1245873 10197915
0.32479402 0.092421047 2.1246095 9803157
0.37496927 0.092422009 2.1246316 7895160
0.42514572 0.092422962 2.1246538 6447714
0.46299866 0.092423692 2.1246707 6447714
-1.6500921 -0.65876102 2.1993146 4329231
-1.625011 -0.66092747 2.1872735 4329231
-1.5759917 -0.66070443 2.1637847 5974056
-1.5490912 -0.65935886 2.1509082 6566193
-1.650398 -0.63336575 2.1997221 4329231
-1.6247232 -0.62479395 2.1875069 4329231
-1.5746661 -0.62517619 2.1635153 5974056
-1.5476382 -0.62627387 2.1505518 6566193
-1.6242107 -0.57508916 2.1877716 3478548
-1.5741305 -0.57495457 2.1637747 5847353
-1.5472827 -0.57099622 2.1509497 6506568
-1.6239623 -0.52538037 2.188164 2039583
-1.5747153 -0.52494645 2.1645684 4342338
-1.5473273 -0.5249843 2.1514447 5395026
-1.6241699 -0.49894363 2.1885352 2039583
-1.5750403 -0.49868891 2.1649945 2039583
-1.5471687 -0.49888518 2.1516364 2039583
-1.630814 -0.40272161 2.1927085 2039583
-1.6224149 -0.38777483 2.1888368 2039583
-1.575069 -0.38156176 2.1662118 5526612
-1.5448648 -0.37648076 2.1517906 6447714
-1.6572281 -0.30837336 2.1924903 2039583
-1.6231416 -0.30820966 2.1770892 2039584
-1.5777841 -0.30812344 2.1693177 3691373
-1.5306287 -0.30800751 2.1586998 2705511
-1.6546667 0.091673806 2.1908946 9868950
-1.6213647 0.091819994 2.1771233 7964050
-1.5746216 0.091858655 2.1735692 2247802
-1.5273464 0.091881983 2.1714647 1655662
-1.4940372 0.09203697 2.1568637 2053001
-1.4248128 0.091858238 2.1739469 6121587
-1.3107014 0.091743909 2.1850326 10000536
-1.2748119 0.091864377 2.1737046 9409430
-1.238479 0.091951817 2.1655045 4549006
-1.158444 0.091713257 2.188278 9606036
-1.1244476 0.091867223 2.1737723 5927307
-1.0744783 0.091864929 2.1741052 2900315
-1.0249499 0.091865845 2.1741273 10000536
-0.97542083 0.091866814 2.1741498 10066329
-0.92748809 0.091889337 2.1721249 10132122
-0.8981418 0.092048369 2.1571305 10197915
-0.76405692 0.09182737 2.1783619 1655929
-0.72552794 0.091874853 2.1739523 993607
-0.67554283 0.091872528 2.1742852 9079952
-0.6251058 0.091873489 2.1743081 10197915
-0.57512933 0.091877714 2.1740203 10197915
-0.52513593 0.091875412 2.1743529 10197915
-0.47515553 0.091879614 2.1740651 10197915
-0.42516211 0.091877319 2.1743982 10197915
-0.37517744 0.091881543 2.1741107 10197915
-0.32518408 0.091879226 2.174443 10197915
-0.27519524 0.091883413 2.1741557 10197915
-0.22520193 0.091881104 2.1744883 10197915
-0.17520893 0.091885313 2.1742005 10197915
-0.12521566 0.091883048 2.1745334 10197915
-0.075218424 0.091887251 2.1742458 10197915
-0.025225213 0.091884933 2.1745784 10197915
0.025225561 0.091885902 2.1746013 10197915
0.075220853 0.091890141 2.174314 10197915
0.12522224 0.091887809 2.1746464 10197915
0.17522176 0.091892011 2.1743591 9539985
0.22522314 0.091889694 2.1746919 8487297
0.27522677 0.091893926 2.1744044 7500402
0.32522807 0.091891624 2.174737 6579300
0.375236 0.091895834 2.174449 6513507
0.42523727 0.091893516 2.174782 6447714
0.46869025 0.091876328 2.1765075 6447714
-1.7533387 -0.661461 2.2487636 4329231
-1.7252977 -0.6609897 2.2353303 4329231
-1.67586 -0.66088408 2.2116418 4329231
-1.7533367 -0.63671196 2.2490163 4329231
-1.7242835 -0.63029021 2.2351592 4329231
-1.6755172 -0.62501305 2.2118456 4329231
-1.66676 -0.57504195 2.2081614 3478548
-1.6671149 -0.52548492 2.2088416 2039583
-1.6489764 -0.51501971 2.2002573 2039583
-1.6667615 -0.49903047 2.2089443 2039583
-1.6491729 -0.49867198 2.2005196 2039583
-1.6675642 -0.40605715 2.2102845 2039583
-1.647467 -0.40388918 2.2006764 2039583
-1.6652498 -0.39143658 2.2093253 2039583
-1.6476414 -0.38934281 2.2009094 2039583
-1.6718925 -0.30869225 2.223141 2039583
-1.6351076 -0.30855998 2.2108095 2039583
-1.6683322 0.091301762 2.2260845 9868950
-1.6250015 0.091302581 2.2261043 2643333
-1.5742946 0.09130355 2.2261276 1523044
-1.5429478 0.091304138 2.2261422 2053001
-1.4590472 0.091305733 2.226181 6055794
-1.3235092 0.091308288 2.2262435 10000536
-1.2810944 0.091309108 2.2262633 6716562
-1.1685995 0.091311246 2.226315 9343637
-1.1243376 0.091312073 2.2263355 1523047
-1.0745422 0.091313034 2.2263587 7370366
-1.0247457 0.091313966 2.2263815 10000536
-0.97494799 0.091314904 2.2264044 10000536
-0.93713808 0.091315627 2.2264221 9934743
-0.77298087 0.091318734 2.2264984 1457000
-0.72502249 0.091319643 2.2265203 3162969
-0.67429656 0.091320619 2.2265437 10197915
-0.62449181 0.091321558 2.2265668 10197915
-0.57468599 0.091322489 2.2265897 10197915
-0.52487916 0.091323458 2.226613 10197915
-0.47507128 0.091324389 2.2266359 10197915
-0.42526233 0.091325328 2.2266588 10197915
-0.37545243 0.091326274 2.2266819 10197915
-0.32564148 0.091327235 2.2267048 10197915
-0.27490705 0.091328189 2.2267282 10197915
-0.22417147 0.091329142 2.2267516 10197915
-0.17435738 0.091330089 2.2267747 10197915
-0.12454228 0.091331042 2.2267978 10197915
-0.07472612 0.091331974 2.2268207 10197915
-0.024908936 0.09133292 2.2268438 10197915
0.024909278 0.091333874 2.2268667 10197915
0.074728526 0.09133482 2.2268901 9211020
0.12454881 0.091335759 2.2269125 7303023
0.17437011 0.091336697 2.2269361 6513507
0.22419241 0.091337651 2.2269588 6513507
0.27493843 0.091338612 2.2269821 6513507
0.32568556 0.091339558 2.227006 6513507
0.37551102 0.091340505 2.2270291 6513507
0.42533758 0.091341458 2.2270522 6447714
0.47424227 0.091342382 2.2270744 6447714
0.44367391 -1.0142771 2.2969522 6447714
0.47337791 -1.0106614 2.2827907 6447714
0.50446272 -1.00741 2.2679656 6447714
0.44443515 -0.9750061 2.2970021 6447714
0.47555426 -0.97502464 2.2821262 6447714
0.50460571 -0.97503299 2.2682378 6447714
0.44487336 -0.92602849 2.2973101 6447714
0.47567251 -0.92501211 2.2825975 6447714
0.50473726 -0.92504793 2.2687025 6447714
0.44544342 -0.87506962 2.2975757 6447714
0.47576788 -0.8749789 2.2830811 6447714
0.50485593 -0.87504214 2.2691746 6447714
0.44624138 -0.82573503 2.297714 6447714
0.4758701 -0.82502133 2.2835591 6447714
0.50489849 -0.82501125 2.2696819 6447714
0.44605917 -0.77662045 2.2983196 6447714
0.4754304 -0.77483773 2.2842984 6447714
0.50505537 -0.7751525 2.270133 6447714
0.44659671 -0.7253139 2.2986038 6447714
0.4744499 -0.72503829 2.2852907 6447714
0.50439531 -0.72480261 2.2709794 6447714
-1.7772928 -0.66108942 2.2602451 4329231
0.4469274 -0.67693955 2.2989569 6447714
0.47440237 -0.67500615 2.2858422 6447714
0.50436127 -0.67504764 2.2715211 6447714
-1.7754761 -0.63673204 2.2596245 4329231
0.44767898 -0.62484491 2.2991457 6447714
0.47455347 -0.62501299 2.2862971 6447714
0.50452554 -0.625148 2.2719693 6447714
0.44811735 -0.57963055 2.2994134 6447714
0.47465393 -0.5749647 2.2867777 6447714
0.50444788 -0.57593954 2.2725248 6447714
0.44873849 -0.52495635 2.2996936 6447714
0.47473323 -0.52502692 2.2872663 6447714
0.50383222 -0.52496344 2.2733567 6447714
0.44879219 -0.49643466 2.2999687 6447714
0.47484609 -0.47500202 2.2877402 6447714
0.50401473 -0.47515532 2.2737949 6447714
0.47499415 -0.42504403 2.2881963 6447714
0.50408226 -0.42493683 2.2742922 6447714
0.47599173 -0.37493792 2.2882483 6447714
0.50418764 -0.37507808 2.2747681 6447714
-1.7093582 -0.30901015 2.2534211 2039583
0.47629407 -0.32522941 2.2886274 6447714
0.50429314 -0.32519835 2.2752442 6447714
0.47697151 -0.27498832 2.2888343 6447714
0.50437295 -0.27510512 2.2757344 6447714
0.4775615 -0.22515441 2.289078 6447714
0.50453001 -0.22519223 2.2761858 6447714
0.4782021 -0.17495596 2.2893014 6447714
0.50457186 -0.17504963 2.2766948 6447714
0.47888988 -0.12519981 2.2894976 6447714
0.5047546 -0.1251009 2.2771339 6447714
0.47927436 -0.075085439 2.2898419 6447714
0.50478363 -0.074912474 2.2776501 6447714
0.48002288 -0.024666032 2.2900167 6447714
0.50496668 -0.024923448 2.2780902 6447714
0.48054457 0.024407083 2.2902851 6447714
0.50503248 0.024544537 2.2785807 6447714
-1.7174516 0.090616122 2.2908959 9211537
-1.6750326 0.090723239 2.2808509 4088199
-1.6293942 0.090825357 2.2712855 1589354
-1.5812509 0.090919591 2.2624729 1854073
-1.4828633 0.090921454 2.2625191 6187380
-1.35917 0.090923786 2.2625773 10197915
-1.3244972 0.090924434 2.2625935 10066329
-1.2907612 0.090925075 2.2626092 2316170
-1.2036073 0.090926722 2.2626503 9408914
-1.1745554 0.090927273 2.2626638 6650513
-1.1248851 0.090928212 2.2626872 1519953
-1.0752137 0.090929136 2.2627103 10000536
-1.0246041 0.090930112 2.2627344 9934743
-0.9749307 0.090931028 2.2627575 10066329
-0.94493872 0.090931602 2.2627716 10197915
-0.80434638 0.090934262 2.2628379 2118537
-0.77528948 0.090934798 2.2628515 1258587
-0.72467357 0.090935774 2.2628748 5266540
-0.67499393 0.090936713 2.2628982 10197915
-0.62531346 0.090937652 2.262922 10197915
-0.57469445 0.090938605 2.2629454 10197915
-0.52501166 0.090939537 2.262969 10197915
-0.47532803 0.090940475 2.2629921 10197915
-0.42470574 0.090941429 2.263016 10197915
-0.37502 0.090942375 2.2630394 10197915
-0.32533324 0.090943299 2.2630625 10197915
-0.27470791 0.090944275 2.2630866 10197915
-0.22501899 0.090945199 2.2631099 10197915
-0.1753291 0.090946138 2.263133 10197915
-0.12470063 0.090947099 2.2631569 10197915
-0.075008646 0.090948015 2.2631803 10197915
-0.02531565 0.090948969 2.2632036 9408399
0.025316 0.090949923 2.2632272 7500402
0.075011045 0.090950854 2.2632508 6513507
0.12470714 0.090951793 2.263274 6513507
0.17534198 0.090952761 2.2632978 6513507
0.22504011 0.0909537 2.2633214 6513507
0.2747393 0.090954632 2.2633448 6513507
0.32537723 0.090955593 2.2633684 6513507
0.37507853 0.090956517 2.2633917 6513507
0.42478079 0.09095747 2.2634153 6447714
0.4803867 0.071080849 2.2893009 6447714
0.50463742 0.071308509 2.2788625 6447714
0.33289623 -1.0502784 2.3495278 6447714
0.34103277 -1.0247754 2.3459074 6447714
0.37346709 -1.0213227 2.3304372 6447714
0.41763848 -1.0164728 2.309375 6447714
0.34131756 -0.97534651 2.346293 6447714
0.37463969 -0.97500181 2.330368 6447714
0.41906217 -0.97500461 2.3091319 6447714
0.34218603 -0.92482245 2.3464115 6447714
0.3746374 -0.92499352 2.3309 6447714
0.41950327 -0.92468739 2.3094516 6447714
0.34259331 -0.87567455 2.346734 6447714
0.37473062 -0.87503213 2.331377 6447714
0.42005217 -0.87496448 2.3097138 6447714
0.34320626 -0.82494366 2.3469765 6447714
0.37483525 -0.82501525 2.3318548 6447714
0.42086291 -0.82482952 2.3098555 6447714
0.34385496 -0.77587008 2.3471842 6447714
0.37490159 -0.77501178 2.3323514 6447714
0.42118281 -0.77498293 2.3102283 6447714
0.34432697 -0.7251969 2.3474936 6447714
0.37498537 -0.72505563 2.33284 6447714
0.42209616 -0.72501153 2.3103187 6447714
0.34509811 -0.67562449 2.3476481 6447714
0.3751151 -0.67504555 2.3333068 6447714
0.42244443 -0.67478782 2.3106828 6447714
0.34539178 -0.62523991 2.3480387 6447714
0.3751269 -0.62504816 2.3338244 6447714
0.42315149 -0.62497401 2.3108695 6447714
0.34634304 -0.57517117 2.3481123 6447714
0.37520078 -0.5750289 2.3343191 6447714
0.42379639 -0.57473147 2.3110912 6447714
0.34664452 -0.52695781 2.3484771 6447714
0.37530181 -0.52498978 2.3347979 6447714
0.42420942 -0.52497292 2.3114188 6447714
0.34737116 -0.47483763 2.3486786 6447714
0.37539303 -0.47499818 2.335284 6447714
0.42507035 -0.47489011 2.3115356 6447714
0.34785098 -0.42727262 2.3489518 6447714
0.37548804 -0.42502064 2.3357637 6447714
0.42525774 -0.42503113 2.3119736 6447714
0.4507111 -0.40306723 2.3000364 6447714
0.34844336 -0.3751975 2.3492179 6447714
0.37551177 -0.37498656 2.3362784 6447714
0.42541033 -0.37499568 2.3124278 6447714
0.45076323 -0.37547633 2.3003027 6447714
0.34910977 -0.32838747 2.3493931 6447714
0.37560964 -0.32496578 2.3367622 6447714
0.42543626 -0.32493952 2.3129435 6447714
0.45137143 -0.32059544 2.300591 6447714
0.34947911 -0.27646735 2.3497641 6447714
0.37573057 -0.27502888 2.3372293 6447714
0.42550257 -0.27499771 2.3134382 6447714
0.45182562 -0.27452618 2.3008599 6447714
0.37575838 -0.22503679 2.3377447 6447714
0.42561212 -0.22503537 2.3139131 6447714
0.45259511 -0.22301574 2.3010349 6447714
0.37530956 -0.17532323 2.3384821 6447714
0.42508286 -0.1748096 2.3146954 6447714
0.45288453 -0.17543252 2.3013983 6447714
0.37591788 -0.12506115 2.3387256 6447714
0.42499688 -0.12482929 2.3152642 6447714
0.45382741 -0.12467308 2.3014834 6447714
0.37662065 -0.075534053 2.3389077 6447714
0.42496958 -0.074833155 2.315805 6447714
0.45418704 -0.073342845 2.3018537 6447714
0.37695673 -0.025196642 2.3392782 6447714
0.42505834 -0.024949001 2.3162878 6447714
0.45491308 -0.024795314 2.3020182 6447714
0.37772363 0.025014725 2.3394423 6447714
0.42514724 0.024955953 2.3167722 6447714
0.45548466 0.025925959 2.3022811 6447714
-1.7605289 0.090109617 2.3387609 2039583
-1.7246915 0.090110295 2.3387783 2704998
-1.6743248 0.090111241 2.3388028 1589353
-1.624836 0.090317138 2.3194156 1788021
-1.5941522 0.090522684 2.3000188 2053258
-1.5201867 0.090319097 2.3194659 6055795
-1.4069761 0.090116248 2.3389328 10197915
-1.3728005 0.090308778 2.3207762 10197915
-1.3305897 0.090383597 2.3137863 6388371
-1.2203541 0.090266913 2.3250859 8752276
-1.1747379 0.090329438 2.3192666 2443117
-1.1247753 0.090330526 2.3192756 6581624
-1.0753043 0.090327457 2.3196802 10066329
-1.0253421 0.09032838 2.3197045 10197915
-0.98076278 0.090376534 2.3152461 10197915
-0.81531018 0.090282835 2.3244915 1721722
-0.77505076 0.090336941 2.3194585 1059400
-0.72461009 0.090334013 2.3198493 8619915
-0.67464089 0.090334959 2.3198733 10197915
-0.62515593 0.090339892 2.3195164 10197915
-0.57566798 0.090336792 2.319921 10197915
-0.52521753 0.090341628 2.3195789 10197915
-0.47476876 0.090338722 2.3199694 10197915
-0.42479417 0.090339646 2.3199937 10197915
-0.37530738 0.0903446 2.3196368 10197915
-0.32532832 0.090345383 2.319675 10197915
-0.27488008 0.090342447 2.320066 10197915
-0.22490129 0.090343393 2.3200898 9803157
-0.17492148 0.09034434 2.3201139 8882055
-0.12494536 0.090353139 2.3193913 8092539
-0.07497476 0.090346202 2.3201621 7039851
-0.024991814 0.090347141 2.3201861 6513507
0.02499216 0.090348072 2.3202105 6513507
0.074977174 0.090349004 2.3202341 6513507
0.12495192 0.090357833 2.3195117 6513507
0.17493424 0.090350874 2.3202822 6513507
0.22492234 0.090351813 2.3203063 6513507
0.27491152 0.090352766 2.3203306 6513507
0.32537234 0.090357572 2.3199887 6513507
0.37777898 0.071798608 2.3377712 6447714
0.42522511 0.070918612 2.3165467 6447714
0.4559496 0.07058657 2.3024402 6447714
0.23767093 -1.0606854 2.3949387 6447714
0.27149457 -1.0570953 2.378808 6447714
0.31203079 -1.0527687 2.3594759 6447714
0.23875508 -1.0254648 2.3947923 6447714
0.27479273 -1.0249414 2.3775711 6447714
0.31643745 -1.0248792 2.3576632 6447714
0.23915905 -0.97504735 2.3951306 6447714
0.27490741 -0.97498471 2.3780429 6447714
0.31667745 -0.97487068 2.3580761 6447714
0.23999681 -0.92535746 2.3952544 6447714
0.27490044 -0.92500585 2.3785739 6447714
0.31751099 -0.92509109 2.3582036 6447714
0.24022983 -0.87528312 2.3956709 6447714
0.27501479 -0.87500757 2.3790462 6447714
0.31800014 -0.87469947 2.3585005 6447714
0.24118793 -0.8251195 2.3957429 6447714
0.27501839 -0.82498688 2.3795714 6447714
0.31852967 -0.82500315 2.3587735 6447714
0.24146144 -0.77557778 2.3961353 6447714
0.27511418 -0.77501887 2.3800528 6447714
0.31924862 -0.77475381 2.3589585 6447714
0.24221055 -0.7249614 2.3963101 6447714
0.275161 -0.72502983 2.3805585 6447714
0.31966004 -0.72502118 2.3592858 6447714
0.24268141 -0.67575896 2.3966043 6447714
0.27519995 -0.67501998 2.381068 6447714
0.32043085 -0.67490745 2.3594475 6447714
0.24333274 -0.62487382 2.3968303 6447714
0.27532595 -0.62502378 2.3815353 6447714
0.32081839 -0.62496161 2.3597889 6447714
0.24390157 -0.57589251 2.3970747 6447714
0.2752744 -0.57500827 2.3820875 6447714
0.32165909 -0.57500523 2.3599138 6447714
0.24429764 -0.52524269 2.3974202 6447714
0.27543014 -0.52493554 2.3825407 6447714
0.32207325 -0.52475965 2.3602455 6447714
0.2451525 -0.4758364 2.3975327 6447714
0.27542585 -0.4749507 2.3830705 6447714
0.32266191 -0.47506073 2.3604884 6447714
0.24545433 -0.42499226 2.3979249 6447714
0.27557373 -0.42505366 2.3835261 6447714
0.32339481 -0.42476496 2.3606687 6447714
0.24637929 -0.37453681 2.398015 6447714
0.27547294 -0.37502736 2.3841019 6447714
0.32367778 -0.37493986 2.3610592 6447714
0.24661082 -0.32612357 2.3984149 6447714
0.27563721 -0.32494307 2.3845527 6447714
0.3246237 -0.32485759 2.361136 6447714
0.2474295 -0.27525258 2.3985598 6447714
0.27566525 -0.27494842 2.3850658 6447714
0.32487586 -0.27492487 2.3615422 6447714
0.24780418 -0.2279904 2.3988798 6447714
0.27579433 -0.22500305 2.3855314 6447714
0.32579869 -0.22495687 2.3616273 6447714
0.24848102 -0.17492987 2.3991156 6447714
0.27490878 -0.17511413 2.3864808 6447714
0.32484803 -0.17506011 2.3626096 6447714
0.35147238 -0.15675075 2.3500743 6447714
0.24897522 -0.12846409 2.39937 6447714
0.27468446 -0.12516865 2.3871136 6447714
0.32520881 -0.12496253 2.3629644 6447714
0.35151964 -0.12463764 2.35039 6447714
0.24953297 -0.074560791 2.3996716 6447714
0.27515998 -0.074796759 2.3874187 6447714
0.3248046 -0.075005963 2.3636844 6447714
0.35222042 -0.070987605 2.3506215 6447714
0.24956313 -0.045736648 2.3999615 6447714
0.27499226 -0.024732437 2.3880272 6447714
0.32535419 -0.02508554 2.3639495 6447714
0.35257477 -0.025322162 2.3509333 6447714
0.27508545 0.024702305 2.3885036 6447714
0.32542929 0.025057768 2.3644423 6447714
0.35340908 0.026948253 2.3510861 6447714
-1.800594 0.089684755 2.3788927 2039583
-1.7749792 0.089685239 2.3789055 1976628
-1.7247341 0.08968617 2.3789303 1854334
-1.6744881 0.089687109 2.3789551 1589351
-1.6459161 0.089687645 2.3789692 2250379
-1.5592133 0.089689255 2.3790119 5990001
-1.4192997 0.08969187 2.379081 10197915
-1.3749592 0.089692682 2.3791032 7701910
-1.3493397 0.089693144 2.3791151 1987210
-1.2596704 0.089694835 2.3791604 9935000
-1.2251811 0.089695483 2.3791769 5139598
-1.1749244 0.089696407 2.3792021 2834519
-1.1246667 0.089697339 2.3792264 10197915
-1.0753936 0.08969827 2.3792512 10197915
-1.0251336 0.089699216 2.3792758 10197915
-0.99359769 0.089699782 2.3792913 10197915
-0.82506979 0.089702934 2.3793747 1457000
-0.77480477 0.08970385 2.3793998 3031383
-0.7245388 0.089704797 2.3794241 10197915
-0.67525744 0.089705728 2.3794487 10197915
-0.62498921 0.089706659 2.3794734 10197915
-0.57472003 0.089707583 2.3794982 10197915
-0.52543551 0.089708507 2.3795226 10197915
-0.47516426 0.089709446 2.3795476 10197915
-0.42489201 0.089710377 2.3795724 10197915
-0.37560439 0.089711294 2.3795967 10197915
-0.32533008 0.089712232 2.3796217 9276813
-0.27505463 0.089713171 2.3796463 7434609
-0.22477816 0.089714095 2.3796711 6513507
-0.17450066 0.089715041 2.3796964 6513507
-0.12520792 0.089715958 2.3797204 6513507
-0.074928351 0.089716904 2.3797455 6513507
-0.024647715 0.089717835 2.37977 6513507
0.024648054 0.089718752 2.3797946 6513507
0.074930787 0.08971969 2.3798192 6513507
0.12521455 0.089720622 2.3798437 6513507
0.17451338 0.089721553 2.3798683 6513507
0.22479919 0.089722469 2.3798933 6513507
0.27599525 0.070241787 2.3881018 6447714
0.32471406 0.069987498 2.3652568 6447714
0.35334623 0.071270227 2.3515844 6447714
0.1353249 -1.0716014 2.4437492 6447714
0.17349128 -1.0675368 2.4255457 6447714
0.21285498 -1.0633423 2.4067736 6447714
0.13659002 -1.0251075 2.4436338 6447714
0.17484045 -1.0249677 2.4253511 6447714
0.21407154 -1.0245811 2.4066017 6447714
0.1367721 -0.97516567 2.4440742 6447714
0.17489502 -0.97500902 2.4258521 6447714
0.21439013 -0.97497463 2.4069722 6447714
0.13772227 -0.92499447 2.4441497 6447714
0.1748869 -0.92503101 2.4263825 6447714
0.21525301 -0.92474711 2.4070909 6447714
0.13799234 -0.87534833 2.4445431 6447714
0.17494023 -0.87507004 2.4268856 6447714
0.21553588 -0.87479699 2.4074826 6447714
0.13869716 -0.82498181 2.4447384 6447714
0.17499624 -0.82501119 2.4273851 6447714
0.21643817 -0.82493138 2.4075756 6447714
0.13918374 -0.77566046 2.4450259 6447714
0.17500615 -0.77496904 2.4279096 6447714
0.2167518 -0.77475023 2.4079545 6447714
0.13977787 -0.72513652 2.4452748 6447714
0.17504898 -0.72498351 2.4284146 6447714
0.21747845 -0.72507423 2.4081316 6447714
0.14037129 -0.67569911 2.4455125 6447714
0.17516384 -0.67497647 2.4288886 6447714
0.2179891 -0.67472827 2.4084194 6447714
0.14090201 -0.62496424 2.4457946 6447714
0.17512414 -0.62498802 2.4294357 6447714
0.21853971 -0.62504423 2.4086785 6447714
0.14147919 -0.57556111 2.4460399 6447714
0.17512926 -0.57497793 2.42996 6447714
0.21924554 -0.57474226 2.4088743 6447714
0.14190152 -0.52512109 2.4463699 6447714
0.17520204 -0.52490759 2.4304526 6447714
0.21959974 -0.52500933 2.4092276 6447714
0.14280282 -0.47555572 2.4464617 6447714
0.17523897 -0.4748939 2.4309638 6447714
0.22045605 -0.4748967 2.4093485 6447714
0.14296761 -0.42489156 2.4469178 6447714
0.17533623 -0.42493781 2.4314437 6447714
0.22065513 -0.42505825 2.4097786 6447714
0.14391658 -0.37491518 2.4469914 6447714
0.17524599 -0.37495956 2.4320149 6447714
0.2216167 -0.37515783 2.4098451 6447714
0.14418568 -0.32600302 2.4473789 6447714
0.17534772 -0.3249214 2.432492 6447714
0.22191805 -0.32496759 2.4102318 6447714
0.14499797 -0.27478841 2.4475305 6447714
0.17543773 -0.27494007 2.4329782 6447714
0.22271451 -0.27508995 2.4103763 6447714
0.14530934 -0.22629663 2.4478931 6447714
0.17536719 -0.22501686 2.4335382 6447714
0.22321697 -0.22470246 2.4106688 6447714
0.14604516 -0.17545736 2.4480779 6447714
0.17535841 -0.17495343 2.4340701 6447714
0.22377202 -0.17487824 2.4109287 6447714
0.14651732 -0.12658167 2.4483683 6447714
0.17543964 -0.12502505 2.4345586 6447714
0.22436827 -0.12463164 2.4111733 6447714
0.14709336 -0.075067788 2.4486361 6447714
0.17572349 -0.075315759 2.4349473 6447714
0.22474954 -0.074928805 2.4115145 6447714
0.14770082 -0.027742319 2.4488444 6447714
0.1755273 -0.025224786 2.4355693 6447714
0.22560252 -0.024847656 2.4116371 6447714
0.14814191 0.0253677 2.4491942 6447714
0.17556429 0.025231903 2.4360836 6447714
0.22579728 0.024983171 2.4120693 6447714
0.25155625 0.048720378 2.4000051 6447714
-1.8170011 0.089245625 2.4204416 2039583
-1.775903 0.0892464 2.4204621 1917806
-1.7257823 0.089247324 2.4204872 1456993
-1.6856855 0.089248069 2.4205072 2185100
-1.5864421 0.089249901 2.4205573 5990001
-1.457119 0.089252301 2.4206223 9868950
-1.4250375 0.089252889 2.4206386 10066329
-1.3859383 0.089253612 2.4206579 5140625
-1.270641 0.089255758 2.420716 9541016
-1.2245204 0.089256614 2.4207389 1589099
-1.1743884 0.089257546 2.4207642 6581624
-1.1242557 0.089258477 2.4207897 10197915
-1.0741214 0.089259394 2.4208148 10197915
-1.0269946 0.089260265 2.4208386 10197915
-0.85753053 0.089263402 2.4209235 1986951
-0.82544136 0.089264005 2.4209399 1258070
-0.77530104 0.089264929 2.4209647 5266540
-0.7251597 0.089265861 2.4209902 10197915
-0.67501742 0.089266799 2.4210153 10197915
-0.62487411 0.089267723 2.4210405 10197915
-0.57472968 0.089268647 2.4210658 10197915
-0.52458417 0.089269571 2.4210908 10197915
-0.47443762 0.089270517 2.4211161 10197915
-0.42429009 0.089271441 2.4211416 8947848
-0.37414145 0.089272387 2.4211662 7171437
-0.32499483 0.089273281 2.4211912 6513507
-0.27584714 0.089274198 2.421216 6513507
-0.22569548 0.089275129 2.4212408 6513507
-0.17554276 0.089276046 2.4212663 6513507
-0.12538898 0.089276984 2.4212916 6513507
-0.075234152 0.089277908 2.4213169 6513507
-0.025078282 0.08927884 2.4213419 6513507
0.025078632 0.089279756 2.4213669 6513507
0.075236589 0.089280695 2.421392 6513507
0.13661559 0.078781597 2.4347866 6447714
0.17559503 0.070596725 2.4358091 6447714
0.22583887 0.069963716 2.4125113 6447714
0.25157824 0.069607183 2.4002151 6447714
0.031804319 -1.1076901 2.4928544 6447714
0.067675017 -1.1037934 2.4757478 6447714
0.033475444 -1.0753815 2.4923954 6447714
0.074752837 -1.0749134 2.4726696 6447714
0.11069101 -1.0742258 2.455497 6447714
0.034119383 -1.0249593 2.4926212 6447714
0.074831344 -1.0249748 2.4731586 6447714
0.1118181 -1.0248179 2.4554794 6447714
0.034645949 -0.97543317 2.492892 6447714
0.074780792 -0.97501481 2.4737089 6447714
0.11201961 -0.97492325 2.4559088 6447714
0.035144925 -0.92510915 2.4931858 6447714
0.074813209 -0.92499346 2.4742227 6447714
0.11294287 -0.925053 2.4559937 6447714
0.035855077 -0.87544215 2.4933689 6447714
0.074931227 -0.87499112 2.4746919 6447714
0.113235 -0.8747285 2.4563856 6447714
0.036135342 -0.82499552 2.4937665 6447714
0.074791707 -0.82500875 2.4752865 6447714
0.11394903 -0.8250789 2.4565673 6447714
0.036989216 -0.77530652 2.4938817 6447714
0.074883334 -0.77500612 2.4757698 6447714
0.11446942 -0.77456659 2.4568522 6447714
0.037233621 -0.72490501 2.4942949 6447714
0.074912734 -0.72502244 2.4762847 6447714
0.11499783 -0.72498387 2.4571221 6447714
0.038173065 -0.67497957 2.4943752 6447714
0.074861854 -0.67501855 2.4768355 6447714
0.11561942 -0.67463267 2.4573569 6447714
0.038336083 -0.62520939 2.4948235 6447714
0.074914232 -0.62499255 2.4773386 6447714
0.11611922 -0.62497163 2.4576409 6447714
0.039321277 -0.57509786 2.4948807 6447714
0.074989758 -0.57502919 2.477829 6447714
0.11678419 -0.57466096 2.457854 6447714
0.039442558 -0.52551299 2.4953439 6447714
0.074929006 -0.52504271 2.4783857 6447714
0.11715116 -0.52502078 2.4582024 6447714
0.040267248 -0.47510409 2.4954824 6447714
0.074941337 -0.47499695 2.4789088 6447714
0.11798587 -0.47483507 2.4583335 6447714
0.040634282 -0.42563659 2.4958296 6447714
0.07501708 -0.42496899 2.4793985 6447714
0.11820919 -0.42500195 2.4587514 6447714
0.041437473 -0.37472448 2.4959817 6447714
0.075036429 -0.37508506 2.4799156 6447714
0.11919774 -0.3750248 2.4588072 6447714
0.041804023 -0.32555538 2.496326 6447714
0.074948572 -0.32505521 2.4804852 6447714
0.11941726 -0.3247588 2.4592311 6447714
0.042403035 -0.27512279 2.4965713 6447714
0.075017557 -0.27496758 2.4809806 6447714
0.12018435 -0.27504739 2.459389 6447714
0.042928454 -0.22645572 2.4968331 6447714
0.07506711 -0.22497791 2.4814858 6447714
0.12072759 -0.22466417 2.4596622 6447714
0.043385014 -0.1753429 2.4971545 6447714
0.075212851 -0.17505336 2.4819405 6447714
0.12108342 -0.17494504 2.460017 6447714
0.04419928 -0.12569541 2.4972885 6447714
0.074827395 -0.1251826 2.4826539 6447714
0.12200365 -0.12469082 2.4601066 6447714
0.044493154 -0.074502043 2.4976883 6447714
0.075261019 -0.074811183 2.4829757 6447714
0.12207348 -0.075006284 2.460597 6447714
0.045323588 -0.025663203 2.4978063 6447714
0.075069666 -0.024693353 2.4835975 6447714
0.12322093 -0.024840763 2.460578 6447714
0.045538526 0.024840606 2.4982367 6447714
0.075085275 0.024700148 2.4841106 6447714
0.12356408 0.025055129 2.4609406 6447714
-1.8574535 0.088790357 2.4634521 2039583
-1.8248073 0.088790946 2.4634688 1913934
-1.774817 0.088791884 2.4634945 1721971
-1.7248257 0.088792801 2.4635203 1787764
-1.614637 0.088794827 2.4635761 6055794
-1.4697517 0.088797502 2.4636505 9934743
-1.4248561 0.088798322 2.4636734 7701907
-1.3983262 0.088798814 2.4636869 2052746
-1.3075107 0.088800497 2.4637334 9869208
-1.2748569 0.088801101 2.4637501 6190994
-1.2248555 0.088802017 2.4637754 1191502
-1.1748526 0.088802941 2.4638014 10197915
-1.1248488 0.088803858 2.4638269 10197915
-1.074844 0.088804781 2.4638524 10197915
-1.036064 0.088805504 2.4638724 10197915
-0.86460847 0.088808663 2.4639602 1788031
-0.82480431 0.088809401 2.4639804 1059654
-0.77479339 0.08881031 2.4640059 7830660
-0.72478127 0.088811241 2.4640315 10197915
-0.67476815 0.088812143 2.464057 10197915
-0.62475407 0.088813074 2.464083 10197915
-0.57473874 0.088814013 2.4641085 10000536
-0.52472264 0.088814937 2.4641342 8553090
-0.47470531 0.088815853 2.4641595 6842472
-0.424687 0.088816784 2.464185 6513507
-0.3746677 0.088817686 2.4642105 6513507
-0.32464734 0.08881861 2.464236 6513507
-0.27462587 0.088819541 2.4642618 6513507
-0.22460343 0.088820457 2.4642873 6513507
-0.17457989 0.088821381 2.4643133 6513507
-0.12455537 0.088822298 2.464339 6513507
-0.074529782 0.088823229 2.4643641 6513507
-0.024503166 0.088824153 2.4643896 6513507
0.04006388 0.074819125 2.4883411 6447714
0.075070769 0.06995856 2.4835634 6447714
0.12384804 0.070044801 2.461201 6447714
-0.070071064 -1.1186219 2.5414381 6447714
-0.026713915 -1.1138918 2.5207627 6447714
0.0080458419 -1.1101671 2.5041852 6447714
-0.068423301 -1.0749222 2.5411122 6447714
-0.025056394 -1.0749656 2.520381 6447714
0.0087958192 -1.0741985 2.5042057 6447714
-0.068234079 -1.0251676 2.5415466 6447714
-0.025063129 -1.025018 2.5209117 6447714
0.0093421759 -1.024889 2.5044653 6447714
-0.067367196 -0.97499746 2.5416622 6447714
-0.02505967 -0.97504836 2.5214362 6447714
0.009985704 -0.97425777 2.5046918 6447714
-0.067190096 -0.9252733 2.5421016 6447714
-0.025053924 -0.92501587 2.5219603 6447714
0.010405492 -0.92488903 2.505012 6447714
-0.066308826 -0.87494087 2.5422108 6447714
-0.025121054 -0.87504828 2.522521 6447714
0.011168241 -0.87446302 2.5051789 6447714
-0.066026181 -0.82541484 2.5425982 6447714
-0.025064666 -0.82497329 2.5230215 6447714
0.011418018 -0.82504588 2.5055816 6447714
-0.065340444 -0.7750352 2.5428016 6447714
-0.025104217 -0.77491885 2.5235689 6447714
0.012258715 -0.77478808 2.5057092 6447714
-0.064836897 -0.72547561 2.5430834 6447714
-0.025105804 -0.72497463 2.5240977 6447714
0.012435104 -0.72505254 2.5061498 6447714
-0.064265639 -0.6750837 2.5433426 6447714
-0.025101911 -0.67505318 2.5246212 6447714
0.013466409 -0.67488164 2.5061872 6447714
-0.063731402 -0.62553352 2.5436096 6447714
-0.025085296 -0.62506717 2.5251398 6447714
0.013613735 -0.62479222 2.5066445 6447714
-0.063200042 -0.57490575 2.54389 6447714
-0.025101379 -0.57506126 2.5256751 6447714
0.014577651 -0.57496214 2.5067091 6447714
-0.06264843 -0.52544338 2.5441482 6447714
-0.025145253 -0.52507675 2.5262249 6447714
0.014740458 -0.52462709 2.5071616 6447714
-0.062251937 -0.47503299 2.5444903 6447714
-0.025146883 -0.47502732 2.5267529 6447714
0.015554359 -0.47497955 2.5072966 6447714
-0.061445374 -0.42564029 2.5446267 6447714
-0.025124619 -0.425001 2.5272708 6447714
0.015921146 -0.42463526 2.507653 6447714
-0.061088808 -0.37514636 2.5449874 6447714
-0.025138916 -0.37504089 2.5278041 6447714
0.016608842 -0.3750014 2.5078473 6447714
-0.060347002 -0.32521737 2.5451601 6447714
-0.025083181 -0.32514802 2.5283031 6447714
0.01711739 -0.32463732 2.5081353 6447714
-0.06021921 -0.27477586 2.5456309 6447714
-0.025200916 -0.27514532 2.5288873 6447714
0.017682157 -0.27495882 2.5083895 6447714
-0.05912945 -0.22562283 2.5456288 6447714
-0.02521183 -0.22503439 2.5294218 6447714
0.018308694 -0.22450124 2.5086224 6447714
-0.059075121 -0.1751015 2.5461359 6447714
-0.025195256 -0.17503355 2.5299408 6447714
0.018763978 -0.17474103 2.50893 6447714
-0.05807041 -0.12461581 2.5461891 6447714
-0.025022263 -0.12527765 2.5303833 6447714
0.019435003 -0.12446542 2.5091405 6447714
-0.057991903 -0.075053453 2.5466733 6447714
-0.025124496 -0.075410031 2.5309579 6447714
0.019729018 -0.074855015 2.5095229 6447714
-0.056976378 -0.025320845 2.5467131 6447714
-0.025210774 -0.025169887 2.5315294 6447714
0.020601351 -0.024778111 2.5096338 6447714
-0.056874823 0.024855403 2.5471935 6447714
-0.02521609 0.02517695 2.5320628 6447714
0.020770611 0.02495835 2.510078 6447714
-1.8744444 0.088319175 2.5080352 1975596
-1.8245891 0.088320084 2.5080612 1920643
-1.7747326 0.088321 2.5080874 1522785
-1.7404555 0.088321619 2.5081053 2119051
-1.6511254 0.088323258 2.5081515 993604
-1.6428155 0.088323407 2.5081558 1647147
-1.5088137 0.08832588 2.5082257 9934743
-1.4755718 0.088326484 2.5082428 9934743
-1.4360963 0.088327207 2.5082633 5074832
-1.3187053 0.088329352 2.5083249 10066329
-1.274033 0.088330179 2.5083475 1918579
-1.224165 0.088331096 2.508374 5267053
-1.174296 0.088332005 2.5083997 10197915
-1.1244261 0.088332914 2.508426 10197915
-1.074555 0.088333838 2.5084522 10197915
-1.0454632 0.088334367 2.5084667 10197915
-0.87298256 0.088337541 2.5085566 1523309
-0.82518476 0.088338412 2.5085816 1322056
-0.77530742 0.088339306 2.5086074 10197915
-0.72542924 0.088340245 2.5086339 10197915
-0.67554998 0.088341154 2.5086596 9737364
-0.62566966 0.088342063 2.5086858 8026746
-0.57578832 0.088342987 2.5087111 6645093
-0.52590597 0.088343889 2.5087373 6513507
-0.47498339 0.08834482 2.508764 6513507
-0.4240596 0.088345759 2.5087907 6513507
-0.37417412 0.088346682 2.5088165 6513507
-0.32428759 0.088347606 2.5088427 6513507
-0.27440003 0.088348515 2.5088685 6513507
-0.22451144 0.088349424 2.5088947 6513507
-0.17462182 0.088350333 2.5089207 6513507
-0.12473115 0.088351257 2.5089464 6513507
-0.05991219 0.073586531 2.5391636 6447714
-0.025206327 0.070253052 2.531292 6447714
0.021755043 0.069714375 2.5099089 6447714
-0.17563853 -1.1547397 2.5915225 6447714
-0.14410248 -1.1511977 2.5764844 6447714
-0.17105521 -1.125309 2.5896418 6447714
-0.12505697 -1.1239849 2.5676682 6447714
-0.094005436 -1.1207435 2.5528574 6447714
-0.17061749 -1.0749644 2.589963 6447714
-0.12449353 -1.0749515 2.567915 6447714
-0.093096823 -1.075084 2.5529048 6447714
-0.16993274 -1.0252956 2.5901608 6447714
-0.12448721 -1.0249814 2.5684395 6447714
-0.092838049 -1.0243682 2.5533161 6447714
-0.16959055 -0.97502005 2.5905266 6447714
-0.12453792 -0.97503537 2.5689912 6447714
-0.092050664 -0.97504681 2.5534594 6447714
-0.16881981 -0.92529601 2.5906837 6447714
-0.12454774 -0.9250232 2.569521 6447714
-0.091744632 -0.92442125 2.5538485 6447714
-0.16852006 -0.87505203 2.5910699 6447714
-0.12460218 -0.87498921 2.5700781 6447714
-0.091000907 -0.875045 2.554014 6447714
-0.16781363 -0.82542074 2.5912561 6447714
-0.12456807 -0.82493526 2.5705881 6447714
-0.090585746 -0.82432353 2.5543499 6447714
-0.1674933 -0.77499771 2.591635 6447714
-0.12461017 -0.77495092 2.5711355 6447714
-0.089973725 -0.77504927 2.5545774 6447714
-0.16668873 -0.72522688 2.5917752 6447714
-0.12469272 -0.72499323 2.5717027 6447714
-0.08946681 -0.72430563 2.5548701 6447714
-0.16639811 -0.67491961 2.5921667 6447714
-0.12461413 -0.67501366 2.5721924 6447714
-0.088898733 -0.6749351 2.5551198 6447714
-0.16559066 -0.62520391 2.5923059 6447714
-0.1247493 -0.62501252 2.5727832 6447714
-0.088342957 -0.62441766 2.555387 6447714
-0.16544351 -0.5750494 2.5927644 6447714
-0.12473088 -0.57503915 2.5733013 6447714
-0.087888412 -0.57492256 2.5556912 6447714
-0.164517 -0.52521932 2.5928478 6447714
-0.12471724 -0.52499503 2.5738235 6447714
-0.087174341 -0.52449787 2.5558822 6447714
-0.16440704 -0.47495675 2.5933244 6447714
-0.12485997 -0.47497916 2.5744212 6447714
-0.086906791 -0.47505873 2.5562758 6447714
-0.16332512 -0.42508268 2.5933335 6447714
-0.12472845 -0.42503414 2.5748842 6447714
-0.086023003 -0.42458436 2.5563858 6447714
-0.16335149 -0.37503791 2.5938742 6447714
-0.12491655 -0.37501901 2.5755019 6447714
-0.085811414 -0.37497485 2.556808 6447714
-0.16239652 -0.32521302 2.5939426 6447714
-0.1248619 -0.3249886 2.5760016 6447714
-0.085009955 -0.32472631 2.5569544 6447714
-0.16223292 -0.2748678 2.5943966 6447714
-0.12478185 -0.27502397 2.5764923 6447714
-0.084626317 -0.27508941 2.557296 6447714
-0.16119137 -0.22475214 2.5944271 6447714
-0.12506054 -0.22508846 2.5771515 6447714
-0.083978012 -0.22471046 2.5575168 6447714
-0.16122425 -0.17533779 2.5949652 6447714
-0.1248394 -0.1749005 2.5775762 6447714
-0.083597951 -0.17513892 2.5578578 6447714
-0.16029724 -0.12529591 2.5950482 6447714
-0.12492069 -0.12506211 2.5781424 6447714
-0.082718901 -0.12498442 2.5579672 6447714
-0.15999255 -0.075117938 2.5954318 6447714
-0.1250768 -0.0748275 2.5787454 6447714
-0.082644559 -0.075191773 2.5584569 6447714
-0.15915051 -0.02473128 2.5955613 6447714
-0.12501423 -0.024623979 2.5792453 6447714
-0.081637077 -0.025438027 2.5585001 6447714
-0.15905452 0.024380429 2.5960338 6447714
-0.12508531 0.02458277 2.579798 6447714
-0.081513435 0.025606534 2.5589802 6447714
-1.9174464 0.087830037 2.5542455 2039583
-1.8751346 0.087830812 2.5542676 1917805
-1.8243603 0.087831728 2.5542943 1523044
-1.7809894 0.087832525 2.5543177 2118535
-1.6741461 0.087834477 2.5543742 1581870
-1.5228647 0.087837234 2.5544546 9934743
-1.4752566 0.087838113 2.5544798 7438995
-1.4488072 0.087838568 2.5544932 2052747
-1.3567618 0.087840267 2.5545428 9540243
-1.3250209 0.087840833 2.5545595 6650770
-1.2752928 0.087841749 2.5545855 1192276
-1.2255636 0.087842651 2.5546124 9080208
-1.1747755 0.087843575 2.5546386 10197915
-1.1250446 0.087844484 2.5546656 10197915
-1.080603 0.087845296 2.5546892 10197915
-0.90600365 0.087848477 2.5547817 2118537
-0.87531513 0.087849043 2.5547976 1258587
-0.8255778 0.087849945 2.5548244 3951712
-0.77478117 0.087850869 2.5548513 9013641
-0.72504175 0.087851793 2.5548775 7303023
-0.67530131 0.087852679 2.5549037 6513507
-0.62450153 0.087853611 2.5549309 6513507
-0.57475901 0.087854519 2.5549569 6513507
-0.52501553 0.087855428 2.5549839 6513507
-0.47527099 0.087856337 2.5550098 6513507
-0.42552543 0.087857246 2.5550365 6513507
-0.37472031 0.087858178 2.5550635 6513507
-0.32497269 0.087859079 2.5550895 6513507
-0.275224 0.087859988 2.5551162 6513507
-0.22441578 0.087860905 2.5551431 6513507
-0.1606601 0.071770564 2.5897384 6447714
-0.12509762 0.069480538 2.5788956 6447714
-0.080586292 0.069962449 2.5587454 6447714
-0.27576047 -1.1654313 2.6392701 6447714
-0.22759645 -1.1602631 2.6163023 6447714
-0.19736968 -1.156943 2.6018875 6447714
-0.27360135 -1.1252879 2.6386642 6447714
-0.22533317 -1.1249939 2.6155913 6447714
-0.19655858 -1.1232287 2.6018553 6447714
-0.2733652 -1.0749638 2.6390803 6447714
-0.2254671 -1.0749313 2.6161847 6447714
-0.19617167 -1.0750941 2.6021779 6447714
-0.27256647 -1.0252957 2.6392226 6447714
-0.22548978 -1.0249438 2.6167231 6447714
-0.19550486 -1.0238764 2.6023998 6447714
-0.2723265 -0.97505629 2.6396372 6447714
-0.22558175 -0.97498572 2.6172924 6447714
-0.19519155 -0.97498924 2.602766 6447714
-0.27156869 -0.92533594 2.6397996 6447714
-0.22557802 -0.92495692 2.6178188 6447714
-0.19438446 -0.92407006 2.6029165 6447714
-0.27128729 -0.87503636 2.6401968 6447714
-0.22555903 -0.87495667 2.6183376 6447714
-0.19407271 -0.87504029 2.6032844 6447714
-0.27045971 -0.82531983 2.6403265 6447714
-0.22573063 -0.82493544 2.618947 6447714
-0.19336155 -0.82425106 2.6034808 6447714
-0.27020061 -0.77508622 2.640733 6447714
-0.22573559 -0.77494204 2.6194768 6447714
-0.19314183 -0.77500695 2.6038959 6447714
-0.269503 -0.72534072 2.6409242 6447714
-0.22577423 -0.72497612 2.620024 6447714
-0.19224043 -0.72439021 2.6040001 6447714
-0.26921457 -0.67502075 2.6413162 6447714
-0.2257773 -0.67499024 2.6205511 6447714
-0.19201617 -0.6749047 2.6044135 6447714
-0.26839501 -0.62535506 2.6414454 6447714
-0.22588024 -0.62493473 2.6211298 6447714
-0.19108573 -0.62455869 2.6044993 6447714
-0.26814792 -0.57504505 2.6418607 6447714
-0.22578843 -0.57477432 2.6216142 6447714
-0.19097291 -0.57531077 2.6049659 6447714
-0.26734722 -0.52540237 2.6420009 6447714
-0.22485745 -0.52493083 2.6216958 6447714
-0.18901582 -0.52468449 2.6045635 6447714
-0.26713178 -0.47503063 2.6424303 6447714
-0.22490035 -0.47497359 2.6222429 6447714
-0.18888155 -0.47497812 2.6050241 6447714
-0.26632801 -0.42537153 2.6425705 6447714
-0.22488751 -0.42499569 2.6227629 6447714
-0.18783762 -0.42469251 2.605056 6447714
-0.26507029 -0.3747659 2.6425033 6447714
-0.22405088 -0.37517843 2.6228883 6447714
-0.1877564 -0.37478974 2.6055429 6447714
-0.26406318 -0.32535708 2.6425424 6447714
-0.22381264 -0.32500708 2.6233039 6447714
-0.18675634 -0.32491848 2.6055906 6447714
-0.26389855 -0.27483457 2.6429949 6447714
-0.22383738 -0.27497309 2.6238437 6447714
-0.18679522 -0.27531999 2.6061335 6447714
-0.2631143 -0.22491792 2.6431479 6447714
-0.22396882 -0.22501671 2.624433 6447714
-0.18582633 -0.22538066 2.6061959 6447714
-0.26295874 -0.1746767 2.6436045 6447714
-0.2240629 -0.17508787 2.625006 6447714
-0.18572554 -0.17495236 2.6066794 6447714
-0.26184234 -0.12566878 2.6435864 6447714
-0.22410983 -0.12508884 2.6255553 6447714
-0.1845334 -0.12461329 2.6066415 6447714
-0.26181448 -0.075583093 2.6441035 6447714
-0.22415689 -0.07506863 2.6261055 6447714
-0.18456402 -0.074313864 2.6071877 6447714
-0.26098716 -0.025615491 2.6442335 6447714
-0.22420362 -0.025027549 2.6266561 6447714
-0.18364163 -0.024842815 2.6072679 6447714
-0.26077321 0.025200933 2.6446676 6447714
-0.22425081 0.025034528 2.6272078 6447714
-0.1835255 0.025047878 2.607739 6447714
-1.9599069 0.087322585 2.6021912 2039583
-1.9243453 0.087323233 2.6022103 1914708
-1.8747734 0.087324135 2.602237 1788022
-1.8252008 0.087325022 2.6022639 1721712
-1.7982588 0.087325513 2.6022782 2381964
-1.7066532 0.087327182 2.6023276 1516337
-1.6980314 0.087327331 2.6023324 2039583
-1.5622331 0.08732979 2.6024058 3289650
-1.5255873 0.087330468 2.6024258 8092539
-1.4878639 0.087331139 2.6024458 4286863
-1.3692997 0.087333292 2.60251 9803157
-1.325106 0.087334096 2.6025341 2379128
-1.2755221 0.087334998 2.602561 4280675
-1.2248591 0.087335914 2.6025879 10197915
-1.1741951 0.087336831 2.6026156 10197915
-1.1246082 0.087337732 2.6026423 10197915
-1.0901122 0.087338358 2.6026609 10197915
-0.9143905 0.087341547 2.6027563 1854339
-0.87450093 0.08734227 2.6027775 1059912
-0.82490766 0.087343164 2.6028042 4475990
-0.77531332 0.087344058 2.6028311 6513507
-0.72571802 0.087344967 2.6028576 6513507
-0.67504334 0.087345898 2.602885 6513507
-0.62436777 0.0873468 2.6029127 6513507
-0.57476944 0.087347694 2.6029394 6513507
-0.52516997 0.087348603 2.6029665 6513507
-0.4755694 0.087349489 2.6029932 6513507
-0.42488968 0.087350428 2.6030204 6513507
-0.37420878 0.087351345 2.6030476 6513507
-0.32460517 0.087352231 2.6030746 6513507
-0.26188415 0.071052849 2.6394176 6447714
-0.22435553 0.069670931 2.6262629 6447714
-0.18263979 0.069201492 2.6074603 6447714
-0.40140972 -1.204229 2.6989262 6447714
-0.38889071 -1.2024392 2.6929605 6447714
-0.40145853 -1.1753 2.6992545 6447714
-0.37534326 -1.1748055 2.6867762 6447714
-0.32647681 -1.1707448 2.6634593 6447714
-0.29979929 -1.1684482 2.6507306 6447714
-0.40153566 -1.129668 2.6997728 6447714
-0.37513319 -1.1250521 2.687201 6447714
-0.32551476 -1.1248864 2.6634829 6447714
-0.29890493 -1.1224909 2.6507878 6447714
-0.37525266 -1.0749682 2.6877856 6447714
-0.32557765 -1.0749322 2.6640401 6447714
-0.29875588 -1.0752999 2.6512148 6447714
-0.3751514 -1.0251445 2.6882625 6447714
-0.32546231 -1.0248387 2.6645138 6447714
-0.29777971 -1.0241232 2.651288 6447714
-0.37421384 -0.97503191 2.688344 6447714
-0.32454327 -0.97505528 2.6645985 6447714
-0.29658613 -0.97479546 2.6512377 6447714
-0.37418795 -0.92514384 2.688858 6447714
-0.32459518 -0.92502296 2.6651523 6447714
-0.2957266 -0.92317832 2.6513715 6447714
-0.37316409 -0.87500298 2.6888978 6447714
-0.32469863 -0.87496638 2.66573 6447714
-0.29549018 -0.87522298 2.6517642 6447714
-0.37310681 -0.82514983 2.6893957 6447714
-0.32479236 -0.82499093 2.6663022 6447714
-0.294671 -0.82378823 2.6519156 6447714
-2.1061492 -0.76727188 2.6533318 4329231
-0.37219825 -0.77499592 2.6894903 6447714
-0.32482558 -0.77499563 2.6668468 6447714
-0.29448906 -0.77467811 2.6523464 6447714
-2.1061704 -0.74338567 2.6535399 4329231
-0.37210742 -0.72506011 2.6899743 6447714
-0.32489166 -0.72497749 2.667403 6447714
-0.29371765 -0.7235831 2.6525166 6447714
-0.37105963 -0.67495912 2.6900012 6447714
-0.32491717 -0.67498982 2.6679432 6447714
-0.29343179 -0.67504597 2.6528916 6447714
-0.37120607 -0.62507045 2.6905975 6447714
-0.32507491 -0.6249786 2.6685467 6447714
-0.29257646 -0.62435508 2.6530178 6447714
-0.37001833 -0.57496434 2.6905584 6447714
-0.32504362 -0.57505018 2.6690586 6447714
-0.29241586 -0.57493186 2.6534622 6447714
-0.3701548 -0.52505183 2.6911497 6447714
-0.3252466 -0.52504826 2.669683 6447714
-0.29162005 -0.52406693 2.6536191 6447714
-0.36822715 -0.47462395 2.6907611 6447714
-0.32437253 -0.47526747 2.6697907 6447714
-0.291379 -0.47499514 2.6540205 6447714
-0.36798033 -0.4249185 2.6911671 6447714
-0.32418737 -0.42495006 2.6702328 6447714
-0.29047871 -0.42462161 2.6541224 6447714
-0.36668068 -0.37497783 2.6910732 6447714
-0.32418567 -0.37498483 2.6707585 6447714
-0.29034162 -0.37501749 2.6545789 6447714
-0.36704767 -0.32494953 2.6917756 6447714
