# .PCD v0.7 - Point Cloud Data file format
VERSION 0.7
FIELDS x y z rgb
SIZE 4 4 4 4
TYPE F F F U
COUNT 1 1 1 1
WIDTH 245
HEIGHT 1
VIEWPOINT 0 0 0 1 0 0 0
POINTS 245
DATA ascii
-0.35259873 0.11338225 0.44660524 10197915
-0.31960237 0.11353159 0.42779541 10197915
-0.27514979 0.1136526 0.42358226 10197915
-0.22484306 0.11377246 0.42339361 10197915
-0.17500813 0.11388995 0.42358249 10197915
-0.12516379 0.11400772 0.42369455 10197915
-0.074910954 0.11412784 0.42328197 10197915
-0.025010182 0.11424509 0.42359731 10197915
0.024869436 0.11436276 0.42378864 10197915
0.07499148 0.11448355 0.42318562 10197915
0.1249904 0.11460011 0.42361817 10197915
0.1750067 0.11471827 0.42377067 10197915
0.22498399 0.1148387 0.42320469 10197915
0.27499351 0.11495554 0.42362753 10197915
0.3197428 0.11504502 0.42802083 10197915
0.35256067 0.11505385 0.44625753 10197915
-0.36939001 -0.21036994 0.49340671 2960685
-0.34210294 -0.21159458 0.49852797 2960685
-0.36995327 -0.17493856 0.49349406 2960685
-0.34269199 -0.17551763 0.49861658 2960685
-0.37004083 -0.1250034 0.49375141 2960685
-0.34339875 -0.12540898 0.49875572 2960685
-0.37014931 -0.074961342 0.49400389 2960685
-0.34414876 -0.075643644 0.49888828 2960685
-0.37022647 -0.025005365 0.49426389 2960685
-0.34482601 -0.025548292 0.49903399 2960685
-0.37037161 0.025031175 0.49450949 2960685
-0.34560478 0.024250681 0.49916053 2960685
-0.37039354 0.074994065 0.49478 2960685
-0.34627143 0.074309684 0.499309 2960685
-0.36823675 0.10878702 0.48891813 3289650
-0.3276805 0.11249943 0.47724602 6645093
-0.27483389 0.11346556 0.47332135 9934743
-0.2250161 0.11358288 0.47350901 10197915
-0.17500745 0.11369946 0.4740026 10197915
-0.1249833 0.11381909 0.47369617 10197915
-0.075003877 0.11393878 0.47336283 10197915
-0.025009407 0.11405536 0.47384766 10197915
0.02518384 0.11417349 0.4740468 10197915
0.074976236 0.11429452 0.47322461 10197915
0.12498747 0.1144112 0.47369626 10197915
0.17512825 0.11452875 0.47400483 10197915
0.22480591 0.11464842 0.47347409 10197915
0.27498966 0.11476701 0.47354493 10197915
0.32510364 0.11488415 0.47397819 10197915
0.36607647 0.11495802 0.48012152 10197915
-0.31692436 -0.21253616 0.50325471 2960685
-0.2746442 -0.21434546 0.51119107 2960685
-0.22479062 -0.21644442 0.5205487 2960685
-0.17490776 -0.21852936 0.52991259 2960685
-0.12490061 -0.22062281 0.53929901 2960685
-0.083900891 -0.22248521 0.54699391 2960685
-0.31782857 -0.17481731 0.50329214 2960685
-0.2753315 -0.17502622 0.51127732 2960685
-0.22521694 -0.17500897 0.52069527 2960685
-0.17513941 -0.17496172 0.5301066 2960685
-0.12525578 -0.17505513 0.53948236 2960685
-0.084778547 -0.17516926 0.54708892 2960685
-0.31847647 -0.12485088 0.50344032 2960685
-0.27512825 -0.1249906 0.51158851 2960685
-0.2251469 -0.12502982 0.5209825 2960685
-0.17513061 -0.12500341 0.53038275 2960685
-0.12522954 -0.12500344 0.53975832 2960685
-0.085527241 -0.12519121 0.54722154 2960685
-0.31928375 -0.074851453 0.50356352 2960685
-0.27523679 -0.075011343 0.51184231 2960685
-0.22522309 -0.075006418 0.52124089 2960685
-0.17520384 -0.075000897 0.53064156 2960685
-0.12524942 -0.074971758 0.54003364 2960685
-0.086228013 -0.075270571 0.54736274 2960685
-0.31999889 -0.024799123 0.50370395 2960685
-0.27527565 -0.025054537 0.51210821 2960685
-0.22533901 -0.025006179 0.52149266 2960685
-0.17529453 -0.025004596 0.53089911 2960685
-0.12513284 -0.02500242 0.54032737 2960685
-0.086789213 -0.025234604 0.54753137 2960685
-0.32072377 0.025126671 0.50383884 2960685
-0.27519038 0.025043268 0.51239824 2960685
-0.22515464 0.024986098 0.52180111 2960685
-0.17520802 0.024958761 0.53118825 2960685
-0.12518296 0.024993723 0.54059249 2960685
-0.087529011 0.024760202 0.547665 2960685
-0.3215237 0.07512746 0.5039624 2960685
-0.27525312 0.074996457 0.51265973 2960685
-0.22516711 0.074997328 0.52207279 2960685
-0.17527521 0.074993484 0.53144979 2960685
-0.12526831 0.074991964 0.54084778 2960685
-0.088286966 0.074758604 0.54779679 2960685
-0.32148382 0.10698026 0.50402302 2960685
-0.2746734 0.10784158 0.51168197 3355443
-0.22472595 0.10851019 0.51921892 5197647
-0.17477997 0.10908634 0.52614003 6645093
-0.1246679 0.10959758 0.53231645 7829367
-0.079513326 0.11137543 0.53177691 9211020
-0.025007736 0.11386776 0.52352327 10197915
0.024998413 0.11398423 0.52406383 10197915
0.075011082 0.11410428 0.52362961 10197915
0.12482909 0.114221 0.52395719 10197915
0.17499124 0.11434075 0.52369976 10197915
0.22525579 0.11445954 0.52376091 10197915
0.2749882 0.11457733 0.52380049 10197915
0.32482916 0.11469468 0.52397454 10197915
0.3750315 0.11481385 0.52389932 10197915
0.41222653 0.11486572 0.53350693 10197915
-0.006668881 -0.25056621 0.56135529 2960685
0.029285567 -0.25209531 0.56810439 2960685
0.077044986 -0.25408295 0.57706797 2960685
0.12620388 -0.25615767 0.58629668 2960685
0.17534651 -0.25824422 0.59552079 2960685
-0.058916047 -0.22314431 0.55168563 2960685
-0.024973104 -0.22464512 0.55805659 2960685
0.024685426 -0.2250036 0.56738758 2960685
0.074758984 -0.22503719 0.57679939 2960685
0.12478736 -0.22496739 0.58620119 2960685
0.17383245 -0.22513798 0.59541637 2960685
-0.059683189 -0.17470214 0.55180693 2960685
-0.025213199 -0.17500648 0.55828381 2960685
0.024690142 -0.17500278 0.56766212 2960685
0.074587226 -0.17500916 0.57703978 2960685
0.1246403 -0.17500135 0.5864473 2960685
0.17315839 -0.17513771 0.59556514 2960685
-0.060434643 -0.1246976 0.55193985 2960685
-0.025218375 -0.12500438 0.55855596 2960685
0.024707932 -0.12500001 0.56793994 2960685
0.074620992 -0.12500314 0.57732046 2960685
0.12469723 -0.12500259 0.58673096 2960685
0.1724795 -0.12514511 0.5957104 2960685
-0.061165366 -0.074703179 0.5520758 2960685
-0.025228485 -0.075002514 0.55882829 2960685
0.024722712 -0.075011306 0.56821543 2960685
0.074650571 -0.07500951 0.57759923 2960685
0.12475728 -0.074989997 0.58701646 2960685
0.17178768 -0.075156651 0.59585404 2960685
-0.061920438 -0.024734948 0.55220741 2960685
-0.025257636 -0.025003362 0.55909675 2960685
0.024723623 -0.025010232 0.56848973 2960685
0.07470496 -0.025009353 0.57788241 2960685
0.12481809 -0.02499293 0.58730131 2960685
0.17111304 -0.025155937 0.59600049 2960685
-0.062660456 0.025228804 0.55234164 2960685
-0.025267579 0.024994053 0.55936784 2960685
0.024731709 0.024999501 0.56876409 2960685
0.074741133 0.025011465 0.57816392 2960685
0.12488824 0.024979575 0.58758807 2960685
0.17042936 0.024868015 0.59614569 2960685
-0.063403375 0.075206526 0.55247539 2960685
-0.025261905 0.074992411 0.55964333 2960685
0.024761254 0.075003505 0.5690437 3026478
0.074756019 0.07500986 0.57844001 3421236
0.12480489 0.074921422 0.58784491 3815994
0.16960934 0.074933805 0.59626871 4144959
-0.06367325 0.10701751 0.55255085 8092539
-0.024756027 0.10783257 0.5591203 9276813
0.025255105 0.10853639 0.56696177 10132122
0.075244918 0.1091229 0.57417214 10197915
0.12527485 0.10968097 0.58067673 10197915
0.17232069 0.11061622 0.5842002 10197915
0.22498333 0.11427139 0.5734446 10197915
0.27498263 0.1143876 0.57402152 10197915
0.32533425 0.11450633 0.57416981 10197915
0.37505308 0.11462456 0.57401633 10197915
0.42398992 0.11473945 0.57433152 10197915
0.45883885 0.11477095 0.58783281 10197915
0.19951163 -0.25780806 0.60006499 2960685
0.22561917 -0.2603229 0.60495794 2960685
0.27551135 -0.26241392 0.61432296 2960685
0.32532275 -0.2645013 0.6236732 2960685
0.37524694 -0.26660132 0.63304424 3223857
0.42517698 -0.26870045 0.64241648 5723991
0.45771837 -0.27033865 0.64852351 6316128
0.19902749 -0.22119223 0.60017443 2960685
0.22482444 -0.22500239 0.60500175 2960685
0.27490947 -0.22500113 0.61441576 2960685
0.32485482 -0.22500108 0.62380093 2960685
0.37486532 -0.22501284 0.63320023 2894892
0.42489338 -0.22501111 0.64260232 2894892
0.4571203 -0.22547294 0.64865613 2105376
0.19838367 -0.17303295 0.60031706 2960685
0.22493449 -0.17500657 0.60529578 2960685
0.27494928 -0.17507106 0.61469477 2960685
0.32491302 -0.17493838 0.62408561 2894892
0.3748385 -0.17507258 0.63346845 2894892
0.42484045 -0.17496727 0.64286613 2894892
0.45645487 -0.17544445 0.6488052 2105376
0.19770446 -0.12373576 0.60045892 2960685
0.22479482 -0.12502238 0.60554391 2960685
0.27463198 -0.12499829 0.61490959 2894892
0.32471752 -0.12507139 0.62432271 2894892
0.37477568 -0.1249318 0.63373107 2894892
0.42470855 -0.12501071 0.64311439 2894892
0.45559281 -0.12563922 0.64891618 2105376
0.19694801 -0.074512273 0.60058635 2960685
0.2247806 -0.074935474 0.60581428 2894892
0.27475798 -0.07501255 0.61520648 2894892
0.32474852 -0.074998289 0.62460208 2894892
0.37481165 -0.075024061 0.63401109 2894892
0.42489433 -0.074993357 0.64342278 2894892
0.45497674 -0.075698689 0.64907348 2105376
0.1960821 -0.024192614 0.60069859 2960685
0.22472927 -0.02499648 0.60607886 2894892
0.27488029 -0.02501059 0.61550367 2894892
0.32490751 -0.024997516 0.62490493 2894892
0.37482822 -0.025092565 0.63428748 2894892
0.4248476 -0.024972111 0.64368814 2894892
0.45425749 -0.025474505 0.64921302 2171169
0.19539951 0.025613626 0.60084313 2894892
0.2248379 0.024996443 0.60637188 2894892
0.27488452 0.024924422 0.61577791 2894892
0.32489094 0.025033401 0.62517589 4605510
0.37484774 0.02503776 0.63456529 8289918
0.42470378 0.024981461 0.64393467 8355711
0.45342955 0.023967391 0.6493277 8026746
0.19473182 0.075575858 0.60099101 4408131
0.22483298 0.07492689 0.60664421 4539717
0.2747643 0.075059302 0.6160289 4934475
0.32465976 0.0749944 0.62540555 6776679
0.37478733 0.075000241 0.63482744 10197915
0.42490774 0.074979238 0.64424694 10197915
0.45282421 0.073820643 0.64948678 10197915
0.19435434 0.10726597 0.60106057 10197915
0.22525014 0.10780407 0.60646015 10197915
0.27517313 0.10853236 0.61458409 10197915
0.32521108 0.10917102 0.62204474 10197915
0.37528279 0.10969704 0.62904078 10197915
0.42538339 0.11030062 0.63467222 10197915
0.46988562 0.11383405 0.62848186 10197915
0.50555325 0.11467502 0.64253229 10197915
0.48281547 -0.27100345 0.65323615 2500134
0.51301557 -0.2723648 0.65890467 2039583
0.48206913 -0.2248248 0.65334946 2039583
0.51313823 -0.22498038 0.65918601 2039583
0.48128191 -0.17490906 0.6534735 2105376
0.51322478 -0.17483522 0.65947735 2039583
0.48053619 -0.1248141 0.6536079 2105376
0.51332891 -0.1249769 0.65976816 2039583
0.47992709 -0.074845418 0.65376729 2105376
0.51358849 -0.074973486 0.66009158 2039583
0.47899464 -0.024876427 0.65386552 2105376
0.5135178 -0.024938229 0.66034943 2039583
0.47835752 0.025180893 0.65401953 7171437
0.51374048 0.024973305 0.66066802 6447714
0.47767496 0.075093314 0.65416408 10197915
0.51392066 0.075081848 0.66097397 10197915
0.47745848 0.10777781 0.65410006 10197915
0.51364684 0.10811847 0.66055721 10197915
