# .PCD v0.7 - Point Cloud Data file format
VERSION 0.7
FIELDS x y z rgb
SIZE 4 4 4 4
TYPE F F F U
COUNT 1 1 1 1
WIDTH 1157
HEIGHT 1
VIEWPOINT 0 0 0 1 0 0 0
POINTS 1157
DATA ascii
-0.42469203 0.11302816 1.4283882 10197915
-0.37499908 0.11307371 1.4215909 10197915
-0.32517532 0.11310541 1.4218652 10197915
-0.27488741 0.11313701 1.4223464 10197915
-0.22486198 0.11316863 1.4227434 10197915
-0.17495784 0.11320005 1.4231822 10197915
-0.12487882 0.11323165 1.4235796 10197915
-0.074917473 0.11326348 1.4238456 10197915
-0.025077816 0.11329476 1.4243296 10197915
0.025087168 0.11332642 1.4247276 10197915
0.074982323 0.11335811 1.4250352 10197915
0.12490734 0.11338945 1.4255202 10197915
0.17500655 0.11342103 1.4259605 10197915
0.22498687 0.11345293 1.4261839 10197915
0.27499306 0.11348415 1.4267544 10197915
0.32473144 0.11351557 1.427146 10197915
0.37464851 0.11354717 1.4275028 10197915
0.42303365 0.1135838 1.4248003 10197915
0.47491047 0.11362477 1.4210473 10197915
0.52509731 0.11365644 1.4214427 10197915
0.57491958 0.11368767 1.4219491 10197915
0.62496793 0.11371949 1.4222317 10197915
0.67523837 0.11375125 1.4226288 10197915
0.72514671 0.11378256 1.4231358 10197915
0.77487934 0.1138144 1.4233 10197915
0.82484275 0.11384573 1.4238099 10197915
0.87502807 0.11387721 1.4243184 10197915
0.92524117 0.11390914 1.424603 10197915
0.97508943 0.11394064 1.4249943 10197915
1.0249617 0.11397211 1.4253907 10197915
1.0750637 0.11400355 1.4258997 10197915
1.1185483 0.11402512 1.4292276 10197915
-1.1660045 0.11243553 1.4857347 10197915
-1.1251237 0.11248197 1.4755993 10197915
-1.0755503 0.11251459 1.4753135 10197915
-1.025008 0.11256053 1.4686121 10197915
-0.97498482 0.11259184 1.469148 10197915
-0.92493379 0.11262364 1.469436 10197915
-0.8748523 0.11265524 1.4698488 10197915
-0.82514983 0.1126866 1.4702548 10197915
-0.77521384 0.11271809 1.4706684 10197915
-0.7248491 0.11274988 1.4710832 10197915
-0.6748569 0.11278115 1.471619 10197915
-0.62504387 0.11281308 1.4717771 10197915
-0.57519931 0.11284404 1.4724398 10197915
-0.52512497 0.11287586 1.4727273 10197915
-0.47502279 0.11290774 1.4730114 10197915
-0.42509854 0.11293872 1.4736754 10197915
-0.37534615 0.11297037 1.4739568 10197915
-0.32536182 0.11300189 1.4743718 10197915
-0.27514791 0.11303333 1.4749095 10197915
-0.22511116 0.11306538 1.4750688 10197915
-0.17504409 0.11309647 1.4757335 10197915
-0.12515435 0.11312821 1.4760163 10197915
-0.0750302 0.11315982 1.4764321 10197915
-0.024881458 0.11319149 1.4768417 10197915
0.024890667 0.11322287 1.4772514 10197915
0.075095385 0.11325454 1.4776677 10197915
0.12512721 0.1132861 1.4780766 10197915
0.17497984 0.1133173 1.478615 10197915
0.22506443 0.11334915 1.4788989 10197915
0.2749753 0.11338066 1.4793099 10197915
0.32470587 0.11341202 1.4797193 10197915
0.37487704 0.11344367 1.4801351 10197915
0.42713916 0.11348547 1.4760759 10197915
0.47514692 0.1135221 1.4732237 10197915
0.52488154 0.11355339 1.4736788 10197915
0.57494992 0.11358529 1.4739492 10197915
0.62504572 0.11361643 1.4745954 10197915
0.67516899 0.1136485 1.4747695 10197915
0.72516978 0.11367989 1.4752711 10197915
0.77504289 0.11371127 1.4757271 10197915
0.82509553 0.11374324 1.4759492 10197915
0.87340111 0.11378248 1.4718835 10197915
0.92477059 0.11382104 1.4691721 10197915
0.97495425 0.11385273 1.4695837 10197915
1.0251626 0.11388441 1.4699903 10197915
1.0749946 0.11391588 1.4703956 10197915
1.1250551 0.11394721 1.4709297 10197915
1.1627201 0.11395925 1.4771881 10197915
-1.2122432 0.11229908 1.5398285 10197915
-1.1750071 0.1123387 1.5319626 10197915
-1.1251796 0.11237007 1.5323911 10197915
-1.0761566 0.11240629 1.5301094 10197915
-1.0251759 0.11246598 1.5165648 10197915
-0.97497731 0.11249734 1.5171273 10197915
-0.92516845 0.112529 1.5174115 10197915
-0.87511975 0.11256056 1.5178401 10197915
-0.82504618 0.11259211 1.5182625 10197915
-0.77494115 0.11262371 1.5186917 10197915
-0.72481143 0.1126553 1.5191145 10197915
-0.67506838 0.11268665 1.5195374 10197915
-0.62509048 0.1127179 1.5201017 10197915
-0.57508546 0.11274993 1.5202496 10197915
-0.52505124 0.11278095 1.5209517 10197915
-0.47498992 0.11281276 1.5212382 10197915
-0.4251076 0.11284422 1.5216618 10197915
-0.37478125 0.11287593 1.5220932 10197915
-0.32463333 0.11290753 1.5225158 10197915
-0.27488059 0.11293892 1.5229388 10197915
-0.2248866 0.11297045 1.5233639 10197915
-0.17486784 0.11300169 1.5239296 10197915
-0.12482093 0.1130335 1.5242141 10197915
-0.074953631 0.11306494 1.5246381 10197915
-0.025062088 0.1130964 1.5250624 10197915
0.025071425 0.11312799 1.5254887 10197915
0.075018577 0.11315946 1.5259129 10197915
0.12499715 0.11319099 1.526338 10197915
0.17499992 0.1132225 1.5267628 10197915
0.22503424 0.11325403 1.5271882 10197915
0.27509278 0.11328559 1.5276134 10197915
0.32475641 0.1133166 1.5281757 10197915
0.3746635 0.11334831 1.5284595 10197915
0.42480543 0.11337992 1.5288855 10197915
0.47497895 0.11341156 1.529312 10197915
0.52517694 0.1134432 1.5297389 10197915
0.57498056 0.1134743 1.5303026 10197915
0.62481308 0.113506 1.5305858 10197915
0.67509466 0.11353768 1.531013 10197915
0.72519654 0.11356901 1.5315796 10197915
0.77489489 0.11360089 1.5317172 10197915
0.82483989 0.11363209 1.5322859 10197915
0.87653315 0.11367643 1.5267622 10197915
0.92336649 0.1137185 1.52079 10197915
0.97502118 0.11375929 1.5170497 10197915
1.0249547 0.11379076 1.5174699 10197915
1.0749199 0.11382229 1.5178896 10197915
1.1249092 0.1138538 1.5183102 10197915
1.1741252 0.11388372 1.5192906 10197915
1.2086611 0.1138835 1.5307463 10197915
-0.9243781 -0.70761716 1.5985656 7829367
-0.92459929 -0.67523664 1.5985774 2039583
-0.92519003 -0.62502027 1.598527 2039583
-0.92520672 -0.57494211 1.5986319 2039583
-0.92525327 -0.52493221 1.5987241 2039583
-0.92580038 -0.47557765 1.5986856 2039583
-0.92596841 -0.42514271 1.5987487 2039583
-0.92600954 -0.37490848 1.5988463 2039583
-0.92633343 -0.32567886 1.5988648 2039583
-0.92671782 -0.27518129 1.5988717 2039583
-0.92674524 -0.22522753 1.5989715 2039583
-0.92693317 -0.17561372 1.5990274 2039583
-0.92741501 -0.12464833 1.5990105 2039583
-0.92749399 -0.074973479 1.5990945 2039583
-0.927535 -0.025175724 1.5991896 2039583
-0.92814541 0.025046945 1.599136 5987163
-0.92821705 0.074867204 1.5992235 10197915
-1.2550316 0.11218526 1.5835701 10197915
-1.2240689 0.11222135 1.5754162 10197915
-1.1750697 0.1122534 1.5752522 10197915
-1.1251295 0.11228482 1.5756934 10197915
-1.0728147 0.11232343 1.573276 10197915
-1.0249273 0.11236559 1.5676037 10197915
-0.97497064 0.11239675 1.5681928 10197915
-0.92596859 0.11049508 1.5778638 10197915
-0.87497503 0.11245943 1.5692255 10197915
-0.82493544 0.11249124 1.5695111 10197915
-0.77486551 0.11252277 1.5699513 10197915
-0.72498727 0.11255419 1.5703892 10197915
-0.67507726 0.11258563 1.5708278 10197915
-0.62514329 0.11261708 1.5712663 10197915
-0.57517779 0.11264853 1.5717061 10197915
-0.52497119 0.11267985 1.5723009 10197915
-0.47473571 0.11271178 1.5725884 10197915
-0.42468604 0.1127433 1.5730282 10197915
-0.37461203 0.11277483 1.5734681 10197915
-0.32472232 0.11280594 1.57406 10197915
-0.27502638 0.11283755 1.5743427 10197915
-0.22508518 0.11286931 1.5746261 10197915
-0.17511471 0.11290049 1.5752213 10197915
-0.12511466 0.11293197 1.5756602 10197915
-0.075091571 0.11296316 1.5762521 10197915
-0.025037248 0.112995 1.5765396 10197915
0.02504657 0.11302654 1.5769796 10197915
0.074938849 0.11305767 1.5775717 10197915
0.12485605 0.11308971 1.5777005 10197915
0.17502201 0.11312097 1.5782976 10197915
0.22499716 0.11315212 1.5788906 10197915
0.27500176 0.11318389 1.5791752 10197915
0.32481217 0.11321528 1.579609 10197915
0.37465441 0.11324668 1.5800509 10197915
0.42496002 0.11327807 1.580646 10197915
0.47507188 0.11331024 1.5807755 10197915
0.52499646 0.11334105 1.5815262 10197915
0.57416159 0.11337397 1.5809848 10197915
0.62512618 0.11342177 1.5734707 10197915
0.67517763 0.11345348 1.5737933 10197915
0.72526175 0.1134848 1.5743455 10197915
0.77504563 0.11351617 1.5747805 10197915
0.82517803 0.11354797 1.5751042 10197915
0.875018 0.11357938 1.5755365 10197915
0.92719728 0.11362353 1.5702587 10197915
0.97487271 0.11365915 1.5678355 10197915
1.0249511 0.11369099 1.5681202 10197915
1.0750587 0.11372254 1.5685557 10197915
1.1249748 0.11375372 1.5691408 10197915
1.1749161 0.11378579 1.56927 10197915
1.2227799 0.11381163 1.5718693 10197915
1.2564267 0.113802 1.5878204 10197915
-0.90933347 -0.7085489 1.6025497 8289918
-0.87411726 -0.71060336 1.6118751 5789784
-0.82432765 -0.71353078 1.6250607 2039583
-0.7742604 -0.7165063 1.6383183 2039583
-0.74286783 -0.71839511 1.6466312 2039583
-0.90963703 -0.67489147 1.6025368 2039583
-0.87532198 -0.67500854 1.6116332 2039583
-0.82531857 -0.6749965 1.62488 2039583
-0.77504295 -0.67498434 1.6382002 2039583
-0.74289906 -0.67501742 1.6467161 2039583
-0.91019988 -0.62495953 1.6025014 2039583
-0.87538868 -0.6250149 1.6117215 2039583
-0.82536477 -0.6249944 1.6249756 2039583
-0.77509415 -0.62499171 1.6382939 2039583
-0.74297512 -0.6250037 1.6468029 2039583
-0.91025633 -0.57504529 1.60259 2039583
-0.87542808 -0.57498538 1.6118181 2039583
-0.82538438 -0.57498538 1.625077 2039583
-0.7751798 -0.57502574 1.6383775 2039583
-0.74304831 -0.57498527 1.6468906 2039583
-0.91029048 -0.52508539 1.6026893 2039583
-0.87545371 -0.52496481 1.6119192 2039583
-0.82545632 -0.52498704 1.625165 2039583
-0.77517515 -0.52502173 1.6384859 2039583
-0.74301255 -0.52495939 1.6470069 2039583
-0.91085881 -0.47477001 1.6026449 2039583
-0.87557375 -0.47501642 1.6119933 2039583
-0.82552087 -0.47496721 1.6252543 2039583
-0.77521634 -0.47499552 1.6385816 2039583
-0.74311352 -0.47505397 1.6470873 2039583
-0.91063023 -0.42467672 1.6028137 2039583
-0.87521571 -0.4251526 1.6121955 2039583
-0.82552677 -0.42497346 1.6253606 2039583
-0.77531427 -0.4250122 1.6386633 2039583
-0.74316913 -0.42501798 1.6471797 2039583
-0.91043431 -0.37503526 1.6029702 2039583
-0.87502491 -0.37500516 1.6123528 2039583
-0.82558095 -0.37498954 1.6254526 2039583
-0.77532107 -0.3750231 1.6387684 2039583
-0.74314272 -0.3749108 1.6472933 2039583
-0.91089821 -0.32474306 1.6029589 2039583
-0.87515622 -0.32500508 1.6124249 2039583
-0.82522112 -0.32485932 1.6256549 2039583
-0.77490717 -0.32512709 1.6389855 2039583
-0.74327105 -0.32511482 1.6473663 2039583
-0.9111284 -0.27497131 1.6030033 2039583
-0.87510538 -0.27501455 1.6125464 2039583
-0.82509941 -0.27496409 1.6257952 2039583
-0.77482224 -0.27502152 1.639115 2039583
-0.74327081 -0.2750589 1.6474744 2039583
-0.91114789 -0.2249433 1.603103 2039583
-0.8751291 -0.22494756 1.6126477 2039583
-0.82504356 -0.22504964 1.6259164 2039583
-0.77487499 -0.2250493 1.6392077 2039583
-0.74326903 -0.22493388 1.6475818 2039583
-0.91147923 -0.17483491 1.6031286 2039583
-0.87467968 -0.17495817 1.612873 2039583
-0.82458752 -0.17499872 1.6261442 2039583
-0.77484727 -0.17502025 1.6393226 2039583
-0.74340314 -0.17512281 1.6476525 2039583
-0.91187692 -0.12486098 1.6031257 2039583
-0.87479544 -0.12510034 1.612949 2039583
-0.82473898 -0.12486535 1.6262112 2039583
-0.77494073 -0.12505226 1.6394047 2039583
-0.74340069 -0.12492426 1.6477605 2039583
-0.91192919 -0.075053737 1.603223 2039583
-0.87462395 -0.07498455 1.6131018 2039583
-0.82467467 -0.074804753 1.6263355 2039583
-0.77510148 -0.07519681 1.6394689 2039583
-0.74344367 -0.075095363 1.6478565 2039583
-0.91198164 -0.025240606 1.6033094 2039583
-0.87489706 -0.024869371 1.6131364 2039583
-0.82470727 -0.024930798 1.6264337 2039583
-0.77500623 -0.025132664 1.6396012 2039583
-0.74348611 -0.025260616 1.6479516 2039583
-0.91259742 0.025269601 1.6032587 6052956
-0.87493807 0.024855558 1.6132327 4276545
-0.82475513 0.024932694 1.6265283 2039583
-0.77505177 0.02513458 1.6396964 2039583
-0.74352831 0.025262615 1.6480482 2039583
-0.91266507 0.075060084 1.6033481 10197915
-0.87478715 0.074982718 1.6133801 6710886
-0.82480371 0.074802049 1.626622 2039583
-0.77524877 0.075177409 1.6397514 2039583
-0.74357361 0.075108886 1.6481429 2039583
-1.3017663 0.11204561 1.6391115 10197915
-1.2702138 0.11209436 1.6247228 10197915
-1.2249397 0.11213157 1.6207021 10197915
-1.1749132 0.11216303 1.6211566 10197915
-1.1250759 0.1121944 1.62161 10197915
-1.0749937 0.11222592 1.6220659 10197915
-1.0248784 0.11225742 1.6225214 10197915
-0.97597617 0.11228961 1.6222459 10197915
-0.91472256 0.10664382 1.603689 10197915
-0.87494028 0.10682467 1.6126788 10132122
-0.82487988 0.10691681 1.6246662 9605778
-0.77459395 0.10739478 1.6359339 9803157
-0.73386204 0.10933096 1.6361576 9803157
-0.67508709 0.11247751 1.6257021 10197915
-0.62475097 0.11250919 1.6261599 10197915
-0.57483131 0.11254027 1.6267825 10197915
-0.52510893 0.11257222 1.6268932 10197915
-0.47536045 0.11260285 1.6276867 10197915
-0.42513224 0.11263477 1.6279752 10197915
-0.37465543 0.11266655 1.6284341 10197915
-0.32481954 0.11269793 1.628883 10197915
-0.27495992 0.11272926 1.6293409 10197915
-0.22484453 0.11276045 1.6299653 10197915
-0.17492788 0.11279252 1.6300769 10197915
-0.12723634 0.11282729 1.628101 10197915
-0.074911267 0.11287382 1.6216682 10197915
-0.024865706 0.11290505 1.6222458 10197915
0.024874892 0.11293637 1.6226956 10197915
0.074976206 0.11296814 1.6230233 10197915
0.12510805 0.11299944 1.6236019 10197915
0.17493185 0.11303078 1.6240522 10197915
0.22511439 0.11306262 1.6243805 10197915
0.2753329 0.11309396 1.6249599 10197915
0.324898 0.1131254 1.6252792 10197915
0.37483406 0.1131568 1.6257343 10197915
0.42512977 0.11318821 1.6263143 10197915
0.47512025 0.11321966 1.6267664 10197915
0.5251385 0.11325114 1.6272188 10197915
0.57627666 0.11328705 1.6257757 10197915
0.62500525 0.11333227 1.6188385 10197915
0.67526597 0.11336423 1.619126 10197915
0.72510749 0.11339562 1.6195699 10197915
0.7749725 0.11342698 1.6200221 10197915
0.82509351 0.1134582 1.6206392 10197915
0.8750152 0.11349028 1.6207516 10197915
0.92496431 0.11352105 1.6215365 10197915
0.97494459 0.1135532 1.6216496 10197915
1.0249457 0.11358399 1.6224356 10197915
1.074983 0.11361551 1.6228853 10197915
1.1250401 0.11364764 1.6229991 10197915
1.1751314 0.11367852 1.6237857 10197915
1.2250215 0.11371025 1.6240636 10197915
1.2711046 0.11373229 1.6280077 10197915
1.3040658 0.1137227 1.6437218 10197915
-0.74774724 -0.75292718 1.6899849 2039583
-0.74383485 -0.72350729 1.6752044 2039583
-0.65559745 -0.71887606 1.6675868 2894892
-0.62479419 -0.71876478 1.6757486 2368548
-0.57452083 -0.71878237 1.6890721 1974047
-0.54159075 -0.71879178 1.697798 1974047
-0.74365348 -0.6749512 1.6744977 2039583
-0.65564644 -0.67499179 1.6676379 2894892
-0.6248495 -0.67499828 1.6757977 2041906
-0.57453674 -0.67500812 1.689131 1191498
-0.54165184 -0.6750294 1.6978449 1322827
-0.74362755 -0.62467438 1.6743733 2039583
-0.6556915 -0.62488955 1.667699 2894892
-0.62486196 -0.62501895 1.6758678 2042163
-0.57454056 -0.62500614 1.6892023 1257291
-0.5415988 -0.62505519 1.6979319 1323083
-0.74364638 -0.57462138 1.6744224 2039583
-0.65571284 -0.57493657 1.6677655 2894892
-0.62492192 -0.57501769 1.6759263 2041906
-0.57460916 -0.57498336 1.689258 1454925
-0.54169595 -0.57501674 1.6979787 1520718
-0.7436955 -0.52503383 1.6745849 2039583
-0.65572357 -0.52513278 1.6678348 2894892
-0.62491852 -0.52501315 1.6759988 2107955
-0.57457107 -0.524957 1.6893392 1454925
-0.54164743 -0.52497447 1.6980642 1454926
-0.74366814 -0.47521129 1.6744581 2039583
-0.65571439 -0.47517008 1.6679101 2894892
-0.62490886 -0.47500414 1.6760736 2108212
-0.57458246 -0.47496182 1.6894102 1455438
-0.54220015 -0.47552803 1.6979898 1520975
-0.74371725 -0.42515492 1.6746192 2039583
-0.65577561 -0.42497599 1.6679671 2894892
-0.62494218 -0.42500836 1.6761377 2042163
-0.57466894 -0.4250173 1.6894606 1059913
-0.54234129 -0.4250218 1.6980261 1125450
-0.74372357 -0.37498137 1.6746192 2039583
-0.65583521 -0.37477934 1.6680238 2894892
-0.62497646 -0.37500864 1.6762007 2042163
-0.57462645 -0.37503135 1.6895431 1125706
-0.54242343 -0.37509233 1.6980768 1124937
-0.74372417 -0.3251543 1.674597 2039583
-0.65582687 -0.32480451 1.6680992 2894892
-0.62500578 -0.3249881 1.6762662 1975857
-0.57472765 -0.32506037 1.6895887 1059143
-0.54241401 -0.32502788 1.6981517 1125706
-0.74374026 -0.27520457 1.6746359 2039583
-0.65585262 -0.27505779 1.6681648 2894892
-0.6250574 -0.27499798 1.6763244 1910321
-0.5746839 -0.27503186 1.6896728 1059143
-0.54241902 -0.27502358 1.6982234 1125962
-0.74378878 -0.22491068 1.6747944 2039583
-0.65587807 -0.22530749 1.6682301 2894892
-0.62512338 -0.22500433 1.67638 1976371
-0.57476705 -0.22496222 1.6897248 1059657
-0.54283834 -0.22565898 1.6981841 1059657
-0.74376178 -0.17484434 1.6746683 2039583
-0.65586656 -0.17524225 1.6683058 2894892
-0.62513363 -0.17500693 1.6764499 1976114
-0.57479072 -0.17492644 1.6897904 1059656
-0.54312706 -0.17518033 1.6981807 1059656
-0.74381059 -0.12500668 1.6748288 2039583
-0.65596873 -0.12480049 1.6683522 2894892
-0.62507528 -0.12502232 1.6765394 1976114
-0.57461441 -0.12490223 1.6899093 928069
-0.54314888 -0.12523425 1.6982478 993606
-0.74377918 -0.075051777 1.6746863 2039583
-0.65595669 -0.074650526 1.6684294 2894892
-0.62510085 -0.075016364 1.6766057 1976113
-0.57492775 -0.075166397 1.6898984 993349
-0.54315341 -0.075212106 1.6983198 993349
-0.74385589 -0.024980774 1.6749533 2039583
-0.65598261 -0.024884371 1.6684943 2894892
-0.62512529 -0.025006339 1.6766715 2042162
-0.57478929 -0.025205243 1.6900101 1125704
-0.5432083 -0.025261395 1.6983774 1125960
-0.74387127 0.024981482 1.6749872 2039583
-0.65600842 0.024885681 1.6685593 2894892
-0.62514973 0.025007626 1.6767371 1976369
-0.57480913 0.02520662 1.6900759 993604
-0.54350269 0.02466709 1.6983715 993349
-0.74382561 0.075056672 1.6747907 2039583
-0.65603346 0.074659638 1.6686255 4802889
-0.62517446 0.075025551 1.6768036 4081746
-0.57499218 0.075157613 1.690102 861762
-0.54388362 0.075285785 1.6983448 861763
-1.3505015 0.11189669 1.698704 10197915
-1.319559 0.11194449 1.6846032 10197915
-1.2749528 0.11198497 1.6787088 10197915
-1.2268014 0.11201859 1.6774597 10197915
-1.1749768 0.11206739 1.6697105 10197915
-1.124791 0.11209892 1.6701808 10197915
-1.0749267 0.11212999 1.6707848 10197915
-1.0250282 0.11216164 1.6711144 10197915
-0.98617655 0.11218996 1.6695054 10197915
-0.73210484 0.10955453 1.6747785 9474192
-0.66570485 0.10858446 1.6701499 10197915
-0.62516582 0.10684718 1.6757638 10000537
-0.574413 0.10709728 1.6877288 9408915
-0.53504962 0.1091995 1.6876777 9672086
-0.47502983 0.11250712 1.6764041 10197915
-0.42514333 0.11253847 1.6768712 10197915
-0.37488672 0.11257035 1.6772044 10197915
-0.32459715 0.11260169 1.6778131 10197915
-0.27497706 0.11263315 1.6781361 10197915
-0.22532701 0.11266409 1.6787429 10197915
-0.17495567 0.11269604 1.6790768 10197915
-0.12208518 0.11273856 1.6748679 10197915
-0.07495302 0.11277851 1.6700473 10197915
-0.02514568 0.11280981 1.6705159 10197915
0.025155075 0.11284147 1.6709844 10197915
0.075017944 0.1128728 1.6714436 10197915
0.12491277 0.11290414 1.6719127 10197915
0.17506303 0.11293531 1.6725614 10197915
0.22477841 0.11296693 1.6728377 10197915
0.27475661 0.11299837 1.6733077 10197915
0.32475823 0.11302979 1.6737684 10197915
0.37479216 0.11306125 1.674239 10197915
0.42484975 0.11309274 1.6747001 10197915
0.47470647 0.11312371 1.6753516 10197915
0.52482074 0.11315595 1.6754483 10197915
0.57496297 0.11318677 1.676285 10197915
0.62490308 0.11321849 1.676563 10197915
0.67509985 0.11325008 1.677035 10197915
0.72532886 0.11328166 1.677498 10197915
0.77488357 0.11331282 1.677959 10197915
0.82470179 0.11334378 1.6786109 10197915
0.87501144 0.11337614 1.6787084 10197915
0.92511827 0.11340728 1.6793579 10197915
0.97293425 0.11345035 1.6732057 10197915
1.0248663 0.11348944 1.6704173 10197915
1.0749916 0.11352096 1.6708812 10197915
1.1247923 0.11355256 1.6712025 10197915
1.1746234 0.11358365 1.6718034 10197915
1.2248317 0.11361519 1.6722679 10197915
1.2747129 0.11364683 1.6725901 10197915
1.3162054 0.11366788 1.6755378 10197915
-0.75739849 -0.76112592 1.7264174 2039583
-0.75624794 -0.72487706 1.7220588 2039583
-0.51686692 -0.71882898 1.7043487 1974047
-0.4747878 -0.71879393 1.7154988 1974047
-0.42475897 -0.71874386 1.728757 1974047
-0.37526971 -0.71877122 1.7418722 1974047
-0.3478308 -0.71885115 1.7491417 1974047
-0.75631547 -0.67494893 1.72229 2039583
-0.51688367 -0.67499328 1.7044094 1257291
-0.47477156 -0.67503351 1.7155674 1323083
-0.42471477 -0.67494309 1.7288336 1454412
-0.37526393 -0.67501557 1.7419348 1651790
-0.3478229 -0.67502981 1.7492077 1717583
-0.75628585 -0.62466359 1.7221521 2039583
-0.51688832 -0.62496477 1.7044797 1323084
-0.47480142 -0.62502593 1.7156318 1257034
-0.42474502 -0.6249671 1.728897 1388363
-0.37527651 -0.62502456 1.7420071 1519949
-0.34787655 -0.62505853 1.7492658 1717327
-0.75630546 -0.57460904 1.7222043 2039583
-0.51694977 -0.57501394 1.7045366 1520718
-0.47480389 -0.57499588 1.7157047 1454926
-0.42477173 -0.57498693 1.7289625 1586255
-0.37533459 -0.5750109 1.7420614 1717840
-0.34785566 -0.57488978 1.7493445 1717840
-0.75635809 -0.52503306 1.7223781 2039583
-0.51688892 -0.5250054 1.7046245 1454926
-0.47481707 -0.5250175 1.715772 1520719
-0.42476246 -0.52500314 1.7290375 1652304
-0.37527531 -0.52497137 1.742153 1717840
-0.34789923 -0.52490962 1.7494053 1849169
-0.75632703 -0.47521544 1.7222389 2039583
-0.51747775 -0.47476569 1.7045424 1586511
-0.47484687 -0.4750351 1.7158389 1586768
-0.42478743 -0.47499561 1.7291039 1586768
-0.37533456 -0.47498935 1.7422066 1586512
-0.34847149 -0.47575489 1.7493254 1586512
-0.75637925 -0.42515746 1.7224107 2039583
-0.51761889 -0.42499194 1.7045772 1191242
-0.47489083 -0.42499366 1.7158991 1190986
-0.42479372 -0.4249841 1.7291744 1191242
-0.37530544 -0.4250229 1.7422888 1322828
-0.34861353 -0.42494351 1.7493615 1388877
-0.75638509 -0.37497908 1.7224091 2039583
-0.5176543 -0.37497249 1.7046407 1059401
-0.47484538 -0.37498459 1.7159836 1058888
-0.42484674 -0.37500766 1.7292339 1124937
-0.37542015 -0.37503305 1.7423308 1257035
-0.34860086 -0.37494346 1.7494382 1520206
-0.75638455 -0.32515687 1.7223841 2039583
-0.51764208 -0.32494903 1.7047164 1125963
-0.47489566 -0.32499042 1.7160442 1191499
-0.42486098 -0.32504678 1.7293023 1191499
-0.37475258 -0.32490781 1.7425789 1257036
-0.34810644 -0.32649738 1.7496392 1257292
-0.75640154 -0.27520853 1.7224232 2039583
-0.5177983 -0.27502581 1.7047479 1125962
-0.47497854 -0.27493736 1.7160957 1191499
-0.42482319 -0.27504328 1.7293854 1191499
-0.37472284 -0.27501032 1.7426616 1257035
-0.3479532 -0.27473786 1.7497553 1191500
-0.75645274 -0.2249065 1.7225939 2039583
-0.51797348 -0.22480056 1.7047737 1059657
-0.47488198 -0.22493519 1.7161924 1059657
-0.42484853 -0.22501539 1.7294521 1059657
-0.37464318 -0.22504768 1.7427533 1323597
-0.34825274 -0.22894718 1.7497425 1389390
-0.75642228 -0.17483857 1.7224554 2039583
-0.51849496 -0.17487431 1.7047098 1059913
-0.47491679 -0.17498498 1.716256 1059913
-0.4248881 -0.17502289 1.7295122 1059401
-0.37486094 -0.17508103 1.7427722 1191755
-0.34866932 -0.17469689 1.749711 1191499
-0.75647408 -0.12500586 1.7226273 2039583
-0.51839203 -0.12501173 1.7048072 993863
-0.47503042 -0.12488257 1.7162995 993863
-0.42502949 -0.12518364 1.7295487 993607
-0.37471268 -0.12491526 1.7428807 993607
-0.34868315 -0.12468486 1.7497799 1059144
-0.75643873 -0.075052612 1.7224697 2039583
-0.51841217 -0.074868612 1.7048758 993349
-0.47506112 -0.074776717 1.7163631 993349
-0.42489538 -0.075240314 1.7296559 993350
-0.37470803 -0.075076446 1.7429569 993607
-0.34869689 -0.07466881 1.7498492 1059399
-0.7565214 -0.024980046 1.7227583 2039583
-0.51843405 -0.02472166 1.7049432 1191753
-0.47498462 -0.024888588 1.7164568 1191753
-0.42491257 -0.025080992 1.7297252 1191497
-0.37477964 -0.025235487 1.7430081 1191497
-0.34871066 -0.02464883 1.7499181 1125961
-0.7565375 0.024980744 1.7227943 2039583
-0.51875716 0.024936751 1.7049294 1059911
-0.47500354 0.024889896 1.7165234 1125960
-0.42492905 0.025082292 1.7297934 1059654
-0.37479347 0.025236845 1.7430778 1191240
-0.34872219 0.017399939 1.7499762 1191753
-0.756486 0.075057492 1.7225778 2039583
-0.51912624 0.074870259 1.7049056 928069
-0.47511727 0.074785829 1.716567 928325
-0.42494717 0.075249553 1.7298617 861251
-0.3747341 0.075065956 1.7431693 992836
-1.3644295 0.11181911 1.7335374 10197915
-1.3249968 0.11185016 1.7307205 10197915
-1.2751623 0.11188145 1.731205 10197915
-1.2227545 0.11192236 1.7276559 10197915
-1.1748077 0.11196576 1.7213796 10197915
-1.1247251 0.11199718 1.7218636 10197915
-1.0750912 0.1120284 1.7223375 10197915
-1.0279553 0.11206298 1.7202432 10197915
-0.9956786 0.11211962 1.7020884 10197915
-0.75624555 0.10758463 1.7260115 7500402
-0.72496241 0.1122479 1.7259228 10197915
-0.69084299 0.11228691 1.7173051 10197915
-0.51919627 0.10663124 1.7048829 9540501
-0.47471294 0.10669016 1.7157971 9211794
-0.424992 0.10729762 1.7275437 9540501
-0.37479204 0.1072735 1.7388453 9211537
-0.32474071 0.11252037 1.7190503 10197915
-0.2749643 0.11255165 1.719528 10197915
-0.22481228 0.11258346 1.7198607 10197915
-0.17497906 0.11261474 1.7203344 10197915
-0.12547792 0.11264554 1.7209626 10197915
-0.075234994 0.1126774 1.7212958 10197915
-0.024966927 0.11270868 1.7219273 10197915
0.024976192 0.11274005 1.7224064 10197915
0.074947119 0.11277143 1.7228857 10197915
0.12493995 0.11280344 1.7230631 10197915
0.17496373 0.11283428 1.7238458 10197915
0.22501825 0.1128657 1.7243263 10197915
0.27510068 0.11289717 1.7248068 10197915
0.32484764 0.11292872 1.7251307 10197915
0.37462825 0.11295969 1.7257622 10197915
0.42514905 0.11299174 1.7260976 10197915
0.47534433 0.11302327 1.7265748 10197915
0.52520114 0.11305429 1.7272071 10197915
0.5754512 0.11308587 1.7276897 10197915
0.62536895 0.11311751 1.7280146 10197915
0.67531174 0.11314858 1.7286481 10197915
0.72528678 0.11318028 1.7289736 10197915
0.77528346 0.11321138 1.7296075 10197915
0.82531548 0.11324312 1.7299334 10197915
0.8750084 0.11327372 1.7307186 10197915
0.92472833 0.11330558 1.7308874 10197915
0.97660702 0.11335508 1.722798 10197915
1.0250194 0.11338925 1.7213306 10197915
1.0750027 0.11342029 1.7220101 10197915
1.1252453 0.11345264 1.7220888 10197915
1.1752841 0.11348367 1.7227638 10197915
1.2251054 0.11351462 1.723444 10197915
1.2749549 0.11354632 1.7237141 10197915
1.3248359 0.11357766 1.72419 10197915
1.3651224 0.11358184 1.7353133 10197915
-0.77546787 -0.80149025 1.7946389 2039583
-0.77020937 -0.77166253 1.7747769 2039583
-0.76964903 -0.72487283 1.7726409 2039583
-0.32296628 -0.71880955 1.755729 1974047
-0.27542117 -0.7187764 1.7683306 1974047
-0.22511022 -0.71875924 1.7816607 1974047
-0.17818332 -0.71890348 1.7940961 1974047
-0.76972193 -0.67494661 1.7728903 2039583
-0.32264051 -0.67483503 1.7558831 1783119
-0.27515709 -0.67514569 1.768464 2045776
-0.2251222 -0.67502284 1.7817224 2177105
-0.17835884 -0.67499429 1.7941135 2308177
-0.76968777 -0.6246525 1.7727388 2039583
-0.32226884 -0.62497407 1.756056 1783119
-0.27475601 -0.62499368 1.7686418 1848655
-0.22513285 -0.62502193 1.7817913 2045776
-0.17839044 -0.62502116 1.7941788 2111055
-0.76970226 -0.57471836 1.7727704 2039583
-0.32232344 -0.57499754 1.7561024 1849169
-0.27479374 -0.57498121 1.7687049 2046290
-0.22514701 -0.57499737 1.7818609 2046033
-0.178406 -0.57504427 1.7942458 2308947
-0.76976985 -0.52515465 1.7730013 2039583
-0.32231149 -0.52503806 1.7561926 1914962
-0.27481094 -0.524966 1.7687725 1980754
-0.22516747 -0.52500993 1.7819272 2111827
-0.17841655 -0.52498859 1.7943172 2177619
-0.76972967 -0.47521999 1.7728258 2039583
-0.3229391 -0.47492939 1.756086 1586512
-0.27478465 -0.47498801 1.7688538 1652048
-0.22518925 -0.47503972 1.7819963 1717584
-0.17850648 -0.47504014 1.7943648 1914449
-0.76978499 -0.42515999 1.7730129 2039583
-0.32300916 -0.42497352 1.7561556 1520206
-0.27480787 -0.42500558 1.7689207 1717841
-0.2251476 -0.42502293 1.7820779 1783377
-0.17911218 -0.42498738 1.7942783 1848913
-0.76979077 -0.37497646 1.7730079 2039583
-0.32308695 -0.37498063 1.7561929 1388364
-0.27483997 -0.37497807 1.7689837 1652048
-0.22518542 -0.37500256 1.7821423 1783890
-0.17918047 -0.37504527 1.7943321 1849426
-0.76978868 -0.32515973 1.7729771 2039583
-0.32302874 -0.32502487 1.7562875 1257036
-0.27485242 -0.32492563 1.7690542 1323084
-0.22523312 -0.32504219 1.7822012 1520206
-0.17916788 -0.32499465 1.7944088 1520463
-0.76980621 -0.27521282 1.7730187 2039583
-0.32307947 -0.27500305 1.7563491 1257292
-0.27481204 -0.27495259 1.7691351 1322828
-0.22518885 -0.27507785 1.7822853 1388621
-0.17919639 -0.27496693 1.7944733 1454927
-0.76986068 -0.22490215 1.7732025 2039583
-0.32343069 -0.22478029 1.7563215 1454926
-0.27483118 -0.22499631 1.7692034 1520719
-0.22516865 -0.22504495 1.7823646 1520975
-0.17907058 -0.22501197 1.7945796 1586768
-0.76982635 -0.17483251 1.7730491 2039583
-0.32393199 -0.17494005 1.7562732 1257548
-0.2748782 -0.17495291 1.7692636 1323341
-0.22519189 -0.17500877 1.7824295 1389133
-0.17981257 -0.17528361 1.7944549 1454926
-0.76988173 -0.12500495 1.7732346 2039583
-0.32371613 -0.12509216 1.7563865 1389132
-0.27498785 -0.12480244 1.7693084 1520718
-0.22532426 -0.12516017 1.7824682 1586511
-0.17989238 -0.12489827 1.7945077 1586511
-0.76984203 -0.075053476 1.7730592 2039583
-0.32383943 -0.074888892 1.7564425 1257803
-0.27486122 -0.074770615 1.7694141 1323340
-0.2252679 -0.075264119 1.7825555 1323340
-0.17989974 -0.075090565 1.7945776 1323340
-0.76993084 -0.024979271 1.7733725 2039583
-0.32379767 -0.024741808 1.7565132 1257546
-0.27487209 -0.024924411 1.7694846 1323596
-0.22521855 -0.025109749 1.7826403 1389132
-0.17990628 -0.025278879 1.7946488 1454924
-0.76994735 0.024979984 1.7734104 2039583
-0.32401797 0.024887305 1.7565371 1191497
-0.274883 0.024925735 1.7695538 1191241
-0.22522791 0.025111064 1.7827117 1257290
-0.17991386 0.025280226 1.7947201 1323082
-0.76988995 0.075058386 1.7731719 2039583
-0.32456991 0.074891955 1.7564607 860737
-0.27489325 0.074779853 1.7696226 926787
-0.22531125 0.075252563 1.7827622 1058628
-0.18011358 0.074921556 1.7947396 992579
-1.4086493 0.11169393 1.7825419 10197915
-1.3745977 0.11173201 1.7743934 10197915
-1.3249797 0.11176312 1.7748877 10197915
-1.2749753 0.11179485 1.7752217 10197915
-1.2249339 0.11182592 1.7758847 10197915
-1.1748723 0.11185765 1.776219 10197915
-1.1247756 0.11188877 1.7768826 10197915
-1.0746562 0.11192052 1.7772174 10197915
-1.0408963 0.11195198 1.7723461 10197915
-0.76666749 0.10837477 1.7767576 6842472
-0.72829312 0.1121402 1.7794855 10197915
-0.32436392 0.10683708 1.7560199 9408659
-0.27491334 0.10692412 1.7678601 9014416
-0.22494195 0.10747305 1.7791308 9408659
-0.17887996 0.1077974 1.7880014 9145744
-0.1250426 0.11253809 1.7756366 10197915
-0.07504303 0.11257043 1.7756889 10197915
-0.025024019 0.11260083 1.7766256 10197915
0.025033327 0.11263232 1.7771212 10197915
0.075002387 0.11268624 1.7661382 10197915
0.1251619 0.1127174 1.7667927 10197915
0.17498374 0.11274868 1.7672832 10197915
0.22519304 0.1127805 1.7676154 10197915
0.27507189 0.11281184 1.7681017 10197915
0.3246063 0.11284261 1.7687551 10197915
0.37490672 0.1128745 1.7690886 10197915
0.42522958 0.11290578 1.7697453 10197915
0.47521821 0.11293715 1.7702372 10197915
0.5248642 0.11296862 1.7705594 10197915
0.57453775 0.11299948 1.7712146 10197915
0.62497699 0.11303147 1.7715489 10197915
0.67544127 0.11306284 1.7722074 10197915
0.72520113 0.1130944 1.77253 10197915
0.77498245 0.11312532 1.7731867 10197915
0.82516533 0.11315681 1.7736803 10197915
0.87500501 0.11318841 1.7740043 10197915
0.9248724 0.11321939 1.7746612 10197915
0.97513896 0.11325095 1.7751559 10197915
1.0250583 0.11328262 1.7754805 10197915
1.0750114 0.11331365 1.7761387 10197915
1.124988 0.11334533 1.7764634 10197915
1.1749947 0.11337642 1.7771225 10197915
1.2250282 0.11340816 1.7774475 10197915
1.2750889 0.11343924 1.7781073 10197915
1.3251791 0.11347102 1.7784331 10197915
1.3752935 0.11350213 1.779093 10197915
1.4106948 0.11351113 1.7861671 10197915
-0.78554666 -0.81001544 1.8326846 2039583
-0.78388816 -0.77491754 1.8264091 2039583
-0.78386164 -0.7248683 1.8262841 2039583
-0.15279146 -0.71774232 1.8008267 1974047
-0.12509219 -0.71881813 1.8081657 1974047
-0.075430125 -0.71870881 1.8213253 1974047
-0.025072986 -0.71876031 1.8346688 1974047
0.016062856 -0.71875751 1.8455697 2039583
-0.78393966 -0.67494351 1.8265553 2039583
-0.15292612 -0.67504191 1.8008534 2440019
-0.12466845 -0.67484593 1.8083414 2571347
-0.07503166 -0.6751551 1.8214947 2834004
-0.025082773 -0.67497456 1.8347307 3031124
0.016082888 -0.67501682 1.8456383 3294039
-0.78390145 -0.624641 1.8263861 2039583
-0.15296698 -0.62508368 1.8009152 2242384
-0.12434329 -0.6249733 1.8085004 2439505
-0.074695662 -0.62499577 1.8216558 2702419
-0.025076823 -0.62499338 1.8348044 2965075
0.016018769 -0.62501264 1.8456938 3294295
-0.78391612 -0.5747081 1.8264191 2039583
-0.15292954 -0.57496345 1.8009974 2440276
-0.12441511 -0.57499564 1.8085532 2637141
-0.074727178 -0.57498044 1.8217199 2768725
-0.025102967 -0.57503158 1.8348706 2899540
0.01605293 -0.57496941 1.8457757 3096918
-0.78398842 -0.52515745 1.8266695 2039583
-0.1529879 -0.52499998 1.8010548 2308948
-0.12437227 -0.52503532 1.8086387 2440276
-0.074739754 -0.52496159 1.8217893 2571605
-0.025071837 -0.52504259 1.8349515 2636627
0.016082499 -0.52492064 1.8458567 2965332
-0.78394324 -0.47522458 1.8264741 2039583
-0.15304469 -0.47451362 1.8011134 1980498
-0.12438647 -0.47500607 1.8087069 2112083
-0.074700274 -0.47498369 1.8218715 2308948
-0.025082512 -0.47502595 1.8350205 2571348
0.015719092 -0.47529984 1.8458315 2768726
-0.78400278 -0.42516303 1.8266746 2039583
-0.15373221 -0.42505226 1.801003 1914705
-0.1243689 -0.42497179 1.8087837 1980498
-0.074717164 -0.42500207 1.8219415 2111826
-0.025070965 -0.425006 1.8350973 2374740
0.015322644 -0.42505321 1.8458006 2571605
-0.78400719 -0.37497354 1.8266692 2039583
-0.15368019 -0.37506944 1.8010893 1915219
-0.1244444 -0.37497902 1.8088368 1980755
-0.074741676 -0.37497106 1.8220068 2046291
-0.025113957 -0.37502849 1.8351581 2177619
0.015249399 -0.37501833 1.8458542 2309204
-0.78288436 -0.32547429 1.8224077 2039583
-0.15374435 -0.32509598 1.8011452 1520206
-0.12437222 -0.32502431 1.8089279 1585999
-0.074748665 -0.32491359 1.8220787 1717327
-0.025114929 -0.32507011 1.8352305 1716813
0.015288549 -0.32498088 1.845937 1782607
-0.78279799 -0.27522936 1.8220562 2039583
-0.15368886 -0.27497962 1.8012327 1454670
-0.12441845 -0.27500188 1.8089894 1454414
-0.074695915 -0.27494234 1.8221655 1520206
-0.025044575 -0.27506113 1.835322 1585742
0.015377158 -0.27493763 1.8460343 1651534
-0.78285789 -0.22496146 1.8222588 2039583
-0.1537603 -0.22500011 1.8012862 1586768
-0.12434646 -0.224952 1.809081 1652305
-0.07470566 -0.22499074 1.8222353 1718097
-0.025058119 -0.2250248 1.8353909 1718097
0.015216553 -0.22512329 1.8460634 1849169
-0.7828452 -0.17483896 1.8221875 2039583
-0.15422869 -0.17425837 1.8012364 1454670
-0.12456812 -0.17494345 1.8090943 1389134
-0.07474824 -0.17494367 1.8222976 1454926
-0.025092574 -0.17505436 1.8354545 1454926
0.014661944 -0.17529003 1.8459897 1454926
-0.78286093 -0.12501687 1.8222234 2039583
-0.15450633 -0.12505192 1.8012336 1586511
-0.12433104 -0.12510523 1.8092303 1586511
-0.07486096 -0.12478029 1.8223408 1652047
-0.025226032 -0.12524344 1.8354915 1652047
0.014563088 -0.12469981 1.8460354 1652047
-0.7828635 -0.075042054 1.8222097 2039583
-0.15443803 -0.074940808 1.8013248 1323340
-0.12445616 -0.074891165 1.8092692 1322827
-0.074717201 -0.074746691 1.8224499 1256778
-0.02506534 -0.075286366 1.8356074 1257034
0.014519023 -0.074993186 1.8460958 1257034
-0.7829234 -0.024915028 1.8224119 2039583
-0.15451878 -0.024952533 1.8013763 1520717
-0.12440159 -0.024736481 1.8093579 1323083
-0.074720219 -0.024916448 1.8225235 1059656
-0.025066335 -0.025096349 1.8356793 1125449
0.014542219 -0.025239835 1.8461745 1125705
-0.78293985 0.024915716 1.8224497 2039583
-0.15452486 0.024953842 1.8014469 1388618
-0.12440652 0.024737787 1.8094279 1190984
-0.074723057 0.024917765 1.8225946 1059399
-0.025067344 0.02509767 1.8357522 1125192
0.014542801 0.02524117 1.8462485 1190984
-0.78291255 0.075046942 1.8223239 2039583
-0.15467295 0.075623728 1.8014817 992579
-0.12447102 0.074900277 1.8094841 992836
-0.074725963 0.074755937 1.8226643 1059141
-0.025068307 0.075295657 1.8358254 1124934
0.014359166 0.074713975 1.8462728 1125191
-1.4534142 0.11156757 1.8319695 10197915
-1.4222678 0.11160783 1.8217869 10197915
-1.375136 0.11164016 1.8208561 10197915
-1.3253434 0.11167172 1.821187 10197915
-1.2751455 0.1117032 1.8216996 10197915
-1.2249278 0.111734 1.8225698 10197915
-1.1746765 0.11176619 1.8227276 10197915
-1.1247689 0.11179706 1.8234158 10197915
-1.0805875 0.1118295 1.8214798 10197915
-0.77452034 0.10929705 1.8254474 6184542
-0.73727572 0.11204505 1.8248405 10197915
-0.15522659 0.10597318 1.8013791 8948623
-0.12416503 0.10638355 1.8096108 9145745
-0.074721172 0.10646015 1.8225032 8751501
-0.025052076 0.10715098 1.8344016 9211794
0.017331855 0.10773152 1.8425885 8948623
0.075048722 0.11257298 1.8236283 10197915
0.12495065 0.11260436 1.8241436 10197915
0.17512842 0.11263537 1.8248889 10197915
0.22482909 0.11266693 1.82515 10197915
0.27456331 0.11269859 1.8254191 10197915
0.32472807 0.11275262 1.8144786 10197915
0.37482241 0.11278439 1.8148088 10197915
0.42493835 0.11281548 1.8154896 10197915
0.47471055 0.11284668 1.8159916 10197915
0.5248853 0.11287849 1.8163236 10197915
0.5750882 0.11290962 1.8170049 10197915
0.62494355 0.11294091 1.8175081 10197915
0.67519885 0.1129728 1.8178405 10197915
0.72511113 0.11300408 1.8183383 10197915
0.77466589 0.11303478 1.8190193 10197915
0.82463181 0.11306618 1.8195244 10197915
0.87500221 0.11309812 1.8198563 10197915
0.92540044 0.11312942 1.8205411 10197915
0.97507006 0.11316094 1.8208616 10197915
1.0247635 0.11319166 1.8215435 10197915
1.0748687 0.11322315 1.8220494 10197915
1.1250012 0.11325455 1.8225564 10197915
1.1747725 0.11328618 1.8228762 10197915
1.2249627 0.11331767 1.8233885 10197915
1.2755566 0.11334898 1.8240752 10197915
1.3254199 0.11338067 1.8243977 10197915
1.3753054 0.11341155 1.8250822 10197915
1.4234383 0.1134402 1.8263538 10197915
1.45567 0.11343871 1.8376913 10197915
-0.80161166 -0.82357442 1.8933289 2039583
-0.79528612 -0.81823164 1.86945 2039583
-0.80158436 -0.77491492 1.8932027 2039583
-0.79511762 -0.77497983 1.8687937 2039583
-0.80160117 -0.72473294 1.8932425 2039583
-0.7951079 -0.72492892 1.8687341 2039583
0.041400418 -0.71878147 1.8522836 1974047
0.075554453 -0.71878958 1.8613342 2039583
0.12507537 -0.71869367 1.874457 2039583
0.17436914 -0.7187131 1.8875188 2039583
0.2106234 -0.71881539 1.8971252 2039583
-0.8016181 -0.67454898 1.8932822 2039583
-0.795151 -0.67513657 1.8688723 2039583
0.04147571 -0.67506528 1.8523675 3491416
0.075622313 -0.67500299 1.8614159 3754330
0.12503502 -0.67497879 1.8745102 4083035
0.17439826 -0.67497075 1.8875892 4411740
0.21039094 -0.67545849 1.8971267 4608861
-0.80163503 -0.62436271 1.8933216 2039583
-0.79516786 -0.62482333 1.8689119 2039583
0.041396491 -0.62501556 1.852419 3491673
0.075526237 -0.62499952 1.8614634 3688794
0.12499562 -0.6249764 1.8745724 4017499
0.17438555 -0.62499774 1.8876591 4280668
0.20983608 -0.62499326 1.8970544 4412253
-0.80165136 -0.57495868 1.8933611 2039583
-0.79518443 -0.57450813 1.868951 2039583
0.041488901 -0.57502711 1.8525164 3294039
0.075599104 -0.57501429 1.8615555 3491160
0.12505279 -0.57497007 1.8746604 3819866
0.17436835 -0.57502043 1.8877279 4017243
0.20982872 -0.57495844 1.8971266 4214620
-0.80166799 -0.52555257 1.8934 2039583
-0.79520088 -0.52496475 1.8689903 2039583
0.041439272 -0.52503419 1.852576 3031125
0.075596169 -0.52500337 1.8616272 3228246
0.12506068 -0.5250088 1.8747343 3490903
0.174409 -0.52506524 1.8878114 3688281
0.20982119 -0.52492028 1.8971951 3885657
-0.8016848 -0.47536004 1.8934399 2039583
-0.79519111 -0.47516397 1.8689291 2039583
0.041054595 -0.47444561 1.8525478 2899797
0.07557939 -0.47498679 1.861696 2965590
0.12503095 -0.47501987 1.8747991 3228504
0.1744241 -0.47505435 1.8878876 3425881
0.20993149 -0.47493711 1.8972976 3557209
-0.80170161 -0.42516547 1.8934793 2039583
-0.7952342 -0.42510048 1.8690672 2039583
0.040732291 -0.42494479 1.8525342 2637141
0.075573511 -0.42501542 1.861766 2702933
0.1250217 -0.42500275 1.8748698 2834261
0.17442457 -0.4249897 1.8879609 2965590
0.20990054 -0.42495075 1.8973633 2965589
-0.80171859 -0.37496877 1.8935193 2039583
-0.79522431 -0.3750374 1.8690077 2039583
0.040609807 -0.37501702 1.852574 2374739
0.075635023 -0.3749913 1.8618555 2505812
0.1250724 -0.37505457 1.874956 2637140
0.17440389 -0.37492141 1.8880284 2702932
0.20938461 -0.37552062 1.8972965 2768468
-0.8017143 -0.32516837 1.8934802 2039583
-0.79406065 -0.32480156 1.8645917 2039583
0.040757064 -0.32496107 1.852686 1979983
0.075575598 -0.32498869 1.861912 2111312
0.1250838 -0.32507828 1.8750318 2111312
0.17445642 -0.32487381 1.8881137 2111312
0.2090295 -0.32521945 1.8972747 2111312
-0.80175185 -0.27535564 1.893598 2039583
-0.79398763 -0.27515584 1.8642925 2039583
0.040612511 -0.27508685 1.8527199 1717070
0.075523697 -0.27502745 1.8619714 1716813
0.12501945 -0.27499869 1.8750876 1716812
0.17443699 -0.27492356 1.8881825 1848655
0.20909519 -0.27511954 1.8973671 1914191
-0.80176866 -0.22515266 1.8936379 2039583
-0.79403371 -0.22476603 1.8644422 2039583
0.040687453 -0.22490622 1.8528132 1849168
0.075721584 -0.22501668 1.8620969 1914961
0.12516348 -0.22498934 1.8751972 1783632
0.17442939 -0.22501995 1.8882532 1849168
0.20910347 -0.22482078 1.8974434 1849169
-0.80178559 -0.1749476 1.8936775 2039583
-0.79404038 -0.17475724 1.8644433 2039583
0.040030982 -0.17476916 1.8527119 1652046
0.0755179 -0.17490529 1.8621153 1783632
0.1251507 -0.17502563 1.8752677 1718096
0.17439681 -0.17513821 1.8883168 1718096
0.20915411 -0.1746466 1.897527 1717840
-0.80178142 -0.12513474 1.8936386 2039583
-0.79403758 -0.12493891 1.8644084 2039583
0.039919369 -0.12511434 1.852755 1652047
0.075569801 -0.12505503 1.8622019 1652047
0.12502787 -0.1248597 1.8753071 1586511
0.17449199 -0.12517551 1.8884135 1586511
0.2090767 -0.1251311 1.8975793 1586511
-0.80181909 -0.07531774 1.8937566 2039583
-0.79408324 -0.074925981 1.8645579 2039583
0.03992093 -0.07522504 1.8528274 1322570
0.075682953 -0.074884981 1.8623048 1257034
0.1250149 -0.074714921 1.8753783 1257034
0.17449856 -0.075108238 1.8884891 1257034
0.20842689 -0.075713359 1.8974788 1322826
-0.80183583 -0.025106383 1.8937966 2039583
-0.79407078 -0.024913909 1.8644867 2039583
0.039922517 -0.025331767 1.8529007 1125705
0.075596265 -0.024738945 1.8623546 1125705
0.12512298 -0.024863474 1.8754781 1125449
0.17450552 -0.025036946 1.8885635 1125449
0.20832595 -0.025155755 1.8975254 1059913
-0.80185258 0.025107086 1.8938357 2039583
-0.79408693 0.024914596 1.8645254 2039583
0.039924104 0.025333125 1.852975 1125448
0.075599141 0.024740238 1.8624271 1190984
0.12512781 0.024864733 1.8755518 1191240
0.17451251 0.025038259 1.8886391 1191240
0.20833425 0.025157087 1.8976026 1125448
-0.80186963 0.07532268 1.8938761 2039583
-0.79413295 0.074930876 1.8646752 2039583
0.039722741 0.075554833 1.8529943 1125447
0.075691938 0.074894145 1.8625242 1191240
0.1250298 0.074724056 1.8755995 1191240
0.17451912 0.075117409 1.8887132 1125704
0.20834245 0.075473897 1.8976772 1125704
-1.4696387 0.11147769 1.8723055 10197915
-1.4252689 0.11151268 1.8691032 10197915
-1.3749331 0.11154383 1.869825 10197915
-1.324571 0.11157577 1.8701603 10197915
-1.27495 0.11160652 1.8708751 10197915
-1.2252997 0.11163794 1.8712026 10197915
-1.1748542 0.11166912 1.8719261 10197915
-1.1247615 0.11170057 1.872452 10197915
-1.0926038 0.11174134 1.8622979 10197915
-0.80177885 0.10632073 1.8935381 2039583
-0.78047717 0.10991035 1.8727453 4737096
-0.74513417 0.11196318 1.8638237 10197915
0.039155431 0.10593288 1.8528885 8619916
0.075649589 0.10648579 1.8625594 8948623
0.12557185 0.10657675 1.8753953 8685965
0.17462474 0.10711826 1.8870068 8948879
0.21593602 0.10903951 1.8925699 9540244
0.27349424 0.11258018 1.8852098 10197915
0.32485649 0.11265786 1.8626279 10197915
0.37473354 0.1126895 1.8629545 10197915
0.4246316 0.11272042 1.8636615 10197915
0.47495043 0.11275197 1.8641827 10197915
0.52529764 0.11278352 1.8647046 10197915
0.57527727 0.11281522 1.8650318 10197915
0.62529528 0.11284615 1.8657408 10197915
0.67533237 0.11287791 1.8660685 10197915
0.72540426 0.11290891 1.8667783 10197915
0.77511466 0.11294004 1.8672928 10197915
0.82523185 0.11297183 1.8676214 10197915
0.87499887 0.11300303 1.868131 10197915
0.9247936 0.11303425 1.8686533 10197915
0.97499394 0.11306533 1.869364 10197915
1.0248421 0.11309656 1.8698804 10197915
1.0747179 0.11312779 1.8703972 10197915
1.1250072 0.11315969 1.8707274 10197915
1.1753273 0.11319086 1.8714395 10197915
1.2248935 0.11322232 1.871756 10197915
1.2744865 0.11325302 1.8724673 10197915
1.3248907 0.11328498 1.8727983 10197915
1.3753189 0.11331618 1.8735118 10197915
1.4253885 0.11334759 1.8740308 10197915
1.4714485 0.11337116 1.8771904 10197915
1.5003946 0.11337009 1.8872442 10197915
-0.81297332 -0.85808837 1.936229 2039583
-0.81089151 -0.82497519 1.9283555 2039583
-0.81092584 -0.77481908 1.9284616 2039583
-0.81095999 -0.72481918 1.9285657 2039583
0.23585737 -0.71871209 1.9038143 2039583
0.27439591 -0.71876043 1.9140248 2039583
0.32420096 -0.71876508 1.9272225 2039583
0.37464482 -0.71869004 1.9405905 2039583
0.40530321 -0.71878761 1.9487139 2039583
-0.81095976 -0.67497891 1.9285413 2039583
0.23556963 -0.67466134 1.9038006 4674909
0.27434933 -0.6750381 1.9140761 4609117
0.32412529 -0.67503548 1.9272666 4411996
0.37463775 -0.6749506 1.9406505 4083035
0.40529293 -0.67494768 1.9487753 3885658
-0.81097698 -0.62465829 1.9285831 2039583
0.234993 -0.6250394 1.9037184 4543581
0.27439314 -0.62499917 1.9141606 4543325
0.32421583 -0.62502301 1.9273638 4346204
0.37468487 -0.62496704 1.9407365 4017499
0.40505952 -0.62605339 1.9487842 3820122
-0.81099272 -0.57464856 1.928619 2039583
0.23504966 -0.57497931 1.9038084 4214876
0.27439165 -0.57500982 1.9142329 4280668
0.32419196 -0.57500762 1.9274293 4148827
0.37471238 -0.57497942 1.9408171 3754330
0.40447006 -0.57529885 1.948702 3623001
-0.8110106 -0.52512264 1.9286618 2039583
0.23503752 -0.52491504 1.9038779 3951449
0.27440971 -0.52501523 1.9143111 3951707
0.32423067 -0.52498901 1.9275124 3688793
0.37470809 -0.5250144 1.9408883 3491416
0.40446377 -0.52542943 1.9487727 3359832
-0.81104439 -0.47527415 1.9287668 2039583
0.23507251 -0.47498116 1.9039594 3557210
0.27438885 -0.47496524 1.9143776 3491417
0.32419693 -0.47499189 1.9275764 3360345
0.37470675 -0.47501928 1.9409609 3228760
0.40450186 -0.47555104 1.9488555 3162968
-0.81104434 -0.42526177 1.9287432 2039583
0.23509906 -0.42504087 1.9040384 3031382
0.27447262 -0.42498955 1.9144726 2965846
0.32420361 -0.42501855 1.9276507 2900053
0.3747035 -0.42496619 1.9410342 2768725
0.40451792 -0.42550975 1.9489325 2637653
-0.81104398 -0.37508842 1.9287183 2039583
0.23449609 -0.37472099 1.9039526 2702933
0.27439797 -0.37498453 1.9145257 2702932
0.32429171 -0.37503907 1.9277467 2571604
0.37476254 -0.37493649 1.9411215 2505811
0.4045338 -0.37546462 1.9490097 2440019
-0.81111276 -0.325234 1.9289545 2039583
0.2342816 -0.32498145 1.9039682 2111569
0.27443743 -0.32502607 1.9146093 2177105
0.32423016 -0.32495171 1.9278034 2045776
0.37479681 -0.32495579 1.941203 1979984
0.40426254 -0.32669067 1.9490086 1979983
-0.81107801 -0.27521241 1.9287994 2039583
0.23436412 -0.27492371 1.9040626 1914191
0.27452821 -0.27504021 1.9147049 1848655
0.32434464 -0.2749393 1.9279064 1848654
0.37480387 -0.27499765 1.9412783 1717069
0.40371111 -0.27533054 1.9489373 1651277
-0.81112969 -0.22487555 1.9289701 2039583
0.23417981 -0.22515722 1.9040859 1849169
0.27430472 -0.22494337 1.9147193 1849169
0.32420638 -0.22494958 1.9279429 1783632
0.37479341 -0.22498257 1.9413465 1586254
0.40372714 -0.22527929 1.9490142 1388106
-0.81114626 -0.17485414 1.9290097 2039583
0.23430932 -0.17513214 1.9041936 1718096
0.27470121 -0.17497276 1.9148971 1717840
0.32423386 -0.17503661 1.9280223 1652304
0.37473965 -0.17485709 1.9414054 1520462
0.40374297 -0.1752241 1.9490906 1256778
-0.81114608 -0.12498914 1.928985 2039583
0.23434272 -0.1246891 1.9042749 1586510
0.27432647 -0.12500419 1.91487 1520718
0.32450819 -0.12516843 1.9281677 1389389
0.37477872 -0.12475441 1.941489 1389389
