# .PCD v0.7 - Point Cloud Data file format
VERSION 0.7
FIELDS x y z rgb
SIZE 4 4 4 4
TYPE F F F U
COUNT 1 1 1 1
WIDTH 1150
HEIGHT 1
VIEWPOINT 0 0 0 1 0 0 0
POINTS 1150
DATA ascii
0.36049581 0.0750034 0.67401189 2894892
-0.55185175 0.11292915 0.69618332 10197915
-0.51894933 0.11294139 0.67805958 10197915
-0.4750053 0.11284529 0.67421138 10197915
-0.42538673 0.11271346 0.67407268 10197915
-0.37504062 0.11257786 0.6742655 10197915
-0.32503527 0.11244839 0.67351508 10197915
-0.2749494 0.11231025 0.67429972 10197915
-0.22540446 0.11217866 0.67415273 10197915
-0.17500702 0.11204248 0.67442214 10197915
-0.12499769 0.11191314 0.67365462 10197915
-0.074625708 0.11177719 0.6739077 10197915
-0.02535394 0.11164358 0.67424995 10197915
0.025017049 0.11150732 0.67455524 10197915
0.075010069 0.11137788 0.67380828 10197915
0.12532547 0.1112451 0.67349863 10197915
0.17467669 0.11110868 0.67432326 10197915
0.2250326 0.11097201 0.67471689 9013641
0.27500802 0.11084279 0.6739316 3026478
0.32501501 0.11071334 0.67317349 2894892
0.35996711 0.10621859 0.6728192 2894892
0.33917961 -0.31286076 0.72809082 2894892
0.34079638 -0.27497217 0.72413409 2894892
0.34108943 -0.22500566 0.72414356 2894892
0.34138718 -0.17506118 0.72413534 2894892
0.3415612 -0.12500739 0.72448605 2894892
0.35011709 -0.12414893 0.70017022 2894892
0.34174207 -0.075115494 0.72480708 2894892
0.35019425 -0.0723451 0.70082241 2894892
0.34184992 -0.025110887 0.72534424 2894892
0.35041165 -0.023213264 0.70103085 2894892
0.34203601 0.024937347 0.72565067 2894892
0.35052279 0.025270056 0.70153087 2894892
0.34211236 0.074990623 0.7262792 2894892
0.3506892 0.074976876 0.70189369 2894892
-0.56589437 0.11277333 0.73116869 10197915
-0.52543342 0.11270446 0.72406971 10197915
-0.4750264 0.11256716 0.72455281 10197915
-0.42500877 0.11243793 0.72374988 10197915
-0.3746734 0.11230212 0.72398186 10197915
-0.32509574 0.11216993 0.72393978 10197915
-0.27505305 0.11203091 0.72490799 10197915
-0.22498436 0.11190132 0.72414231 10197915
-0.17500493 0.11177231 0.72330201 10197915
-0.12487286 0.11163346 0.72420418 10197915
-0.075465642 0.11149895 0.72466213 10197915
-0.025011936 0.11136471 0.72456521 10197915
0.025019415 0.11123564 0.72371554 10197915
0.075376622 0.11110287 0.72339517 10197915
0.12462401 0.11096548 0.7244463 10197915
0.17500505 0.11082804 0.72494531 10132122
0.22501616 0.1106989 0.72413725 4934475
0.27500287 0.11057019 0.72327691 2894892
0.33273989 0.10767159 0.72416878 2894892
0.35078242 0.10538852 0.70206493 2894892
0.3181853 -0.35106453 0.7871424 2894892
0.32413617 -0.32223374 0.77070886 2894892
0.32484189 -0.2750341 0.76949519 2894892
0.32500607 -0.22497275 0.769871 2894892
0.32530648 -0.17493524 0.7698583 2894892
0.32561287 -0.12501994 0.76982999 2894892
0.32590434 -0.074933708 0.76984066 2894892
0.32608798 -0.024994107 0.77016228 2894892
0.32635981 0.025083359 0.77023107 2894892
0.32655516 0.074986003 0.77051473 2894892
-0.61169249 0.11260635 0.78353721 10197915
-0.57487786 0.11255975 0.77417094 10197915
-0.52495295 0.1124201 0.77529603 10197915
-0.47491634 0.11229125 0.77442813 10197915
-0.42494094 0.1121628 0.77350235 10197915
-0.3755697 0.11202869 0.77390212 10197915
-0.32488406 0.11189288 0.77397013 10197915
-0.2749992 0.11175318 0.77513254 10197915
-0.22499113 0.11162434 0.77427167 10197915
-0.17496459 0.11149583 0.77333736 10197915
-0.12511466 0.11135668 0.77441829 10197915
-0.074720845 0.11122438 0.77398252 10197915
-0.0249674 0.1110861 0.7749601 10197915
0.025009088 0.11095747 0.77406639 10197915
0.074550509 0.11082713 0.77369618 10197915
0.12497537 0.11068834 0.77443218 10197915
0.1752684 0.11055704 0.77387041 8026746
0.2250061 0.11041912 0.77478266 2894892
0.27502638 0.11029053 0.77386671 2894892
0.32162294 0.1069629 0.77100259 2894892
-0.65806168 0.11243319 0.8372944 10197915
-0.6237992 0.11240594 0.82565874 10197915
-0.57508445 0.1122857 0.82386631 10197915
-0.52499652 0.11214394 0.8252936 10197915
-0.47501308 0.11201579 0.82432932 10197915
-0.42500597 0.11188737 0.82338625 10197915
-0.37434366 0.11174799 0.8241111 10197915
-0.32500818 0.11161641 0.82406592 10197915
-0.27496639 0.11147538 0.82538933 10197915
-0.22498746 0.11134697 0.82446498 10197915
-0.17502084 0.11121877 0.82350683 10197915
-0.12446673 0.11108343 0.8235485 10197915
-0.075267702 0.11094794 0.82428133 10197915
-0.025005125 0.11080693 0.82549942 10197915
0.025000662 0.11067853 0.82455355 10197915
0.075025991 0.11055031 0.82356906 10197915
0.12530127 0.11041916 0.82298774 10132122
0.17472515 0.11027908 0.82443863 4013373
0.2249919 0.11013809 0.82564723 2894892
0.27498588 0.11000996 0.82466346 2894892
0.31632391 0.10989024 0.82634073 2894892
-0.70506656 0.1122436 0.89433211 10197915
-0.67195016 0.11225031 0.8770988 10197915
-0.62516755 0.11213283 0.87574768 10197915
-0.57500362 0.11200323 0.87494487 10197915
-0.52498561 0.11187532 0.87389946 10197915
-0.4750008 0.11174717 0.87291783 10197915
-0.42444259 0.11160763 0.87374192 10197915
-0.3755044 0.11146742 0.87543023 10197915
-0.32489613 0.11133286 0.87533736 10197915
-0.27501884 0.11120487 0.87436056 10197915
-0.22501284 0.11107694 0.8733294 10197915
-0.17481519 0.1109469 0.87259549 10197915
-0.12561817 0.11080176 0.87507886 10197915
-0.074989192 0.11066251 0.87579477 10197915
-0.025011452 0.11053469 0.87477523 10197915
0.025013071 0.11040666 0.87375271 10197915
0.075000644 0.11027852 0.87276769 10197915
0.12532838 0.11014016 0.87346339 10132122
0.17500645 0.1099923 0.8762117 3421236
0.22500132 0.1098641 0.87521797 2894892
0.27499944 0.10973615 0.87420106 2894892
0.32419345 0.10960672 0.87383306 2894892
0.35383499 0.10944887 0.88807327 2894892
-0.75262386 0.1120678 0.94914728 10197915
-0.7197814 0.11208471 0.93021309 10197915
-0.67496204 0.11198965 0.92573756 10197915
-0.62501401 0.11186212 0.92466366 10197915
-0.5750345 0.11173407 0.92366856 10197915
-0.52497512 0.11160642 0.92256635 10197915
-0.47479585 0.11146217 0.92441207 10197915
-0.42562276 0.11132532 0.92539674 10197915
-0.3748858 0.11118931 0.92548132 10197915
-0.32490745 0.11106169 0.92441338 10197915
-0.27499706 0.11093409 0.92335296 10197915
-0.22482981 0.110805 0.9224667 10197915
-0.17519654 0.11066121 0.92449659 10197915
-0.12500826 0.1105172 0.92627937 10197915
-0.074987315 0.11038981 0.92515439 10197915
-0.024986504 0.11026176 0.92413878 10197915
0.024995703 0.11013417 0.92306334 10197915
0.075396836 0.11000246 0.92252713 10197915
0.12425406 0.10985611 0.92539877 10066329
0.17497705 0.10971728 0.92600083 4671303
0.22496989 0.10958966 0.92491263 2894892
0.27498958 0.10946187 0.92385226 2894892
0.32503527 0.10933468 0.92268133 2894892
0.36137658 0.10921983 0.92587984 2894892
-0.76535672 0.1119249 0.98116636 10197915
-0.72488368 0.11185251 0.97469592 10197915
-0.67490721 0.11172538 0.97353739 10197915
-0.62420124 0.11158676 0.97410339 10197915
-0.57498169 0.11145156 0.97476971 10197915
-0.52496392 0.11132421 0.97363514 10197915
-0.47514698 0.11117993 0.975658 10197915
-0.4249984 0.11105112 0.97471946 10197915
-0.37495556 0.11092351 0.97361666 10197915
-0.32428208 0.11078853 0.9735384 10197915
-0.27496409 0.11064997 0.9747687 10197915
-0.22512394 0.11052208 0.97381115 10197915
-0.17495514 0.11037661 0.97588247 10197915
-0.12496539 0.11024881 0.97483641 10197915
-0.074975155 0.11012197 0.97361517 10197915
-0.024724789 0.10999177 0.97288072 10197915
0.024984237 0.1098483 0.97480989 10197915
0.074542232 0.10971917 0.97421265 10132122
0.12504975 0.10957472 0.97592992 10000536
0.17504159 0.10944704 0.9748742 5855577
0.22503163 0.10931986 0.97371012 2894892
0.27501994 0.10919261 0.97255915 2894892
0.32531652 0.10904771 0.97446996 2894892
0.37129039 0.10891628 0.97602248 2894892
0.4009704 0.10871672 0.99778783 2894892
-0.81243742 0.11174404 1.036659 10197915
-0.77491671 0.11170623 1.0253536 10197915
-0.72487843 0.11157999 1.0240055 10197915
-0.67483371 0.11145236 1.0229095 10197915
-0.62591052 0.11131906 1.0233729 10197915
-0.57491845 0.11117776 1.0242895 10197915
-0.524131 0.11103393 1.0257568 10197915
-0.47500083 0.11090337 1.0256349 10197915
-0.42497981 0.11077618 1.0244588 10197915
-0.37495184 0.1106489 1.023302 10197915
-0.32575628 0.11051864 1.023091 10197915
-0.27502048 0.11037418 1.0247108 10197915
-0.22449797 0.11024233 1.0241359 10197915
-0.17502205 0.11009954 1.0260477 10197915
-0.12502028 0.10997202 1.0249561 10197915
-0.075012177 0.10984553 1.0236611 10197915
-0.025280118 0.10971715 1.0228465 10197915
0.025052311 0.10957021 1.0251013 10197915
0.075078525 0.10944276 1.0239758 10132122
0.12585483 0.1092997 1.0253117 10000536
0.17500408 0.10916867 1.0252546 7105644
0.22498775 0.10904125 1.0241542 2894892
0.27497518 0.10891435 1.0229448 2894892
0.3246116 0.10877067 1.0249416 2894892
0.37506878 0.10863891 1.0243878 2894892
0.4071402 0.10852761 1.0290231 2894892
-0.85909009 0.11156725 1.0912074 10197915
-0.82419008 0.11154836 1.0777549 10197915
-0.77502036 0.1114274 1.0758665 10197915
-0.72516865 0.11130096 1.0746447 10197915
-0.67512757 0.11117399 1.073422 10197915
-0.62490171 0.11104689 1.0721414 10197915
-0.57410192 0.1109095 1.0724454 10197915
-0.52591819 0.11075867 1.0764424 10197915
-0.47505274 0.11062166 1.0766377 10197915
-0.42505285 0.11049475 1.0754278 10197915
-0.37501866 0.11036776 1.0742201 10197915
-0.32502264 0.11024094 1.0729984 10197915
-0.27499428 0.11011416 1.0717518 10197915
-0.22453935 0.1099708 1.0732962 10197915
-0.17492026 0.10981475 1.0775417 10197915
-0.1249273 0.10968828 1.0762496 10197915
-0.074975923 0.10956147 1.0750438 10197915
-0.024991613 0.10943475 1.073814 10197915
0.025027156 0.10930804 1.0725577 10197915
0.075001821 0.10918152 1.071293 10066329
0.12487851 0.10902401 1.0756767 10000536
0.17506899 0.10888211 1.0770863 8421504
0.2250828 0.10875528 1.0758562 2894892
0.27505425 0.10862848 1.0746435 2894892
0.32490838 0.10850222 1.0733792 2894892
0.37486887 0.10837576 1.0721052 2894892
0.41607517 0.10825725 1.073631 2894892
-0.90416366 0.11140581 1.1422241 10197915
-0.87204766 0.11140288 1.1272236 10197915
-0.82498342 0.11129494 1.1239946 10197915
-0.77378362 0.11115315 1.1249101 10197915
-0.72503811 0.11101718 1.1259365 10197915
-0.67513442 0.11089111 1.1246313 10197915
-0.62503088 0.11076384 1.1234298 10197915
-0.57602894 0.1106332 1.1233699 10197915
-0.52502519 0.11048642 1.1252818 10197915
-0.47497076 0.11036015 1.1239245 10197915
-0.42399535 0.11022237 1.1242145 10197915
-0.37503093 0.11008228 1.1258913 10197915
-0.32505694 0.10995571 1.1246276 10197915
-0.27504346 0.10982939 1.1233077 10197915
-0.22619891 0.10969397 1.1241947 10197915
-0.17500699 0.10955115 1.1252909 10197915
-0.12498195 0.10942542 1.1238564 10197915
-0.074292175 0.10929134 1.1236092 10197915
-0.024960143 0.10914727 1.1258283 10197915
0.024999287 0.10902055 1.1245979 10132122
0.074995346 0.10889475 1.1231952 10000536
0.12391078 0.10875358 1.1250899 10000536
0.17490055 0.10861652 1.1252344 9605778
0.22498411 0.10849033 1.1238556 2894892
0.27512881 0.1083621 1.122816 2894892
0.32501915 0.10821176 1.1258954 2894892
0.3750338 0.10808559 1.1245375 2894892
0.42423794 0.10795741 1.1239443 2894892
0.45446059 0.10779053 1.1395313 2894892
-0.91844815 0.11124912 1.1774896 10197915
-0.87495297 0.11116531 1.1716254 10197915
-0.82390052 0.1110235 1.1725928 10197915
-0.77616298 0.11087794 1.1758651 10197915
-0.72508425 0.11073237 1.17751 10197915
-0.67494488 0.11060625 1.1760881 10197915
-0.62492114 0.11047958 1.1748217 10197915
-0.57501161 0.11035427 1.1733671 10197915
-0.52501887 0.1102277 1.1721028 10197915
-0.4749448 0.11010088 1.1708373 10197915
-0.42571047 0.10994437 1.1753571 10197915
-0.37506586 0.10979488 1.1779206 10197915
-0.32511199 0.10966905 1.1765316 10197915
-0.27507958 0.1095433 1.1751004 10197915
-0.2249651 0.10941623 1.1738613 10197915
-0.17486911 0.10929012 1.1724658 10197915
-0.12488873 0.10916381 1.1711533 10197915
-0.074456714 0.10901752 1.1732391 10197915
-0.02499878 0.10885765 1.1782609 10197915
0.024960225 0.10873171 1.1768973 10132122
0.074996367 0.10860512 1.1756108 10000536
0.1251106 0.10847919 1.1741672 10000536
0.17501271 0.10835341 1.1728028 10000536
0.22499125 0.10822718 1.1714804 3684408
0.27529624 0.1080965 1.1707996 2894892
0.32512176 0.10792003 1.178645 2894892
0.37507784 0.10779347 1.1773868 2894892
0.42491859 0.10766829 1.1759381 2894892
0.46214676 0.10755496 1.1784496 2894892
-0.96523339 0.11107105 1.2323368 10197915
-0.92510879 0.11101282 1.2234766 10197915
-0.87504381 0.11088646 1.2221347 10197915
-0.82632756 0.11075354 1.2226365 10197915
-0.77500248 0.11060486 1.2247227 10197915
-0.72377133 0.11046612 1.2250578 10197915
-0.67506611 0.11032446 1.2271451 10197915
-0.62503743 0.11019848 1.2257477 10197915
-0.57491553 0.11007186 1.2244302 10197915
-0.52490956 0.10994621 1.2229886 10197915
-0.47501743 0.10982038 1.2216332 10197915
-0.42520469 0.10966761 1.2251952 10197915
-0.37502626 0.10953959 1.2241011 10197915
-0.32375622 0.10939287 1.225861 10197915
-0.27492917 0.10925858 1.2265539 10197915
-0.22496955 0.10913194 1.2253169 10197915
-0.17502399 0.10900673 1.2238206 10197915
-0.12509221 0.10888113 1.2224092 10197915
-0.076530829 0.10874555 1.2234633 10197915
-0.024998985 0.10859948 1.2249706 10197915
0.025086559 0.10847374 1.2235227 10066329
0.075909682 0.10832068 1.226643 10000536
0.12494964 0.1081932 1.2260002 10000536
0.17493212 0.10806723 1.224623 10000536
0.22499931 0.10794115 1.2232374 5000268
0.27458504 0.10781426 1.2222177 2894892
0.32487923 0.10765994 1.2258302 2894892
0.37484473 0.10753478 1.224319 2894892
0.42493844 0.10740778 1.2230777 2894892
0.47176817 0.10725024 1.2289387 2894892
0.50118297 0.10706386 1.2484471 2894892
-1.0109327 0.11090568 1.2843561 10197915
-0.97482347 0.11086471 1.2743055 10197915
-0.92480719 0.11073892 1.2728914 10197915
-0.87413311 0.11060593 1.2724534 10197915
-0.82488751 0.11045678 1.2756411 10197915
-0.77496201 0.11033079 1.2742933 10197915
-0.72606015 0.11020062 1.2742062 10197915
-0.67484111 0.11004788 1.2770793 10197915
-0.62492406 0.1099222 1.2756881 10197915
-0.57498908 0.10979769 1.2740797 10197915
-0.52503198 0.1096716 1.2727466 10197915
-0.47469103 0.10954347 1.2715904 10197915
-0.42508975 0.10938837 1.2756684 10197915
-0.37519717 0.10926393 1.2740619 10197915
-0.32649907 0.10912566 1.2755412 10197915
-0.27483472 0.10897974 1.2769653 10197915
-0.22484736 0.10885465 1.2754337 10197915
-0.17497434 0.10872915 1.2740318 10197915
-0.1249514 0.10860397 1.2724983 10197915
-0.074782573 0.10847672 1.271271 10197915
-0.024945728 0.10832079 1.2753898 10197915
0.025013098 0.10819492 1.2740151 10132122
0.07405109 0.1080483 1.27683 10066329
0.12509926 0.1079118 1.2768512 10000536
0.17514808 0.10778594 1.2754294 10000536
0.22508039 0.10766102 1.2738845 6184542
0.27502897 0.10753628 1.272312 2894892
0.32499033 0.10741031 1.2709514 2894892
0.37521133 0.10725345 1.275054 2894892
0.42502654 0.10712634 1.2739671 2894892
0.47526479 0.10696855 1.2782248 2894892
0.50817585 0.10685869 1.2821968 2894892
-1.0577347 0.11072869 1.3390197 10197915
-1.0235065 0.11071853 1.3243042 10197915
-0.97490281 0.11060338 1.3216488 10197915
-0.92498559 0.11047802 1.3201885 10197915
-0.87435955 0.11032862 1.3227513 10197915
-0.82496065 0.11015908 1.3295426 10197915
-0.77491802 0.11003397 1.3279948 10197915
-0.7248531 0.10990893 1.3264136 10197915
-0.67489755 0.10978341 1.3249712 10197915
-0.62505907 0.10965897 1.3233972 10197915
-0.57491559 0.10953276 1.321986 10197915
-0.52488816 0.10940765 1.3204366 10197915
-0.47463545 0.10927426 1.3202829 10197915
-0.42478681 0.10908843 1.3298104 10197915
-0.37504902 0.10896352 1.3283609 10197915
-0.32514596 0.1088386 1.3268414 10197915
-0.27508256 0.10871367 1.3252422 10197915
-0.22513311 0.10858824 1.3237892 10197915
-0.17502445 0.10846242 1.3223288 10197915
-0.12503135 0.10833766 1.3207343 10197915
-0.075151823 0.1082128 1.3192122 10197915
-0.023851804 0.10802166 1.3289928 10197915
0.025042262 0.10789248 1.3287307 10197915
0.075048566 0.107767 1.3272594 10197915
0.12507357 0.10764278 1.3255464 10132122
0.17512183 0.10751685 1.3241414 10066329
0.22505312 0.10739267 1.3224664 7434609
0.27500409 0.10726716 1.3210299 2894892
0.32510969 0.10714163 1.3195229 2894892
0.37648547 0.1069646 1.3267108 2894892
0.4250783 0.10682192 1.3290374 2894892
0.47504386 0.10669643 1.3275863 2894892
0.51736242 0.1065779 1.3285763 2894892
-1.1053606 0.11053605 1.3969091 6513507
-1.0717605 0.11054763 1.3785695 9408399
-1.0249076 0.1104472 1.3740838 10197915
-0.97513449 0.11032196 1.3726894 10197915
-0.92503375 0.11019693 1.3710955 10197915
-0.87677073 0.11006093 1.3723693 10197915
-0.82518923 0.10991019 1.3746983 10197915
-0.77344137 0.10976502 1.3759537 10197915
-0.72482997 0.10962287 1.3781636 10197915
-0.67481303 0.10949768 1.3766284 10197915
-0.62505776 0.10937344 1.3750683 10197915
-0.57512742 0.1092496 1.3733441 10197915
-0.52516478 0.10912403 1.371892 10197915
-0.47581157 0.10899748 1.3709259 10197915
-0.42509732 0.10883669 1.3755261 10197915
-0.37528241 0.10871283 1.3738511 10197915
-0.32381254 0.10855571 1.3773865 10197915
-0.27491963 0.1084254 1.3773361 10197915
-0.22486888 0.10829981 1.3758632 10197915
-0.17493531 0.10817486 1.3743185 10197915
-0.12497278 0.10805102 1.3725805 10197915
-0.074985437 0.10792463 1.371264 10197915
-0.026397325 0.10777842 1.3742448 10197915
0.024864962 0.10763908 1.3746771 10197915
0.0748941 0.10751415 1.3730849 10197915
0.1249064 0.10735133 1.3783671 10197915
0.17495158 0.10722653 1.376767 10197915
0.22502352 0.10710263 1.3749676 8882055
0.27497745 0.10697691 1.3735627 2894892
0.3250995 0.10685254 1.3718407 2894892
0.37342793 0.10671948 1.3725514 2894892
0.42492634 0.10656546 1.3755255 2894892
0.47489989 0.10644077 1.3739159 2894892
0.52606297 0.10629673 1.3752487 2894892
0.55508685 0.10612705 1.3919199 2894892
-1.1215738 -0.62282771 1.4430799 6776679
-1.1225815 -0.57506239 1.4429438 6513507
-1.1228005 -0.52503312 1.4430957 6513507
-1.1233991 -0.47502562 1.443113 6513507
-1.1236042 -0.42511269 1.4432696 6513507
-1.1241456 -0.37500197 1.4433085 6513507
-1.1244352 -0.32514608 1.4434352 6513507
-1.1248783 -0.27500015 1.4435084 6513507
-1.1252805 -0.2251928 1.4435942 6513507
-1.1256086 -0.17504048 1.4437088 6513507
-1.1260633 -0.12517111 1.4437765 6513507
-1.1264607 -0.075146161 1.443866 6513507
-1.1268806 -0.025231775 1.443947 6513507
-1.1271143 0.025127959 1.4440945 6513507
-1.127808 0.075128734 1.4440801 6513507
-1.1253473 0.10624465 1.4408081 6513507
-1.0751483 0.1103067 1.4238082 6645093
-1.0252297 0.11018157 1.4223143 8355711
-0.97397619 0.11002126 1.4265454 9868950
-0.92508692 0.10989371 1.4259905 10197915
-0.87505251 0.10976893 1.4243776 10197915
-0.82498258 0.10964338 1.4228837 10197915
-0.77665806 0.10951033 1.4236007 10197915
-0.72469729 0.10935333 1.4268867 10197915
-0.67466605 0.10922928 1.4251441 10197915
-0.6249525 0.10910538 1.4235278 10197915
-0.57495099 0.10898013 1.4220175 10197915
-0.52388 0.10882123 1.4260752 10197915
-0.47494131 0.10869067 1.4260408 10197915
-0.4248313 0.10856726 1.4241447 10197915
-0.37513581 0.10844298 1.4226048 10197915
-0.32686982 0.10829753 1.4255935 10197915
-0.27501741 0.10815316 1.426652 10197915
-0.22491816 0.10802963 1.4247767 10197915
-0.17493182 0.10790391 1.4233631 10197915
-0.12506227 0.10778033 1.4216117 10197915
-0.074107446 0.10761973 1.4260311 10197915
-0.025106536 0.10749111 1.4256195 10197915
0.025067661 0.10736614 1.4239631 10197915
0.074977078 0.10724173 1.4223578 10197915
0.12501577 0.10707715 1.4279437 10197915
0.17509823 0.10695252 1.4262818 10197915
0.22506106 0.10682817 1.4246238 10000536
0.27510616 0.10670362 1.4229627 2960685
0.32483697 0.10657989 1.4213123 2894892
0.37590289 0.10641943 1.4256623 2894892
0.42486066 0.10629027 1.4253592 2894892
0.47494048 0.10616548 1.4237349 2894892
0.52356863 0.10603373 1.4240507 2894892
0.56293273 0.10589392 1.4303135 2894892
-1.0646087 -0.65225673 1.4630407 11711154
-1.0219018 -0.65562499 1.4780908 11711154
-0.97854501 -0.65909946 1.4933693 11711154
-1.1008152 -0.62431562 1.4503959 10855845
-1.0750358 -0.62494689 1.4594877 11053224
-1.025025 -0.62497514 1.4771292 11382189
-0.98011726 -0.62517285 1.49297 11645361
-1.1013945 -0.57430619 1.4504211 6513507
-1.0752 -0.57498384 1.4596589 6513507
-1.0251623 -0.57503432 1.4773096 6513507
-0.98044825 -0.57499886 1.4930838 6513507
-1.1015918 -0.52486062 1.4505781 6513507
-1.0753194 -0.52498597 1.4598455 6513507
-1.0252686 -0.52502131 1.4775009 6513507
-0.98088908 -0.52514505 1.4931563 6513507
-1.1021644 -0.47491187 1.4506046 6513507
-1.075462 -0.47499761 1.4600246 6513507
-1.0254312 -0.47499508 1.4776733 6513507
-0.98118573 -0.47500885 1.493281 6513507
-1.1024024 -0.42389783 1.4507549 6513507
-1.0753983 -0.42490989 1.4602766 6513507
-1.0253512 -0.42509475 1.4779299 6513507
-0.98169637 -0.42507046 1.4933295 6513507
-1.1024469 -0.37509611 1.4509633 6513507
-1.074747 -0.37501335 1.4607342 6513507
-1.0251548 -0.3749662 1.4782294 6513507
-0.98193133 -0.37498355 1.4934771 6513507
-1.1027478 -0.32408059 1.4510909 6513507
-1.074905 -0.32502365 1.4609091 6513507
-1.0248613 -0.32495803 1.4785619 6513507
-0.98203647 -0.32514197 1.4936683 6513507
-1.103215 -0.27509215 1.4511498 6513507
-1.0750235 -0.27500939 1.4610957 6513507
-1.0249149 -0.27500027 1.4787718 6513507
-0.9821384 -0.27499619 1.493862 6513507
-1.1035883 -0.2240209 1.4512527 6513507
-1.0751644 -0.22500622 1.4612743 6513507
-1.025061 -0.22500819 1.4789497 6513507
-0.98278499 -0.22500166 1.4938631 6513507
-1.1039439 -0.17497128 1.4513518 6513507
-1.0753071 -0.17497806 1.4614537 6513507
-1.0252049 -0.17502837 1.4791269 6513507
-0.98296952 -0.17501839 1.4940275 6513507
-1.1044109 -0.12442406 1.4514189 6513507
-1.0753947 -0.12497372 1.4616525 6513507
-1.0252693 -0.12502345 1.4793348 6513507
-0.98354959 -0.1250879 1.4940517 6513507
-1.1046298 -0.07488066 1.4515692 6513507
-1.0755792 -0.074912712 1.4618164 6513507
-1.0255475 -0.075139493 1.4794645 6513507
-0.98369402 -0.075037368 1.4942292 6513507
-1.1047462 -0.024900265 1.4517559 6513507
-1.0747387 -0.024840031 1.4623421 6513507
-1.0250593 -0.025159366 1.479866 6513507
-0.98431283 -0.024840139 1.4942416 6513507
-1.1049682 0.025263889 1.4519083 6513507
-1.0748374 0.024854736 1.462535 6513507
-1.0251626 0.025140544 1.4800603 6513507
-0.98453462 0.024688296 1.4943899 6513507
-1.1055688 0.075238921 1.4519256 6513507
-1.0750986 0.074851587 1.4626719 6513507
-1.0249859 0.075183496 1.4803516 6513507
-0.98455358 0.07486929 1.4946139 6513507
-1.1056601 0.10527264 1.4520277 6513507
-1.0744771 0.10552905 1.462146 6513507
-1.0244287 0.10591013 1.477042 6513507
-0.98140633 0.10657695 1.4881632 6579300
-0.92481291 0.10960566 1.4779856 8421504
-0.87483621 0.10948139 1.4763134 10066329
-0.82476234 0.10935616 1.4747604 10197915
-0.77480257 0.10923263 1.4729593 10197915
-0.72495466 0.1091094 1.4711586 10197915
-0.67522621 0.10898433 1.4697453 10197915
-0.62509471 0.10881726 1.4757373 10197915
-0.57507384 0.10869426 1.4738106 10197915
-0.52643579 0.10854165 1.4779133 10197915
-0.47505414 0.10840233 1.4782807 10197915
-0.42516637 0.10827766 1.4767174 10197915
-0.37538946 0.10815468 1.4749036 10197915
-0.32511026 0.10802976 1.4732031 10197915
-0.27474537 0.10790462 1.4714938 10197915
-0.22490185 0.10778078 1.469805 10197915
-0.17362769 0.10762051 1.4740174 10197915
-0.12489968 0.10748984 1.4741011 10197915
-0.076061733 0.1073348 1.4785453 10197915
-0.024916438 0.10719805 1.4785657 10197915
0.024878135 0.10707441 1.4768609 10197915
0.074961215 0.10695006 1.475149 10197915
0.12513423 0.10682476 1.4735565 10197915
0.17498557 0.10670245 1.4715952 10197915
0.22492589 0.10657773 1.4700135 10197915
0.27661401 0.10642868 1.4719956 3881787
0.32480896 0.10628604 1.4745048 2894892
0.37363961 0.10613327 1.4785397 2894892
0.42499492 0.10599353 1.4789954 2894892
0.47488025 0.10587121 1.4770119 2894892
0.52485514 0.1057465 1.4754112 2894892
0.57180411 0.10562123 1.4753771 2894892
-0.95490003 -0.66097713 1.5017021 11711154
-0.92908347 -0.66382337 1.5143294 11711154
-0.95529872 -0.62408113 1.5017302 11711154
-0.93002516 -0.62508196 1.5136663 11645361
-0.95516831 -0.57496846 1.5020018 6579300
-0.92580885 -0.57416016 1.5124524 6710886
-0.87526506 -0.57033902 1.5302109 6513507
-0.83483833 -0.57064778 1.5444696 6513507
-0.95565242 -0.52446818 1.5020618 6513507
-0.92508894 -0.52500945 1.5128436 6513507
-0.87501425 -0.52498287 1.530507 6513507
-0.83459103 -0.52512324 1.5447659 6513507
-0.95590955 -0.47494999 1.5021987 6513507
-0.92519134 -0.47501972 1.5130361 6513507
-0.8751266 -0.47499046 1.5306969 6513507
-0.83519572 -0.47503564 1.544782 6513507
-0.95645285 -0.42465496 1.5022374 6513507
-0.92531258 -0.42503053 1.5132188 6513507
-0.87524927 -0.42503792 1.5308825 6513507
-0.83536261 -0.42511037 1.5449516 6513507
-0.95668346 -0.37493727 1.5023835 6513507
-0.92514777 -0.37491274 1.5135108 6513507
-0.87502462 -0.37515429 1.53119 6513507
-0.83591539 -0.37502971 1.544986 6513507
-0.95725006 -0.32479426 1.5024136 6513507
-0.92503154 -0.32499924 1.5137743 6513507
-0.87491268 -0.32497975 1.5314591 6513507
-0.83608675 -0.32517672 1.5451545 6513507
-0.95739406 -0.27510121 1.5025904 6513507
-0.92514473 -0.27496397 1.5139676 6513507
-0.87502968 -0.27499953 1.5316474 6513507
-0.83667374 -0.27505836 1.5451773 6513507
-0.95799506 -0.22509845 1.5026077 6513507
-0.92528313 -0.22499409 1.5141484 6513507
-0.87519097 -0.22499312 1.5318193 6513507
-0.83686727 -0.22512966 1.5453373 6513507
-0.95787364 -0.17455319 1.5028821 6513507
-0.92504472 -0.17514202 1.5144614 6513507
-0.8752287 -0.17502807 1.5320338 6513507
-0.83745342 -0.17488945 1.5453616 6513507
-0.95832247 -0.12479024 1.5029521 6513507
-0.92495024 -0.12500788 1.5147185 6513507
-0.87534064 -0.12506446 1.5322239 6513507
-0.83760476 -0.12501234 1.5455363 6513507
-0.95847046 -0.074542165 1.5031301 6513507
-0.92517668 -0.075117268 1.5148708 6513507
-0.87536067 -0.074877389 1.5324465 6513507
-0.83810151 -0.075016946 1.5455908 6513507
-0.95901656 -0.024909213 1.5031654 6513507
-0.92515832 -0.025107102 1.5151069 6513507
-0.87511533 -0.024912393 1.5327609 6513507
-0.83782816 -0.025164563 1.5459151 6513507
-0.95925498 0.025150487 1.5033098 6513507
-0.92527413 0.025111301 1.5152973 6513507
-0.87521565 0.024903193 1.5329551 6513507
-0.83836466 0.024978895 1.5459557 6513507
-0.95976233 0.074739292 1.5033587 6513507
-0.92538577 0.07522203 1.5154818 6513507
-0.87509525 0.074806251 1.533227 6513507
-0.8385883 0.074728787 1.5461044 6513507
-0.95983344 0.10464216 1.5034703 6513507
-0.9243201 0.10512556 1.5153503 6513507
-0.87430114 0.10548595 1.5303644 6710886
-0.83268642 0.10654036 1.5351062 7763574
-0.77497929 0.10897022 1.5205311 10197915
-0.72523606 0.10884759 1.5186683 10197915
-0.67344266 0.10869977 1.5203837 10197915
-0.62482303 0.10850769 1.5316331 10197915
-0.57488167 0.10838312 1.5300297 10197915
-0.52484292 0.10826069 1.5279956 10197915
-0.4749186 0.10813536 1.5265323 10197915
-0.42489347 0.10801213 1.5246423 10197915
-0.37519795 0.10788897 1.5228999 10197915
-0.32540074 0.10776553 1.521162 10197915
-0.27529842 0.10764135 1.5194088 10197915
-0.22509806 0.10751616 1.5177915 10197915
-0.17500924 0.10732692 1.5278202 10197915
-0.12493937 0.10717612 1.5308992 10197915
-0.074962355 0.10705313 1.5289886 10197915
-0.024892556 0.10692914 1.5272176 10197915
0.025064776 0.10680541 1.5254512 10197915
0.074903287 0.106682 1.523689 10197915
0.12483925 0.10655754 1.5220629 10197915
0.17507529 0.10643466 1.5200084 10197915
0.22519521 0.10630899 1.518513 10197915
0.27405033 0.10616513 1.5209289 5395026
0.32509419 0.10596958 1.531641 2894892
0.3749992 0.1058461 1.5298554 2894892
0.42520255 0.10572185 1.5280638 2894892
0.47529167 0.10559795 1.5262693 2894892
0.52505386 0.10547403 1.524632 2894892
0.57511246 0.10535087 1.5227017 2894892
0.60762471 0.10523857 1.527303 2894892
-0.93864715 -0.70459151 1.5869426 11711154
-0.93433422 -0.67443955 1.5751112 11711154
-0.93379718 -0.6310271 1.5741568 10987431
-0.80958873 -0.57057559 1.5533777 6645093
-0.77503473 -0.57065904 1.5655668 6908265
-0.72533178 -0.570741 1.5830998 7303023
-0.68892711 -0.57085997 1.5959413 7631988
-0.80973601 -0.52492023 1.553535 6513507
-0.77516097 -0.52498573 1.5657305 6513507
-0.72544217 -0.52498049 1.58327 6513507
-0.68922764 -0.52530026 1.5960441 6513507
-0.81031048 -0.47499189 1.5535605 6513507
-0.77523655 -0.47498268 1.5659342 6513507
-0.72533554 -0.47486484 1.5835379 6513507
-0.68948299 -0.47537133 1.5961826 6513507
-0.81048912 -0.42479357 1.5537276 6513507
-0.77535731 -0.42502397 1.5661196 6513507
-0.7250911 -0.42496693 1.5838526 6513507
-0.68937314 -0.42537054 1.5964507 6513507
-0.81106609 -0.37489119 1.5537536 6513507
-0.77542746 -0.37502465 1.5663255 6513507
-0.72514635 -0.37498367 1.5840629 6513507
-0.68984926 -0.37502199 1.5965141 6513507
-0.81124341 -0.3247804 1.5539203 6513507
-0.77539474 -0.32487351 1.5665658 6513507
-0.72508103 -0.32513103 1.5843134 6513507
-0.6901114 -0.32534358 1.5966493 6513507
-0.81181425 -0.27498677 1.5539471 6513507
-0.77509892 -0.27499849 1.5668977 6513507
-0.72482264 -0.27499917 1.5846347 6513507
-0.69063306 -0.27505848 1.5966955 6513507
-0.81197083 -0.22480145 1.5541216 6513507
-0.77513176 -0.22501454 1.5671147 6513507
-0.72485614 -0.22504371 1.5848522 6513507
-0.69081116 -0.22521871 1.5968609 6513507
-0.81216002 -0.17470707 1.5542847 6513507
-0.77491218 -0.17512877 1.5674231 6513507
-0.72495228 -0.1750901 1.5850475 6513507
-0.69130671 -0.17478687 1.5969176 6513507
-0.81222719 -0.12492059 1.5544891 6513507
-0.7749365 -0.12501583 1.5676438 6513507
-0.72509009 -0.12500551 1.5852283 6513507
-0.69153631 -0.12530109 1.5970633 6513507
-0.81279993 -0.075217716 1.5545152 6513507
-0.77471131 -0.074999638 1.5679519 6513507
-0.72513443 -0.074923672 1.5854419 6513507
-0.69212478 -0.075288899 1.5970848 6513507
-0.81296104 -0.024950249 1.554689 6513507
-0.77512616 -0.024991414 1.5680338 6513507
-0.72518343 -0.024962327 1.5856546 6513507
-0.69226021 -0.025387095 1.5972657 6513507
-0.81348956 0.025120683 1.5547309 6513507
-0.77522522 0.024981083 1.5682294 6513507
-0.72527349 0.024966445 1.5858505 6513507
-0.6928367 0.025146637 1.597294 6513507
-0.81379193 0.075368695 1.5548543 6513507
-0.77500165 0.075014301 1.5685383 6513507
-0.72537822 0.074922673 1.5860419 6513507
-0.69302243 0.075070217 1.5974572 6513507
-0.8138839 0.10475983 1.5548131 6579300
-0.77533841 0.10503103 1.5667951 6908265
-0.72545433 0.10527404 1.5808318 7500402
-0.68419719 0.10670877 1.5816338 8816262
-0.6251812 0.10827284 1.5743049 10197915
-0.57421625 0.10810149 1.5806733 10197915
-0.52505201 0.10797632 1.5795552 10197915
-0.47499013 0.10785341 1.5775913 10197915
-0.42504594 0.1077282 1.5760963 10197915
-0.37499005 0.10760451 1.574284 10197915
-0.32483953 0.10748222 1.5721623 10197915
-0.27479741 0.10735763 1.5705087 10197915
-0.2248708 0.10723338 1.568856 10197915
-0.17716688 0.10708395 1.5728301 10197915
-0.12487675 0.10693853 1.5738682 10197915
-0.074474275 0.10676627 1.5806648 10197915
-0.025085341 0.10664249 1.5791899 10197915
0.025046526 0.10651868 1.5773562 10197915
0.075275473 0.1063946 1.5755197 10197915
0.12517457 0.10627051 1.5738491 10197915
0.17495587 0.10614843 1.5718737 10197915
0.22483656 0.1060252 1.5700498 10197915
0.27364117 0.10590032 1.5690556 6776679
0.32501119 0.10572805 1.5753901 2894892
0.37546778 0.10560219 1.5737695 2894892
0.42521128 0.10543127 1.58065 2894892
0.47508183 0.10530819 1.5788053 2894892
0.52483225 0.10518545 1.5769649 2894892
0.57489884 0.10506103 1.5752686 2894892
0.61722147 0.10494379 1.5760158 2894892
-0.95586562 -0.71599174 1.6356068 11711154
-0.94681638 -0.71034044 1.6100267 11711154
-0.95499647 -0.67507845 1.6336786 11711154
-0.9468922 -0.67463398 1.6107091 11711154
-0.95414656 -0.64127791 1.6317121 10329501
-0.94631571 -0.63690931 1.6095694 10724259
-0.66354072 -0.57088763 1.604897 7829367
-0.62489998 -0.57098955 1.6185271 8158332
-0.57540798 -0.5711261 1.6359857 8487297
-0.54324198 -0.57122684 1.6473328 8750469
-0.66385579 -0.52477312 1.6049967 6513507
-0.62500781 -0.5249899 1.618701 6513507
-0.57497227 -0.52495897 1.6363516 6513507
-0.54280096 -0.5252654 1.6476986 6513507
-0.66429996 -0.47499418 1.6050687 6513507
-0.62509322 -0.47499311 1.6188996 6513507
-0.57495171 -0.47499925 1.636588 6513507
-0.54335994 -0.47497579 1.6477318 6513507
-0.66456884 -0.42475325 1.6052046 6513507
-0.62517345 -0.42499956 1.6190999 6513507
-0.57507592 -0.42497563 1.6367731 6513507
-0.54348123 -0.42506072 1.6479186 6513507
-0.66502994 -0.3749809 1.6052687 6513507
-0.62523866 -0.37500972 1.6193069 6513507
-0.57509273 -0.3749887 1.6369972 6513507
-0.5440219 -0.37523335 1.6479554 6513507
-0.66531307 -0.32478911 1.6053997 6513507
-0.62529445 -0.32502288 1.619516 6513507
-0.57514447 -0.32498834 1.6372049 6513507
-0.5441885 -0.32501158 1.648127 6513507
-0.66579705 -0.27494103 1.6054572 6513507
-0.62540495 -0.27500856 1.6197059 6513507
-0.57524705 -0.27499166 1.6373998 6513507
-0.54475427 -0.27553433 1.6481545 6513507
-0.66598201 -0.2247967 1.6056223 6513507
-0.62545145 -0.22499694 1.6199189 6513507
-0.57533699 -0.22503145 1.6375983 6513507
-0.54491156 -0.22483538 1.648331 6513507
-0.66654032 -0.17504302 1.6056528 6513507
-0.62520063 -0.17483456 1.6202371 6513507
-0.57496762 -0.17517196 1.6379569 6513507
-0.54543495 -0.17572194 1.6483713 6513507
-0.66679615 -0.1247803 1.6057926 6513507
-0.62497258 -0.12496619 1.6205468 6513507
-0.57484126 -0.12502825 1.638231 6513507
-0.54568404 -0.12498126 1.6485161 6513507
-0.6671769 -0.075014032 1.6058871 6513507
-0.62523919 -0.074843988 1.620682 6513507
-0.57502371 -0.075147025 1.6383941 6513507
-0.54608423 -0.076061085 1.6485991 6513507
-0.66751933 -0.025010008 1.6059948 6513507
-0.62514788 -0.024846373 1.6209434 6513507
-0.57495546 -0.025117753 1.6386474 6513507
-0.54643148 -0.025271978 1.64871 6513507
-0.66803223 0.025185797 1.606045 6513507
-0.62516308 0.024795229 1.6211652 6513507
-0.5750277 0.025121931 1.6388539 6513507
-0.54676861 0.024128687 1.6488171 6513507
-0.6674701 0.075085394 1.6064711 6513507
-0.62487328 0.074841976 1.621497 6513507
-0.5752508 0.075143225 1.639003 6513507
-0.54717994 0.075143903 1.648906 6513507
-0.66825622 0.10437553 1.6058465 7237230
-0.62412208 0.10477778 1.6190515 7763574
-0.57481307 0.10476424 1.6356769 8092539
-0.53152376 0.10660446 1.6320733 9474192
-0.47513399 0.10760178 1.6232119 10197915
-0.42277709 0.10744105 1.6269672 10197915
-0.37477508 0.10730194 1.6289276 10197915
-0.32468432 0.10717849 1.6270487 10197915
-0.27516487 0.10705644 1.625196 10197915
-0.22530408 0.10693257 1.6235019 10197915
-0.1751094 0.10680975 1.6214556 10197915
-0.12503003 0.10668723 1.6194102 10197915
-0.075764388 0.10651697 1.6264044 10197915
-0.024919117 0.10638689 1.625343 10197915
0.024880804 0.10626429 1.6234684 10197915
0.077021778 0.10611769 1.6247857 10197915
0.12486009 0.10596488 1.629308 10197915
0.1748271 0.10584278 1.6272455 10197915
0.22512317 0.10571893 1.625342 10197915
0.2753056 0.10559531 1.6234415 7895160
0.32536688 0.10547201 1.6215464 2894892
0.37509596 0.10534863 1.6198324 2894892
0.42507049 0.10517396 1.6272738 2894892
0.47508076 0.10505089 1.6253693 2894892
0.52530038 0.10492656 1.6235844 2894892
0.57569987 0.10479826 1.6224326 2894892
0.62462938 0.10462833 1.6295177 2894892
0.65563154 0.10447563 1.6421616 2894892
-0.97584367 -0.75366753 1.691749 11711154
-0.96971077 -0.72359127 1.6747558 11711154
-0.9685443 -0.67540556 1.6720797 11513775
-0.96359408 -0.64575064 1.6584359 8487297
-0.51802236 -0.57123339 1.6562294 8947848
-0.47497687 -0.57131523 1.671414 9276813
-0.4247261 -0.57147235 1.6891395 9671571
-0.39691553 -0.57185233 1.6989481 9934743
-0.51811373 -0.52499038 1.6564093 6513507
-0.4750618 -0.52498269 1.6715961 6513507
-0.42482644 -0.52500612 1.6893179 6513507
-0.39701521 -0.52512991 1.6991277 6513507
-0.51879752 -0.4750292 1.6563963 6513507
-0.47515643 -0.47498935 1.6717916 6513507
-0.42486879 -0.47501576 1.6895317 6513507
-0.39742669 -0.47687933 1.6992035 6513507
-0.51885653 -0.42503235 1.656605 6513507
-0.47517267 -0.42500183 1.6720147 6513507
-0.42492202 -0.42501333 1.689742 6513507
-0.39776459 -0.42522067 1.699321 6513507
-0.51945084 -0.37495252 1.6566249 6513507
-0.47524053 -0.37500125 1.6722206 6513507
-0.42499673 -0.37501651 1.6899449 6513507
-0.39804566 -0.37766793 1.6994401 6513507
-0.51964325 -0.3250179 1.6567854 6513507
-0.4753311 -0.32498854 1.6724167 6513507
-0.42501938 -0.32498896 1.6901666 6513507
-0.39851412 -0.32528847 1.6995149 6513507
-0.52012616 -0.27490756 1.6568449 6513507
-0.47537366 -0.27499801 1.6726326 6513507
-0.42512903 -0.2749846 1.6903559 6513507
-0.39866915 -0.27825874 1.6996758 6513507
-0.52033991 -0.22501311 1.6569991 6513507
-0.47542486 -0.22504662 1.6728423 6513507
-0.425118 -0.22494997 1.6905904 6513507
-0.3992638 -0.22533353 1.6997085 6513507
-0.52084535 -0.17480733 1.6570494 6513507
-0.47546712 -0.17508255 1.6730568 6513507
-0.42523071 -0.1749744 1.6907796 6513507
-0.39931068 -0.17817524 1.6999083 6513507
-0.52095819 -0.1249455 1.6572386 6513507
-0.47542545 -0.12509631 1.673301 6513507
-0.42510653 -0.1250048 1.6910515 6513507
-0.52079093 -0.0748071 1.6575278 6513507
-0.47492951 -0.07488624 1.6737061 6513507
-0.42538995 -0.075186059 1.6911799 6513507
-0.52129638 -0.024880961 1.6575783 6513507
-0.47498867 -0.024964852 1.6739131 6513507
-0.42593035 -0.025239907 1.6912179 6513507
-0.52166086 0.025053166 1.6576781 6513507
-0.47504774 0.024968984 1.6741222 6513507
-0.42602009 0.025208931 1.6914182 6513507
-0.52187884 0.074956603 1.6578301 6513507
-0.47510621 0.074915245 1.674329 6513507
-0.42669135 0.075064741 1.6914098 6513507
-0.52177584 0.10424591 1.6572849 8158332
-0.47514769 0.10444793 1.6708428 8618883
-0.42638704 0.10456733 1.6855311 9013641
-0.37461945 0.10703216 1.6776757 10197915
-0.32454938 0.10690983 1.6756049 10197915
-0.2746003 0.10678622 1.673821 10197915
-0.22475849 0.10666443 1.6717592 10197915
-0.17292958 0.10651574 1.6736109 10197915
-0.12513942 0.10636272 1.67819 10197915
-0.074995853 0.10624156 1.6758727 10197915
-0.024976036 0.10611657 1.6743068 10197915
0.025166959 0.10599432 1.672178 10197915
0.073103204 0.1058653 1.6723567 10197915
0.124813 0.105694 1.6783502 10197915
0.17501754 0.10556991 1.676531 10197915
0.22476588 0.10544772 1.6745899 10197915
0.27474216 0.10532573 1.6725019 9211020
0.3249481 0.1052024 1.6705434 2894892
0.37660062 0.10502829 1.6770761 2894892
0.42492148 0.10490047 1.6768421 2894892
0.47485003 0.10477789 1.6748828 2894892
0.52488583 0.10465504 1.6729194 2894892
0.5745967 0.10453096 1.6713401 2894892
0.6250667 0.1043514 1.6794311 2894892
0.66306752 0.10425125 1.6791764 2894892
-0.97956753 -0.75600904 1.702275 11711154
-0.97920227 -0.72541589 1.7016402 11711154
-0.97864199 -0.67849892 1.7006669 11119017
-0.37207258 -0.57154006 1.7077142 10066329
-0.32499292 -0.57168055 1.7243208 10461087
-0.27626291 -0.57184327 1.7415109 10790052
-0.37215424 -0.52498734 1.7078985 6513507
-0.32508245 -0.5249989 1.7245044 6513507
-0.27644753 -0.52511621 1.7416595 6513507
-0.37269911 -0.47484013 1.7079359 6513507
-0.32512894 -0.4749704 1.7247167 6513507
-0.27710029 -0.47501415 1.7416599 6513507
-0.37287167 -0.42500734 1.7081041 6513507
-0.32515308 -0.42498705 1.7249361 6513507
-0.27711612 -0.42498282 1.7418823 6513507
-0.37331012 -0.37480885 1.708178 6513507
-0.3251844 -0.37504834 1.7251546 6513507
-0.27778432 -0.37500206 1.7418767 6513507
-0.3736434 -0.32498053 1.7082897 6513507
-0.32521355 -0.32503957 1.7253742 6513507
-0.27781916 -0.32497108 1.742092 6513507
-0.3739751 -0.27482933 1.708402 6513507
-0.32527137 -0.27499911 1.7255826 6513507
-0.27840015 -0.27517685 1.7421167 6513507
-0.37439772 -0.22502236 1.7084811 6513507
-0.32533675 -0.22496577 1.7257891 6513507
-0.27859035 -0.22502169 1.7422792 6513507
-0.37463075 -0.17495418 1.7086288 6513507
-0.32539725 -0.1749588 1.7259969 6513507
-0.27905372 -0.17522073 1.7423445 6513507
-0.37503201 -0.12501474 1.7087162 6513507
-0.3254368 -0.12505585 1.7262121 6513507
-0.27932182 -0.12490849 1.7424796 6513507
-0.37533143 -0.074822403 1.7088404 6513507
-0.32539397 -0.075100705 1.7264559 6513507
-0.27956527 -0.075273417 1.7426206 6513507
-0.40076485 -0.023946809 1.700102 6513507
-0.37522709 -0.024781693 1.7091068 6513507
-0.32543489 -0.025036344 1.7266721 6513507
-0.28011149 -0.025244676 1.7426584 6513507
-0.40081331 0.024655104 1.7003076 6513507
-0.37527326 0.02478575 1.7093168 6513507
-0.32547522 0.025040524 1.7268867 6513507
-0.28016457 0.025225269 1.7428708 6513507
-0.40143475 0.077134736 1.7003288 6513507
-0.37548324 0.074814104 1.7094727 6513507
-0.32551587 0.075129889 1.7271011 6513507
-0.28084752 0.075093001 1.7428595 6513507
-0.40154228 0.10355568 1.700412 8816262
-0.37426284 0.10379694 1.7094475 9079434
-0.32541329 0.10419624 1.7234743 9605778
-0.27808455 0.10441396 1.7341332 9868950
-0.22490105 0.10637888 1.7235131 10197915
-0.17679258 0.10624972 1.7236208 10197915
-0.12471529 0.10607485 1.7300816 10197915
-0.074815176 0.10595342 1.7279315 10197915
-0.025033379 0.10583055 1.7260965 10197915
0.02499472 0.10570791 1.7240968 10197915
0.075259246 0.10558555 1.7219368 10197915
0.12541009 0.10546181 1.7200826 10197915
0.17690037 0.1053193 1.7209758 10197915
0.22509521 0.10515884 1.7267107 10197915
0.27509156 0.10503751 1.7244922 10066329
0.32472906 0.10491364 1.7229053 3289650
0.37266153 0.10475786 1.7279215 2894892
0.42488125 0.10460933 1.7295529 2894892
0.47484195 0.10448785 1.7273779 2894892
0.5250358 0.10436328 1.7256511 2894892
0.57510728 0.10424236 1.7233196 2894892
0.62506926 0.10412008 1.7212976 2894892
0.67127216 0.10400012 1.7206578 2894892
-0.25091642 -0.57145101 1.7504541 10921638
-0.22458151 -0.57186174 1.7597399 11184810
-0.17454806 -0.57209843 1.7773919 11513775
-0.12996511 -0.57211405 1.7931188 11711154
-0.25108811 -0.52364624 1.7506126 6513507
-0.2245892 -0.52499378 1.7599561 6513507
-0.17450681 -0.52499878 1.7776208 6513507
-0.130316 -0.52522695 1.79321 6645093
-0.2516669 -0.47504845 1.7506313 6513507
-0.22458032 -0.47498637 1.7601855 6513507
-0.17455612 -0.4750222 1.7778335 6513507
-0.13075665 -0.47502181 1.7932848 6513507
-0.25169823 -0.42505807 1.7508492 6513507
-0.22465415 -0.4249658 1.7603912 6513507
-0.17458379 -0.42499098 1.7780524 6513507
-0.13086133 -0.42510679 1.7934762 6513507
-0.25237471 -0.37449902 1.7508423 6513507
-0.22464533 -0.37497368 1.7606257 6513507
-0.17462827 -0.37498882 1.7782652 6513507
-0.13154742 -0.37498531 1.7934639 6513507
-0.25245109 -0.32499483 1.7510427 6513507
-0.2247054 -0.32502922 1.760833 6513507
-0.17466079 -0.32501709 1.7784834 6513507
-0.13151382 -0.32494542 1.7937051 6513507
-0.2530061 -0.27384716 1.7510816 6513507
-0.22471315 -0.27505305 1.761061 6513507
-0.17462732 -0.27496967 1.7787249 6513507
-0.13215981 -0.27510592 1.7937063 6513507
-0.2532042 -0.22490941 1.7512354 6513507
-0.22471736 -0.22504304 1.7612824 6513507
-0.17463487 -0.22492994 1.7789522 6513507
-0.13223612 -0.22503014 1.7939074 6513507
-0.25360307 -0.17370272 1.7513289 6513507
-0.22476237 -0.17500214 1.7614981 6513507
-0.17467928 -0.17496228 1.7791651 6513507
-0.13279739 -0.17532574 1.7939377 6513507
-0.25395733 -0.12480201 1.7514282 6513507
-0.2247083 -0.12498677 1.7617477 6513507
-0.17479067 -0.12510967 1.7793555 6513507
-0.13302656 -0.12486873 1.794089 6513507
-0.25418797 -0.073967665 1.7515794 6513507
-0.22496422 -0.074821457 1.7618866 6513507
-0.17471185 -0.075180627 1.779611 6513507
-0.13321318 -0.075275019 1.7942499 6513507
-0.25471064 -0.024672471 1.7516209 6513507
-0.22480981 -0.024821043 1.7621688 6513507
-0.17471339 -0.025069959 1.7798393 6513507
-0.13378552 -0.025273297 1.7942771 6513507
-0.25474182 0.024676505 1.7518362 6513507
-0.22483777 0.024825122 1.7623863 6513507
-0.17473513 0.025074109 1.780062 6513507
-0.13380243 0.025277527 1.794503 6513507
-0.25546351 0.074753262 1.7518125 6513507
-0.22504584 0.07480973 1.7625413 6513507
-0.17479675 0.075188972 1.7802708 6579300
-0.13452177 0.075052626 1.7944777 6579300
-0.25548151 0.10306442 1.751935 10132122
-0.22364298 0.10325313 1.7630086 10132122
-0.17463548 0.10375719 1.7774578 10197915
-0.13045558 0.10403503 1.785422 10197915
-0.075249888 0.10571171 1.7718786 10197915
-0.024936354 0.10558781 1.7699789 10197915
0.024897998 0.10546595 1.7679362 10197915
0.077431999 0.10530441 1.7717628 10197915
0.12501073 0.10515811 1.7752361 10197915
0.17332485 0.10503347 1.7744285 10197915
0.22446924 0.1048527 1.7824143 10197915
0.27472845 0.10473087 1.7801613 10197915
0.32486823 0.10460749 1.7782457 4605510
0.37489396 0.10448622 1.7760028 2894892
0.42479873 0.10436343 1.7740965 2894892
0.47495428 0.10424092 1.7720143 2894892
0.52535141 0.10411873 1.7697561 2894892
0.57527304 0.10399681 1.7676839 2894892
0.6271922 0.10384615 1.7698411 2894892
0.67483616 0.1036901 1.7750453 2894892
0.70882004 0.10355511 1.7830412 2894892
-0.10521679 -0.57201505 1.8018496 11711154
-0.075064726 -0.57228619 1.8124852 11711154
-0.02501332 -0.5723753 1.8301408 11711154
0.015507109 -0.5726583 1.8444343 11711154
-0.10564762 -0.52419037 1.801917 6776679
-0.075107872 -0.52499807 1.8126861 6974058
-0.025011636 -0.52499151 1.8303589 7303023
0.015283442 -0.52503228 1.8445731 7566195
-0.10597579 -0.47499266 1.8020269 6513507
-0.075077765 -0.47498465 1.812927 6513507
-0.025017517 -0.47500333 1.8305871 6513507
0.015031086 -0.47533607 1.844712 6513507
-0.10617535 -0.42463082 1.802187 6513507
-0.075139888 -0.42500299 1.8131337 6513507
-0.025047112 -0.42504862 1.8308041 6513507
0.014527168 -0.42501047 1.8447651 6513507
-0.10672211 -0.37505588 1.8022211 6513507
-0.075111508 -0.37498727 1.8133731 6513507
-0.025047302 -0.37505874 1.8310336 6513507
0.014514102 -0.37493676 1.8449898 6513507
-0.10682277 -0.32507583 1.802415 6513507
-0.075167231 -0.32498014 1.8135824 6513507
-0.02501847 -0.32500994 1.8312721 6513507
0.013803962 -0.32501259 1.8449682 6513507
-0.10737772 -0.27469409 1.8024499 6513507
-0.075148642 -0.27505013 1.8138173 6513507
-0.025067111 -0.27492616 1.831485 6513507
0.013804557 -0.27498424 1.8451983 6513507
-0.10758246 -0.22501425 1.8026052 6513507
-0.075140059 -0.2250618 1.8140495 6513507
-0.025017828 -0.22487523 1.8317324 6513507
0.013225799 -0.22548363 1.8452202 6513507
-0.1079234 -0.17437147 1.8027167 6513507
-0.075153761 -0.17501955 1.814274 6513507
-0.025053043 -0.17495002 1.8319483 6513507
0.01300753 -0.17507365 1.8453743 6513507
-0.10834182 -0.12493593 1.8027964 6513507
-0.075066768 -0.12502806 1.8145347 6513507
-0.025122015 -0.12510584 1.8321524 6513507
0.012888967 -0.12504025 1.8455617 6513507
-0.10845743 -0.074447833 1.8029859 6513507
-0.07532794 -0.074830018 1.8146718 6513507
-0.025011882 -0.075155407 1.83242 6513507
0.012185056 -0.075075649 1.8455422 6513507
-0.109101 -0.024839738 1.8029876 6513507
-0.075150095 -0.024812782 1.8149638 6513507
-0.025015023 -0.025054535 1.8326486 6513507
0.012244543 -0.025234234 1.8457919 6513507
-0.10910174 0.024780622 1.8032141 6513507
-0.075159341 0.024816873 1.8151882 6513507
-0.025018146 0.025058698 1.8328775 6513507
0.011576909 0.025057033 1.8457872 6513507
-0.10973909 0.074927129 1.8032193 6645093
-0.075356342 0.074814744 1.8153476 6710886
-0.025021261 0.075184524 1.8331059 6776679
0.011457602 0.074999832 1.8459735 6776679
-0.10981687 0.103099 1.8033211 10197915
-0.073714323 0.10326685 1.8140068 10197915
-0.024944771 0.10364511 1.8262913 10197915
0.020945964 0.10405705 1.8310503 10197915
0.072576314 0.10500611 1.8280978 10197915
0.12458349 0.10483574 1.833786 10197915
0.17489694 0.10471416 1.8314612 10197915
0.22509363 0.10459084 1.8295027 10197915
0.27517378 0.10446983 1.8271881 10197915
0.32513532 0.10434712 1.8252392 5789784
0.37498385 0.10422666 1.8229349 2894892
0.42471176 0.10410449 1.8209955 2894892
0.47470137 0.10398271 1.8188646 2894892
0.5249427 0.10386129 1.8165447 2894892
0.57506794 0.10373815 1.8145876 2894892
0.62377495 0.10354178 1.8265799 2894892
0.67525578 0.10336111 1.8343812 2894892
0.71929586 0.1032448 1.8341343 2894892
0.040848963 -0.57229257 1.8533751 11711154
0.074964292 -0.57260692 1.8654091 11711154
0.12488014 -0.57271653 1.8830169 11711154
0.16183071 -0.57285994 1.8960512 11711154
0.040122494 -0.52539408 1.8533336 7763574
0.074368827 -0.52485359 1.8654155 7895160
0.12482521 -0.52502155 1.8832159 8289918
0.161442 -0.5255034 1.896131 8553090
