# .PCD v0.7 - Point Cloud Data file format
VERSION 0.7
FIELDS x y z rgb
SIZE 4 4 4 4
TYPE F F F U
COUNT 1 1 1 1
WIDTH 1182
HEIGHT 1
VIEWPOINT 0 0 0 1 0 0 0
POINTS 1182
DATA ascii
0.95248955 -0.52583712 3.8001652 2039583
1.0843679 -0.52533942 3.815558 2894892
1.1062714 -0.52527767 3.842139 2894892
0.89705986 -0.47482073 3.8460171 2039583
0.92629635 -0.47509792 3.8219242 2039583
0.95252556 -0.47547546 3.8003089 2039583
1.0845921 -0.47535527 3.8162267 2894892
1.1065527 -0.47494051 3.8428814 2894892
0.89703536 -0.42489335 3.8462086 2039583
0.92635709 -0.42519861 3.8220456 2039583
0.95256174 -0.42511001 3.8004527 2039583
1.0847913 -0.42509475 3.8168695 2894892
1.1066241 -0.42513114 3.8433647 2894892
0.89718366 -0.37554711 3.8462572 2039583
0.92611837 -0.37527183 3.8224168 2039583
0.95230919 -0.37231433 3.8008423 2039583
1.0849134 -0.37507999 3.817416 2894892
1.1059556 -0.37748107 3.8429327 2894892
0.89716077 -0.32508165 3.8464501 2039583
0.92509651 -0.32507324 3.8234274 2039583
0.95132786 -0.32445955 3.801816 2039583
1.085035 -0.32505172 3.8179615 2894892
1.1045287 -0.32467303 3.8416214 2894892
0.89719504 -0.27409884 3.846597 2039583
0.92536134 -0.27519134 3.8233833 2039583
0.95136392 -0.27406836 3.80196 2039583
1.085157 -0.27500999 3.8185081 2894892
1.1047837 -0.274564 3.8423295 2894892
0.89722848 -0.22470565 3.8467393 2039583
0.92509294 -0.22494848 3.8237774 2039583
0.95135719 -0.22443733 3.8021364 2039583
1.0854582 -0.224683 3.8192728 2894892
1.104799 -0.22529267 3.8427413 2894892
0.89726168 -0.17530875 3.8468821 2039583
0.92491961 -0.1745193 3.8240941 2039583
0.95147634 -0.1756608 3.8022063 2039583
1.085759 -0.1743339 3.8200407 2894892
1.1050543 -0.17515185 3.8434505 2894892
0.89729595 -0.12431455 3.8470294 2039583
0.92503321 -0.12488459 3.8241701 2039583
0.95146966 -0.12602237 3.8023827 2039583
1.084305 -0.12413625 3.818676 2894892
1.1052333 -0.12421849 3.8440728 2894892
0.8966592 -0.07731019 3.8477161 2039583
0.92474449 -0.075218238 3.82458 2039583
0.9515056 -0.075616233 3.8025267 2039583
1.0834353 -0.075708799 3.8180056 2894892
1.1054069 -0.074861184 3.8446767 2894892
0.89602584 -0.025509482 3.8484166 2039583
0.92390472 -0.025357202 3.8254435 2039583
0.95154172 -0.025206255 3.8026707 2039583
1.0837398 -0.025312496 3.8187771 2894892
1.1055806 -0.025488181 3.8452804 2894892
0.89606017 0.025510784 3.8485634 2039583
0.92394036 0.025358483 3.8255908 2039583
0.95157772 0.025207531 3.8028142 2039583
1.0839145 0.025317926 3.8193924 2894892
1.1057599 0.025493681 3.8459044 2894892
-1.1669356 0.092914037 3.8012545 10197915
-1.1253319 0.092989936 3.8043599 10197915
-1.0759382 0.093080051 3.8080463 10197915
-1.0249001 0.093173176 3.811856 10197915
-0.97376108 0.093266465 3.8156722 10197915
-0.9240731 0.093357109 3.8193817 10197915
-0.87428856 0.093447931 3.8230972 10197915
-0.8244071 0.093538955 3.8268204 10197915
-0.77442813 0.093630128 3.8305507 10197915
-0.72435176 0.093721502 3.8342886 10197915
-0.67417765 0.093813032 3.838033 10197915
-0.6239053 0.093904749 3.8417861 10197915
-0.57511073 0.093993776 3.8454275 10197915
-0.5325377 0.094071448 3.8486054 10197915
0.24247174 0.096043907 3.8004725 10197915
0.27413106 0.096101992 3.8027709 10197915
0.32485962 0.096195087 3.8064544 10197915
0.37568644 0.096288346 3.8101447 10197915
0.42501861 0.096378878 3.8137274 10197915
0.4744446 0.096469566 3.8173161 10197915
0.52556205 0.096563369 3.8210275 10197915
0.57517654 0.096654415 3.8246305 10197915
0.62488568 0.096745633 3.8282394 5066061
0.6746878 0.096837029 3.8318558 2039583
0.72458488 0.096928574 3.8354788 2039583
0.77457559 0.097020321 3.8391089 2039583
0.82466191 0.097112224 3.8427455 2039583
0.88867754 0.081668325 3.8478873 2039583
0.92397439 0.074493036 3.8257298 2039583
0.95161265 0.074049495 3.802954 2039583
1.0840836 0.074381627 3.8199883 2894892
1.1059335 0.074898042 3.8465087 2894892
1.6773027 0.099220559 3.8015327 1060167
1.724489 0.099307634 3.8048687 993862
1.7750189 0.099400863 3.8084412 1059910
1.82401 0.099491261 3.811904 1125190
1.8747281 0.099584825 3.8154893 1125447
1.9025779 0.099636249 3.8174593 1191753
0.83777058 -1.720356 3.8905833 2039583
0.86653399 -1.7151281 3.8669004 2039583
1.1354345 -1.7153441 3.8680556 2894892
1.1515683 -1.7201042 3.8875971 2894892
0.83806711 -1.6750324 3.8904963 2039583
0.86800426 -1.6749954 3.8658276 2039583
1.134143 -1.6751733 3.8668087 2894892
1.1517334 -1.6752479 3.8881547 2894892
0.83819759 -1.6249237 3.8905616 2039583
0.86816651 -1.6248367 3.8658667 2039583
1.1344566 -1.6249689 3.867588 2894892
1.1519164 -1.6255708 3.8887722 2894892
0.83817428 -1.5748162 3.8907533 2039583
0.86803228 -1.5749027 3.8661487 2039583
1.1345594 -1.5747471 3.8681138 2894892
1.1520995 -1.5758779 3.8893902 2894892
0.8382057 -1.5249051 3.8908985 2039583
0.86814499 -1.5249649 3.8662293 2039583
1.1348197 -1.5250518 3.868824 2894892
1.1522883 -1.5245655 3.8900273 2894892
0.83823717 -1.4749895 3.8910453 2039583
0.86816555 -1.4749099 3.8663843 2039583
1.1350008 -1.4750594 3.869442 2894892
1.1524714 -1.4748404 3.8906465 2894892
0.83826846 -1.4250708 3.891191 2039583
0.8682164 -1.4249628 3.866513 2039583
1.1350214 -1.4250618 3.8698661 2894892
1.1526073 -1.4379379 3.8911049 2894892
0.83830035 -1.3751479 3.8913374 2039583
0.8692438 -1.3746287 3.8658402 2039583
1.135442 -1.3753105 3.8707721 2894892
0.83833134 -1.3252217 3.8914831 2039583
0.86958081 -1.3248776 3.8657334 2039583
1.1333179 -1.3245356 3.8685992 2894892
0.83843988 -1.2750902 3.8915665 2039583
0.86966032 -1.2749598 3.86584 2039583
1.1333102 -1.2751538 3.8689826 2894892
0.83835071 -1.2249539 3.8918128 2039583
0.86969221 -1.2250361 3.8659854 2039583
1.1332186 -1.2251986 3.8692684 2894892
0.83847022 -1.17502 3.8918853 2039583
0.86979455 -1.1750019 3.8660738 2039583
1.1336719 -1.1750078 3.870219 2894892
0.8388986 -1.125922 3.8917024 2039583
0.86961925 -1.1250724 3.8663893 2039583
1.1338079 -1.1247956 3.8707845 2894892
0.83983517 -1.0749937 3.8911061 2039583
0.86979032 -1.0751371 3.8664203 2039583
1.1338073 -1.0748031 3.8711805 2894892
0.83991754 -1.0250566 3.8912103 2039583
0.86989141 -1.0249869 3.8665104 2039583
1.1341245 -1.025014 3.8719623 2894892
0.83989829 -0.97512037 3.891398 2039583
0.86973989 -0.97493458 3.8668077 2039583
1.1341674 -0.97520965 3.8724124 2894892
0.84003097 -0.92494559 3.8914614 2039583
0.86993468 -0.92510068 3.8668175 2039583
1.1345303 -0.92516893 3.8732505 2894892
0.83991092 -0.87500322 3.8917322 2039583
0.86996692 -0.87504071 3.8669646 2039583
1.1342659 -0.87468547 3.8733325 2894892
0.84009409 -0.82505178 3.891753 2039583
0.86991954 -0.8250891 3.8671746 2039583
1.1324686 -0.82498914 3.871546 2894892
0.83997399 -0.77509868 3.8920245 2039583
0.86995143 -0.77513194 3.8673203 2039583
1.1311702 -0.77592397 3.8703613 2894892
1.1500565 -0.76294059 3.8933842 2894892
0.8402319 -0.72491449 3.8919849 2039583
0.87012321 -0.72506553 3.867352 2039583
1.1301899 -0.72506881 3.869576 2894892
1.1501982 -0.72431779 3.8938637 2894892
0.83996052 -0.67494762 3.8923788 2039583
0.86990243 -0.67499197 3.8677061 2039583
1.1304147 -0.6750232 3.8702474 2894892
1.1503812 -0.6744163 3.8944829 2894892
0.84029502 -0.62499225 3.8922772 2039583
0.87074685 -0.62461346 3.8671839 2039583
1.1306409 -0.62495971 3.8709204 2894892
1.1505642 -0.6244992 3.8951027 2894892
0.84002358 -0.57501167 3.8926718 2039583
0.87151039 -0.57500231 3.8667247 2039583
1.1305935 -0.5748812 3.8712614 2894892
1.1507058 -0.58584309 3.8955824 2894892
0.84035784 -0.52505529 3.8925672 2039583
0.87142491 -0.52495658 3.8669677 2039583
1.1310475 -0.52501249 3.8722095 2894892
0.84008652 -0.4750607 3.8929636 2039583
0.87151742 -0.47501871 3.8670645 2039583
1.1309984 -0.47513255 3.8725469 2894892
0.84042102 -0.42510346 3.8928602 2039583
0.87165743 -0.42496407 3.8671217 2039583
1.1313618 -0.42500702 3.8733881 2894892
0.84015125 -0.37486452 3.8932555 2039583
0.87151289 -0.37501422 3.867413 2039583
1.1303253 -0.37431902 3.8725331 2894892
0.84163159 -0.32536751 3.8922064 2039583
0.87152827 -0.32505617 3.8675725 2039583
1.1292796 -0.32519561 3.8716555 2894892
0.84160316 -0.27491736 3.8924043 2039583
0.87195098 -0.27500251 3.8673947 2039583
1.129203 -0.27491415 3.8719628 2894892
0.84189969 -0.22497541 3.8923316 2039583
0.8713637 -0.2248255 3.8680542 2039583
1.1296598 -0.22481938 3.8729153 2894892
0.84166646 -0.17495079 3.8926952 2039583
0.87199467 -0.1751769 3.8677037 2039583
1.1296403 -0.17511265 3.8732872 2894892
0.84196293 -0.12500688 3.8926241 2039583
0.87172478 -0.1249954 3.8680985 2039583
1.1297826 -0.12499044 3.8738599 2894892
0.8417297 -0.074969187 3.8929877 2039583
0.87175733 -0.07532049 3.8682435 2039583
1.1302431 -0.075234547 3.8748155 2894892
0.84202623 -0.025023378 3.8929172 2039583
0.87178975 -0.025641862 3.8683875 2039583
1.1301404 -0.025495082 3.8750863 2894892
0.84205794 0.025024634 3.8930614 2039583
0.87182343 0.025643177 3.8685362 2039583
1.1303235 0.025500596 3.8757141 2894892
-0.50727731 0.094117522 3.8504908 10197915
-0.47566038 0.094175197 3.85285 10197915
-0.42499903 0.094267629 3.8566318 10197915
-0.3742381 0.094360232 3.8604205 10197915
-0.32496873 0.094450116 3.8640976 10197915
-0.27560443 0.094540179 3.8677824 10197915
-0.22454949 0.094633333 3.8715932 10197915
-0.17499436 0.094723724 3.8752916 10197915
-0.12534353 0.094814323 3.8789978 10197915
-0.075598553 0.094904952 3.8827062 10197915
-0.025757354 0.094995841 3.8864241 10197915
0.025791325 0.095089883 3.8902721 10197915
0.075826026 0.095181182 3.8940063 10197915
0.12433873 0.09526968 3.8976271 10197915
0.15186563 0.095319882 3.8996811 10197915
0.8418144 0.073363192 3.8934288 2039583
0.87185496 0.07372649 3.8686757 2039583
1.1308792 0.07579264 3.8755486 2894892
1.1746602 0.097754508 3.8681614 2894892
1.223866 0.097844824 3.8717349 2302755
1.2748077 0.097938284 3.8754332 1123643
1.3258457 0.098031953 3.8791397 993604
1.3753307 0.098122753 3.8827331 994118
1.4249078 0.098213725 3.886333 861507
1.4745768 0.098304875 3.8899391 795715
1.524338 0.098396182 3.8935523 993349
1.5741918 0.098487653 3.897172 1060167
1.6058102 0.098545671 3.8994679 1125961
0.77982259 -1.7559872 3.9382124 2039583
0.80360276 -1.7516946 3.9186323 2039583
0.78268433 -1.7250572 3.9359608 2039583
0.81304318 -1.7243708 3.9109473 2039583
0.78265321 -1.6751138 3.9361598 2039583
0.81330311 -1.6749864 3.9109025 2039583
0.78278142 -1.6250343 3.9362257 2039583
0.81341398 -1.6249835 3.910984 2039583
0.7828415 -1.5750812 3.9363503 2039583
0.81340015 -1.5749754 3.9111664 2039583
0.78275639 -1.5249919 3.9365907 2039583
0.81346655 -1.5251268 3.9112842 2039583
0.7828393 -1.4749002 3.9366953 2039583
0.81341654 -1.4751091 3.911499 2039583
0.78287607 -1.4250731 3.9368362 2039583
0.81356353 -1.4250954 3.9115505 2039583
0.78296626 -1.3751067 3.9369352 2039583
0.81351334 -1.3750669 3.911762 2039583
0.78280562 -1.3250031 3.9372392 2039583
0.81356174 -1.3248837 3.9118948 2039583
0.78396028 -1.275369 3.9364581 2039583
0.81366491 -1.2750113 3.9119813 2039583
0.7843253 -1.2248437 3.9363315 2039583
0.81355131 -1.2251412 3.9122477 2039583
0.78450477 -1.1750735 3.9363549 2039583
0.81370717 -1.1749413 3.9122913 2039583
0.78438467 -1.1250085 3.9366279 2039583
0.81424522 -1.1242808 3.912024 2039583
0.7844972 -1.074934 3.9367061 2039583
0.81502098 -1.0749694 3.9115522 2039583
0.78459257 -1.0250078 3.936799 2039583
0.81526345 -1.0250666 3.9115255 2039583
0.7844559 -0.9750762 3.9370837 2039583
0.81505013 -0.97501373 3.9118743 2039583
0.7845189 -0.92514026 3.9372039 2039583
0.81527543 -0.92481238 3.9118617 2039583
0.7846809 -0.87505698 3.9372444 2039583
0.81514305 -0.87489522 3.9121413 2039583
0.78457797 -0.82496095 3.9374988 2039583
0.81527215 -0.82512635 3.9122078 2039583
0.78464031 -0.77486897 3.9376206 2039583
0.81531918 -0.77506167 3.9123406 2039583
0.78470367 -0.72492266 3.9377415 2039583
0.81530046 -0.72498423 3.9125276 2039583
0.78474987 -0.67511177 3.9378753 2039583
0.81531495 -0.67491639 3.9126892 2039583
0.78477812 -0.62500715 3.9380238 2039583
0.81552559 -0.62497681 3.9126859 2039583
0.78465873 -0.57489985 3.9382942 2039583
0.81524575 -0.57504737 3.91309 2039583
0.78488761 -0.52493244 3.9382789 2039583
0.81550473 -0.52495778 3.9130471 2039583
0.78636867 -0.47500646 3.9372299 2039583
0.81545317 -0.47501504 3.9132628 2039583
0.78603274 -0.42509878 3.9376788 2039583
0.8154034 -0.42506623 3.9134762 2039583
0.78641665 -0.37471777 3.9375358 2039583
0.81574428 -0.37512398 3.9133666 2039583
0.78639364 -0.32481155 3.9377263 2039583
0.81649554 -0.32489663 3.912921 2039583
0.78619164 -0.27537796 3.9380634 2039583
0.8172158 -0.27490175 3.9124997 2039583
0.78651136 -0.22483024 3.9379735 2039583
0.81690288 -0.22518615 3.9129288 2039583
0.78639901 -0.17457734 3.9382381 2039583
0.81709784 -0.17494924 3.9129415 2039583
0.78642792 -0.12563504 3.9383843 2039583
0.81704873 -0.12483016 3.9131544 2039583
0.78645772 -0.075057469 3.9385345 2039583
0.81707954 -0.074576601 3.9133017 2039583
0.78648722 -0.024476092 3.938684 2039583
0.81711018 -0.024319284 3.9134505 2039583
0.78651637 0.024477294 3.9388285 2039583
0.81714046 0.024320466 3.9135919 2039583
-1.2612505 0.092168376 3.9030552 10197915
-1.2249314 0.092234217 3.905844 10197915
-1.1759008 0.092323124 3.9096076 10197915
-1.1251897 0.092415072 3.9135015 10197915
-1.0743775 0.092507191 3.917403 10197915
-1.025057 0.09259662 3.9211895 10197915
-0.97564 0.092686214 3.9249842 10197915
-0.92452914 0.092778891 3.9289086 10197915
-0.87491834 0.092868835 3.9327173 10197915
-0.82521039 0.092958972 3.9365344 10197915
-0.7754066 0.093049258 3.9403579 10197915
-0.72550523 0.093139738 3.9441893 10197915
-0.67550755 0.093230382 3.9480281 10197915
0.17780654 0.095367216 3.9016173 10197915
0.22488479 0.095453106 3.9051316 10197915
0.27530366 0.095545091 3.9088941 10197915
0.32581875 0.09563724 3.9126651 10197915
0.37479773 0.095726609 3.9163206 10197915
0.4238683 0.095816113 3.9199831 10197915
0.4746716 0.095908806 3.9237747 10197915
0.52557218 0.09600167 3.9275739 10197915
0.5749253 0.096091703 3.9312568 10197915
0.62437117 0.096181899 3.9349477 7960953
0.67390984 0.096272275 3.9386454 2039583
0.72354162 0.096362829 3.9423492 2039583
0.78535622 0.074458897 3.9392183 2039583
0.81717002 0.072963767 3.9137356 2039583
1.6308033 0.098591559 3.901283 1125960
1.6741779 0.098671131 3.9044321 1191752
1.7243108 0.098763123 3.9080727 1060167
1.7745373 0.098855287 3.9117196 1059398
1.8248577 0.098947644 3.9153736 1059910
1.8752722 0.099040151 3.919034 1125446
1.9257807 0.099132806 3.9227014 1125447
1.9544408 0.09918543 3.924783 1191497
0.7256456 -1.7659829 3.9828222 2039583
0.75682151 -1.7603168 3.9571517 2039583
0.72736681 -1.7249231 3.9815459 2039583
0.75740069 -1.7250632 3.9567957 2039583
0.72748268 -1.674953 3.9816227 2039583
0.75738305 -1.6751243 3.9569833 2039583
0.7274847 -1.6250864 3.9817922 2039583
0.75736529 -1.6251857 3.9571693 2039583
0.72751158 -1.5751072 3.9819427 2039583
0.75745535 -1.5749742 3.957268 2039583
0.7276144 -1.5250142 3.9820292 2039583
0.75743741 -1.5250282 3.9574544 2039583
0.72752887 -1.4749188 3.9822729 2039583
0.75749701 -1.475347 3.9575765 2039583
0.72755629 -1.4251484 3.9824214 2039583
0.75747895 -1.4253925 3.957763 2039583
0.72753334 -1.3752625 3.9826126 2039583
0.75756902 -1.3751677 3.9578621 2039583
0.72768629 -1.3250453 3.9826601 2039583
0.75755125 -1.325205 3.9580488 2039583
0.72768819 -1.2749361 3.9828308 2039583
0.75862205 -1.2743895 3.9573412 2039583
0.72770345 -1.2249292 3.98299 2039583
0.75901145 -1.2251021 3.9571905 2039583
0.7276929 -1.1749204 3.9831705 2039583
0.75909305 -1.1750317 3.9572957 2039583
0.72775793 -1.1247972 3.9832895 2039583
0.75906855 -1.1249526 3.9574885 2039583
0.72909075 -1.0749382 3.9823632 2039583
0.75915045 -1.0751009 3.9575932 2039583
0.72919953 -1.0248034 3.9824452 2039583
0.75920457 -1.0250142 3.95772 2039583
0.72925401 -0.9748708 3.9825733 2039583
0.75912696 -0.97492868 3.957957 2039583
0.72930861 -0.92493576 3.9827011 2039583
0.75918287 -0.9250676 3.958082 2039583
0.72936273 -0.87499756 3.9828281 2039583
0.75931722 -0.87496841 3.9581444 2039583
0.72932881 -0.82493955 3.9830263 2039583
0.7592662 -0.8248691 3.9583592 2039583
0.72937047 -0.77499276 3.9831669 2039583
0.75924116 -0.77499759 3.9585497 2039583
0.72933674 -0.72516048 3.9833648 2039583
0.7592966 -0.72512275 3.9586763 2039583
0.72945166 -0.67508918 3.983444 2039583
0.759431 -0.67501253 3.9587379 2039583
0.72954625 -0.62489885 3.9835372 2039583
0.75946021 -0.6251325 3.9588869 2039583
0.72940576 -0.57482082 3.9838257 2039583
0.75927621 -0.57523739 3.9592097 2039583
0.72948021 -0.5249719 3.9839365 2039583
0.75941074 -0.52511758 3.9592719 2039583
0.72954184 -0.4751206 3.9840572 2039583
0.76106244 -0.47474372 3.9580843 2039583
0.72968316 -0.42503104 3.984113 2039583
0.76090842 -0.42473668 3.958384 2039583
0.7297312 -0.37494019 3.984246 2039583
0.76085448 -0.37534255 3.9585977 2039583
0.72959608 -0.32519612 3.9845273 2039583
0.76087433 -0.32512805 3.9587545 2039583
0.73097354 -0.2754719 3.9835641 2039583
0.76116693 -0.27452505 3.9586878 2039583
0.73091495 -0.22545734 3.9837849 2039583
0.76102281 -0.22470139 3.9589779 2039583
0.73111701 -0.1749436 3.9837921 2039583
0.76105094 -0.17550315 3.9591241 2039583
0.73140329 -0.12431014 3.9837313 2039583
0.76090956 -0.12525509 3.9594133 2039583
0.73117197 -0.074275181 3.9840937 2039583
0.76128131 -0.074451782 3.9592824 2039583
0.73119885 -0.024759207 3.9842427 2039583
0.76113719 -0.024605909 3.9595718 2039583
0.73122597 0.02476044 3.9843912 2039583
0.76116508 0.024607113 3.9597199 2039583
-0.62541151 0.093321212 3.9518743 10197915
-0.5752188 0.093412206 3.9557281 10197915
-0.52492702 0.093503416 3.9595895 10197915
-0.474538 0.09359476 3.9634583 10197915
-0.42568013 0.093683355 3.9672101 10197915
-0.37509581 0.093775064 3.9710939 10197915
-0.32441348 0.093866967 3.9749849 10197915
-0.27527085 0.093956061 3.9787581 10197915
-0.22603488 0.094045319 3.9825385 10197915
-0.17505872 0.094137751 3.9864526 10197915
-0.1239834 0.094230369 3.9903738 10197915
-0.074459247 0.094320014 3.9941707 10197915
-0.024840796 0.094409958 3.9979792 10197915
0.73125237 0.072632886 3.984534 2039583
0.76119238 0.072183132 3.9598601 2039583
1.1862587 0.097207204 3.9768944 2894892
1.2250468 0.097277977 3.97979 2829099
1.2757213 0.097370423 3.9835722 1908514
1.3247982 0.097459957 3.9872346 927555
1.3739659 0.097549647 3.9909043 993861
1.4249241 0.097642615 3.9947078 993862
1.4725717 0.097729556 3.9982638 861250
0.6472252 -1.8058604 4.0473061 11711154
0.65830672 -1.8034614 4.0381832 8882055
0.64723986 -1.7757192 4.0473981 11711154
0.67453682 -1.7741177 4.0249095 4210752
0.70290375 -1.770523 4.0015469 2039583
0.64726442 -1.7254806 4.0475507 11711154
0.67521298 -1.7248676 4.0245228 4013373
0.70292735 -1.7258205 4.0016818 2039583
0.64728892 -1.6752383 4.0477037 11711154
0.67523861 -1.6749103 4.0246725 4013373
0.70290726 -1.6753089 4.0018721 2039583
0.6473133 -1.6249921 4.0478568 3750201
0.6752637 -1.6249508 4.0248232 2368548
0.70298088 -1.6248146 4.0019851 2039583
0.64733779 -1.5747421 4.0480099 2039583
0.6754505 -1.5749884 4.0248437 2039583
0.70300698 -1.5751339 4.0021348 2039583
0.64736199 -1.5244884 4.0481629 2039583
0.67531472 -1.5250211 4.0251269 2039583
0.70308042 -1.5246344 4.0022483 2039583
0.64738655 -1.4742311 4.048315 2039583
0.67533982 -1.4750496 4.0252781 2039583
0.70306033 -1.4741064 4.0024385 2039583
0.64741105 -1.4239697 4.0484681 2039583
0.67539984 -1.4249774 4.0254021 2039583
0.70308656 -1.4244148 4.0025883 2039583
0.64738399 -1.3745277 4.0486612 2039583
0.67552841 -1.374902 4.0254683 2039583
0.70311284 -1.3747193 4.0027375 2039583
0.64790815 -1.3295807 4.0483842 2039583
0.67541593 -1.3249183 4.0257311 2039583
0.70313913 -1.3250201 4.0028872 2039583
0.64896506 -1.2761303 4.0476966 2039583
0.6754415 -1.2749324 4.0258846 2039583
0.70316541 -1.2753173 4.0030365 2039583
0.64898962 -1.2258689 4.0478497 2039583
0.67556995 -1.2249424 4.0259509 2039583
0.70319176 -1.2256109 4.0031862 2039583
0.64901412 -1.1756042 4.0480027 2039583
0.67549223 -1.174949 4.0261865 2039583
0.70321804 -1.1759006 4.003336 2039583
0.64903867 -1.1253356 4.0481553 2039583
0.67558694 -1.1250497 4.0262799 2039583
0.70324415 -1.1261865 4.0034857 2039583
0.64906311 -1.0750631 4.0483079 2039583
0.67558849 -1.0750488 4.0264506 2039583
0.70452183 -1.0746108 4.0026097 2039583
0.64908767 -1.0247867 4.048461 2039583
0.67556846 -1.0249457 4.0266395 2039583
0.70474523 -1.0253365 4.0025959 2039583
0.64911211 -0.97450674 4.048614 2039583
0.67567486 -0.97503489 4.0267234 2039583
0.70477188 -0.97507364 4.0027461 2039583
0.64913666 -0.92422283 4.0487671 2039583
0.67561895 -0.92512065 4.0269413 2039583
0.70479864 -0.92480713 4.0028973 2039583
0.64916122 -0.87393534 4.0489202 2039583
0.67573702 -0.87520337 4.0270162 2039583
0.70488816 -0.87455004 4.0029969 2039583
0.64918572 -0.82364362 4.0490727 2039583
0.67572683 -0.8251828 4.0271969 2039583
0.70485169 -0.82426316 4.0032001 2039583
0.64920938 -0.77502501 4.0492206 2039583
0.67569524 -0.77506137 4.0273952 2039583
0.70487797 -0.77453774 4.0033493 2039583
0.64923316 -0.7264027 4.0493684 2039583
0.67574328 -0.72513205 4.0275273 2039583
0.70490444 -0.72480875 4.0034986 2039583
0.64925766 -0.67610013 4.0495214 2039583
0.67581463 -0.67510003 4.0276403 2039583
0.70493066 -0.67507589 4.0036483 2039583
0.64928222 -0.62579376 4.049674 2039583
0.675771 -0.62496746 4.0278492 2039583
0.70495701 -0.62533927 4.0037966 2039583
0.64930665 -0.57548356 4.0498271 2039583
0.6758768 -0.57483125 4.0279346 2039583
0.70498347 -0.57559901 4.0039473 2039583
0.64932632 -0.53523278 4.0499496 2039583
0.67585713 -0.52478796 4.0281243 2039583
0.7050097 -0.52585518 4.0040975 2039583
0.67593908 -0.47474372 4.0282297 2039583
0.7050361 -0.47610748 4.0042467 2039583
0.67591894 -0.42469203 4.0284176 2039583
0.70499969 -0.42578432 4.0044498 2039583
0.67595595 -0.37483487 4.0285583 2039583
0.70508957 -0.37494165 4.0045505 2039583
0.67599314 -0.32497466 4.0286994 2039583
0.70517945 -0.32409701 4.0046511 2039583
0.67612284 -0.27521053 4.0287642 2039583
0.70666182 -0.27411094 4.003602 2039583
0.67597413 -0.22534053 4.0290575 2039583
0.70661718 -0.22392854 4.0038123 2039583
0.67599964 -0.17527153 4.0292096 2039583
0.70664352 -0.17417312 4.0039611 2039583
0.67602503 -0.12519854 4.0293612 2039583
0.70666999 -0.12441397 4.0041113 2039583
0.67605078 -0.075121902 4.0295138 2039583
0.70669633 -0.074651144 4.0042605 2039583
0.67607594 -0.025041467 4.029664 2039583
0.70672268 -0.024884541 4.0044112 2039583
0.67610127 0.025042718 4.0298152 2105376
0.70674914 0.024885779 4.0045605 2039583
-1.3056787 0.091480672 4.0148034 10197915
-1.2748454 0.091536224 4.017241 10197915
-1.2244655 0.091626965 4.0212235 10197915
-1.1756151 0.091714956 4.025085 10197915
-1.1250367 0.091806039 4.0290833 10197915
-1.0743593 0.091897331 4.0330892 10197915
-1.0252198 0.091985837 4.036973 10197915
-0.97598594 0.092074513 4.0408654 10197915
-0.92501026 0.092166327 4.0448952 10197915
-0.87888271 0.092249416 4.0485406 10197915
0.024872387 0.094500095 4.0017967 10197915
0.074680582 0.094590403 4.00562 10197915
0.12458406 0.094680876 4.0094519 10197915
0.17458309 0.094771542 4.0132909 10197915
0.22467798 0.094862357 4.0171366 10197915
0.27486897 0.094953366 4.0209908 10197915
0.32515633 0.095044516 4.0248513 10197915
0.37554035 0.09513589 4.0287199 10197915
0.42602137 0.095227391 4.0325961 10197915
0.47491151 0.095316038 4.0363488 10197915
0.52389377 0.095404848 4.0401101 10197915
0.57466072 0.095496885 4.0440073 10197915
0.62552577 0.095589116 4.0479131 10197915
0.67612547 0.073460989 4.0299611 2500134
0.70677471 0.07300061 4.004705 2039583
1.4981297 0.09777616 4.0001712 795714
1.525425 0.097825952 4.0022082 927044
1.5749631 0.097916327 4.0059056 1059142
1.6245917 0.098006859 4.0096097 1125960
1.6743134 0.09809757 4.0133204 1191752
1.7258459 0.098191589 4.0171671 1126216
1.7757539 0.09828262 4.0208917 1059911
1.825756 0.09837386 4.0246234 1059142
1.87585 0.098465249 4.0283628 1059654
1.924305 0.098553635 4.0319786 1125190
1.9745831 0.098645352 4.0357313 1059911
2.0075707 0.098705553 4.0381937 1125960
0.59158927 -1.815405 4.0931191 11711154
0.61888015 -1.8106482 4.0706472 11711154
0.59175932 -1.7747314 4.0931187 11711154
0.62198472 -1.7749836 4.068212 11711154
0.59186447 -1.7252885 4.093204 11711154
0.6218468 -1.7249351 4.0684977 11711154
0.59184515 -1.6751524 4.0933914 11579568
0.62196481 -1.6749952 4.0685725 11711154
0.59186757 -1.624678 4.0935473 2105376
0.62205493 -1.6250521 4.0686693 2960685
0.59184837 -1.5748712 4.0937338 2039583
0.62199754 -1.5749927 4.0688901 2039583
0.59199393 -1.5250753 4.0937862 2039583
0.62200737 -1.5250407 4.0690536 2039583
0.59189326 -1.474929 4.0940413 2039583
0.62203068 -1.4750855 4.0692072 2039583
0.59195638 -1.4247751 4.0941625 2039583
0.62213457 -1.4249021 4.0692935 2039583
0.5920198 -1.3746185 4.0942826 2039583
0.62213176 -1.3749405 4.0694695 2039583
0.59200096 -1.3248014 4.0944691 2039583
0.62287956 -1.3246392 4.0690241 2039583
0.59198207 -1.2749796 4.0946569 2039583
0.62364185 -1.2749104 4.0685687 2039583
0.59204543 -1.2248119 4.0947771 2039583
0.62364668 -1.2249162 4.0687366 2039583
0.59219223 -1.1749803 4.0948286 2039583
0.62375832 -1.1750253 4.0688167 2039583
0.59352976 -1.1248852 4.0938983 2039583
0.62362999 -1.1251303 4.0690937 2039583
0.59360343 -1.0748948 4.0940099 2039583
0.62376046 -1.0751231 4.0691586 2039583
0.59375572 -1.025332 4.0940547 2039583
0.62373412 -1.0250093 4.0693517 2039583
0.59367347 -0.97532493 4.0942945 2039583
0.62378877 -0.97499639 4.0694795 2039583
0.59361905 -0.92488992 4.0945139 2039583
0.62389392 -0.92498171 4.0695653 2039583
0.5936926 -0.87488651 4.0946259 2039583
0.62383538 -0.87496066 4.0697875 2039583
0.59384483 -0.82531399 4.0946698 2039583
0.62385237 -0.82493526 4.0699439 2039583
0.59376258 -0.77528745 4.0949101 2039583
0.62398338 -0.77490723 4.0700083 2039583
0.59378541 -0.72442114 4.0950665 2039583
0.62386841 -0.7249825 4.0702753 2039583
0.59370309 -0.67438293 4.0953064 2039583
0.62392253 -0.67494762 4.0704026 2039583
0.59393412 -0.62523592 4.0952849 2039583
0.62391496 -0.62490672 4.070581 2039583
0.59385192 -0.57519031 4.0955248 2039583
0.62394458 -0.57507581 4.0707273 2039583
0.59387457 -0.52430856 4.0956817 2039583
0.62472415 -0.52486819 4.0702577 2039583
0.59381688 -0.47467995 4.0959005 2039583
0.62544763 -0.4751713 4.0698333 2039583
0.59399587 -0.42551658 4.095922 2039583
0.62551832 -0.42500049 4.0699487 2039583
0.59394109 -0.3750329 4.0961409 2039583
0.62563688 -0.37492612 4.0700235 2039583
0.59510076 -0.32533526 4.095356 2039583
0.62586421 -0.32505003 4.0700078 2039583
0.59550238 -0.27484778 4.0951991 2039583
0.62557739 -0.27487078 4.0704169 2039583
0.59552449 -0.22565491 4.0953507 2039583
0.62535226 -0.22458076 4.070776 2039583
0.59554738 -0.17476195 4.0955067 2039583
0.62545717 -0.17468785 4.0708594 2039583
0.59556997 -0.12386512 4.0956631 2039583
0.62607497 -0.12551171 4.0705204 2039583
0.59559196 -0.074661128 4.0958152 2039583
0.62567061 -0.075895816 4.0710244 2039583
0.59561402 -0.025453486 4.0959668 2039583
0.62569487 -0.025299462 4.0711799 2039583
0.59563673 0.025454778 4.0961227 4210752
0.62571853 0.025300739 4.0713339 4144959
-0.85413861 0.092293978 4.0504966 10197915
-0.82440764 0.092347533 4.0528469 10197915
-0.77478528 0.092436902 4.0567694 10197915
-0.72506696 0.092526451 4.0606995 10197915
-0.67525208 0.092616186 4.0646372 10197915
-0.62534052 0.092706077 4.0685825 10197915
-0.57533211 0.092796162 4.0725355 10197915
-0.52522629 0.092886411 4.0764966 10197915
-0.47502294 0.092976816 4.0804644 10197915
-0.42472178 0.093067423 4.0844407 10197915
-0.37432247 0.093158208 4.0884247 10197915
-0.32382476 0.093249157 4.0924163 10197915
-0.27491701 0.093337238 4.096282 10197915
-0.23944567 0.093401141 4.0990863 10197915
0.595658 0.072972633 4.0962682 10197915
0.62574059 0.072530985 4.0714774 10197915
1.2280277 0.096681543 4.0941739 2894892
1.2749465 0.096766599 4.0977759 2631720
1.3027846 0.096817106 4.099915 2039583
0.52792913 -1.8523985 4.1454501 11711154
0.53652388 -1.8249792 4.1384625 11711154
0.56667477 -1.8202968 4.1136327 11711154
0.5365687 -1.7751219 4.1385975 11711154
0.56738585 -1.7749838 4.113204 11711154
0.53675425 -1.7250842 4.1386156 11711154
0.56746393 -1.7248542 4.1133127 11711154
0.53670299 -1.6750447 4.1388316 10000536
0.56748563 -1.6750333 4.1134648 10987431
0.53665251 -1.6249967 4.1390452 2039583
0.56744957 -1.6252097 4.1136665 2039583
0.53676701 -1.5749516 4.1391244 2039583
0.56752765 -1.5750713 4.1137753 2039583
0.53678733 -1.5248941 4.1392784 2039583
0.56764436 -1.5250849 4.1138511 2039583
0.5366894 -1.4750302 4.1395316 2039583
0.56749493 -1.4750943 4.1141458 2039583
0.5368039 -1.4249715 4.1396098 2039583
0.56757307 -1.4249449 4.114254 2039583
0.53766519 -1.3757477 4.1390681 2039583
0.56768924 -1.3749475 4.1143308 2039583
0.53841215 -1.3251656 4.1386271 2039583
0.56761527 -1.3249434 4.1145639 2039583
0.53843248 -1.2750659 4.138783 2039583
0.56763732 -1.2750947 4.114718 2039583
0.53837347 -1.224952 4.1390047 2039583
0.56765801 -1.2252415 4.1148725 2039583
0.53848678 -1.1750605 4.1390834 2039583
0.56769854 -1.1749171 4.1150103 2039583
0.53845346 -1.1249434 4.1392837 2039583
0.56932414 -1.1250089 4.1138444 2039583
0.5384205 -1.0748206 4.139483 2039583
0.56925768 -1.0750544 4.1140714 2039583
0.53853375 -1.02492 4.1395612 2039583
0.56933987 -1.0249529 4.1141763 2039583
0.53854078 -0.97499794 4.1397281 2039583
0.56929213 -0.97499365 4.114388 2039583
0.53852123 -0.92509115 4.1399145 2039583
0.56924379 -0.9250282 4.1145992 2039583
0.53859413 -0.87495148 4.1400275 2039583
0.56940413 -0.87506026 4.1146383 2039583
0.53857511 -0.82502937 4.1402154 2039583
0.56945115 -0.82494652 4.1147738 2039583
0.53855515 -0.77510267 4.1404047 2039583
0.56927335 -0.77482361 4.1150913 2039583
0.53881395 -0.72495633 4.1403627 2039583
0.56953025 -0.7249918 4.1150508 2039583
0.53842181 -0.67502141 4.1408577 2039583
0.56939387 -0.67500633 4.1153355 2039583
0.53877479 -0.62508506 4.140738 2039583
0.56947637 -0.62487125 4.1154399 2039583
0.53879756 -0.57529593 4.140892 2039583
0.56945467 -0.57502997 4.1156297 2039583
0.54030871 -0.52506709 4.1398191 2039583
0.56945801 -0.52503139 4.1157994 2039583
0.54035747 -0.47486031 4.1399517 2039583
0.5698123 -0.47503278 4.1156793 2039583
0.5401333 -0.42487395 4.1403079 2039583
0.56929392 -0.42502934 4.1162786 2039583
0.54045886 -0.3751705 4.1402121 2039583
0.56950402 -0.37502253 4.1162777 2039583
0.54017848 -0.32467756 4.1406169 2039583
0.57109725 -0.32479221 4.1151371 2039583
0.5405038 -0.27497256 4.1405201 2039583
0.57094383 -0.27474755 4.1154385 2039583
0.54036945 -0.22472841 4.1408038 2039583
0.5711385 -0.22505538 4.1154466 2039583
0.5403896 -0.1749859 4.1409583 2039583
0.57133514 -0.17536502 4.1154566 2039583
0.5404098 -0.12523964 4.1411123 2039583
0.57118231 -0.1244728 4.115757 2039583
0.54042995 -0.075489655 4.1412678 2039583
0.57120365 -0.075027473 4.115911 2039583
0.54045022 -0.025735961 4.1414223 2039583
0.57122469 -0.025578368 4.1160636 2039583
0.54047108 0.025737287 4.141582 4342338
0.5712468 0.025579674 4.1162224 4210752
-1.3243521 0.090803221 4.1354513 10197915
-1.274211 0.090892889 4.1395354 10197915
-1.223971 0.090982743 4.1436281 10197915
-1.1736315 0.091072768 4.147727 10197915
-1.146747 0.091120824 4.1499166 10197915
-0.21407703 0.093446836 4.1010919 10197915
-0.17512766 0.093516976 4.1041703 10197915
-0.12424003 0.093608618 4.1081924 10197915
-0.074954189 0.093697257 4.1120825 10197915
-0.025573885 0.093786195 4.1159854 10197915
0.025607372 0.093878388 4.1200314 10197915
0.075177774 0.093967661 4.1239495 10197915
0.12484362 0.094057105 4.1278749 10197915
0.17460306 0.094146736 4.1318083 10197915
0.22445849 0.09423653 4.1357493 10197915
0.27440804 0.094326496 4.1396976 10197915
0.3244541 0.094416626 4.1436529 10197915
0.37459484 0.094506942 4.1476169 10197915
0.40229654 0.094556868 4.1498079 10197915
0.54049051 0.073782541 4.1417313 10197915
0.57126719 0.073330708 4.1163692 10197915
1.3271726 0.096861288 4.1017857 1581355
1.3742654 0.096946672 4.1054015 927812
1.4249384 0.097038537 4.109292 994117
1.4757067 0.097130582 4.1131897 862276
1.5248169 0.097219624 4.1169605 861251
1.5740166 0.097308822 4.1207376 927300
1.6250693 0.097401381 4.1246572 1059655
1.676218 0.097494118 4.1285844 1125960
1.7256966 0.097583823 4.1323838 1191752
1.7752659 0.097673699 4.136189 1060424
1.8249267 0.097763732 4.1400018 1059911
1.8746792 0.097853936 4.1438217 993349
1.9245234 0.097944312 4.1476479 1059398
1.9530433 0.097996011 4.149838 1124934
-1.9857118 -1.8619548 4.1887145 2960685
0.47969338 -1.8614638 4.1851664 11711154
0.510216 -1.8558286 4.1600347 11711154
-1.986599 -1.824852 4.1879334 2960685
0.48180285 -1.8250465 4.1835532 11711154
0.51174796 -1.8251276 4.1588774 11711154
-1.9867017 -1.7750261 4.1882057 2960685
0.48182115 -1.7748511 4.183712 11711154
0.51173711 -1.7747381 4.1590605 11711154
-1.9869061 -1.7251966 4.1883554 2960685
0.48197633 -1.7250859 4.1837559 11711154
0.51175618 -1.7248337 4.1592174 11711154
-1.9868577 -1.6749762 4.1888132 2960685
0.48180285 -1.6750242 4.1840715 8289918
0.51177549 -1.6749264 4.1593728 9145227
-1.9871126 -1.6249461 4.1889019 2960685
0.48186603 -1.6249652 4.1841908 2039583
0.51179451 -1.6250148 4.1595292 2039583
-1.9873883 -1.5755947 4.188961 2960685
0.48203093 -1.5750405 4.1842275 2039583
0.51181394 -1.5751003 4.1596851 2039583
-1.9884033 -1.5251427 4.1881294 2960685
0.48183858 -1.5249735 4.1845579 2039583
0.51186347 -1.5249358 4.1598153 2039583
-1.9885242 -1.4749146 4.1883836 2960685
0.48202163 -1.4750423 4.1845784 2039583
0.51191396 -1.4747696 4.1599483 2039583
-1.9886343 -1.4248947 4.1886477 2960685
0.48194754 -1.4251093 4.1848111 2039583
0.51180965 -1.4248396 4.1602054 2039583
-1.9887543 -1.3750907 4.1889 2960685
0.48196608 -1.3748831 4.1849704 2039583
0.5128569 -1.3742028 4.1595173 2039583
-1.9889594 -1.3250605 4.1890483 2960685
0.48211288 -1.3249429 4.1850219 2039583
0.51347208 -1.3250595 4.1591802 2039583
-1.9889745 -1.2750213 4.1894288 2960685
0.48192912 -1.2749966 4.1853452 2039583
0.51358497 -1.2749232 4.1592588 2039583
-1.989162 -1.2249836 4.1895995 2960685
0.48204786 -1.224908 4.1854186 2039583
0.51341546 -1.224996 4.1595707 2039583
-1.9892433 -1.1751511 4.1898975 2960685
0.48263696 -1.1755283 4.1851034 2039583
0.51362354 -1.1750698 4.1595712 2039583
-1.9893247 -1.1253108 4.190196 2960685
0.48366299 -1.1249241 4.1844316 2039583
0.51349556 -1.1249163 4.1598492 2039583
-1.9895117 -1.0752574 4.1903677 2960685
0.48366189 -1.0748475 4.1846061 2039583
0.5136224 -1.0749853 4.1599174 2039583
-1.9911444 -1.0427028 4.1886454 2960685
0.48373947 -1.0249255 4.1847129 2039583
0.51353407 -1.0250373 4.160161 2039583
0.48367837 -0.97484308 4.184937 2039583
0.51366097 -0.97510141 4.1602287 2039583
0.48383641 -0.92491663 4.184978 2039583
0.51373446 -0.9251442 4.1603408 2039583
0.48361504 -0.8749783 4.1853333 2039583
0.51352537 -0.87498611 4.1606855 2039583
0.48389193 -0.82489049 4.185277 2039583
0.51378763 -0.82502311 4.1606417 2039583
0.48377091 -0.775105 4.1855483 2039583
0.51356375 -0.77506852 4.1609979 2039583
0.48382777 -0.72500229 4.1856747 2039583
0.51391947 -0.72488719 4.1608772 2039583
0.48374686 -0.67490005 4.1859121 2039583
0.51350701 -0.67492038 4.1613884 2039583
0.48392469 -0.62509978 4.1859374 2039583
0.51395798 -0.62495345 4.1611891 2039583
0.48374355 -0.57499427 4.1862588 2039583
0.51378751 -0.57460868 4.1615028 2039583
0.48398218 -0.52503139 4.1862354 2039583
0.51558143 -0.52493531 4.1601949 2039583
0.4838194 -0.47506887 4.1865406 2039583
0.5151211 -0.47495759 4.1607471 2039583
0.48389837 -0.42494476 4.1866484 2039583
0.51561999 -0.4250032 4.1605077 2039583
0.48415774 -0.37513939 4.1866064 2039583
0.51515979 -0.37500834 4.1610594 2039583
0.48478672 -0.32564428 4.1862574 2039583
0.51565874 -0.32505584 4.1608205 2039583
0.48581207 -0.27487358 4.1855879 2039583
0.51519853 -0.27504399 4.1613712 2039583
0.48555729 -0.22544542 4.1859679 2039583
0.51569748 -0.22509363 4.1611333 2039583
0.48557562 -0.17516024 4.1861262 2039583
0.51523715 -0.17506474 4.161684 2039583
0.48559394 -0.12487143 4.186285 2039583
0.51573604 -0.12511638 4.1614456 2039583
0.48561227 -0.07457874 4.1864424 2039583
0.51527786 -0.074879169 4.1619968 2039583
0.48563048 -0.024282273 4.1865993 2039583
0.51577663 -0.024932751 4.1617565 2039583
0.48564819 0.024283454 4.1867537 4013373
0.51579589 0.024933994 4.161912 4079166
-1.1231935 0.091162972 4.1518364 10197915
-1.0760256 0.091247328 4.1556778 10197915
-1.0253928 0.091337897 4.1598024 10197915
-0.97465932 0.09142863 4.1639347 10197915
-0.92382497 0.091519527 4.1680751 10197915
-0.87458956 0.091607593 4.1720858 10197915
-0.82525814 0.09169583 4.1761041 10197915
-0.77412611 0.091787264 4.1802688 10197915
-0.72460204 0.091875836 4.1843023 10197915
-0.67498106 0.091964588 4.1883445 10197915
-0.6252653 0.092053495 4.1923933 10197915
-0.57545221 0.092142589 4.1964512 10197915
-0.54104638 0.092204124 4.1992536 10197915
0.42829973 0.094603658 4.1518621 10197915
0.48464447 0.073409542 4.1838531 10197915
0.51527035 0.073152564 4.1620855 10197915
1.9780289 0.098041296 4.1517563 1059654
2.0244884 0.09812554 4.1553235 1059911
2.0620682 0.098193683 4.1582084 1125704
-1.9623952 -1.8682432 4.21696 2960685
-1.9424938 -1.8746188 4.2410636 2960685
0.4241406 -1.871707 4.2309108 11711154
0.45621857 -1.8659428 4.2044954 11711154
-1.9632435 -1.8247391 4.2162786 2960685
-1.9430496 -1.8248109 4.2407842 2960685
0.42569819 -1.8253235 4.229785 11711154
0.45636943 -1.8254877 4.2045102 11711154
-1.9634131 -1.7747735 4.2164693 2960685
-1.94326 -1.7748433 4.2409282 2960685
0.42578959 -1.7751567 4.2298818 11711154
0.4563868 -1.7750405 4.2046704 11711154
-1.9635844 -1.724803 4.2166615 2960685
-1.9432967 -1.7251709 4.2412791 2960685
0.42588088 -1.7249888 4.22998 11711154
0.45640397 -1.7245895 4.2048297 11711154
-1.9636694 -1.674968 4.2169538 2960685
-1.9435065 -1.6751946 4.2414227 2960685
0.4259128 -1.6750469 4.2301245 6579300
0.45639312 -1.6745713 4.2050109 7434609
-1.9638267 -1.624985 4.2171626 2960685
-1.9435189 -1.6249149 4.2418079 2960685
0.42591208 -1.6249861 4.230298 2039583
0.45646617 -1.6249797 4.2051215 2039583
-1.9641049 -1.5746337 4.2172236 2960685
-1.9437288 -1.5749292 4.2419515 2960685
0.42588434 -1.5749235 4.2304935 2039583
0.45645532 -1.5749539 4.2053027 2039583
-1.9651546 -1.525082 4.2163444 2960685
-1.9438317 -1.524938 4.2422237 2960685
0.42585444 -1.5250884 4.2306914 2039583
0.45644453 -1.5249234 4.2054834 2039583
-1.9651775 -1.4750491 4.2167177 2960685
-1.9439104 -1.474938 4.242527 2960685
0.42603579 -1.4750165 4.2307138 2039583
0.45659995 -1.4748863 4.2055278 2039583
-1.9654168 -1.4248825 4.2168274 2960685
-1.9440531 -1.42522 4.2427492 2960685
0.42590189 -1.4250585 4.2309971 2039583
0.45642263 -1.4248502 4.2058463 2039583
-1.9654746 -1.3749721 4.2171531 2960685
-1.9441959 -1.3754973 4.2429724 2960685
0.42585689 -1.3752098 4.2312036 2039583
0.45652413 -1.3748068 4.205935 2039583
-1.9657234 -1.3250555 4.2172494 2960685
-1.9454051 -1.3250569 4.2419071 2960685
0.42731047 -1.3253449 4.2301788 2039583
0.45662543 -1.3247625 4.2060242 2039583
-1.9646945 -1.2747483 4.2188973 2960685
-1.9445647 -1.2757077 4.243319 2960685
0.4275161 -1.2749327 4.2301826 2039583
0.45647404 -1.2751443 4.2063198 2039583
-1.9647381 -1.2249606 4.2192421 2960685
-1.9445314 -1.2249911 4.2437639 2960685
0.42758924 -1.2250315 4.2302938 2039583
0.45657542 -1.2250923 4.206408 2039583
-1.964918 -1.1749653 4.2194209 2960685
-1.9446881 -1.1749574 4.2439718 2960685
0.42776629 -1.1750034 4.2303209 2039583
0.45742998 -1.1734978 4.2058825 2039583
-1.9648303 -1.1249614 4.2199249 2960685
-1.9446869 -1.124908 4.2443714 2960685
0.42767811 -1.125095 4.2305651 2039583
0.4580743 -1.1247964 4.2055187 2039583
-1.9664223 -1.0780159 4.2183671 2960685
-1.9450504 -1.0857744 4.2442431 2960685
0.42748395 -1.0750585 4.2308969 2039583
0.45822477 -1.0750072 4.2055655 2039583
-1.9788758 -1.0477767 4.2034945 2960685
0.42778233 -1.0248957 4.230824 2039583
0.45837504 -1.0252185 4.2056141 2039583
0.42767763 -0.97497755 4.231082 2039583
0.45812586 -0.97506881 4.2059917 2039583
0.42775023 -0.92505193 4.231194 2039583
0.45832083 -0.92492592 4.2060032 2039583
0.4277817 -0.87500131 4.2313399 2039583
0.45838359 -0.875126 4.2061234 2039583
0.4276605 -0.82507378 4.2316141 2039583
0.45817745 -0.82530713 4.2064648 2039583
0.42770118 -0.77513826 4.2317519 2039583
0.45845953 -0.77481639 4.2064061 2039583
0.42795074 -0.72495341 4.2317185 2039583
0.45834526 -0.72499377 4.2066727 2039583
0.42776582 -0.67501074 4.2320428 2039583
0.45823109 -0.67516381 4.2069383 2039583
0.42779791 -0.62518656 4.2321882 2039583
0.45851299 -0.62466919 4.2068791 2039583
0.42784524 -0.57486862 4.2323232 2039583
0.45839685 -0.57517999 4.2071457 2039583
0.42774868 -0.52479041 4.2325749 2039583
0.45828253 -0.52533495 4.2074108 2039583
0.4293308 -0.47518274 4.2314405 2039583
0.45856455 -0.47483668 4.2073526 2039583
0.42971236 -0.42504731 4.2312994 2039583
0.45844829 -0.42533234 4.2076187 2039583
0.42948425 -0.37516776 4.2316594 2039583
0.45837927 -0.37513036 4.2078481 2039583
0.42925727 -0.32527715 4.232017 2039583
0.45984691 -0.32378501 4.2068152 2039583
0.42967266 -0.27485871 4.2318492 2039583
0.4600974 -0.27536494 4.2067757 2039583
0.42972642 -0.22470167 4.2319765 2039583
0.46011481 -0.22483175 4.2069364 2039583
0.42954928 -0.17533873 4.2322927 2039583
0.46013236 -0.17429478 4.2070956 2039583
0.42920372 -0.12541617 4.2327514 2039583
0.46014917 -0.1254968 4.2072496 2039583
0.42994142 -0.07461489 4.2323184 2039583
0.46016663 -0.074952245 4.2074099 2039583
0.42959791 -0.024550056 4.2327738 2039583
0.4601841 -0.024403891 4.2075696 2039583
0.42961386 0.024551274 4.2329278 4079166
0.460201 0.024405083 4.2077241 4079166
-0.51693118 0.092247255 4.2012177 10197915
-0.47553733 0.092321292 4.2045898 10197915
-0.42543507 0.0924109 4.2086701 10197915
-0.37523425 0.092500687 4.2127595 10197915
-0.3249369 0.092590623 4.2168565 10197915
-0.27454048 0.09268076 4.2209606 10197915
-0.22404705 0.092771068 4.2250738 10197915
-0.17520073 0.092858426 4.2290521 10197915
-0.12451223 0.092949025 4.2331786 10197915
-0.073725775 0.093039766 4.2373109 10197915
-0.024595896 0.093127631 4.2413125 10197915
0.024626864 0.093215659 4.2453218 10197915
0.065127231 0.093288094 4.2486205 10197915
0.42962903 0.071902417 4.2330785 10197915
0.46021715 0.071474262 4.2078719 10197915
1.247277 0.096078753 4.2165985 2894892
1.275916 0.096130371 4.218864 2894892
1.3261007 0.096220747 4.2228303 2434341
1.37638 0.096311294 4.2268043 1385266
1.4249527 0.096398793 4.2306442 927555
1.4736149 0.096486442 4.2344904 994117
1.5241724 0.09657748 4.2384868 862019
1.5748253 0.096668735 4.2424912 861507
1.625574 0.096760117 4.2465019 927300
1.6600616 0.096822225 4.2492275 1059398
-1.9120499 -1.9068688 4.2777529 2960685
-1.8964559 -1.9128344 4.2966299 2960685
0.3434124 -1.9114052 4.2972951 11711154
0.36780798 -1.9067658 4.2772083 11711154
-1.9177576 -1.8747182 4.271081 2960685
-1.8972362 -1.8758793 4.2959766 2960685
0.34450817 -1.8780005 4.2965069 11711154
0.37509751 -1.8750465 4.2713108 11711154
-1.9180332 -1.8248631 4.2711463 2960685
-1.8973123 -1.8252571 4.296288 2960685
0.34528095 -1.8260767 4.2960501 11711154
0.37507561 -1.8250148 4.2715015 11711154
-1.9181737 -1.7748702 4.2713714 2960685
-1.897468 -1.7746488 4.2965026 2960685
0.34523657 -1.7754083 4.2962608 11711154
0.37522072 -1.7748685 4.2715545 11711154
-1.918395 -1.7250941 4.2715006 2960685
-1.8975822 -1.7249125 4.2967601 2960685
0.34530726 -1.7247589 4.2963762 11711154
0.37519833 -1.7250518 4.2717443 11711154
-1.9184 -1.6749818 4.271894 2960685
-1.8976963 -1.6751707 4.2970185 2960685
0.34532022 -1.6749831 4.2965379 4013373
0.37529168 -1.6750088 4.2718396 5000268
-1.9185822 -1.6249739 4.2720718 2960685
-1.8978518 -1.6245465 4.2972322 2960685
0.34533313 -1.6252037 4.2966981 2039583
0.37510958 -1.6249634 4.2721629 2039583
-1.9186769 -1.5750692 4.2723527 2960685
-1.897928 -1.5738918 4.297543 2960685
0.34540391 -1.5745451 4.2968144 2039583
0.37524068 -1.5750227 4.2722263 2039583
-1.9187977 -1.5250469 4.2726045 2960685
-1.8980418 -1.5241314 4.297801 2960685
0.34535939 -1.5238564 4.2970257 2039583
0.37532738 -1.5250777 4.2723255 2039583
-1.9188986 -1.4750208 4.2728796 2960685
-1.8981559 -1.4743652 4.298059 2960685
0.34537241 -1.4740657 4.2971864 2039583
0.37518853 -1.4750201 4.2726135 2039583
-1.9189483 -1.4249885 4.2732177 2960685
-1.8982699 -1.4245929 4.2983174 2960685
0.34538531 -1.4242715 4.2973475 2039583
0.37533391 -1.4250714 4.2726655 2039583
-1.9192358 -1.3748424 4.2732687 2960685
-1.8986917 -1.3785725 4.298172 2960685
0.34539825 -1.3744733 4.2975078 2039583
0.37515146 -1.3750051 4.2729893 2039583
-1.9204141 -1.3249608 4.2722363 2960685
-1.8996582 -1.3245974 4.2974281 2960685
0.34541112 -1.3246716 4.2976689 2039583
0.37533316 -1.3249352 4.2730112 2039583
0.40321147 -1.3188008 4.2500596 2039583
-1.9204345 -1.2749592 4.2726097 2960685
-1.8997724 -1.2748235 4.2976866 2960685
0.34542409 -1.2748661 4.2978296 2039583
0.37534672 -1.2749732 4.2731719 2039583
0.40322489 -1.2748241 4.2501998 2039583
-1.9206748 -1.2249501 4.2727175 2960685
-1.8998864 -1.2250435 4.2979445 2960685
0.34543702 -1.2250569 4.2979908 2039583
0.37522224 -1.224897 4.2734466 2039583
0.40323976 -1.2255669 4.2503572 2039583
-1.9202043 -1.1745951 4.2736878 2960685
-1.8999718 -1.187705 4.2981381 2960685
0.34544992 -1.175244 4.298151 2039583
0.37543288 -1.1748186 4.2734461 2039583
0.40325469 -1.176306 4.2505145 2039583
-1.9201226 -1.1254679 4.2741785 2960685
0.34546286 -1.1254271 4.2983117 2039583
0.37427521 -1.1253527 4.274569 2039583
0.40204549 -1.1215879 4.251699 2039583
-1.9305897 -1.0918331 4.2617431 2960685
0.34547585 -1.0756068 4.2984729 2039583
0.37367681 -1.075097 4.2752361 2039583
0.40165108 -1.0745943 4.2521868 2039583
0.34615579 -1.0299233 4.2980704 2039583
0.37379989 -1.0249535 4.2753077 2039583
0.4016659 -1.0253065 4.2523432 2039583
0.34717208 -0.97564238 4.2974195 2039583
0.37375131 -0.97492385 4.2755194 2039583
0.40168077 -0.97601509 4.252501 2039583
0.34718511 -0.92582673 4.2975807 2039583
0.37375036 -0.92500782 4.2756925 2039583
0.40169621 -0.92495948 4.2526646 2039583
0.34719807 -0.87600738 4.2977419 2039583
0.37373328 -0.87508738 4.2758784 2039583
0.40171167 -0.87390006 4.2528276 2039583
0.34721109 -0.82618415 4.2979026 2039583
0.37380952 -0.82516313 4.2759891 2039583
0.40172651 -0.82459748 4.2529855 2039583
0.34722406 -0.77635723 4.2980633 2039583
0.37390053 -0.77511787 4.2760854 2039583
0.40174136 -0.77529132 4.2531428 2039583
0.34723708 -0.72652662 4.298224 2039583
0.37386832 -0.72495282 4.2762842 2039583
0.40175629 -0.72598141 4.2532997 2039583
0.34725004 -0.67669231 4.2983842 2039583
0.37378928 -0.67501754 4.2765207 2039583
0.40177163 -0.67490679 4.2534633 2039583
0.34726354 -0.62507421 4.2985516 2039583
0.37381893 -0.62519628 4.2766676 2039583
0.4017871 -0.62382805 4.2536263 2039583
0.34727702 -0.57345212 4.2987189 2039583
0.37384862 -0.5753715 4.2768149 2039583
0.40180203 -0.57450694 4.2537847 2039583
0.34728998 -0.5236063 4.2988796 2039583
0.37383106 -0.52530533 4.2770028 2039583
0.40181687 -0.52518231 4.253942 2039583
0.347303 -0.4737567 4.2990398 2039583
0.37392241 -0.47500432 4.2770996 2039583
0.40338597 -0.47515255 4.25282 2039583
0.34731597 -0.42390341 4.2992005 2039583
0.37396869 -0.42493454 4.277235 2039583
0.40340462 -0.42577833 4.252975 2039583
0.34732896 -0.37404639 4.2993612 2039583
0.37373289 -0.37497586 4.2775998 2039583
0.40357044 -0.37473905 4.2530146 2039583
0.34734195 -0.32418564 4.2995229 2039583
0.37384039 -0.32501319 4.2776837 2039583
0.4035114 -0.32421976 4.2532363 2039583
0.34735498 -0.27432123 4.299684 2039583
0.37385488 -0.27504727 4.2778435 2039583
0.4035264 -0.27489212 4.2533941 2039583
0.34736797 -0.224453 4.2998447 2039583
0.3739624 -0.22484429 4.2779288 2039583
0.40354124 -0.22556084 4.2535515 2039583
0.34737721 -0.18883067 4.2999597 2039583
0.37420771 -0.17440996 4.2778997 2039583
0.40355629 -0.17622598 4.2537103 2039583
0.37405321 -0.12419381 4.2781997 2039583
0.4035717 -0.12512514 4.2538729 2039583
0.37395757 -0.074445285 4.2784505 2039583
0.40358725 -0.07402049 4.254035 2039583
