# .PCD v0.7 - Point Cloud Data file format
VERSION 0.7
FIELDS x y z rgb
SIZE 4 4 4 4
TYPE F F F U
COUNT 1 1 1 1
WIDTH 1160
HEIGHT 1
VIEWPOINT 0 0 0 1 0 0 0
POINTS 1160
DATA ascii
0.22500789 0.1156219 0.62294376 10197915
0.27499896 0.11564966 0.62311858 10197915
0.32495621 0.11567733 0.62326193 10197915
0.37495226 0.11570519 0.62341166 10066329
0.42500058 0.11573287 0.62354708 10000536
0.47215292 0.11575611 0.6261133 10000536
0.50556654 0.11575419 0.64253223 10132122
-0.5525769 0.1150942 0.69785267 10197915
-0.5195682 0.11513599 0.67910749 10197915
-0.47534144 0.11516747 0.67368668 10197915
-0.42500681 0.11519609 0.67325687 10197915
-0.37496489 0.11522397 0.67341912 10197915
-0.32495445 0.11525151 0.67360359 10197915
-0.27501318 0.11527929 0.67374855 10197915
-0.22501054 0.11530723 0.6738953 10197915
-0.17500246 0.11533469 0.67409736 10197915
-0.12500755 0.11536249 0.67421305 10197915
-0.074988633 0.11539017 0.67441201 10197915
-0.024983203 0.11541796 0.67455858 10197915
0.024991214 0.11544544 0.67472047 10197915
0.075007334 0.11547329 0.67489523 10197915
0.12527274 0.11550281 0.67374074 10197915
0.1749714 0.11553081 0.67358905 10197915
0.22499479 0.11555859 0.67374998 10197915
0.27500695 0.11558631 0.67390269 10197915
0.32497275 0.11561397 0.67408442 10197915
0.37498128 0.11564184 0.67422515 10197915
0.4249953 0.11566938 0.67440951 10197915
0.47498131 0.11569723 0.67455328 10197915
0.51961845 0.11571629 0.67915797 10197915
0.55244237 0.11571101 0.69808543 10197915
-0.56569636 0.1150455 0.73096305 10197915
-0.52501452 0.11507536 0.72525889 10197915
-0.47457451 0.11510497 0.72415507 10197915
-0.42498079 0.11513325 0.72369194 10197915
-0.37500018 0.1151609 0.72388846 10197915
-0.32501662 0.11518848 0.72407705 10197915
-0.2750099 0.11521629 0.72421968 10197915
-0.2249991 0.11524384 0.72441739 10197915
-0.17498636 0.11527177 0.72459298 10197915
-0.12529577 0.11529973 0.72435564 10197915
-0.075003438 0.11532944 0.72306842 10197915
-0.02500676 0.11535712 0.72323579 10197915
0.025014739 0.1153848 0.72340977 10197915
0.074990325 0.1154125 0.72358924 10197915
0.12499014 0.11544025 0.72374976 10197915
0.17503688 0.1154679 0.72394067 10197915
0.22501567 0.11549565 0.72410667 10197915
0.27499482 0.11552335 0.72427982 10197915
0.32499838 0.11555101 0.72445726 10197915
0.37500283 0.11557874 0.72463143 10197915
0.42500788 0.11560651 0.72479087 10197915
0.47501373 0.11563414 0.72498858 10197915
0.52502048 0.11566196 0.72513497 10197915
0.56578124 0.11567729 0.73104465 10197915
-0.61233759 0.11495163 0.78532779 10197915
-0.57489949 0.11498497 0.77535343 10197915
-0.5249719 0.1150127 0.77546763 10197915
-0.47551623 0.11504174 0.77434725 10197915
-0.42502359 0.1150707 0.77368456 10197915
-0.37508208 0.11509838 0.77387929 10197915
-0.3250863 0.1151261 0.77407134 10197915
-0.27498049 0.11515383 0.77424413 10197915
-0.22496592 0.11518147 0.77445316 10197915
-0.1750153 0.11520914 0.77461398 10197915
-0.12458555 0.11523774 0.77430767 10197915
-0.07497599 0.11526727 0.77283484 10197915
-0.025006592 0.11529491 0.77305943 10197915
0.025014644 0.11532258 0.77324569 10197915
0.075005271 0.11535037 0.77339369 10197915
0.12496714 0.11537795 0.77361161 10197915
0.17495286 0.11540568 0.77378315 10197915
0.22496244 0.11543337 0.77397817 10197915
0.27496928 0.11546105 0.77415246 10197915
0.32499999 0.1154888 0.77435923 10197915
0.37500185 0.1155165 0.77452314 10197915
0.42497331 0.1155441 0.77473819 10197915
0.47496867 0.11557184 0.77488488 10197915
0.52498871 0.11559955 0.77508211 10197915
0.57495332 0.11562713 0.77534461 10197915
0.61243355 0.11563538 0.78548688 10197915
-0.65865642 0.11485878 0.83896613 10197915
-0.62408638 0.11489393 0.82620388 10197915
-0.57502031 0.11492222 0.82556993 10197915
-0.52503914 0.11494979 0.82577896 10197915
-0.4744707 0.11497981 0.82441026 10197915
-0.42503679 0.11500827 0.82374364 10197915
-0.37514549 0.11503576 0.82395726 10197915
-0.32513762 0.11506348 0.82415885 10197915
-0.2750133 0.11509124 0.82435542 10197915
-0.22501981 0.11511893 0.82452947 10197915
-0.17500205 0.1151466 0.82475722 10197915
-0.12537812 0.11517458 0.82449859 10197915
-0.075018503 0.115205 0.82271445 10197915
-0.024989177 0.11523271 0.82291728 10197915
0.024997192 0.11526033 0.82311505 10197915
0.075006507 0.11528798 0.82331997 10197915
0.12500587 0.11531571 0.8235001 10197915
0.17499526 0.11534331 0.82369804 10197915
0.22504327 0.11537104 0.82393259 10197915
0.27504596 0.11539873 0.82409227 10197915
0.32503864 0.1154264 0.82430428 10197915
0.37502235 0.11545413 0.82449102 10197915
0.42499453 0.11548166 0.82470948 10197915
0.47499049 0.11550943 0.82487923 10197915
0.52497691 0.11553708 0.82509422 10197915
0.57495272 0.11556474 0.82530373 10197915
0.62408119 0.11559095 0.82623202 10197915
0.65874791 0.11559423 0.83915854 10197915
-0.70487529 0.1147659 0.89267188 10197915
-0.67190278 0.11480433 0.87665248 10197915
-0.62500107 0.11483336 0.87439173 10197915
-0.57502872 0.11486101 0.87459373 10197915
-0.52499127 0.1148886 0.87483954 10197915
-0.47497052 0.11491641 0.87497902 10197915
-0.42500544 0.11494394 0.87523383 10197915
-0.37489617 0.11497159 0.87549806 10197915
-0.32488331 0.11499938 0.87563664 10197915
-0.27500728 0.11502693 0.87586462 10197915
-0.22498637 0.1150546 0.87605804 10197915
-0.17498216 0.11508223 0.87630439 10197915
-0.12455115 0.11511086 0.87590361 10197915
-0.075021647 0.11514093 0.87398821 10197915
-0.025025038 0.11516859 0.87418038 10197915
0.024996873 0.11519634 0.87436146 10197915
0.075005136 0.11522395 0.87465078 10197915
0.1244943 0.11525379 0.87286532 10197915
0.1750332 0.11528274 0.87231761 10197915
0.22499865 0.11531033 0.8725158 10197915
0.27498832 0.11533797 0.87274534 10197915
0.32508188 0.11536567 0.87292689 10197915
0.37507999 0.11539336 0.87313676 10197915
0.42502058 0.115421 0.87335277 10197915
0.47502542 0.11544862 0.87358207 10197915
0.52501404 0.1154763 0.87378049 10197915
0.57498556 0.115504 0.87396485 10197915
0.62502325 0.11553162 0.87420923 10197915
0.67208558 0.11555468 0.8768065 10197915
0.70516419 0.11555286 0.89303768 10197915
-0.75067329 0.11467533 0.94471318 10197915
-0.7186144 0.11471485 0.92741239 10197915
-0.67493492 0.11474446 0.92323303 10197915
-0.62498081 0.11477205 0.92346781 10197915
-0.57495439 0.11479975 0.92364955 10197915
-0.52499896 0.11482732 0.92391193 10197915
-0.47501987 0.11485504 0.92408228 10197915
-0.42496905 0.11488263 0.92435092 10197915
-0.37484649 0.11491036 0.92456907 10197915
-0.32488966 0.11493798 0.92481875 10197915
-0.27505413 0.11496557 0.92496997 10197915
-0.22505027 0.11499318 0.92521143 10197915
-0.17502244 0.11502079 0.92548621 10197915
-0.12501833 0.1150485 0.92568511 10197915
-0.075038277 0.11507617 0.92585343 10197915
-0.02503453 0.11510372 0.92613006 10197915
0.024994649 0.1151314 0.92633486 10197915
0.074998282 0.11515907 0.92656726 10197915
0.12559436 0.11518991 0.92447454 10197915
0.17497608 0.1152181 0.92395449 10197915
0.22496212 0.11524584 0.92417765 10197915
0.27497229 0.11527343 0.92439783 10197915
0.32504818 0.11530111 0.92464191 10197915
0.37506485 0.11532883 0.92483073 10197915
0.42447618 0.11535907 0.92268807 10197915
0.47497287 0.1153878 0.92229509 10197915
0.52500761 0.11541552 0.92246383 10197915
0.5750187 0.11544311 0.92269659 10197915
0.62500572 0.11547079 0.92292124 10197915
0.67496812 0.11549845 0.92313212 10197915
0.71882647 0.11551724 0.92768425 10197915
0.75103295 0.11551341 0.94516575 10197915
-0.76551026 0.11462047 0.98201954 10197915
-0.72505563 0.11465257 0.97440451 10197915
-0.67505628 0.1146801 0.97470909 10197915
-0.62503517 0.11470774 0.97491401 10197915
-0.57503897 0.11473541 0.9751448 10197915
-0.52501929 0.11476301 0.9754113 10197915
-0.47582155 0.1147926 0.9737075 10197915
-0.42498645 0.11482245 0.97254145 10197915
-0.37488902 0.11485026 0.97268355 10197915
-0.32493863 0.11487781 0.97296268 10197915
-0.27502307 0.11490547 0.97310328 10197915
-0.22496825 0.11493297 0.97347778 10197915
-0.1749467 0.11496069 0.97364938 10197915
-0.12495873 0.1149883 0.97389901 10197915
-0.075004384 0.11501598 0.974069 10197915
-0.025026537 0.11504348 0.97438216 10197915
0.024976883 0.11507115 0.97460037 10197915
0.075002708 0.11509886 0.97478676 10197915
0.12505327 0.1151265 0.97505373 10197915
0.17501211 0.11515412 0.97527069 10197915
0.22499506 0.1151817 0.97553653 10197915
0.27500194 0.11520935 0.97573799 10197915
0.32509002 0.11523698 0.97602075 10197915
0.37508833 0.11526465 0.97622198 10197915
0.42554441 0.11529604 0.9736585 10197915
0.47500712 0.11532409 0.97332376 10197915
0.52498257 0.11535173 0.97355014 10197915
0.57503223 0.11537933 0.97382569 10197915
0.62505525 0.11540707 0.97396863 10197915
0.67500025 0.1154346 0.9742496 10197915
0.72497123 0.11546221 0.97448921 10197915
0.76565826 0.11547536 0.98217362 10197915
-0.81070209 0.11453177 1.0328203 10197915
-0.77492267 0.11456258 1.0241714 10197915
-0.7250995 0.11459 1.0244923 10197915
-0.67511117 0.11461764 1.0246856 10197915
-0.62502855 0.11464547 1.0248053 10197915
-0.57506239 0.11467281 1.0252217 10197915
-0.52507287 0.11470056 1.0254052 10197915
-0.47411725 0.11473165 1.0232711 10197915
-0.42504194 0.11476037 1.0222377 10197915
-0.37498212 0.11478814 1.0223767 10197915
-0.32495642 0.11481563 1.0226934 10197915
-0.27496913 0.11484336 1.0228503 10197915
-0.22495714 0.11487093 1.0231668 10197915
-0.1749815 0.11489853 1.0233948 10197915
-0.12498205 0.11492614 1.0236598 10197915
-0.074958295 0.11495385 1.0238496 10197915
-0.024971837 0.11498138 1.0241511 10197915
0.024979811 0.11500902 1.0243968 10197915
0.074953653 0.11503665 1.0246233 10197915
0.12495206 0.11506415 1.0248888 10197915
0.17497458 0.11509193 1.025044 10197915
0.22502106 0.11511943 1.025381 10197915
0.27503091 0.11514715 1.025589 10197915
0.32512462 0.11517479 1.0258917 10197915
0.37512305 0.11520233 1.0260994 10197915
0.42502147 0.11522998 1.0263277 10197915
0.47500563 0.11525757 1.0265908 10197915
0.52501333 0.11528525 1.0268195 10197915
0.57441503 0.11531606 1.0242268 10197915
0.62499905 0.11534521 1.0235301 10197915
0.67498708 0.11537265 1.0238497 10197915
0.72500086 0.11540025 1.0241053 10197915
0.77503699 0.115428 1.0242547 10197915
0.81094533 0.11543675 1.0333583 10197915
-0.85712481 0.11443905 1.0863512 10197915
-0.82339847 0.11447517 1.0725073 10197915
-0.77511752 0.11450364 1.0712192 10197915
-0.72492051 0.11453137 1.0715166 10197915
-0.67484564 0.11455896 1.0718085 10197915
-0.6249693 0.11458654 1.0720193 10197915
-0.57499474 0.11461409 1.072312 10197915
-0.52499598 0.11464173 1.0725349 10197915
-0.47489929 0.11466925 1.0728906 10197915
-0.42492568 0.11469705 1.0730023 10197915
-0.37500361 0.11472446 1.0733448 10197915
-0.32505509 0.11475205 1.0736146 10197915
-0.27508456 0.11477973 1.0737642 10197915
-0.22501524 0.11480717 1.0741936 10197915
-0.17499597 0.11483495 1.0743406 10197915
-0.12502706 0.11486248 1.0746245 10197915
-0.07495974 0.11489011 1.0748944 10197915
-0.024942879 0.11491772 1.0751276 10197915
0.024950825 0.11494526 1.0753853 10197915
0.07494159 0.1149728 1.0757048 10197915
0.12495617 0.1150005 1.0759019 10197915
0.17499529 0.11502817 1.0761253 10197915
0.22498395 0.11505567 1.0764548 10197915
0.27499667 0.11508336 1.0766646 10197915
0.32518154 0.11511098 1.0769733 10197915
0.37516922 0.11513858 1.0772183 10197915
0.42502916 0.11516621 1.0773885 10197915
0.47498927 0.11519368 1.0777463 10197915
0.52497238 0.11522125 1.0780534 10197915
0.57558692 0.11525354 1.074798 10197915
0.62505263 0.11528176 1.074337 10197915
0.67500216 0.11530925 1.0746577 10197915
0.72441226 0.11534066 1.071589 10197915
0.77497381 0.11536959 1.0710391 10197915
0.82345873 0.11539463 1.0726603 10197915
0.85736382 0.11539565 1.0870188 10197915
-0.90432632 0.11434212 1.1428577 10197915
-0.87120426 0.11438201 1.1257268 10197915
-0.82498759 0.11441171 1.1225952 10197915
-0.77494574 0.1144392 1.1229492 10197915
-0.72495615 0.11446687 1.1231502 10197915
-0.67494172 0.11449442 1.1234622 10197915
-0.62498188 0.11452204 1.1236775 10197915
-0.57499731 0.11454958 1.1239747 10197915
-0.52498925 0.11457722 1.1242187 10197915
-0.47503459 0.11460465 1.1246132 10197915
-0.42505455 0.11463241 1.1247021 10197915
-0.37505254 0.11465985 1.1250715 10197915
-0.32502389 0.11468744 1.1253567 10197915
-0.27497333 0.11471523 1.1255001 10197915
-0.22505333 0.1147425 1.1259525 10197915
-0.17510885 0.11477025 1.1260965 10197915
-0.12506311 0.11479782 1.1263974 10197915
-0.074993357 0.1148253 1.1267787 10197915
-0.026017992 0.11485595 1.1241469 10197915
0.025025403 0.11488626 1.1226896 10197915
0.074997738 0.11491373 1.123059 10197915
0.12499382 0.11494142 1.1232287 10197915
0.1750145 0.11496907 1.1234629 10197915
0.22496609 0.11499661 1.1237677 10197915
0.27494106 0.11502408 1.1241032 10197915
0.3251265 0.11505181 1.1243411 10197915
0.37515119 0.11507946 1.1245749 10197915
0.42501134 0.11510688 1.1249124 10197915
0.47508228 0.1151346 1.1251165 10197915
0.52499104 0.11516207 1.1254168 10197915
0.57492357 0.11518968 1.1256548 10197915
0.62497294 0.11521731 1.1259224 10197915
0.67495233 0.11524479 1.1262608 10197915
0.72558439 0.11527756 1.122647 10197915
0.77505982 0.11530568 1.1222521 10197915
0.82508284 0.11533327 1.1225647 10197915
0.87142539 0.11535472 1.1260861 10197915
0.9048174 0.11535166 1.1434783 10197915
-0.91870826 0.11428951 1.17856 10197915
-0.87505251 0.11431932 1.1741951 10197915
-0.82504809 0.11434679 1.1745532 10197915
-0.77492255 0.11437454 1.174762 10197915
-0.72496784 0.11440206 1.1750423 10197915
-0.67508394 0.11442947 1.1754026 10197915
-0.62508118 0.11445723 1.1755323 10197915
-0.57505327 0.11448465 1.1759696 10197915
-0.52500117 0.11451223 1.176253 10197915
-0.47502229 0.11453995 1.1763817 10197915
-0.42502022 0.11456726 1.176857 10197915
-0.37509075 0.11459494 1.1770234 10197915
-0.3250384 0.11462244 1.1773851 10197915
-0.27486709 0.11465032 1.177515 10197915
-0.22486463 0.11467762 1.1779912 10197915
-0.17493708 0.11470532 1.1781569 10197915
-0.12498406 0.11473291 1.178401 10197915
-0.075008735 0.11476027 1.17884 10197915
-0.023975976 0.1147928 1.1756161 10197915
0.024977207 0.11482166 1.1743979 10197915
0.074944891 0.11484924 1.1746507 10197915
0.1239064 0.1148801 1.1718429 10197915
0.17503352 0.11491054 1.1703447 10197915
0.22512491 0.11493819 1.170585 10197915
0.27504537 0.11496565 1.1709431 10197915
0.32518402 0.11499339 1.1711498 10197915
0.37515432 0.1150209 1.1714656 10197915
0.42495215 0.11504832 1.1717851 10197915
0.4749684 0.11507597 1.1719886 10197915
0.52500904 0.11510364 1.1722338 10197915
0.57497668 0.11513113 1.1725501 10197915
0.6249671 0.11515857 1.1729463 10197915
0.67498189 0.11518629 1.1731118 10197915
0.7249248 0.11521383 1.1733924 10197915
0.7749877 0.11524128 1.1737887 10197915
0.8249765 0.11526908 1.1739157 10197915
0.87489247 0.11529651 1.1742344 10197915
0.91888559 0.11531515 1.1790128 10197915
0.6440267 -0.55446404 1.2496302 2960685
0.67434335 -0.55412227 1.2477099 2960685
0.7239967 -0.55343479 1.2445644 2960685
0.76211053 -0.55284649 1.2421499 2960685
0.64441234 -0.52537358 1.2496417 2960685
0.67506409 -0.5249911 1.2476994 2960685
0.72496134 -0.52498138 1.2445379 2960685
0.76269615 -0.52505893 1.2421474 2960685
0.64489055 -0.47575265 1.2496718 2960685
0.67511928 -0.4750075 1.2477573 2960685
0.72491759 -0.47497046 1.2446012 2960685
0.76269192 -0.47498557 1.2422086 2960685
0.64539176 -0.42566738 1.249701 2960685
0.67518222 -0.42501932 1.2478136 2960685
0.72504473 -0.4250055 1.2446535 2960685
0.76265073 -0.42496592 1.2422711 2960685
0.64587539 -0.37558058 1.2497301 2960685
0.67508966 -0.37500617 1.2478795 2960685
0.72496951 -0.37499541 1.2447191 2894892
0.76231396 -0.37504783 1.2423526 2894892
0.64636397 -0.32595006 1.2497597 2960685
0.6753251 -0.32493743 1.247926 2960685
0.72517192 -0.32506314 1.2447671 2894892
0.76224351 -0.32492927 1.2424209 2894892
0.64685965 -0.27580124 1.2497886 2960685
0.67519015 -0.27501717 1.2479948 2960685
0.72498298 -0.27503222 1.24484 2894892
0.76238191 -0.2750175 1.2424703 2894892
0.64734393 -0.22552916 1.2498192 2960685
0.6751892 -0.22503062 1.2480555 2960685
0.72523296 -0.22501974 1.2448846 2894892
0.762366 -0.22495252 1.2425332 2894892
0.64783585 -0.17572953 1.2498486 2960685
0.67540002 -0.17492826 1.2481024 2960685
0.72506112 -0.17497799 1.2449558 2894892
0.76240194 -0.1750284 1.2425892 2894892
0.64833039 -0.12579449 1.2498779 2960685
0.67532295 -0.1251383 1.2481682 2960685
0.72529173 -0.12495688 1.2450037 2894892
0.76243764 -0.12509969 1.242649 2894892
0.64883733 -0.07525415 1.2499068 2960685
0.67535508 -0.074982993 1.2482276 2960685
0.72513872 -0.07490509 1.2450732 2894892
0.76247317 -0.075166292 1.2427059 2894892
0.64936262 -0.024855794 1.2499349 2960685
0.67538691 -0.024822993 1.2482861 2960685
0.72535014 -0.02487527 1.2451214 2894892
0.76250917 -0.025228072 1.2427642 2894892
0.64983457 0.023485938 1.2499635 2960685
0.67541867 0.024824569 1.2483437 2960685
0.72537148 0.02485596 1.2451795 4276545
0.76254576 0.025229674 1.242823 5723991
0.64991212 0.053857259 1.2499957 4079166
0.67545074 0.074993938 1.2484032 9145227
0.72525406 0.074895591 1.2452463 9671571
0.76258165 0.075177185 1.242882 10197915
-0.96524137 0.11419595 1.2326589 10197915
-0.92508918 0.11422747 1.2253915 10197915
-0.87514091 0.11425488 1.2257751 10197915
-0.82506722 0.11428267 1.2258972 10197915
-0.77507293 0.11430994 1.2264102 10197915
-0.72525519 0.11433755 1.2265725 10197915
-0.67520964 0.11436502 1.2269567 10197915
-0.62504125 0.11439292 1.2270792 10197915
-0.57494843 0.11442029 1.2275496 10197915
-0.52493322 0.11444788 1.2277998 10197915
-0.47629416 0.11447784 1.2255597 10197915
-0.42497581 0.11450977 1.2229398 10197915
-0.37515983 0.1145371 1.2233428 10197915
-0.3251898 0.11456469 1.2236102 10197915
-0.27507046 0.11459222 1.223959 10197915
-0.22505517 0.11461996 1.2241167 10197915
-0.17501391 0.11464743 1.2244937 10197915
-0.1249497 0.11467499 1.2248158 10197915
-0.074986324 0.11470266 1.2250001 10197915
-0.025002025 0.11473008 1.2254041 10197915
0.025010027 0.11475766 1.2256985 10197915
0.075042404 0.11478537 1.2258832 10197915
0.12630056 0.11481829 1.2224332 10197915
0.17505419 0.11484703 1.2212243 10197915
0.22499304 0.11487449 1.221562 10197915
0.27495635 0.11490214 1.2217677 10197915
0.32514521 0.1149298 1.2220644 10197915
0.37515768 0.11495738 1.2223537 10197915
0.424887 0.11498475 1.2226459 10197915
0.47494641 0.11501225 1.2230268 10197915
0.52502882 0.1150399 1.2232757 10197915
0.57503462 0.11506752 1.2235259 10197915
0.6249615 0.11509494 1.2239059 10197915
0.6754033 0.10952949 1.242089 10197915
0.72528172 0.10935508 1.2398164 10197915
0.76767349 0.11039973 1.2352723 10197915
0.82501233 0.1152053 1.2249912 10197915
0.87505996 0.11523282 1.2253276 10197915
0.92502958 0.11526049 1.225533 10197915
0.96546072 0.11527348 1.2332249 10197915
-0.15041506 -0.56792122 1.2999513 2894892
-0.12498262 -0.56548083 1.2983425 2894892
-0.075356416 -0.56475174 1.2951998 2894892
-0.025368359 -0.56401455 1.2920326 2894892
0.024895348 -0.56334007 1.2888484 2960685
0.07485491 -0.56264806 1.2856842 2960685
0.12457935 -0.56191307 1.2825348 2960685
0.17468522 -0.56116885 1.2793602 2960685
0.22499052 -0.56054199 1.2761741 2960685
0.27494934 -0.559798 1.2730093 2960685
0.32479599 -0.55905652 1.2698522 2960685
0.37485817 -0.55839068 1.2666802 2960685
0.42463148 -0.55768806 1.2635272 2960685
0.47419122 -0.55694783 1.260389 2960685
0.52453989 -0.5562495 1.2571985 2960685
0.57455289 -0.55555713 1.2540306 2960685
0.61841965 -0.55491078 1.2512525 2960685
-0.15026008 -0.53533512 1.2999809 2894892
-0.12479924 -0.52500486 1.2983797 2894892
-0.07506974 -0.52498072 1.2952296 2894892
-0.025119904 -0.52498019 1.2920645 2894892
0.025091516 -0.52503908 1.2888827 2894892
0.075090855 -0.52503973 1.2857147 2960685
0.12485546 -0.52499574 1.2825611 2960685
0.17487039 -0.52494538 1.2793933 2960685
0.22522825 -0.52502501 1.2762022 2960685
0.27535239 -0.52501571 1.2730265 2960685
0.32513556 -0.52499658 1.2698715 2960685
0.37518999 -0.52503544 1.2667005 2960685
0.42504352 -0.52501798 1.2635413 2960685
0.47465485 -0.52495962 1.2603978 2960685
0.52501899 -0.52499181 1.257206 2960685
0.57513475 -0.52504349 1.2540305 2960685
0.61934322 -0.52486539 1.25123 2960685
-0.1246661 -0.47508192 1.2984319 2894892
-0.075176582 -0.47498268 1.2952971 2894892
-0.0252233 -0.47501639 1.2921314 2894892
0.025063233 -0.47502688 1.2889451 2894892
0.075094871 -0.47501522 1.2857757 2894892
0.12486593 -0.47500345 1.2826219 2894892
0.17490143 -0.47498962 1.2794508 2960685
0.22518809 -0.47497365 1.2762648 2960685
0.2752496 -0.47500154 1.2730931 2960685
0.32510442 -0.47501829 1.2699342 2960685
0.37524319 -0.47501069 1.2667571 2960685
0.4251031 -0.47498345 1.2635983 2960685
0.47469768 -0.47496024 1.2604558 2894892
0.52507156 -0.47498199 1.2572625 2894892
0.57519394 -0.47504237 1.2540883 2894892
0.61989385 -0.47483474 1.2512556 2960685
-0.12416816 -0.42509279 1.2984617 2894892
-0.075145923 -0.42501476 1.2953557 2894892
-0.025184041 -0.42501271 1.2921895 2894892
0.025074998 -0.42499933 1.2890053 2894892
0.07509695 -0.42499691 1.2858359 2894892
0.12487918 -0.42499501 1.2826819 2894892
0.17494559 -0.42499605 1.2795084 2894892
0.22528824 -0.4249835 1.2763193 2894892
0.27538079 -0.42498195 1.2731451 2894892
0.3252247 -0.42498031 1.2699877 2894892
0.37531829 -0.42499217 1.266813 2894892
0.42517802 -0.42497718 1.2636545 2894892
0.47475588 -0.42499927 1.2605124 2894892
0.52507991 -0.42499793 1.2573241 2894892
0.57517272 -0.42502668 1.2541502 2894892
0.62025297 -0.42487106 1.2512931 2960685
-0.12374769 -0.37499973 1.298496 2894892
-0.075032108 -0.37497291 1.2954092 2894892
-0.025064312 -0.37505054 1.2922425 2894892
0.025116466 -0.37502369 1.2890633 2894892
0.075101942 -0.37499705 1.2858961 2894892
0.12489287 -0.37497061 1.2827412 2894892
0.17502059 -0.37494349 1.279567 2894892
0.22534159 -0.37502226 1.2763766 2894892
0.27531639 -0.37501261 1.2732102 2894892
0.32507366 -0.37499225 1.2700567 2894892
0.37516108 -0.37499031 1.2668839 2894892
0.42502248 -0.37496582 1.2637249 2894892
0.47470716 -0.37496939 1.2605768 2894892
0.52509618 -0.37504092 1.2573837 2894892
0.57515001 -0.37503684 1.2542117 2894892
0.62072951 -0.37490284 1.2513241 2960685
-0.12311219 -0.32505453 1.2985166 2894892
-0.075281046 -0.32495931 1.2954847 2894892
-0.025162894 -0.32496926 1.29231 2894892
0.02519835 -0.32510072 1.2891185 2894892
0.075111292 -0.32501486 1.2859561 2894892
0.12492198 -0.32491919 1.2827997 2894892
0.17494527 -0.32498431 1.2796311 2894892
0.22515479 -0.32506591 1.276449 2894892
0.27531618 -0.3249945 1.2732702 2894892
0.32530165 -0.32497874 1.2701037 2894892
0.37534755 -0.32504863 1.2669327 2894892
0.42508367 -0.32497182 1.2637813 2894892
0.47469017 -0.32489195 1.2606381 2894892
0.52510047 -0.32506895 1.2574439 2894892
0.57518345 -0.32505366 1.2542701 2697513
0.62130213 -0.32482669 1.251349 2960685
-0.12280715 -0.27507618 1.2985573 2894892
-0.075018525 -0.2750611 1.2955297 2894892
-0.025295788 -0.27490515 1.2923793 2894892
0.025092099 -0.2750586 1.289186 2894892
0.075130679 -0.27506196 1.2860157 2894892
0.1249451 -0.27484056 1.2828599 2894892
0.17492081 -0.27513078 1.2796919 2894892
0.22528003 -0.27498487 1.2765021 2894892
0.27546719 -0.27499512 1.2733225 2894892
0.3250646 -0.27497947 1.2701797 2894892
0.37495542 -0.27508122 1.2670175 2894892
0.42482546 -0.27498478 1.2638581 2894892
0.4747059 -0.27487364 1.2606978 2894892
0.5251255 -0.27507111 1.2575026 2894892
0.57522458 -0.27504405 1.2543283 2500134
0.62186003 -0.27477002 1.2513733 2960685
-0.12217938 -0.22510585 1.2985784 2894892
-0.075187244 -0.2249331 1.2956009 2894892
-0.025043331 -0.22511323 1.2924231 2894892
0.02509328 -0.2248642 1.2892467 2894892
0.075176261 -0.22516194 1.2860732 2894892
0.12489229 -0.22482423 1.2829241 2894892
0.1748666 -0.22516201 1.2797559 2894892
0.22539067 -0.22491147 1.2765555 2894892
0.27524456 -0.22505325 1.2733961 2894892
0.32533467 -0.22500215 1.2702234 2894892
0.37466639 -0.224924 1.2670971 2894892
0.42471045 -0.22509745 1.2639263 2894892
0.47473484 -0.2249039 1.2607566 2894892
0.52488798 -0.22519781 1.2575785 2894892
0.57501727 -0.2248503 1.2544035 2763306
0.62225622 -0.22489917 1.2514089 2960685
-0.12186084 -0.17508744 1.2986189 2894892
-0.075125985 -0.17502435 1.2956581 2894892
-0.025177132 -0.17509666 1.292493 2894892
0.024998404 -0.1747888 1.2893142 2894892
0.075169452 -0.17524526 1.2861345 2894892
0.1248981 -0.17487153 1.2829837 2894892
0.17494252 -0.17501295 1.2798126 2894892
0.22529621 -0.17506211 1.2766223 2894892
0.2755087 -0.17494719 1.2734407 2894892
0.32508948 -0.17499243 1.2702988 2894892
0.37494457 -0.17506601 1.2671403 2894892
0.42467386 -0.17490093 1.2639891 2894892
0.47481844 -0.17504765 1.2608116 2894892
0.52466738 -0.1750661 1.2576537 2894892
0.574911 -0.17480201 1.2544705 2894892
0.62273508 -0.17515004 1.2514396 2960685
-0.1212533 -0.12507141 1.2986408 2894892
-0.075162157 -0.12507452 1.2957211 2894892
-0.025178416 -0.12476883 1.2925534 2894892
0.025160387 -0.12508719 1.2893636 2894892
0.07512255 -0.12522109 1.286198 2894892
0.12490395 -0.12491401 1.2830437 2894892
0.17508915 -0.12479471 1.2798645 2894892
0.22518265 -0.12515201 1.2766899 2894892
0.27539605 -0.1250408 1.2735085 2894892
0.32536829 -0.12500684 1.270342 2894892
0.37483215 -0.12494722 1.2672077 2894892
0.42456612 -0.1248474 1.2640569 2894892
0.47492054 -0.12522995 1.2608657 2894892
0.52469236 -0.12505311 1.2577124 2894892
0.57482123 -0.1247372 1.254537 2894892
0.62316293 -0.12501106 1.2514732 2960685
-0.12089918 -0.075012289 1.2986789 2894892
-0.075165659 -0.075155579 1.2957816 2894892
-0.025179576 -0.07497184 1.2926139 2894892
0.025128836 -0.075287677 1.2894264 2894892
0.075126022 -0.075136103 1.2862587 2894892
0.12490987 -0.074951835 1.283105 2894892
0.17497572 -0.074766591 1.2799312 2894892
0.2254411 -0.074912824 1.2767345 2894892
0.27540979 -0.074922472 1.2735685 2894892
0.32512438 -0.074997351 1.2704184 2894892
0.3748492 -0.075076893 1.2672675 2894892
0.42484218 -0.075105399 1.2641001 2894892
0.47484079 -0.075223804 1.2609317 2894892
0.52471709 -0.075035289 1.2577723 2894892
0.57484806 -0.074845806 1.2545953 2894892
0.6238212 -0.074773021 1.251492 2960685
-0.12032769 -0.024954922 1.2987043 2894892
-0.07516934 -0.025231861 1.2958424 2894892
-0.025180662 -0.02517016 1.292675 2894892
0.025098046 -0.025108142 1.2894894 2894892
0.075129643 -0.025046444 1.2863194 2894892
0.12491577 -0.024984993 1.2831646 2894892
0.17498375 -0.024923209 1.2799931 2894892
0.22532822 -0.024861146 1.2768024 2894892
0.27542299 -0.024799265 1.2736286 2894892
0.32539874 -0.025003424 1.270462 2894892
0.37486699 -0.025201658 1.267327 2894892
0.42473406 -0.025138797 1.2641679 2894892
0.47486311 -0.025075663 1.2609912 2894892
0.52474165 -0.025012795 1.2578305 2894892
0.57487506 -0.024949621 1.2546543 2894892
0.62425399 -0.024887428 1.2515244 2960685
-0.11989071 0.024719095 1.2987362 2894892
-0.075172797 0.025233464 1.2959036 2894892
-0.025181876 0.025171747 1.2927363 2894892
0.025099156 0.025109729 1.2895503 2894892
0.075133152 0.025047975 1.2863792 2894892
0.12492155 0.024986541 1.2832249 2894892
0.17499179 0.024924777 1.2800525 2894892
0.22533867 0.024862703 1.2768626 2894892
0.27543503 0.024800831 1.2736886 2894892
0.32541081 0.024983045 1.270521 2894892
0.3748852 0.025203222 1.2673874 2894892
0.42475361 0.025140405 1.264227 2894892
0.47488612 0.025077248 1.2610511 2894892
0.52476543 0.025014371 1.25789 2894892
0.5749017 0.02495121 1.2547133 2894892
0.6247552 0.024918161 1.2515539 2960685
-0.11947768 0.07482063 1.2987704 2894892
-0.075176217 0.075166546 1.2959644 2894892
-0.025183115 0.074982829 1.2927963 2894892
0.025159981 0.075265147 1.2896073 2894892
0.075136639 0.075147122 1.2864401 2894892
0.12492754 0.074962817 1.2832853 2894892
0.17499992 0.074777387 1.2801129 2894892
0.22547902 0.074890755 1.2769138 2894892
0.27544776 0.074933358 1.2737478 2894892
0.3251684 0.074986398 1.2705978 2894892
0.37490222 0.075087711 1.2674463 2894892
0.42489088 0.075073458 1.2642794 2894892
0.47490796 0.075234883 1.2611101 2894892
0.52479088 0.075046308 1.2579495 2894892
0.57492876 0.074856743 1.2547716 7631988
0.62531924 0.074840873 1.2515793 9145227
-1.0108005 0.11410568 1.2845974 2960685
-0.97492015 0.1141371 1.2754817 4144959
-0.92494404 0.11416467 1.2757267 4605510
-0.87494361 0.11419212 1.2760967 5131854
-0.8250519 0.11421955 1.2764345 5592405
-0.77513331 0.11424711 1.2767111 5987163
-0.72505969 0.1142746 1.2770805 6381921
-0.6749658 0.11430249 1.2771435 6974058
-0.62484407 0.11432985 1.2776362 7368816
-0.57483011 0.11435737 1.2779747 7829367
-0.52492458 0.11438502 1.2781568 8289918
-0.47365505 0.11441732 1.2752055 8882055
-0.42508867 0.11444706 1.2731062 9342606
-0.3751812 0.11447465 1.2733129 9671571
-0.32514235 0.11450224 1.273623 10000536
-0.27508187 0.1145298 1.2739259 10197915
-0.22510132 0.11455723 1.2743316 10197915
-0.17499132 0.11458484 1.2746389 10197915
-0.12101844 0.10964856 1.2905741 5723991
-0.07515423 0.10904524 1.2899318 5395026
-0.025139527 0.10881364 1.2876585 5460819
0.024913162 0.10905804 1.285042 5723991
0.075100094 0.10892375 1.2825863 5855577
0.12492486 0.10871189 1.2800353 5921370
0.17498645 0.10847522 1.2775294 5987163
0.22492754 0.10855061 1.2748667 6250335
0.27541539 0.10855397 1.2720855 6447714
0.32531092 0.10832373 1.269359 6513507
0.37495843 0.10808546 1.2666426 6645093
0.42447552 0.10800614 1.2637904 6842472
0.47492543 0.10810134 1.2608011 7105644
0.5247882 0.10786033 1.2578597 7237230
0.57494593 0.10760956 1.2548094 9474192
0.62506384 0.10743526 1.2516347 10197915
0.65095115 0.11341155 1.2500021 10197915
0.79392743 0.11514125 1.2623755 10197915
0.82574004 0.11514392 1.2744679 10197915
0.87500596 0.11517061 1.2751284 10197915
0.92515242 0.1151981 1.2755574 10197915
0.97519153 0.11522574 1.2757695 10197915
1.0111665 0.11523429 1.2850416 10197915
-0.82028013 -0.60005575 1.3423562 2894892
-0.81104922 -0.57517248 1.341801 2894892
-0.7754181 -0.57466131 1.3395447 2894892
-0.72541088 -0.57393795 1.336377 2894892
-0.6750344 -0.57320827 1.3331858 2894892
-0.62493563 -0.57255739 1.3300121 2894892
-0.57512283 -0.57184869 1.3268572 2894892
-0.52497321 -0.57112151 1.3236797 2894892
-0.4750185 -0.57039452 1.3205155 2894892
-0.42527255 -0.56967074 1.3173647 2894892
-0.37524742 -0.5690257 1.3141956 2894892
-0.32551816 -0.56831235 1.3110459 2894892
-0.27545524 -0.56758231 1.307874 2894892
-0.22502485 -0.56684244 1.3046801 2894892
-0.17547351 -0.56612039 1.3015412 2894892
-0.81107765 -0.52519661 1.3418642 2894892
-0.77522391 -0.524921 1.3395929 2894892
-0.72523963 -0.52505118 1.3364254 2894892
-0.67502779 -0.52495414 1.3332442 2894892
-0.62492085 -0.52501929 1.3300691 2894892
-0.57500827 -0.52500868 1.3269058 2894892
-0.52477622 -0.52498084 1.3237232 2894892
-0.47480604 -0.52496016 1.3205568 2894892
-0.42513567 -0.52498734 1.3174101 2894892
-0.37514919 -0.52504307 1.3142433 2894892
-0.32492068 -0.52493536 1.311061 2894892
-0.27483916 -0.52509952 1.3078882 2894892
-0.22489607 -0.5249719 1.3047228 2894892
-0.17507425 -0.52485758 1.3015655 2894892
-0.8111015 -0.47527429 1.3419254 2894892
-0.77477151 -0.4750084 1.3396242 2894892
-0.72476202 -0.47499096 1.3364559 2894892
-0.67499387 -0.4749887 1.333302 2894892
-0.62490255 -0.47499755 1.330128 2894892
-0.57505083 -0.47499382 1.3269696 2894892
-0.5248791 -0.47497666 1.3237911 2894892
-0.47495869 -0.4749735 1.3206276 2894892
-0.42524901 -0.47502774 1.3174784 2894892
-0.37518567 -0.47502217 1.3143057 2894892
-0.32481381 -0.47501019 1.3111144 2894892
-0.27469695 -0.47500986 1.3079391 2894892
-0.22484438 -0.47500679 1.3047796 2894892
-0.17469303 -0.47498712 1.3016024 2894892
-0.14918606 -0.45671412 1.3000083 2894892
-0.81116301 -0.42531738 1.3419896 2894892
-0.77479887 -0.42499068 1.3396869 2894892
-0.72474897 -0.424961 1.3365151 2894892
-0.67491889 -0.42496967 1.3333579 2894892
-0.62483478 -0.42503482 1.3301839 2894892
-0.57504547 -0.42502433 1.3270303 2894892
-0.52490288 -0.42500409 1.3238527 2894892
-0.47497088 -0.42499405 1.3206894 2894892
-0.42525297 -0.42499039 1.3175391 2894892
-0.37519491 -0.42498428 1.3143675 2894892
-0.32482448 -0.4249866 1.3111763 2894892
-0.27466711 -0.42497382 1.3079991 2894892
-0.22479306 -0.42502594 1.3048371 2894892
-0.17467621 -0.42502204 1.3016616 2894892
-0.14905027 -0.4221561 1.3000417 2894892
-0.81120056 -0.37529755 1.3420541 2894892
-0.77481902 -0.37494349 1.3397486 2894892
-0.72477639 -0.37495244 1.3365782 2894892
-0.67513561 -0.37501976 1.3334326 2894892
-0.6250903 -0.37504089 1.3302618 2894892
-0.57511359 -0.3749876 1.3270956 2894892
-0.52478373 -0.37497899 1.3239058 2894892
-0.47485289 -0.37506035 1.3207425 2894892
-0.42524204 -0.37499687 1.3175987 2894892
-0.37522236 -0.37495372 1.31443 2894892
-0.32481372 -0.37493494 1.3112351 2894892
-0.27474999 -0.37501717 1.3080642 2894892
-0.22500119 -0.37505123 1.3049113 2894892
-0.17483187 -0.3750287 1.3017323 2894892
-0.14863755 -0.37460816 1.3000734 2894892
-0.81123906 -0.32527333 1.3421168 2894892
-0.77484113 -0.3248792 1.3398097 2894892
-0.72487557 -0.32505453 1.3366452 2894892
-0.67517644 -0.32505265 1.3334957 2894892
-0.62485963 -0.32491907 1.3303078 2894892
-0.57504267 -0.32505924 1.3271509 2894892
-0.52506852 -0.3249591 1.323985 2894892
-0.47494188 -0.32499704 1.3208083 2894892
-0.42517143 -0.32508418 1.317655 2894892
-0.3752377 -0.32495502 1.3144916 2894892
-0.32485434 -0.3248907 1.311299 2894892
-0.27481833 -0.32511568 1.308128 2894892
-0.22494583 -0.3250131 1.3049692 2894892
-0.17461374 -0.32493785 1.3017795 2894892
-0.14811949 -0.32478535 1.3001008 2894892
-0.81127757 -0.27524403 1.3421794 2894892
-0.7748754 -0.27482289 1.339874 2894892
-0.72495604 -0.27517724 1.3367106 2894892
-0.67502099 -0.2748948 1.3335468 2894892
-0.62502468 -0.27502862 1.3303782 2894892
-0.57522243 -0.27501222 1.3272235 2894892
-0.52481872 -0.27505973 1.3240296 2894892
-0.47512302 -0.27490321 1.320881 2894892
-0.42523479 -0.27509338 1.3177196 2894892
-0.37524638 -0.2749877 1.3145522 2894892
-0.32489288 -0.27490026 1.3113637 2894892
-0.2748417 -0.27513725 1.3081909 2894892
-0.22479227 -0.2748777 1.30502 2894892
-0.17477904 -0.27503973 1.3018504 2894892
-0.1476202 -0.27419767 1.3001308 2894892
-0.81131548 -0.22521032 1.3422428 2894892
-0.77495909 -0.22482373 1.3399403 2894892
-0.7250222 -0.22515389 1.3367753 2894892
-0.67514199 -0.22489323 1.3336154 2894892
-0.62517297 -0.22505748 1.3304492 2894892
-0.57509971 -0.22500016 1.327276 2894892
-0.52499288 -0.22492102 1.3241014 2894892
-0.47489482 -0.22511876 1.320927 2894892
-0.42529914 -0.22492796 1.3177844 2894892
-0.37522978 -0.22507672 1.3146122 2894892
-0.32490799 -0.22492887 1.3114228 2894892
-0.27483258 -0.22507025 1.3082514 2894892
-0.22493418 -0.22492391 1.3050898 2894892
-0.17485093 -0.22504322 1.3019156 2894892
-0.14715751 -0.22420512 1.3001618 2894892
-0.81135374 -0.17517179 1.3423061 2894892
-0.77499497 -0.17487127 1.3400031 2894892
-0.72495151 -0.17494711 1.3368324 2894892
-0.67519766 -0.17515098 1.3336792 2894892
-0.6249643 -0.17491096 1.3304968 2894892
-0.57527161 -0.17494287 1.3273487 2894892
-0.52499318 -0.17501071 1.3241614 2894892
-0.47504285 -0.17512721 1.3209974 2894892
-0.42537293 -0.17476949 1.3178502 2894892
-0.37516996 -0.17523466 1.3146696 2894892
-0.32492301 -0.17495289 1.3114846 2894892
-0.27473244 -0.17486753 1.308305 2894892
-0.22494477 -0.17518932 1.3051499 2894892
-0.17466326 -0.17491625 1.3019643 2894892
-0.14668694 -0.17402604 1.3001933 2894892
-0.81139207 -0.12512849 1.3423699 2894892
-0.77503097 -0.1249137 1.3400661 2894892
-0.72491544 -0.12474871 1.3368905 2894892
-0.67536545 -0.12511317 1.3337504 2894892
-0.62511331 -0.12513077 1.3305665 2894892
-0.5751695 -0.12490949 1.3274028 2894892
-0.52503055 -0.12508303 1.3242249 2894892
-0.47506502 -0.12478395 1.3210593 2894892
-0.42535728 -0.12500778 1.3179094 2894892
-0.3752943 -0.1252761 1.3147374 2894892
-0.32493833 -0.12497221 1.3115458 2894892
-0.274773 -0.12473071 1.3083702 2894892
-0.22507757 -0.12509523 1.3052204 2894892
-0.17478095 -0.12514442 1.302032 2894892
-0.14621602 -0.12402271 1.3002241 2894892
-0.8114298 -0.075080596 1.3424327 2894892
-0.77506799 -0.07495176 1.3401284 2894892
-0.72504604 -0.074774489 1.3369594 2894892
-0.67512625 -0.074839033 1.3337969 2894892
-0.6251424 -0.074971646 1.3306296 2894892
-0.57531744 -0.074855 1.3274721 2894892
-0.52505487 -0.075163014 1.3242868 2894892
-0.47508782 -0.074983329 1.3211211 2894892
-0.42528701 -0.075266704 1.3179654 2894892
-0.37531218 -0.075169228 1.3147986 2894892
-0.32495353 -0.074986733 1.3116096 2894892
-0.27483976 -0.074805237 1.3084337 2894892
-0.22484297 -0.074814707 1.3052653 2894892
-0.17478923 -0.074982226 1.3020937 2894892
-0.14574732 -0.074052989 1.3002549 2894892
-0.81146806 -0.025027905 1.3424953 2894892
-0.7751047 -0.02498495 1.3401926 2894892
-0.72508043 -0.02492588 1.3370223 2894892
-0.6752938 -0.024867063 1.3338675 2894892
-0.62517232 -0.024807852 1.3306918 2894892
-0.57523394 -0.024812514 1.3275285 2894892
-0.52507979 -0.025238276 1.3243492 2894892
-0.47510955 -0.025177907 1.3211832 2894892
-0.42537886 -0.025117857 1.3180323 2894892
-0.37532982 -0.025057446 1.3148612 2894892
-0.32496929 -0.024996646 1.3116705 2894892
-0.27484992 -0.024936114 1.3084952 2894892
-0.22497642 -0.024875902 1.3053342 2894892
-0.17479748 -0.024815282 1.3021555 2894892
-0.14528202 -0.024173254 1.3002861 2894892
-0.81130821 0.024721479 1.3425452 2894892
-0.77513999 0.024986519 1.3402543 2894892
-0.72511506 0.024927406 1.337085 2894892
-0.6753248 0.024868611 1.3339301 2894892
-0.62520146 0.024809372 1.3307543 2894892
-0.57528085 0.024788672 1.3275914 2894892
-0.52510428 0.025239859 1.3244119 2894892
-0.47513178 0.025179511 1.3212463 2894892
-0.42539907 0.025119435 1.3180945 2894892
-0.37534744 0.025059016 1.3149241 2894892
-0.32498446 0.024998207 1.3117321 2894892
-0.27486312 0.024937671 1.3085556 2894892
-0.22498707 0.024877442 1.305396 2894892
-0.17480573 0.024816845 1.3022164 2894892
-0.14483535 0.025088424 1.300317 2894892
-0.81096578 0.075089499 1.3425857 2894892
-0.77517694 0.074962646 1.3403168 2894892
-0.72514808 0.074785441 1.3371476 2894892
-0.67522907 0.074812107 1.3339843 2894892
-0.62523085 0.074982621 1.3308166 2894892
-0.57537675 0.074841365 1.3276583 2894892
-0.52512908 0.075173989 1.3244747 2894892
-0.47515458 0.074994266 1.3213075 2894892
-0.42531773 0.075229757 1.3181503 2894892
-0.37536481 0.07518021 1.314985 2894892
-0.32499915 0.074997693 1.3117929 2894892
-0.27487665 0.074816182 1.3086164 2894892
-0.22489294 0.074778333 1.3054504 2894892
-0.17481408 0.074993148 1.3022776 2894892
-0.14436445 0.074934699 1.300348 2894892
-1.0573195 0.11401241 1.338495 2894892
-1.0234284 0.1140484 1.3248402 2894892
-0.9749983 0.11407678 1.323736 2894892
-0.92503792 0.11410411 1.3241906 2894892
-0.87491781 0.11413174 1.3244793 2894892
-0.81680858 0.11005802 1.3345953 2894892
-0.77468914 0.1085518 1.3360938 2894892
-0.72510946 0.10837285 1.3335984 2894892
-0.67562127 0.10832015 1.3311787 2894892
-0.62521929 0.10844405 1.3284843 2894892
-0.57536125 0.10823672 1.3257921 2894892
-0.52514476 0.10800889 1.3230999 2894892
-0.47516394 0.10779151 1.320398 2960685
-0.42573133 0.10794342 1.317539 2960685
-0.37536988 0.10784335 1.3145888 2894892
-0.32500353 0.10760363 1.3116534 2960685
-0.27488381 0.10734744 1.3086522 3026478
-0.22535729 0.10722388 1.3055195 3092271
-0.17481913 0.10736741 1.3023168 3289650
-0.14383909 0.10720552 1.3003532 3355443
0.83616662 0.11509518 1.3181736 10197915
0.8749792 0.11511082 1.3230093 10197915
0.92480612 0.11513807 1.3234631 10197915
0.97479659 0.11516563 1.323745 10197915
1.0233786 0.11519106 1.3251026 10197915
1.0573367 0.11519253 1.33912 10197915
-1.1050258 0.11391422 1.3957553 2894892
-1.0717624 0.11395442 1.3784543 2894892
-1.0251414 0.11398386 1.3757136 2894892
-0.97494096 0.11401168 1.3758926 2894892
-0.92485565 0.1140389 1.3764935 2894892
-0.87541723 0.11406698 1.3761089 2894892
-0.8420195 0.11410086 1.3639172 2894892
0.84748471 0.11505587 1.3547292 10197915
0.87861061 0.115052 1.3717514 10197915
0.92514807 0.11507366 1.3752277 10197915
0.97522974 0.1151014 1.3754029 10197915
1.0253311 0.11512906 1.375657 10197915
1.0722703 0.11515095 1.3791031 10197915
1.1057652 0.11514769 1.3966893 10197915
-1.1178551 0.11386738 1.4275752 2894892
-1.075214 0.11389495 1.4245435 2894892
-1.0251074 0.11392266 1.4247727 2894892
-0.97497129 0.11395018 1.4251179 2894892
-0.9250105 0.11397769 1.4254612 2894892
-0.8850773 0.11400352 1.4226167 2894892
0.89173967 0.1150042 1.4158739 10197915
0.92482233 0.11501282 1.4237677 10197915
0.97479713 0.11504044 1.4239956 10197915
1.0251884 0.11506817 1.4243385 10197915
1.0752119 0.11509567 1.4246765 10197915
1.1180605 0.11511508 1.428302 10197915
-1.1619716 0.11378254 1.4757875 2894892
-1.1251293 0.11381152 1.469053 2894892
-1.0748761 0.11383913 1.4694093 2894892
-1.0247973 0.11386649 1.469889 2894892
-0.97510231 0.1138941 1.4699897 2894892
-0.92641246 0.11392188 1.4695257 2894892
-0.89534503 0.11395475 1.4570819 2894892
0.93353969 0.11496039 1.469668 10197915
0.97515273 0.11497547 1.4762111 10197915
1.0240871 0.11500993 1.4705087 10197915
1.0751294 0.11504009 1.4691937 10197915
1.1246971 0.11506732 1.4695415 10197915
1.1619395 0.11507967 1.4763088 10197915
-1.2146131 0.11367651 1.5371603 2894892
-1.1740109 0.11372378 1.5174447 2894892
-1.125155 0.11375166 1.5169494 2894892
-1.0751389 0.11377911 1.5173188 2894892
-1.0248864 0.11380654 1.5178224 2894892
-0.97482318 0.1138344 1.5179147 2894892
-0.93755722 0.11386098 1.5132844 2894892
0.94754249 0.11491072 1.5156784 10197915
0.97814775 0.11490971 1.5301859 10197915
1.0262823 0.11494236 1.5255867 10197915
1.0737909 0.11497261 1.522594 10197915
1.1251547 0.11500837 1.5169451 10197915
1.1741011 0.11503436 1.5180132 10197915
1.2082415 0.11503901 1.5295638 10197915
-1.2554446 0.1135941 1.5849198 2894892
-1.2219476 0.11362823 1.5725433 2894892
-1.1749253 0.11366037 1.5678544 2894892
-1.124967 0.11368791 1.5680791 2894892
-1.0752043 0.11371525 1.5684562 2894892
-1.0251985 0.11374267 1.5688351 2894892
-0.97928667 0.11377149 1.5663012 2894892
-0.94966835 0.11380588 1.5519905 2894892
0.9904387 0.11486363 1.5726113 10197915
1.0251021 0.11487942 1.5754657 10197915
1.0775312 0.11491251 1.5724257 10197915
1.124772 0.11494523 1.5673481 10197915
1.1748435 0.11497255 1.567878 10197915
1.2224603 0.11499588 1.5704715 10197915
1.2557445 0.11499491 1.5861278 10197915
-1.3021755 0.1134986 1.6404827 2894892
-1.2701951 0.11353484 1.6257488 2894892
-1.2247963 0.11356486 1.6219934 2894892
-1.1746836 0.11359236 1.6223859 2894892
-1.124543 0.11361986 1.6227787 2894892
-1.0750511 0.11364701 1.623162 2894892
-1.0259291 0.11367463 1.6230302 2894892
-0.99229461 0.11370959 1.6100849 2894892
1.029586 0.11482992 1.617124 10197915
1.0750724 0.11485028 1.6211609 10197915
1.1250399 0.1148777 1.6215519 10197915
1.1752599 0.11490504 1.6221076 10197915
1.2250525 0.11493258 1.6223227 10197915
1.2707382 0.11495288 1.6264893 10197915
1.3032413 0.11495186 1.6418252 10197915
-1.3151821 0.11345125 1.6725869 2894892
-1.2752268 0.1134765 1.6702271 2894892
-1.2253559 0.11350398 1.6704923 2894892
-1.1751152 0.11353153 1.6708976 2894892
-1.1248593 0.11355875 1.6715772 2894892
-1.0745709 0.11358666 1.6717092 2894892
-1.035287 0.11361092 1.6698526 2894892
1.0436378 0.11478159 1.66212 10197915
1.0766062 0.1147806 1.6776487 10197915
1.1248598 0.1148053 1.6794525 10197915
1.17293 0.11484062 1.6726559 10197915
1.2248483 0.11487243 1.6704015 10197915
1.2749771 0.11490026 1.6705264 10197915
1.3157417 0.11491875 1.6739511 10197915
-1.3644118 0.11334785 1.7333629 2894892
-1.3249621 0.11338472 1.7214702 2894892
-1.274879 0.1134124 1.7216889 2894892
-1.2247677 0.11343986 1.7221057 2894892
-1.1751096 0.11346707 1.7225131 2894892
-1.1251866 0.11349441 1.7229339 2894892
-1.0776857 0.113524 1.7204845 2894892
-1.0453571 0.11356443 1.7026056 2894892
1.0887625 0.11472578 1.7269704 10197915
1.1251792 0.114741 1.731063 10197915
1.176394 0.1147808 1.7221134 10197915
1.2248669 0.11480871 1.7214342 10197915
1.2748494 0.11483638 1.7216426 10197915
1.3248608 0.11486405 1.7218558 10197915
1.3647244 0.11487039 1.7345876 10197915
-1.4097509 0.1132594 1.7839359 2894892
-1.37528 0.11328906 1.7755867 2894892
-1.3252134 0.11331627 1.7761805 2894892
-1.2751132 0.11334386 1.7764461 2894892
-1.2249998 0.1133711 1.7770404 2894892
-1.1752204 0.1133984 1.7774677 2894892
-1.1250507 0.11342606 1.7777339 2894892
-1.0916492 0.11345166 1.7721895 2894892
1.1279355 0.11469053 1.7727109 10197915
1.1750848 0.11471397 1.7750348 10197915
1.2250128 0.11474153 1.7752913 10197915
1.2749642 0.11476872 1.7758818 10197915
1.3249412 0.11479629 1.7761385 10197915
1.3749386 0.11482348 1.7767289 10197915
1.4098041 0.11483327 1.7844747 10197915
-1.4537805 0.11317309 1.8333887 2894892
-1.4221247 0.11320377 1.8229536 2894892
-1.3746275 0.11323126 1.8221816 2894892
-1.3247472 0.11325873 1.8224424 2894892
-1.2748437 0.11328583 1.8230598 2894892
-1.2249149 0.1133134 1.8233219 2894892
-1.1749642 0.11334051 1.8239399 2894892
-1.13212 0.11336722 1.8217249 2894892
1.1406327 0.11464609 1.8140178 10197915
1.1744767 0.11465646 1.8208367 10197915
1.2249339 0.11468431 1.8210999 10197915
1.2754152 0.11471174 1.8217145 10197915
1.3251629 0.1147392 1.8219663 10197915
1.3749305 0.11476624 1.8225801 10197915
1.4230798 0.11479114 1.8241746 10197915
1.4550891 0.11479542 1.8350388 10197915
-1.4699091 0.11311384 1.8735658 2894892
-1.4247475 0.11314297 1.8704516 2894892
-1.3750918 0.11316989 1.871094 2894892
-1.3254142 0.11319732 1.8713503 2894892
-1.2749414 0.11322468 1.872 2894892
-1.2248273 0.11325211 1.8724535 2894892
-1.1758295 0.11327967 1.8722981 2894892
-1.1439126 0.1133121 1.8606151 2894892
1.1823001 0.11460405 1.866328 10197915
1.2252426 0.11462402 1.8695239 10197915
1.2751125 0.11465182 1.8695822 10197915
1.3250021 0.11467864 1.8704141 10197915
1.3749223 0.11470596 1.8708601 10197915
1.4248666 0.1147333 1.8713059 10197915
1.4706265 0.11475463 1.874689 10197915
-1.5163335 0.11302206 1.9263185 2894892
-1.4752315 0.11305071 1.9217794 2894892
-1.4250252 0.11307842 1.9220361 2894892
-1.37479 0.11310556 1.9227123 2894892
-1.3245339 0.11313332 1.9229691 2894892
-1.2750442 0.11316012 1.9236395 2894892
-1.2251323 0.11318742 1.9241037 2894892
-1.1868707 0.1132146 1.9194251 2894892
1.1945843 0.11455999 1.9070522 10197915
1.2262388 0.11456241 1.9192966 10197915
1.2747885 0.11458758 1.9208485 10197915
1.324841 0.11461523 1.9211001 10197915
1.374913 0.11464236 1.9217669 10197915
1.4250154 0.11467002 1.9220189 10197915
1.4751335 0.11469718 1.9226862 10197915
1.5166987 0.11471417 1.9276632 10197915
-1.5635358 0.11292495 1.9829972 2894892
-1.5253084 0.11295555 1.9755902 2894892
-1.4753228 0.11298259 1.9762971 2894892
-1.4253181 0.11301014 1.9765445 2894892
-1.3752861 0.1130372 1.9772532 2894892
-1.3252317 0.11306486 1.9775021 2894892
-1.2751532 0.11309194 1.97821 2894892
-1.2290282 0.11312106 1.9755012 2894892
1.2386461 0.11450858 1.9679635 10197915
1.2748584 0.11452082 1.9743534 10197915
1.3250787 0.11454827 1.9748267 10197915
1.3749033 0.11457526 1.9755228 10197915
1.4247599 0.11460276 1.9757662 10197915
1.4746304 0.11462978 1.9764633 10197915
1.5249443 0.11465726 1.9769366 10197915
1.5644159 0.11467056 1.9839669 10197915
-1.6124642 0.11282267 2.0430353 2894892
-1.5749315 0.11285617 2.0330205 2894892
-1.5251918 0.11288365 2.0332584 2894892
-1.4754189 0.11291046 2.0339987 2894892
-1.4252052 0.11293785 2.0344923 2894892
-1.3768245 0.11296666 2.0330777 2894892
-1.3243263 0.11301149 2.0206285 2894892
-1.2744063 0.11303877 2.0211158 2894892
-1.2427788 0.11305603 2.0214245 2894892
1.2825541 0.11445896 2.0273554 10197915
1.3253299 0.11447748 2.0316441 10197915
1.3748943 0.11450426 2.0323725 10197915
1.4249116 0.11453158 2.0328577 10197915
1.475372 0.11455946 2.0330994 10197915
1.5250113 0.11458629 2.0338285 10197915
1.5746737 0.11461373 2.0340617 10197915
1.6127484 0.1146226 2.0439942 10197915
-1.6509137 0.11275792 2.0776548 2894892
-1.6244378 0.11277237 2.0779212 2894892
-1.5748856 0.11279944 2.0784197 2894892
-1.5253098 0.1128265 2.078918 2894892
-1.4748548 0.11285403 2.0794258 2894892
-1.4243749 0.11288159 2.0799334 2894892
