# .PCD v0.7 - Point Cloud Data file format
VERSION 0.7
FIELDS x y z rgb
SIZE 4 4 4 4
TYPE F F F U
COUNT 1 1 1 1
WIDTH 1154
HEIGHT 1
VIEWPOINT 0 0 0 1 0 0 0
POINTS 1154
DATA ascii
-1.4745457 0.099137701 2.5189109 10197915
-1.4254023 0.099058472 2.5168977 10197915
-1.3752719 0.098977655 2.5148447 10197915
-1.3252226 0.09889698 2.5127945 10197915
-1.2752553 0.098816425 2.5107479 10197915
-1.2253691 0.098736018 2.5087049 10197915
-1.1755642 0.098655723 2.5066648 10197915
-1.1215359 0.098438136 2.5217788 10197915
-1.0753161 0.098324597 2.5250683 10197915
-1.0279795 0.09822423 2.5263238 10197915
-0.97466886 0.097993419 2.5433815 10197915
-0.9254517 0.097914346 2.5413294 10197915
-0.87524682 0.097833693 2.5392361 10197915
-0.82512408 0.097753175 2.5371461 10197915
-0.77508432 0.097672783 2.5350597 10197915
-0.71934146 0.085111722 2.5383854 10197915
-2.0149136 0.10000876 2.5410433 10197915
-0.72610527 -1.1504663 2.5736535 11711154
-0.72699594 -1.1251789 2.5768108 11711154
-0.72874665 -1.0754523 2.5830162 11711154
-0.73050529 -1.0254862 2.5892494 10197915
-0.73227286 -0.97527754 2.5955145 3947580
-0.73335898 -0.94442815 2.599364 2894892
-0.71815127 -0.824965 2.5529583 2631720
-0.71986449 -0.77498335 2.5590489 2039583
-0.72158605 -0.72476429 2.5651686 4144959
-0.72328037 -0.67533582 2.5711915 6513507
-0.72498274 -0.62567461 2.577244 6513507
-0.72669321 -0.57577914 2.583324 6513507
-0.72841161 -0.5256477 2.589433 6513507
-0.7301383 -0.47527859 2.5955713 6513507
-0.73118508 -0.44474101 2.5992925 6513507
-0.71532047 -0.35501844 2.5504074 6513507
-0.71629399 -0.32586685 2.5538783 6513507
-0.71796846 -0.27572393 2.5598485 5526612
-0.71965092 -0.22534604 2.5658472 2894892
-0.72134113 -0.17473142 2.5718734 2894892
-0.72300386 -0.12494124 2.5778022 2894892
-0.7246744 -0.074919321 2.5837581 2894892
-0.72635251 -0.024667369 2.5897412 2894892
-0.72800261 0.02474208 2.5956244 4671303
-2.0546176 0.099728309 2.5884101 10197915
-2.0246911 0.099680245 2.5871627 10197915
-1.9748718 0.099600203 2.5850852 10197915
-1.9251324 0.099520303 2.5830116 10197915
-1.8743705 0.099438749 2.5808947 10197915
-1.824792 0.099359103 2.5788276 10197915
-1.7752932 0.099279597 2.5767639 10197915
-1.724776 0.099198423 2.5746574 10197915
-1.6743416 0.099117436 2.5725543 10197915
-1.6250827 0.099038288 2.5705011 10197915
-1.5759032 0.098959267 2.5684502 10197915
-1.5257114 0.098878644 2.5663574 10197915
-1.4756013 0.098798141 2.5642684 10197915
-1.4255728 0.098717786 2.5621822 10197915
-1.3756257 0.098637529 2.5600998 10197915
-1.3257595 0.09855742 2.5580206 10197915
-1.2748934 0.098475717 2.5558994 10197915
-1.2207375 0.098325826 2.5619931 10197915
-1.1744829 0.098138392 2.5750849 10197915
-1.1293826 0.097984023 2.584084 10197915
-1.075853 0.097804517 2.5942695 10197915
-1.0255686 0.09772402 2.5921345 10197915
-0.97536695 0.097643659 2.5900033 10197915
-0.92524779 0.097563431 2.5878751 10197915
-0.87521088 0.097483344 2.5857503 10197915
-0.82525611 0.09740337 2.5836294 10197915
-0.77538317 0.097323552 2.5815117 10197915
-0.73408264 0.084230773 2.5860109 10197915
-0.74567497 -1.1638172 2.6352782 11711154
-0.74709934 -1.1244671 2.640312 11711154
-0.74890429 -1.0745519 2.6466906 11711154
-0.73423064 -0.91966879 2.6024537 2894892
-0.73579735 -0.87516737 2.6080067 2894892
-0.73755401 -0.82527041 2.614233 2829099
-0.73931915 -0.77513474 2.6204898 2236962
-0.74109262 -0.72475863 2.626776 5658198
-0.74283743 -0.67519802 2.6329606 6513507
-0.7445907 -0.62540179 2.6391742 6513507
-0.74635202 -0.5753718 2.6454177 6513507
-0.74744272 -0.54439229 2.6492834 6513507
-0.73205417 -0.41938835 2.6023817 6513507
-0.7335797 -0.37488326 2.6078053 6513507
-0.7352944 -0.32486203 2.6139009 6513507
-0.73701704 -0.27460805 2.6200249 5987163
-0.738711 -0.22519396 2.6260467 2894892
-0.74041265 -0.17555214 2.6320958 2894892
-0.74212217 -0.12568116 2.6381729 2894892
-0.74383974 -0.075579323 2.6442788 2894892
-0.74507648 -0.039501492 2.6486747 2894892
-2.0743546 0.099402837 2.6366653 10197915
-2.0257988 0.099325113 2.6346037 10197915
-1.9750662 0.099243902 2.6324494 10197915
-1.9244161 0.099162824 2.6302991 10197915
-1.8749713 0.099083684 2.6281993 10197915
-1.8256055 0.099004656 2.6261034 10197915
-1.7751998 0.098923974 2.6239634 10197915
-1.7248752 0.098843433 2.6218266 10197915
-1.674633 0.098762996 2.619693 10197915
-1.6244721 0.098682694 2.6175637 10197915
-1.5755051 0.098604314 2.6154845 10197915
-1.5255059 0.09852428 2.6133614 10197915
-1.4744788 0.098442607 2.6111948 10197915
-1.4246427 0.098362848 2.6090791 10197915
-1.3748881 0.098283179 2.6069665 10197915
-1.325213 0.098203667 2.604857 10197915
-1.275619 0.098124288 2.6027515 10197915
-1.2263286 0.097853057 2.6261997 10197915
-1.1755776 0.097598985 2.6469936 10197915
-1.1253049 0.097518809 2.6448193 10197915
-1.0751141 0.09743879 2.6426485 10197915
-1.0250063 0.09735886 2.6404815 10197915
-0.97498 0.097279079 2.6383178 10197915
-0.92503631 0.09719944 2.6361575 10197915
-0.87517363 0.09711992 2.6340005 10197915
-0.8253932 0.097040527 2.6318476 10197915
-0.77459031 0.096959509 2.6296504 10197915
-0.7331416 0.08385887 2.6084006 10197915
-0.76526189 -1.2031926 2.6966038 11711154
-0.76581228 -1.1884042 2.6985431 11711154
-0.75083244 -1.0212559 2.6535053 11711154
-0.74992353 -1.0463792 2.6502931 11711154
-0.75250411 -0.97505045 2.6594129 8158332
-0.75429791 -0.92546755 2.6657522 2960685
-0.75613862 -0.87458587 2.6722577 3289650
-0.75795001 -0.82452399 2.6786585 3815994
-0.75973094 -0.77529377 2.6849532 3947580
-0.76152039 -0.72583139 2.6912773 5592405
-0.76320064 -0.67938626 2.6972156 6381921
-0.74834818 -0.518673 2.6524928 6513507
-0.75039303 -0.46059179 2.6597407 6513507
-0.74952066 -0.48536932 2.6566484 6513507
-0.75164843 -0.42493096 2.6641905 6513507
-0.75340521 -0.3750332 2.6704173 6513507
-0.75517005 -0.32490167 2.6766729 6513507
-0.75694335 -0.27453485 2.6829581 6381921
-0.75868607 -0.22503428 2.6891351 2960685
-0.76043683 -0.17530356 2.6953409 2960685
-0.76152998 -0.14425412 2.6992152 3815994
-0.74594104 -0.014278536 2.6517484 2894892
-0.7472986 0.02532329 2.6565742 5066061
-2.1190369 0.099103585 2.6877999 10197915
-2.0752611 0.099033765 2.6859064 10197915
-2.0257986 0.098954886 2.6837671 10197915
-1.9752674 0.098874301 2.6815817 10197915
-1.9248185 0.098793842 2.6793993 10197915
-1.874451 0.098713525 2.6772215 10197915
-1.8241658 0.098633334 2.6750462 10197915
-1.7739621 0.09855327 2.6728752 10197915
-1.7249781 0.098475136 2.6707561 10197915
-1.6760715 0.098397158 2.6686411 10197915
-1.6249738 0.098315664 2.6664307 10197915
-1.5739597 0.098234303 2.6642244 10197915
-1.5241611 0.098154895 2.6620703 10197915
-1.4744433 0.098075621 2.6599205 10197915
-1.4248055 0.097996429 2.6577733 10197915
-1.3752478 0.097917408 2.6556301 10197915
-1.3257703 0.097838514 2.6534898 10197915
-1.2752504 0.097757928 2.6513047 10197915
-1.2220527 0.097335935 2.6937768 10197915
-1.1755824 0.097219944 2.6973276 10197915
-1.1254919 0.097140379 2.6951201 10197915
-1.0754833 0.097060949 2.6929164 10197915
-1.0255562 0.096981637 2.6907158 10197915
-0.97571063 0.096902438 2.688519 10197915
-0.92594659 0.096823387 2.6863253 10197915
-0.87513578 0.096742682 2.6840863 10197915
-0.82440871 0.096662089 2.6818507 10197915
-0.7771396 0.096587002 2.6797671 10197915
-0.74896419 0.073911883 2.6624951 10197915
-0.76675773 -1.1630061 2.701875 11711154
-0.76817894 -1.1247833 2.7068827 11711154
-0.7700426 -1.0746762 2.7134497 11711154
-0.7719155 -1.0243275 2.7200496 11711154
-0.77375746 -0.97481114 2.7265403 10066329
-0.7756083 -0.92505831 2.7330623 6513507
-0.77746809 -0.87506682 2.739615 6513507
-0.77933657 -0.82483482 2.7461998 6513507
-0.78035557 -0.79744363 2.7497902 6513507
-0.7641415 -0.65337992 2.7005405 6513507
-0.76520348 -0.62402838 2.7042933 6316128
-0.76697922 -0.57494438 2.7105691 5592405
-0.76876336 -0.52563035 2.7168746 5987163
-0.77059555 -0.47498354 2.7233498 6513507
-0.77239662 -0.42520449 2.7297144 5987163
-0.7742061 -0.3751905 2.736109 5592405
-0.77602386 -0.32494333 2.7425337 6316128
-0.77752483 -0.28345627 2.7478378 6513507
-0.76239151 -0.11978287 2.7022688 3815994
-0.76396281 -0.075152099 2.7078383 3815994
-0.76573807 -0.024728151 2.7141302 3815994
-0.7674818 0.024803223 2.7203112 5921370
-2.1654871 0.098792486 2.740957 10197915
-2.1255133 0.098728977 2.7391953 10197915
-2.0750296 0.098648787 2.7369707 10197915
-2.0246272 0.098568723 2.7347486 10197915
-1.9754763 0.098490633 2.7325823 10197915
-1.9252361 0.098410822 2.7303684 10197915
-1.8750763 0.098331146 2.7281575 10197915
-1.8249987 0.098251581 2.72595 10197915
-1.7750009 0.098172173 2.7237475 10197915
-1.725085 0.098092869 2.7215466 10197915
-1.6752489 0.098013699 2.7193503 10197915
-1.6254939 0.097934656 2.7171576 10197915
-1.574664 0.097853921 2.7149169 10197915
-1.5250704 0.097775139 2.7127316 10197915
-1.4755572 0.097696476 2.7105494 10197915
-1.4249743 0.097616144 2.7083199 10197915
-1.3744749 0.097535916 2.7060938 10197915
-1.3240583 0.097455814 2.7038717 10197915
-1.2748671 0.097377673 2.701704 10197915
-1.2440171 0.097328663 2.7003441 10197915
-1.167457 0.096813366 2.7492483 10197915
-1.124527 0.096745439 2.7473195 10197915
-1.0747087 0.096666619 2.7450814 10197915
-1.0249718 0.096587926 2.7428467 10197915
-0.97531557 0.096509367 2.7406156 10197915
-0.92574048 0.096430928 2.7383883 10197915
-0.87509555 0.096350797 2.7361128 10197915
-0.82453465 0.096270822 2.7338412 10197915
-0.77513039 0.081711069 2.7284548 10197915
-0.78681517 -1.2174389 2.7644813 11711154
-0.78847456 -1.1740932 2.7703106 11711154
-0.79039007 -1.1240231 2.7770417 11711154
-0.79227376 -1.074807 2.7836597 11711154
-0.79416662 -1.0253543 2.7903101 11711154
-0.79602593 -0.97677392 2.7968426 7697781
-0.78129607 -0.77216256 2.753104 6513507
-0.78305972 -0.72474933 2.7593198 6513507
-2.2030575 -0.65126884 2.772521 11711154
-2.1707251 -0.65066046 2.7828205 11711154
-2.133348 -0.6508584 2.7947204 11711154
-0.78491408 -0.67490095 2.7658536 6513507
-2.202256 -0.62494862 2.7729585 11250603
-2.1747408 -0.62509501 2.7817185 11250603
-2.1337898 -0.62516797 2.7947571 11250603
-0.78677714 -0.62481761 2.772418 6513507
-2.2024772 -0.5744592 2.7732375 6513507
-2.1748388 -0.57504088 2.782033 6513507
-2.1339316 -0.57494956 2.7950602 6513507
-0.78860754 -0.57561612 2.7788682 6513507
-2.2026939 -0.52510726 2.7735095 6513507
-2.1751816 -0.52489114 2.7822731 6513507
-2.1350694 -0.52545583 2.7950394 6513507
-0.79048818 -0.52505809 2.7854955 6513507
-2.2029107 -0.47574562 2.773782 6513507
-2.1752875 -0.47494841 2.7825835 6513507
-2.1353264 -0.47501385 2.7953067 6513507
-0.79237789 -0.47426012 2.7921543 6513507
-2.2031322 -0.42522594 2.7740607 6513507
-2.17539 -0.42503637 2.782896 6513507
-2.1361496 -0.42548427 2.7953875 6513507
-0.79393834 -0.43231505 2.7976527 6513507
-2.2033536 -0.3746962 2.7743406 6513507
-2.175833 -0.37507161 2.7831004 6513507
-2.1368623 -0.37509039 2.7955093 6513507
-2.2034919 -0.32415912 2.7746463 6513507
-2.1754632 -0.32482478 2.7835662 6513507
-2.1366074 -0.32567286 2.7959323 6513507
-2.2029045 -0.27508032 2.7751727 6513507
-2.1740866 -0.27482665 2.7843499 6513507
-2.137356 -0.27508029 2.7960441 6513507
-0.77841997 -0.25871256 2.7510016 6513507
-2.20309 -0.22536793 2.7754571 6513507
-2.1745973 -0.22508185 2.7845302 6513507
-2.1376681 -0.22514041 2.7962902 6513507
-0.77960354 -0.22599553 2.7551849 6513507
-2.2033117 -0.17479266 2.7757366 6513507
-2.1748812 -0.17519793 2.7847853 6513507
-2.1385736 -0.17493226 2.7963488 6513507
-0.78144705 -0.17504269 2.7616994 6513507
-2.2035341 -0.12420715 2.776016 6513507
-2.1749558 -0.12461422 2.7851129 6513507
-2.1389022 -0.12538081 2.796587 6513507
-0.78325778 -0.12499129 2.7680991 6513507
-2.2037511 -0.074761517 2.776289 6513507
-2.1751707 -0.075006537 2.7853878 6513507
-2.1399291 -0.075308636 2.7966058 6513507
-0.78503555 -0.075850196 2.7743819 6513507
-2.2039671 -0.025306098 2.7765617 6513507
-2.175386 -0.025389045 2.7856622 6513507
-2.1401422 -0.025491299 2.7968833 6513507
-0.78686309 -0.025335707 2.7808406 6513507
-2.2041895 0.025309481 2.7768419 6513507
-2.1756048 0.025392449 2.7859445 6513507
-2.1412919 0.025492042 2.7968693 6513507
-0.78869915 0.025414521 2.7873297 7697781
-2.2044063 0.074784532 2.7771139 6645093
-2.1758187 0.075029656 2.7862182 6645093
-2.1399357 0.076461039 2.7966783 6842472
-2.0747883 0.098248877 2.7900133 10197915
-2.0246041 0.098169476 2.7877586 10197915
-1.9745015 0.098090209 2.7855077 10197915
-1.9244794 0.098011076 2.7832601 10197915
-1.8745381 0.097932056 2.7810163 10197915
-1.8246771 0.097853161 2.7787757 10197915
-1.7748964 0.097774416 2.7765396 10197915
-1.7251958 0.097695768 2.7743063 10197915
-1.6755753 0.097617276 2.7720771 10197915
-1.6248558 0.097537033 2.7697985 10197915
-1.574219 0.09745691 2.7675233 10197915
-1.5248406 0.09737879 2.765305 10197915
-1.4755411 0.09730079 2.7630899 10197915
-1.4251498 0.097221069 2.7608261 10197915
-1.3748406 0.09714146 2.7585659 10197915
-1.3246144 0.097061999 2.7563093 10197915
-1.2744695 0.09698268 2.7540562 10197915
-1.2255702 0.096905313 2.7518594 10197915
-1.1930113 0.096853793 2.7503967 10197915
-1.0691807 0.096249282 2.7990909 10197915
-1.0255426 0.096180543 2.7970915 10197915
-0.97490519 0.096100755 2.7947717 10197915
-0.92435122 0.096021116 2.7924554 10197915
-0.87505376 0.095943451 2.7901967 10197915
-0.82466549 0.095864065 2.7878878 10197915
-0.79096943 0.077686168 2.7919524 10197915
-0.80847698 -1.2578903 2.8323443 11711154
-0.80978751 -1.2246612 2.836935 11711154
-0.81175828 -1.1746228 2.8438392 11711154
-0.81312168 -1.1400212 2.8486161 11711154
-0.79700106 -0.95129669 2.8002691 6513507
-0.79802173 -0.92462653 2.8038557 6513507
-0.80041277 -0.86216003 2.8122556 6513507
-0.79947168 -0.88674718 2.8089495 6513507
-0.8018288 -0.8251605 2.8172309 6513507
-0.80376738 -0.77450806 2.8240428 6513507
-0.80567223 -0.72474295 2.8307352 6513507
-2.1094751 -0.65130252 2.8023186 11711154
-2.0737257 -0.65083885 2.8137047 11711154
-2.0249643 -0.65127259 2.8292272 11711154
-1.9802284 -0.65099394 2.8434737 11711154
-0.8075859 -0.67474133 2.8374588 6513507
-2.1084216 -0.62455326 2.8028386 11184810
-2.074811 -0.62499601 2.8135388 11184810
-2.025378 -0.62505788 2.8292787 11119017
-1.9802539 -0.6248858 2.8436449 11119017
-0.80950874 -0.62450159 2.8442149 6513507
-2.1089275 -0.57506311 2.8030198 6513507
-2.075032 -0.57497358 2.8138134 6513507
-2.0256317 -0.57498795 2.8295419 6513507
-1.9812005 -0.57520217 2.843688 6513507
-0.81082475 -0.59011853 2.8488386 6513507
-2.1096854 -0.52449203 2.803128 6513507
-2.0751305 -0.52494717 2.8141284 6513507
-2.0254593 -0.52481967 2.8299456 6513507
-1.9813983 -0.525231 2.8439703 6513507
-2.1102533 -0.4751097 2.8032894 6513507
-2.0755942 -0.47495005 2.814327 6513507
-2.0251415 -0.47503403 2.8303895 6513507
-1.9814979 -0.47534156 2.8442843 6513507
-2.1109564 -0.42453182 2.8034155 6513507
-2.0746903 -0.42477128 2.8149612 6513507
-2.0244026 -0.42513889 2.8309705 6513507
-1.9819731 -0.42520982 2.8444798 6513507
-0.79486895 -0.40729684 2.8009319 6513507
-2.1115289 -0.37505916 2.8035762 6513507
-2.0751588 -0.3749519 2.8151574 6513507
-2.0246847 -0.37489763 2.8312297 6513507
-1.9824984 -0.37541983 2.8446567 6513507
-0.79609966 -0.37421492 2.8052683 6513507
-2.1122227 -0.32464239 2.8037043 6513507
-2.0747898 -0.3250013 2.8156199 6513507
-2.0248344 -0.32507971 2.8315279 6513507
-1.9836397 -0.32465556 2.8446457 6513507
-0.79793084 -0.3249875 2.8117213 6513507
-2.1128504 -0.27511272 2.8038473 6513507
-2.0755503 -0.27487835 2.8157241 6513507
-2.0246313 -0.27519986 2.8319387 6513507
-1.9837769 -0.27479994 2.8449466 6513507
-0.80037105 -0.25938901 2.8203199 6513507
-0.79942745 -0.2847555 2.8169951 6513507
-2.1129885 -0.22437461 2.804153 6513507
-2.0749128 -0.22531892 2.8162711 6513507
-2.0253978 -0.22478539 2.832037 6513507
-1.9848081 -0.22511868 2.8449614 6513507
-0.80166191 -0.22468925 2.8248687 6513507
-2.1132145 -0.17511635 2.8044219 6513507
-2.0748243 -0.17494896 2.8166473 6513507
-2.0253179 -0.17484131 2.8324087 6513507
-1.9850031 -0.1756333 2.845242 6513507
-0.80351877 -0.17477071 2.8314121 6513507
-2.1138167 -0.12498713 2.8045766 6513507
-2.0749507 -0.12487181 2.8169527 6513507
-2.0254328 -0.12547602 2.8327115 6513507
-1.9861225 -0.12502165 2.8452353 6513507
-0.80538458 -0.12461863 2.837986 6513507
-2.1145494 -0.075151041 2.8046887 6513507
-2.0751576 -0.074696966 2.8172345 6513507
-2.0258009 -0.075026862 2.8329482 6513507
-1.98637 -0.074267775 2.8455086 6513507
-0.80725861 -0.074234881 2.8445907 6513507
-2.1150584 -0.025212074 2.804872 6513507
-2.0753658 -0.024512116 2.8175147 6513507
-2.0251431 -0.024509063 2.8335056 6513507
-1.986564 -0.02532866 2.8457847 6513507
-0.80848354 -0.041308355 2.848907 6513507
-2.1162262 0.025166418 2.8048487 6513507
-2.0751522 0.024744291 2.8179238 6513507
-2.0247633 0.024429448 2.8339701 6513507
-1.986763 0.024761342 2.8460681 6513507
-2.1160848 0.073955804 2.8052316 6513507
-2.0748227 0.073560201 2.8183658 6579300
-2.0244074 0.073979206 2.8344173 6645093
-1.9865563 0.074517027 2.8457441 6776679
-1.9249067 0.09759742 2.8382974 10197915
-1.8751898 0.097519092 2.8360195 10197915
-1.8255526 0.097440898 2.8337455 10197915
-1.7747877 0.097360931 2.8314195 10197915
-1.7253107 0.097282991 2.8291528 10197915
-1.6759138 0.097205162 2.826889 10197915
-1.625394 0.097125567 2.8245747 10197915
-1.5749563 0.0970461 2.8222637 10197915
-1.5246013 0.096966781 2.8199565 10197915
-1.4743285 0.096887574 2.8176534 10197915
-1.4241381 0.096808501 2.8153539 10197915
-1.3740292 0.096729554 2.8130579 10197915
-1.3240019 0.096650749 2.8107662 10197915
-1.2740562 0.096572056 2.8084776 10197915
-1.2241919 0.096493497 2.8061931 10197915
-1.1744084 0.096415065 2.8039124 10197915
-1.1247059 0.096336752 2.8016346 10197915
-1.0939751 0.096288353 2.8002274 10197915
-0.95047688 0.095638044 2.8499897 10197915
-0.92410451 0.095596664 2.8487563 10197915
-0.87501031 0.095519654 2.8464618 10197915
-0.8283844 0.095446512 2.8442824 10197915
-0.81409252 -1.1153853 2.8520169 11711154
-0.81568599 -1.0749431 2.8576005 11711154
-0.81764215 -1.0253056 2.8644524 10263708
-0.81960738 -0.97542948 2.8713377 6513507
-0.82158226 -0.92531294 2.8782563 6513507
-0.82356668 -0.87495428 2.8852079 6513507
-0.82556081 -0.82435191 2.8921938 6513507
-0.82715333 -0.7839312 2.8977737 6513507
-1.9551033 -0.65091389 2.8514748 11711154
-1.9243592 -0.65145266 2.8612599 11711154
-1.8744627 -0.65129 2.8771486 11711154
-1.827093 -0.65162188 2.8922296 11711154
-1.9552037 -0.62495631 2.8516219 11119017
-1.9250096 -0.62509936 2.8612356 11053224
-1.8749673 -0.62488085 2.8771708 11053224
-1.8266654 -0.62540025 2.8925467 11053224
-1.9561284 -0.57446361 2.8516779 6513507
-1.9252796 -0.57496232 2.8614967 6513507
-1.8751421 -0.57492292 2.8774614 6513507
-1.8274947 -0.57506466 2.8926315 6513507
-0.8117488 -0.56597555 2.8520856 6513507
-1.9565227 -0.5255639 2.8518903 6513507
-1.9254577 -0.52490538 2.8617857 6513507
-1.8753436 -0.52495468 2.8777423 6513507
-1.8278779 -0.52516413 2.8928547 6513507
-0.8132937 -0.52561182 2.8575132 6513507
-1.9569465 -0.47337285 2.8521159 6513507
-1.9252268 -0.47515213 2.8622038 6513507
-1.8755152 -0.4749766 2.8780341 6513507
-1.8289406 -0.4750354 2.892863 6513507
-0.81524378 -0.47465849 2.8643649 6513507
-1.9570214 -0.42454565 2.8524306 6513507
-1.9247788 -0.42500418 2.8626945 6513507
-1.875335 -0.42474785 2.8784399 6513507
-1.8288218 -0.42546648 2.8932436 6513507
-0.81715882 -0.42462754 2.8710933 6513507
-1.9574988 -0.37397209 2.8526278 6513507
-1.9249845 -0.37504068 2.862973 6513507
-1.8749421 -0.37505749 2.878907 6513507
-1.8292373 -0.37520069 2.8934591 6513507
-0.81903774 -0.37553176 2.8776951 6513507
-1.9583104 -0.32500643 2.8527093 6513507
-1.9251944 -0.32501984 2.8632519 6513507
-1.8751429 -0.32518035 2.8791893 6513507
-1.8294212 -0.32488659 2.8937485 6513507
-0.82097054 -0.32503173 2.8844862 6513507
-1.9586564 -0.27505967 2.8529437 6513507
-1.9253179 -0.27472776 2.8635616 6513507
-1.8752502 -0.27546206 2.879499 6513507
-1.8303552 -0.27477783 2.8937969 6513507
-0.82291257 -0.27429453 2.8913095 6513507
-1.9596666 -0.22575171 2.8529632 6513507
-1.9247681 -0.2245851 2.8640821 6513507
-1.8745162 -0.22546525 2.8800776 6513507
-1.8306339 -0.22444993 2.8940568 6513507
-0.82463616 -0.22925931 2.8973656 6513507
-1.9598242 -0.17505959 2.8532643 6513507
-1.9248354 -0.17449056 2.8644066 6513507
-1.8746573 -0.17541558 2.880379 6513507
-1.8314878 -0.17530096 2.894125 6513507
-1.9610643 -0.12422738 2.8532197 6513507
-1.9249829 -0.12461492 2.8647048 6513507
-1.8748443 -0.12530927 2.8806653 6513507
-1.832319 -0.12557624 2.8942034 6513507
-1.9612255 -0.074476697 2.8535128 6513507
-1.925174 -0.074776247 2.864989 6513507
-1.8750308 -0.075192899 2.8809524 6513507
-1.8326473 -0.07586237 2.8944438 6513507
-1.9622177 -0.024501808 2.8535426 6513507
-1.9253634 -0.02492762 2.8652747 6513507
-1.8752192 -0.025066519 2.8812392 6513507
-1.8335104 -0.025182029 2.89452 6513507
-0.80940503 -0.016538415 2.8521538 6513507
-1.9622899 0.025242167 2.8538642 6513507
-1.9252837 0.024734329 2.8656437 6513507
-1.8754036 0.025069844 2.8815272 6513507
-1.8338286 0.025001749 2.8947651 6513507
-0.81094539 0.024870541 2.8575816 7566195
-1.962401 0.073728725 2.8541644 6513507
-1.9247649 0.073619828 2.8661473 6579300
-1.875587 0.074022107 2.8818078 6645093
-1.8343176 0.074696772 2.8945086 6710886
-1.7746742 0.09693078 2.8885126 10197915
-1.7242008 0.096851602 2.8861532 10197915
-1.675038 0.096774481 2.8838553 10197915
-1.6247278 0.096695572 2.8815041 10197915
-1.574499 0.09661679 2.8791561 10197915
-1.5255744 0.096540056 2.8768692 10197915
-1.4755075 0.096461535 2.8745296 10197915
-1.4255216 0.096383132 2.8721931 10197915
-1.3756171 0.096304856 2.8698602 10197915
-1.3245795 0.096224807 2.867475 10197915
-1.2748382 0.096146785 2.8651497 10197915
-1.2251784 0.096068896 2.8628287 10197915
-1.1743902 0.095989227 2.860455 10197915
-1.1248924 0.095911585 2.8581412 10197915
-1.0754749 0.095834084 2.8558316 10197915
-1.0249345 0.095754802 2.8534694 10197915
-0.97567785 0.095677562 2.8511672 10197915
-0.81271279 0.072380722 2.8638093 10197915
-0.83228964 -1.2743198 2.9073279 11711154
-0.83431965 -1.2243019 2.9144197 11711154
-0.83631337 -1.175186 2.9213839 11711154
-0.8383171 -1.125833 2.9283829 11711154
-0.84037727 -1.0750881 2.9355791 11711154
-0.84240031 -1.0252558 2.942646 7434609
-0.84395933 -0.98685509 2.9480922 6513507
-0.82811207 -0.75960213 2.9011323 6513507
-0.82948595 -0.72473615 2.9059455 6513507
-1.8012396 -0.65128207 2.9004638 11711154
-1.7759614 -0.65161592 2.9115381 11711154
-0.83146274 -0.67457306 2.9128702 6513507
-1.8019224 -0.62072533 2.9004579 10724259
-1.7760406 -0.62498432 2.9123075 10921638
-0.83340263 -0.62534446 2.9196668 6513507
-1.8025144 -0.57560247 2.9005816 6513507
-1.7760296 -0.57503188 2.9124808 6513507
-0.83535159 -0.57588559 2.9264941 6513507
-1.8029634 -0.5233956 2.9007995 6513507
-1.7761557 -0.52502716 2.9125302 6513507
-0.83735633 -0.52500784 2.9335177 6513507
-1.8038796 -0.47470474 2.9008453 6513507
-1.7762607 -0.47501963 2.9127114 6513507
-0.83937085 -0.47388726 2.9405746 6513507
-1.8032516 -0.42309359 2.9014013 6513507
-1.7757761 -0.42525744 2.9130645 6513507
-0.84120631 -0.42731073 2.947005 6513507
-1.8042368 -0.37503108 2.9014206 6513507
-1.7754841 -0.37488574 2.9133401 6513507
-1.8044134 -0.32578 2.9017045 6513507
-1.7753223 -0.32473347 2.9135396 6513507
-1.8053936 -0.27449974 2.9017472 6513507
-1.7756486 -0.2751171 2.9135802 6513507
-1.8057787 -0.22482051 2.9019685 6513507
-1.7758176 -0.22530232 2.9137263 6513507
-0.82559168 -0.20429456 2.9007225 6513507
-1.8065745 -0.17339182 2.9020712 6513507
-1.7758118 -0.17494658 2.9138453 6513507
-0.82673275 -0.1744826 2.9047315 6513507
-1.8071405 -0.12504473 2.902225 6513507
-1.7756156 -0.12454724 2.9143281 6513507
-0.82865614 -0.12422832 2.9114895 6513507
-1.8076851 -0.07498803 2.9023976 6513507
-1.7757615 -0.07512819 2.9155803 6513507
-0.83054239 -0.074945405 2.9181166 6513507
-1.8085022 -0.025251314 2.9024818 6513507
-1.7756642 -0.02532158 2.9156845 6513507
-0.83243734 -0.02543579 2.9247744 6513507
-1.8088437 0.025633667 2.9027259 6513507
-1.7757463 0.025323097 2.9158161 6513507
-0.83438736 0.025515227 2.9316261 7566195
-1.80986 0.073356949 2.9027319 6513507
-1.7755902 0.073872313 2.9163697 6513507
-1.7255558 0.0964064 2.9456172 8487297
-1.6753801 0.09632808 2.9432244 9276813
-1.6252855 0.096249856 2.9408348 10066329
-1.5752727 0.096171767 2.9384489 10197915
-1.5253404 0.096093819 2.9360671 10197915
-1.4754896 0.09601599 2.9336891 10197915
-1.425719 0.09593828 2.9313147 10197915
-1.3760291 0.095860705 2.9289446 10197915
-1.3251806 0.095781311 2.9265187 10197915
-1.2744155 0.095702067 2.9240968 10197915
-1.2249699 0.095624872 2.9217389 10197915
-1.175604 0.095547795 2.9193838 10197915
-1.1250868 0.095468931 2.9169741 10197915
-1.0746521 0.095390186 2.9145682 10197915
-1.0255282 0.095313489 2.9122248 10197915
-0.97525835 0.095235005 2.9098268 10197915
-0.92507046 0.095156655 2.9074328 10197915
-0.87496579 0.095078431 2.9050426 10197915
-0.83653748 0.080888771 2.925596 10197915
-0.8563239 -1.3172268 2.982651 11711154
-0.85807711 -1.2753415 2.9887578 11711154
-0.8601799 -1.2250943 2.9960816 11711154
-0.86125952 -1.1993008 2.9998422 11711154
-0.845002 -0.96117228 2.9517345 6513507
-0.84647596 -0.92486602 2.9568837 6513507
-0.84848076 -0.87548459 2.9638865 6513507
-0.85073549 -0.81995034 2.9717619 6513507
-0.8497262 -0.84480685 2.9682369 6513507
-0.85251909 -0.77601653 2.977993 6513507
-0.85455251 -0.72592652 2.9850962 6513507
-1.7763159 -0.65197688 2.9749708 11711154
-0.85659587 -0.67559713 2.9922338 6513507
-1.7764152 -0.62500817 2.9756484 9737364
-0.85820794 -0.63589019 2.997865 6513507
-1.7758971 -0.57505119 2.9747002 6513507
-1.7755189 -0.5251295 2.9741881 6513507
-1.775689 -0.47406954 2.975414 6513507
-1.775946 -0.42487392 2.9768894 6513507
-0.84215021 -0.40335202 2.9503121 6513507
-1.7755169 -0.37482721 2.9762213 6513507
-0.84323931 -0.37571481 2.9541273 6513507
-1.7750226 -0.32521784 2.9753413 6513507
-0.84523457 -0.32508004 2.9611173 6513507
-1.7745491 -0.27522424 2.9745302 6513507
-0.84719145 -0.27542019 2.9679732 6513507
-1.7741206 -0.22525488 2.9738638 6513507
-0.85007119 -0.20233908 2.9780617 6513507
-0.84906125 -0.22796889 2.9745235 6513507
-1.7736342 -0.17510654 2.9730144 6513507
-0.85113257 -0.17540552 2.9817798 6513507
-1.7733607 -0.12535961 2.972832 6513507
-0.85311681 -0.12504745 2.9887314 6513507
-1.7740595 -0.074721098 2.9757133 6513507
-0.85511035 -0.074455939 2.9957159 6513507
-1.7736782 -0.024652801 2.9751933 6513507
-0.85623246 -0.045980368 2.9996464 6513507
-1.7732208 0.024644338 2.9744265 6513507
-1.7727759 0.07268469 2.9736798 6513507
-1.5607724 0.09568426 2.99949 10197915
-1.525097 0.095628835 2.997752 10197915
-1.4741995 0.095549755 2.9952731 10197915
-1.4246551 0.09547276 2.9928601 10197915
-1.3751915 0.095395938 2.9904506 10197915
-1.3245414 0.095317222 2.9879842 10197915
-1.2752379 0.09524063 2.9855828 10197915
-1.2260143 0.095164135 2.9831853 10197915
-1.1756099 0.095085844 2.9807303 10197915
-1.1252887 0.095007643 2.9782796 10197915
-1.0750502 0.094929591 2.9758327 10197915
-1.024894 0.09485168 2.9733894 10197915
-0.97482026 0.094773866 2.9709516 10197915
-0.92482853 0.094696201 2.9685159 10197915
-0.87491864 0.094618656 2.9660852 10197915
-0.84749997 0.094576076 2.9647508 10197915
-0.86229354 -1.174601 3.0034432 11711154
-0.8643679 -1.125039 3.0106695 11711154
-0.86650223 -1.0740519 3.0181029 9605778
-0.86859691 -1.0240065 3.0253994 6513507
-0.87065184 -0.9749192 3.0325565 6513507
-0.87271619 -0.92559743 3.039747 6513507
-0.87473983 -0.8772555 3.0467949 6513507
-1.7925643 -0.65198749 3.0260055 11711154
-1.7921139 -0.62474549 3.024961 8684676
-0.85923702 -0.61054134 3.0014601 6513507
-1.7917123 -0.57509613 3.0243716 6513507
-0.86066264 -0.5754264 3.0064397 6513507
-1.7912468 -0.52525908 3.0235856 6513507
-0.86268586 -0.52559119 3.0135074 6513507
-1.7913755 -0.47616068 3.024657 6513507
-0.86471856 -0.47552305 3.0206075 6513507
-1.7916418 -0.42505294 3.0261881 6513507
-0.86676091 -0.4252165 3.0277417 6513507
-1.7912927 -0.37505561 3.0257678 6513507
-0.86881286 -0.37467375 3.0349097 6513507
-1.7908238 -0.32482892 3.0249765 6513507
-0.87082416 -0.3251316 3.0419354 6513507
-1.7903547 -0.27462852 3.0241838 6513507
-0.87249029 -0.28409189 3.047756 6513507
-1.7898595 -0.22470415 3.023304 6513507
-1.7897028 -0.1742491 3.0234957 6513507
-1.7903643 -0.12517285 3.0262392 6513507
-1.7899587 -0.075210348 3.0256436 6513507
-1.7894899 -0.025064284 3.0248516 6513507
-0.85721123 -0.021143526 3.0030756 6513507
-1.7890216 0.025055537 3.0240591 6513507
-0.85902727 0.024944974 3.0094378 7434609
-1.7861689 0.075491384 3.0215466 6513507
-1.7244043 0.095938489 3.0074589 6579300
-1.6744564 0.095860884 3.0050268 6842472
-1.6245896 0.095783398 3.0025976 10197915
-1.5850066 0.095721893 3.0006697 10197915
-1.2657732 0.094743393 3.0491955 10197915
-1.224527 0.094679646 3.0471442 10197915
-1.17433 0.094602056 3.0446465 10197915
-1.1254997 0.094526574 3.0422173 10197915
-1.0754653 0.094449222 3.0397282 10197915
-1.0255123 0.094372012 3.0372431 10197915
-0.97564143 0.094294921 3.0347619 10197915
-0.92457616 0.094215982 3.0322213 10197915
-0.86996239 0.081566826 3.0219245 10197915
-0.8817395 -1.360034 3.0623379 11711154
-0.88323283 -1.325474 3.0675249 11711154
-0.88540238 -1.2752234 3.0750594 11711154
-0.88758343 -1.2247264 3.082634 11711154
-0.88972294 -1.1751922 3.0900645 11711154
-0.8916623 -1.1302869 3.0968003 11711154
-0.87580562 -0.85179353 3.0505075 6513507
-0.87692565 -0.82503426 3.0544086 6513507
-0.87902015 -0.77499825 3.0617037 6513507
-0.88112438 -0.72472447 3.0690334 6513507
-1.8098404 -0.65208441 3.080267 11711154
-0.88318729 -0.67544353 3.0762181 6513507
-1.8083647 -0.6249913 3.0759997 7697781
-0.88525981 -0.62593126 3.0834372 6513507
-1.8079563 -0.57513463 3.075393 6513507
-0.88734198 -0.57618618 3.0906897 6513507
-1.8074856 -0.52505457 3.0745926 6513507
-0.88922441 -0.53121847 3.0972459 6513507
-1.8070437 -0.47499907 3.0738842 6513507
-1.8065757 -0.42522341 3.0730884 6513507
-1.8064411 -0.37642476 3.0733294 6513507
-1.799934 -0.35669824 3.0531585 6513507
-1.8078789 -0.32394072 3.0785558 6513507
-1.7996366 -0.3250232 3.0526538 6513507
-1.8082073 -0.27511466 3.08025 6513507
-1.7991728 -0.27562988 3.0518672 6513507
-0.87350321 -0.25914231 3.0512941 6513507
-1.8076735 -0.22503899 3.0792518 6513507
-1.7986977 -0.22499636 3.0510609 6513507
-0.87487489 -0.22535595 3.0560856 6513507
-1.8072016 -0.17498226 3.0784485 6513507
-1.7982702 -0.17944862 3.0503359 6513507
-0.8769145 -0.17511925 3.0632095 6513507
-1.8066964 -0.12470384 3.077544 6513507
-0.87896335 -0.12464775 3.0703673 6513507
-1.8063512 -0.074948221 3.0771351 6513507
-0.88097048 -0.075211391 3.0773785 6513507
-1.8070873 -0.025784381 3.0801151 6513507
-1.7997739 -0.022798885 3.0571833 6513507
-0.88298684 -0.02554681 3.0844223 6513507
-1.8068453 0.025519412 3.0800498 6513507
-1.7993212 0.025323609 3.0564144 6513507
-0.88501227 0.024343675 3.0914969 7303023
-1.8061833 0.073979095 3.0789204 6513507
-1.7862549 0.084774658 3.0653253 6513507
-1.7245125 0.095452547 3.0720184 5263440
-1.6748003 0.095375687 3.069545 7763574
-1.6251682 0.095298961 3.0670757 10197915
-1.5756161 0.095222376 3.0646102 10197915
-1.5248429 0.095143877 3.0620847 10197915
-1.4741523 0.095065527 3.0595634 10197915
-1.4248428 0.0949893 3.0571101 10197915
-1.3756119 0.0949132 3.0546606 10197915
-1.3251675 0.094835214 3.0521507 10197915
-1.29029 0.094781317 3.0504158 10197915
-0.9256162 0.093716703 3.0987871 10197915
-0.88862544 0.074814111 3.0973952 10197915
-0.90860653 -1.403973 3.1465938 11711154
-0.90920615 -1.3905489 3.1486704 11711154
-0.89276671 -1.1047181 3.100636 11711154
-0.89403278 -1.0754019 3.1050334 6645093
-0.89620364 -1.0251426 3.1125724 6513507
-0.89838493 -0.97464037 3.1201482 6513507
-0.90079099 -0.91893077 3.128505 6513507
-0.89971972 -0.94373417 3.1247842 6513507
-0.90267169 -0.87538642 3.1350372 6513507
-0.90483057 -0.82540339 3.1425345 6513507
-0.90645599 -0.78776646 3.1481802 6513507
-1.8246956 -0.6521728 3.1269243 11119017
-1.8236834 -0.62490976 3.1241162 6776679
-1.8232423 -0.57505947 3.1234055 6513507
-1.8227352 -0.52497077 3.1224904 6513507
-0.89027333 -0.50615793 3.1008997 6513507
-1.8223557 -0.47491214 3.121979 6513507
-0.89153606 -0.47599038 3.1052983 6513507
-1.8218185 -0.42513987 3.1209667 6513507
-0.89364797 -0.42553645 3.112654 6513507
-1.8227143 -0.37464529 3.1244657 6513507
-0.89576989 -0.374843 3.1200449 6513507
-1.8231221 -0.3259593 3.1264052 6513507
-0.89784855 -0.32518551 3.1272845 6513507
-1.8235325 -0.2747598 3.1283896 6513507
-0.90052724 -0.26118982 3.1366153 6513507
-0.8994537 -0.2868357 3.1328759 6513507
-1.8230258 -0.22493167 3.1274745 6513507
-0.90203488 -0.22517392 3.1418662 6513507
-1.8225203 -0.17513426 3.12656 6513507
-0.90370923 -0.18517186 3.1476982 6513507
-1.8222049 -0.12509584 3.1262496 6513507
-1.8215321 -0.074582167 3.1248229 6513507
-1.8211519 -0.02459394 3.1243062 6513507
-1.8206847 0.024585526 3.1235044 6513507
-1.8195121 0.074710086 3.124841 6513507
-1.7741708 0.095021434 3.1419284 6184542
-1.7246251 0.094945252 3.1394095 2763306
-1.6751595 0.094869196 3.1368949 9868950
-1.624439 0.094791211 3.1343162 10197915
-1.575133 0.094715394 3.1318095 10197915
-1.5259066 0.094639704 3.1293066 10197915
-1.4754311 0.094562106 3.1267405 10197915
-1.4250382 0.094484605 3.1241784 10197915
-1.3747282 0.09440726 3.1216204 10197915
-1.3245004 0.09433002 3.1190672 10197915
-1.2743545 0.094252929 3.1165173 10197915
-1.2242905 0.09417595 3.1139719 10197915
-1.1743084 0.09409909 3.1114309 10197915
-1.1244078 0.094022356 3.1088939 10197915
-1.0745884 0.093945757 3.1063612 10197915
-1.02485 0.093869284 3.1038322 10197915
-0.97519273 0.093792938 3.1013076 10197915
-0.88762236 0.088633984 3.1006145 10197915
-0.91035151 -1.3648698 3.152637 11711154
-0.91215646 -1.3243833 3.1588874 11711154
-0.91435462 -1.2751009 3.1665006 11711154
-0.91656321 -1.2255806 3.174149 11711154
-0.91878283 -1.1758206 3.1818349 11711154
-0.921013 -1.1258188 3.1895585 8684676
-0.92308551 -1.0793536 3.1967361 6513507
-0.9075433 -0.76259488 3.1519558 6513507
-0.90917933 -0.7247166 3.1576381 6513507
-1.8397928 -0.6527968 3.1743345 6974058
-0.91131449 -0.67528111 3.1650534 6513507
-1.8395269 -0.6250909 3.1738765 6513507
-0.9134599 -0.62561077 3.1725044 6513507
-1.8390156 -0.57524204 3.172945 6513507
-0.91567051 -0.57442439 3.1801829 6513507
-1.8385035 -0.52514941 3.172015 6513507
-0.91783643 -0.52427965 3.1877046 6513507
-1.8380877 -0.47482532 3.1713924 6513507
-0.91995668 -0.47519091 3.1950679 6513507
-1.8376085 -0.42478743 3.1705656 6513507
-0.92118818 -0.44667664 3.1993456 6513507
-1.8391057 -0.37415713 3.1759555 6513507
-1.8398288 -0.3250348 3.1788931 6513507
-1.8393846 -0.27518043 3.1781738 6513507
-1.8388342 -0.22482739 3.177129 6513507
-1.838352 -0.1747622 3.1762936 6513507
-0.90479285 -0.15928367 3.1514723 6513507
-1.8379433 -0.12498761 3.1756835 6513507
-0.90626025 -0.12422538 3.1565838 6513507
-1.8374635 -0.074973434 3.1748548 6513507
-0.90833324 -0.074701928 3.1638038 6513507
-1.836983 -0.024985336 3.1740251 6513507
-0.91041577 -0.024951383 3.1710575 6513507
-1.8365039 0.024976643 3.1731966 6513507
-0.91250771 0.025027806 3.1783442 7303023
-1.8360496 0.072285213 3.1724122 6513507
-1.5175031 0.094098359 3.1990519 10197915
-1.4754095 0.094033986 3.1968637 10197915
-1.4252428 0.093957283 3.1942558 10197915
-1.3751571 0.093880706 3.1916521 10197915
-1.3251535 0.09380424 3.1890533 10197915
-1.2752308 0.093727909 3.1864576 10197915
-1.2253898 0.093651704 3.1838675 10197915
-1.1742858 0.093573578 3.1812108 10197915
-1.1246082 0.093497604 3.1786282 10197915
-1.0750118 0.09342178 3.1760502 10197915
-1.0241581 0.09334401 3.1734066 10197915
-0.97472382 0.093268424 3.1708367 10197915
-0.92190546 0.082230583 3.1767821 10197915
-0.93820673 -1.4240776 3.2398055 11711154
-0.94023412 -1.3800792 3.2468071 11711154
-0.92420942 -1.0541555 3.200628 6513507
-0.925506 -1.0250834 3.2051182 6513507
-0.92776918 -0.97434646 3.2129555 6513507
-0.92998624 -0.92463934 3.2206337 6513507
-0.9322139 -0.87469196 3.228349 6513507
-0.93445253 -0.82450694 3.2361004 6513507
-0.93664378 -0.77537519 3.2436898 6513507
-0.93809074 -0.74293464 3.2487004 6513507
-1.8563504 -0.45289898 3.2290521 6513507
-1.84764 -0.4615787 3.2015767 6513507
-1.8554578 -0.42478028 3.2266302 6513507
-1.8472944 -0.42568779 3.2009773 6513507
-0.92225504 -0.4219746 3.2030509 6513507
-1.8555422 -0.37627453 3.2275519 6513507
-1.8478454 -0.37556002 3.2033873 6513507
-0.92428303 -0.37502199 3.210094 6513507
-1.8561515 -0.32475665 3.2301648 6513507
-1.8496052 -0.32577625 3.2095892 6513507
-0.92648977 -0.32392836 3.2177579 6513507
-1.8557856 -0.27472466 3.2296951 6513507
-1.8491167 -0.27517521 3.2087421 6513507
-0.92865008 -0.27390856 3.2252614 6513507
-1.8567715 -0.22445025 3.2334738 6513507
-1.8486286 -0.22460084 3.207895 6513507
-0.93076336 -0.22498141 3.2326009 6513507
-1.8563659 -0.17513141 3.2328672 6513507
-1.848141 -0.17405318 3.2070484 6513507
-0.93288624 -0.17582905 3.2399743 6513507
-1.8560123 -0.12486282 3.2324378 6513507
-1.8476663 -0.12486126 3.2062249 6513507
-0.93490326 -0.12913066 3.2469792 6513507
-1.8553971 -0.075311534 3.2311773 6513507
-1.847192 -0.075694822 3.2054021 6513507
-1.8557549 -0.027265457 3.2329535 6513507
-1.8477994 -0.021119714 3.20805 6513507
-1.85615 0.025462374 3.23491 6513507
-1.8478616 0.025257463 3.2088749 6513507
-1.8556954 0.072351433 3.2341177 6513507
-1.8395663 0.080529809 3.2104795 6513507
-1.7754008 0.094492681 3.2124577 2631720
-1.7247437 0.09441521 3.2098243 5921370
-1.6741686 0.094337888 3.2071958 10132122
-1.6250403 0.094262771 3.2046418 10197915
-1.5746291 0.094185695 3.2020211 10197915
-1.5419704 0.094135754 3.2003236 10197915
-1.0727137 0.092869565 3.2487926 10197915
-1.024802 0.092796735 3.2462447 10197915
-0.97559953 0.092721961 3.2436285 10197915
-0.9414748 0.092670083 3.2418139 10197915
-0.94139695 -1.354857 3.2508223 11711154
-0.94279701 -1.3244904 3.2556565 11711154
-0.94507998 -1.274969 3.26354 11711154
-0.94737417 -1.2252049 3.2714622 11711154
-0.95039052 -1.1597742 3.2818789 8355711
-0.94926453 -1.1842 3.2779901 11711154
-0.95199603 -1.124951 3.2874229 6447714
-0.95432395 -1.0744574 3.2954612 6513507
-0.95552158 -1.0484765 3.2995973 6513507
-0.93919396 -0.71820247 3.252521 6513507
-0.94111603 -0.67510808 3.2591777 6513507
-0.94339764 -0.62395877 3.2670786 6513507
-0.94563115 -0.57388079 3.2748139 6513507
-0.94781613 -0.52489334 3.2823806 6513507
-1.8706409 -0.45288941 3.2739379 6513507
-0.95054644 -0.46367842 3.2918363 6513507
-0.9494167 -0.48900858 3.2879233 6513507
-1.8706764 -0.42459506 3.2744348 6513507
-0.95203745 -0.4302544 3.2969987 6513507
-1.8701515 -0.37457526 3.2734621 6513507
-1.8696675 -0.32485762 3.2726159 6513507
-1.8692189 -0.27516264 3.2718818 6513507
-1.870216 -0.22591001 3.2756813 6513507
-1.8699425 -0.1750515 3.2755105 6513507
-1.8693852 -0.12515603 3.2744381 6513507
-0.9360016 -0.10370068 3.2507937 6513507
-1.8690327 -0.07492622 3.2740145 6513507
-0.93721932 -0.075507961 3.2550228 6513507
-1.8694372 -0.023421803 3.2759812 6513507
-0.93937182 -0.025670599 3.2624981 6513507
-1.8696383 0.024719754 3.2772636 6513507
-0.94153416 0.024394132 3.2700083 7171437
-1.8686407 0.073888049 3.2779291 6513507
-1.8257877 0.094014272 3.2888365 3421236
-1.7752861 0.093937509 3.2861509 2105376
-1.7248667 0.093860865 3.2834699 9145227
-1.6745298 0.093784362 3.2807939 10132122
-1.6242746 0.093707949 3.278121 10197915
-1.5741013 0.0936317 3.2754533 10197915
-1.5240097 0.09355557 3.2727897 10197915
-1.4739995 0.093479544 3.2701306 10197915
-1.4240705 0.093403652 3.2674756 10197915
-1.3742225 0.093327887 3.2648249 10197915
-1.3244551 0.093252227 3.2621787 10197915
-1.2747684 0.093176693 3.2595365 10197915
-1.2251625 0.093101308 3.2568991 10197915
-1.1756365 0.09302602 3.2542655 10197915
-1.1248186 0.092948772 3.2515631 10197915
-1.0973804 0.092907049 3.2501035 10197915
-0.94352996 0.070602231 3.2769399 10197915
-0.96844387 -1.4699273 3.3346794 11711154
-0.9705984 -1.4247338 3.3420975 11711154
-0.97232926 -1.3884448 3.3480573 11711154
-0.95666289 -1.023716 3.303539 6513507
-0.95889312 -0.9753443 3.3112395 6513507
-0.96119422 -0.92543119 3.3191853 5987163
-0.96350628 -0.87527776 3.3271699 6908265
-0.96582967 -0.82488251 3.3351929 6908265
-0.96816415 -0.77424377 3.3432541 6908265
-0.96970564 -0.7408042 3.3485775 6908265
-1.8865466 -0.4530448 3.3238945 6513507
-1.8862754 -0.42544359 3.3234172 6513507
-0.95317304 -0.40479043 3.3009319 6513507
-1.88599 -0.37482047 3.3232067 6513507
-0.95449227 -0.37521434 3.3055005 6513507
-1.8870966 -0.32502741 3.327358 6513507
-0.95671844 -0.32530141 3.3132105 6513507
-1.8864863 -0.27478555 3.3261213 6513507
-0.95895511 -0.27515709 3.320956 6513507
-1.8860716 -0.22483845 3.3254979 6513507
-0.96120232 -0.22477572 3.328738 6447714
-1.8855801 -0.17491962 3.3246295 6513507
-0.96345973 -0.17415977 3.3365564 6513507
-1.885047 -0.1247537 3.3236382 6513507
-0.96566689 -0.12468205 3.3441992 6513507
-1.8845156 -0.074619405 3.3226473 6513507
-0.96708155 -0.092961222 3.3490987 6513507
-1.8849936 -0.026161904 3.3248055 6513507
-1.8853694 0.024806576 3.3266764 6513507
-1.8849076 0.071648136 3.3258617 6513507
-1.5151675 0.092963502 3.3491549 10197915
-1.4753644 0.092903376 3.3469889 10197915
-1.4242618 0.092826188 3.3442078 10197915
-1.3746595 0.09275125 3.3415084 10197915
-1.3251381 0.092676431 3.3388131 10197915
-1.2742847 0.092599615 3.3360455 10197915
-1.2249241 0.09252505 3.3333592 10197915
-1.1756438 0.092450611 3.3306775 10197915
-1.125038 0.092374161 3.3279238 10197915
-1.0745157 0.092297845 3.3251734 10197915
-1.0240766 0.09222164 3.3224285 10197915
-0.97791296 0.092151918 3.3199162 10197915
-0.9735074 -1.3637407 3.3521142 11711154
-0.9753117 -1.3259122 3.3583272 11711154
-0.97768545 -1.2761407 3.3665009 11711154
-0.98007089 -1.2261266 3.3747149 11711154
-0.98246783 -1.1758674 3.3829687 6908265
-0.98487675 -1.125362 3.391263 6513507
-0.98672277 -1.0866588 3.3976192 6513507
-0.97081918 -0.7166521 3.3524227 7237230
-0.97274286 -0.67492533 3.3590658 8224125
-0.97504836 -0.62491423 3.3670273 8224125
-0.9773652 -0.57466322 3.3750269 8224125
-0.9796927 -0.52417493 3.3830645 8224125
-1.9062526 -0.45306674 3.3857887 6513507
-1.8975537 -0.45275202 3.3584702 6513507
-0.98196805 -0.47481892 3.3909218 9342606
-1.9059745 -0.42495161 3.3852966 6513507
-1.8968674 -0.42485961 3.3566935 6513507
-0.98387218 -0.43351868 3.3974965 9474192
-1.9054765 -0.37483171 3.3844121 6513507
-1.8965485 -0.37674055 3.3563442 6513507
-1.9049098 -0.32473636 3.3833117 6513507
-1.8977332 -0.3258042 3.3607557 6513507
-1.9045548 -0.27513951 3.3828683 6513507
-1.8972365 -0.27560842 3.3598754 6513507
-1.9039886 -0.2250962 3.3817677 6513507
-1.8967394 -0.22543897 3.3589957 6513507
-1.904816 -0.17679688 3.3850231 6513507
-1.8978004 -0.17310965 3.3630366 6513507
-1.9047673 -0.12555254 3.3855653 6513507
-1.8975531 -0.12539022 3.3629076 6513507
-1.9043238 -0.075725421 3.3848481 6513507
-1.897056 -0.07521484 3.3620265 6513507
-0.96819222 -0.068060204 3.3529451 6513507
-1.9038217 -0.025235891 3.3839555 6513507
-1.8965588 -0.02506578 3.361146 6513507
-0.97011101 -0.025043499 3.3595896 6513507
-1.9035976 0.026419869 3.3839521 6513507
-1.8960624 0.025057031 3.3602655 6513507
-0.97234845 0.025120482 3.3673379 7171437
-1.9046936 0.071583375 3.3880069 6513507
-1.8882099 0.0797038 3.3626497 5526612
-1.8254168 0.093432173 3.3660398 2039583
-1.7751659 0.093356267 3.3633053 4802889
-1.7249956 0.093280472 3.3605747 10066329
-1.6749079 0.093204819 3.3578486 10132122
-1.6249003 0.09312927 3.3551271 10197915
-1.5749745 0.093053848 3.3524103 10197915
-1.5393593 0.093000039 3.3504713 10197915
-0.97440821 0.071304873 3.3744721 10197915
-1.0007032 -1.5145749 3.4359558 11711154
-0.99985224 -1.5317792 3.4330342 11711154
-1.0026032 -1.4760832 3.4424791 11711154
-1.004313 -1.4414662 3.4483502 11711154
-0.98793614 -1.0612185 3.4017973 6513507
-0.98966599 -1.0249509 3.4077535 6513507
-0.99204576 -0.97505248 3.4159482 5526612
-0.99443698 -0.92491585 3.4241819 9013641
-0.99677491 -0.87590051 3.4322319 11711154
-1.0002362 -0.80332774 3.4441507 11711154
-0.99899274 -0.82939821 3.4398689 11711154
-1.0011548 -0.78406751 3.4473135 11711154
-1.9188238 -0.45352155 3.4252675 6052956
-1.9189664 -0.42508301 3.4261014 6052956
-0.98501801 -0.40866163 3.401454 9474192
-1.918362 -0.3753106 3.4248774 6250335
-0.98655063 -0.37541574 3.4067464 9474192
-1.9178882 -0.32520446 3.4240682 6184542
-0.98885798 -0.32536545 3.4147146 8947848
-1.9174129 -0.27513096 3.4232559 6250335
-0.99117631 -0.27508047 3.4227195 6513507
-1.9169394 -0.22507997 3.4224453 6513507
-0.99350536 -0.2245592 3.4307625 6513507
-1.9163049 -0.17505971 3.4211335 6513507
-0.99578029 -0.17521419 3.4386184 6513507
-1.9167272 -0.12340739 3.4231613 6118749
-0.9980002 -0.12706114 3.4462838 6513507
-1.9173763 -0.074924394 3.4258559 5789784
-1.9167076 -0.02526482 3.4244277 5855577
-1.9164574 0.025022464 3.4243243 5789784
-1.9176776 0.072445266 3.4288008 5921370
-1.8647811 0.092881754 3.4491701 2039583
-1.823557 0.092819884 3.4468729 2039583
-1.7735707 0.092744865 3.4440868 8750469
-1.7236649 0.092669986 3.4413064 10066329
-1.6738393 0.092595197 3.4385288 10197915
-1.6240946 0.092520535 3.4357567 10197915
-1.5744299 0.092446007 3.4329889 10197915
-1.5248449 0.092371576 3.4302254 10197915
-1.4753399 0.092297286 3.4274662 10197915
-1.4259143 0.092223108 3.4247115 10197915
-1.3751187 0.092146881 3.4218807 10197915
-1.324406 0.092070773 3.4190545 10197915
-1.2752227 0.09199696 3.4163134 10197915
-1.2246754 0.091921091 3.4134963 10197915
-1.1742108 0.091845356 3.4106843 10197915
-1.125268 0.091771908 3.4079564 10197915
-1.0749679 0.091696411 3.405153 10197915
-1.0247494 0.091621049 3.4023538 10197915
-0.99179125 0.091571599 3.4005175 10197915
-1.0055667 -1.4160849 3.4526546 11711154
-1.0076189 -1.3745356 3.4597008 11711154
-1.0100788 -1.3247304 3.4681478 11711154
-1.0125508 -1.2746793 3.4766357 11711154
-1.0150352 -1.2243847 3.4851651 8026746
-1.0174638 -1.1752111 3.4935045 6513507
-1.0190213 -1.1436802 3.4988513 6513507
-1.0023381 -0.75925881 3.4513876 11711154
-1.0039867 -0.72469342 3.4570646 11711154
-1.0063696 -0.67473114 3.4652703 11711154
-1.0087638 -0.62453121 3.4735146 11711154
-1.0111694 -0.57409167 3.4817982 11711154
-1.0135193 -0.52482319 3.4898891 11711154
-1.9339838 -0.45407003 3.4728763 2039583
-1.015542 -0.48241329 3.4968543 11711154
-1.9341326 -0.42523614 3.4737341 2039583
-1.9335138 -0.37477207 3.4724753 2039583
-1.9330356 -0.32469019 3.4716535 2039583
-1.9325596 -0.2746411 3.4708364 2039583
-1.9324752 -0.22377403 3.4712613 2039583
-1.9333518 -0.17477542 3.4746807 2039583
-1.9336872 -0.12658331 3.4763849 2039583
-0.99917907 -0.10149029 3.4503548 6513507
-1.9343951 -0.074955873 3.4793103 2039583
-1.0008218 -0.065857895 3.4560273 6513507
-0.9996385 -0.091525175 3.4519415 6513507
-1.9338852 -0.024499008 3.4783931 2039583
-1.0027341 -0.024377879 3.4626307 6513507
-1.9333906 0.024490651 3.4775028 2039583
-1.0049852 0.024450814 3.4704041 6974058
-1.9301908 0.073494591 3.4734213 2039583
-1.8898371 0.09291935 3.4505665 2039583
-1.2584363 0.091338098 3.4995244 10197915
-1.2244135 0.091287389 3.497581 10197915
-1.1741836 0.091212548 3.4947133 10197915
-1.1240358 0.091137782 3.4918497 10197915
-1.0739703 0.091063157 3.4889898 10197915
-1.0176748 0.080073401 3.4818008 10197915
-1.0347024 -1.5674595 3.5426147 11711154
-1.0361681 -1.538817 3.5476332 11711154
-1.0202439 -1.118925 3.5030496 6513507
-1.0223564 -1.0761542 3.510303 6513507
-1.0248204 -1.0262675 3.5187635 6513507
-1.0272964 -0.97614014 3.5272646 5658198
-1.0297842 -0.92576993 3.5358067 11711154
-1.0322843 -0.87515485 3.5443907 11711154
-1.0337477 -0.84552592 3.5494153 11711154
-1.9543045 -0.45333704 3.5367119 2039583
-1.9460047 -0.45377496 3.5106373 2039583
-1.0167595 -0.45688829 3.5010459 11711154
-1.9536146 -0.42469794 3.5349336 2039583
-1.9457092 -0.42462325 3.5101035 2039583
-1.0182521 -0.42559394 3.5061858 11711154
