# .PCD v0.7 - Point Cloud Data file format
VERSION 0.7
FIELDS x y z rgb
SIZE 4 4 4 4
TYPE F F F U
COUNT 1 1 1 1
WIDTH 1182
HEIGHT 1
VIEWPOINT 0 0 0 1 0 0 0
POINTS 1182
DATA ascii
0.13662039 -0.025001206 0.76333374 2631720
0.16105966 -0.025009686 0.7885558 2039583
-0.56575328 0.025001455 0.78437841 2894892
-0.53965014 0.02500204 0.75908393 2894892
0.13663667 0.024995565 0.76341909 5131854
0.16107729 0.025013329 0.78864133 8355711
-0.56587911 0.074996583 0.78455406 2894892
-0.53975165 0.075020134 0.7592358 2894892
0.13663456 0.0749745 0.76348466 10197915
0.16092223 0.07480868 0.78854716 10197915
-0.6116119 0.11520391 0.78355622 2894892
-0.57416904 0.11267545 0.77592283 2894892
-0.54066622 0.10914166 0.75902671 2894892
0.13728927 0.10886849 0.76267004 10197915
0.17006135 0.11215119 0.77849072 10197915
0.22501837 0.11533935 0.77332681 10197915
0.27501664 0.11534646 0.77342641 10197915
0.32512715 0.11535389 0.77343565 10197915
0.37513763 0.11536112 0.77348065 10197915
0.42502081 0.11536833 0.77356148 10197915
0.47499025 0.11537573 0.7735641 10197915
0.5249927 0.11538294 0.77363425 10197915
0.57492739 0.11539018 0.77380717 10197915
0.61202013 0.11538275 0.78439635 10197915
-0.61818153 -0.36174196 0.8347708 2894892
-0.59137577 -0.35593042 0.80880111 2894892
0.18774851 -0.35747266 0.81564265 2039583
0.21096325 -0.36281776 0.83959293 2039583
-0.61645007 -0.32501286 0.83313119 2894892
-0.59042603 -0.32496098 0.80791414 2894892
0.1857032 -0.32499334 0.81357646 3223857
0.21027364 -0.32505822 0.83893245 8158332
-0.61663467 -0.27502716 0.83336461 2894892
-0.59056473 -0.2750262 0.80810165 2894892
0.18576565 -0.27499697 0.8137095 2960685
0.21029405 -0.27505517 0.83902019 3618615
-0.61668026 -0.22501992 0.83346242 2894892
-0.59069246 -0.22506754 0.80827898 2894892
0.18576139 -0.22503309 0.81377351 2302755
0.21032135 -0.22499558 0.83911842 2039583
-0.61687636 -0.17501338 0.83370531 2894892
-0.59083176 -0.17500387 0.80846745 2894892
0.1857817 -0.17501462 0.81386226 2302755
0.21014899 -0.17523578 0.83900982 2039583
-0.61700666 -0.12500918 0.83388472 2894892
-0.5909676 -0.12500076 0.80865204 2894892
0.18580498 -0.1249853 0.81395513 2302755
0.20989905 -0.12494587 0.83881837 2039583
-0.61714333 -0.074982665 0.8340708 2894892
-0.59109586 -0.074975282 0.80882931 2894892
0.18582077 -0.074988306 0.81403977 2302755
0.20992464 -0.074975505 0.83891177 2039583
-0.61709017 -0.02523228 0.83407217 2894892
-0.59123278 -0.024969082 0.80901557 2894892
0.18584517 -0.024991566 0.81413192 2302755
0.20993659 -0.024994716 0.83899367 2039583
-0.61620343 0.024989463 0.83326614 2894892
-0.59136581 0.024976606 0.80919802 2894892
0.18586548 0.024995241 0.81422138 8618883
0.20995955 0.024998356 0.83908719 9342606
-0.61635035 0.074982092 0.8334617 2894892
-0.59148985 0.074986123 0.80937195 2894892
0.18569715 0.075210758 0.81411654 10197915
0.2099935 0.075000986 0.83918661 10197915
-0.65918624 0.11512835 0.84029555 2894892
-0.62389171 0.11267045 0.82544661 2894892
-0.59209329 0.10944755 0.80846173 2894892
0.18623516 0.10883799 0.81320781 10197915
0.21961249 0.11211339 0.82909244 10197915
0.27498177 0.11528624 0.82330328 10197915
0.32503974 0.11529379 0.8232882 10197915
0.37506819 0.11530067 0.82347721 10197915
0.4250021 0.115308 0.82345825 10197915
0.47497654 0.11531522 0.82349735 10197915
0.52499098 0.11532259 0.82355338 10197915
0.5749774 0.11532981 0.82362354 10197915
0.6238755 0.11533595 0.82458073 10197915
0.65820843 0.11532484 0.83787721 10197915
-0.6823265 -0.4006758 0.89688754 2894892
0.26730335 -0.4008137 0.89768195 2039583
-0.66762698 -0.37234485 0.88267356 2894892
-0.64167321 -0.36682335 0.85752934 2894892
0.23626031 -0.36866224 0.86569041 2039583
0.25970879 -0.37389347 0.88988125 3552822
-0.66679668 -0.32498196 0.88191867 2894892
-0.64156151 -0.32497999 0.85746568 2894892
0.23540221 -0.32505605 0.86486435 9934743
0.25949371 -0.32502696 0.88972628 8882055
-0.66693425 -0.27498883 0.88210654 2894892
-0.64169717 -0.2748951 0.85765046 2894892
0.23543526 -0.27504686 0.86496568 2105376
0.25952756 -0.27504963 0.88982946 2039583
-0.66711622 -0.22499983 0.88233596 2894892
-0.64185143 -0.22490491 0.85785353 2894892
0.23545589 -0.22498998 0.86505514 2039583
0.25955606 -0.22500001 0.88992709 2039583
-0.66726738 -0.1749897 0.88253528 2894892
-0.6419993 -0.17501166 0.85805011 2894892
0.23526029 -0.17476159 0.8649227 2039583
0.25958228 -0.17502145 0.89002228 2039583
-0.66739666 -0.12498428 0.88271356 2894892
-0.64211971 -0.12503642 0.85822028 2894892
0.23502092 -0.12495683 0.86474395 2039583
0.25960839 -0.12503169 0.89011657 2039583
-0.66755283 -0.075012811 0.88291895 2894892
-0.64228344 -0.07503847 0.85843199 2894892
0.23502868 -0.074989267 0.86482054 2039583
0.25963724 -0.074949302 0.89021552 2039583
-0.66770339 -0.02501915 0.88311821 2894892
-0.64217579 -0.02444328 0.85838205 2894892
0.23506586 -0.02501121 0.86492562 2039583
0.25967175 -0.024958586 0.89031875 2039583
-0.66784132 0.02499854 0.88330609 2894892
-0.64127666 0.02502301 0.85756308 2894892
0.23509191 0.025014846 0.86501986 9276813
0.25970018 0.024962237 0.89041722 9211020
-0.66802388 0.075009122 0.88353568 2894892
-0.64141089 0.075032569 0.85774618 2894892
0.23510626 0.075014688 0.86510307 10197915
0.25971684 0.074954174 0.89050084 10197915
-0.70557016 0.11505648 0.89406759 2894892
-0.67306197 0.11198764 0.87796515 2894892
-0.64213037 0.10866909 0.85778403 2894892
0.23591158 0.10895457 0.86406332 10197915
0.27038833 0.11240789 0.87937641 10197915
0.32485813 0.11523136 0.87467843 10197915
0.37481633 0.11523866 0.87472039 10197915
0.42446566 0.11524831 0.87274688 10197915
0.47499678 0.11525658 0.87210268 10197915
0.5250504 0.11526389 0.87216479 10197915
0.57507116 0.11527093 0.87222981 10197915
0.62505805 0.11527843 0.87228405 10197915
0.67157084 0.11528192 0.87498075 10197915
0.70431083 0.11526712 0.89120793 10197915
-0.71997219 -0.40880716 0.93335861 2894892
-0.69318491 -0.40292007 0.90740752 2894892
0.28833362 -0.40563652 0.91937762 2039583
0.30965427 -0.4105382 0.94137353 2039583
-0.71712077 -0.37501222 0.93063176 2894892
-0.69192874 -0.37498429 0.90621948 2894892
0.28442198 -0.37496665 0.91538399 6052956
0.30909082 -0.37494352 0.94084013 8553090
-0.71728837 -0.32499623 0.93084759 2894892
-0.69208497 -0.3250497 0.9064244 2894892
0.2844556 -0.32501119 0.9154852 6645093
0.30913189 -0.32498285 0.94095069 4408131
-0.71750325 -0.27502117 0.93110985 2894892
-0.69223273 -0.27509302 0.9066211 2894892
0.28448597 -0.27500376 0.9155845 2039583
0.30916312 -0.27501145 0.94105154 2039583
-0.71756971 -0.22502512 0.93122602 2894892
-0.69239789 -0.22511218 0.90683413 2894892
0.28452337 -0.22495912 0.91569149 2039583
0.30920121 -0.22497734 0.94115859 2039583
-0.71775711 -0.17500484 0.93146098 2894892
-0.6925633 -0.17503528 0.90704793 2894892
0.28454852 -0.17499787 0.91578716 2039583
0.30922747 -0.17498413 0.9412539 2039583
-0.71795428 -0.1249948 0.93170595 2894892
-0.69270235 -0.12501024 0.90723628 2894892
0.28457668 -0.12506619 0.91588372 2039583
0.30917865 -0.12525362 0.94127232 2039583
-0.71808338 -0.074994147 0.93188459 2894892
-0.69287658 -0.074962616 0.90745777 2894892
0.28461394 -0.075042225 0.91599143 2039583
0.30870938 -0.075033292 0.9408561 2039583
-0.71826893 -0.025003558 0.93211699 2894892
-0.69301528 -0.024967918 0.907646 2894892
0.28457659 -0.025103372 0.91601861 2039583
0.30867019 -0.024839027 0.94088268 2039583
-0.71843141 0.025011083 0.93232781 2894892
-0.69317198 0.024975421 0.90785104 2894892
0.28411078 0.02499436 0.91560692 9145227
0.30819559 0.025014525 0.94046164 9145227
-0.71857965 0.075014643 0.93252468 2894892
-0.6933372 0.074939959 0.90806407 2894892
0.28415319 0.074988954 0.91571796 10197915
0.30821711 0.074971214 0.9405514 10197915
-0.75191772 0.11498535 0.94726706 2894892
-0.72116119 0.11128962 0.92858452 2894892
-0.69382513 0.10872245 0.90789604 2894892
0.28509405 0.10869649 0.91528863 10197915
0.31946707 0.1122776 0.93106586 10197915
0.37489802 0.11517584 0.92667526 10197915
0.4255296 0.1151861 0.92432451 10197915
0.4749788 0.11519409 0.92381388 10197915
0.52501905 0.11520141 0.92383176 10197915
0.57497984 0.1152087 0.92386657 10197915
0.62494749 0.11521579 0.92394865 10197915
0.67487806 0.11522309 0.92399496 10197915
0.71914095 0.1152231 0.92932111 10197915
0.75256294 0.11520424 0.94907051 10197915
-0.75855678 -0.41683066 0.97073948 2894892
-0.74218416 -0.41355392 0.95487744 2894892
0.33514118 -0.41651016 0.96766639 2236962
0.35837874 -0.42186838 0.99164051 4144959
-0.75838232 -0.37504554 0.97061551 2894892
-0.74210912 -0.37491313 0.9548465 2894892
0.33393365 -0.37503514 0.96647763 10658466
0.35818535 -0.37503377 0.99150413 9737364
-0.75858527 -0.32505509 0.97086471 2894892
-0.74230182 -0.32494581 0.95508647 2894892
0.33397719 -0.32497516 0.96659118 2500134
0.35823676 -0.32495537 0.991624 2039583
-0.75873941 -0.27497491 0.97106802 2894892
-0.74243861 -0.27485675 0.95527214 2894892
0.33399734 -0.27496472 0.96668047 2039583
0.35827336 -0.27496821 0.99173105 2039583
-0.75895053 -0.22493775 0.97132611 2894892
-0.74263179 -0.22484289 0.955513 2894892
0.33403343 -0.22495969 0.96678561 2039583
0.3583003 -0.22507362 0.99182701 2039583
-0.75901842 -0.17514336 0.97144485 2894892
-0.74278063 -0.174906 0.95571011 2894892
0.33409303 -0.17497423 0.96691602 2039583
0.35835895 -0.17506486 0.99195695 2039583
-0.75758594 -0.12499402 0.97010994 2894892
-0.74294168 -0.12494682 0.95591944 2894892
0.33401754 -0.12489421 0.96690369 2039583
0.35838339 -0.12501094 0.9920488 2039583
-0.75778878 -0.075013034 0.97036016 2894892
-0.7431162 -0.074965104 0.95614213 2894892
0.33348501 -0.075078256 0.96642339 2039583
0.35838044 -0.074885577 0.99211448 2039583
-0.75794971 -0.025009874 0.97056901 2894892
-0.74330294 -0.024960632 0.95637608 2894892
0.33295512 -0.025011059 0.96594375 2039583
0.35781869 -0.024996126 0.99160367 2039583
-0.75812095 0.025017425 0.97078848 2894892
-0.74347061 0.024968123 0.95659178 2894892
0.33300051 0.024999343 0.96605957 9079434
0.3578583 0.02499976 0.99171126 9079434
-0.75828111 0.074985258 0.9709971 2894892
-0.74361968 0.07501781 0.95678973 2894892
0.33300361 0.074988 0.96613115 10197915
0.35764498 0.074566923 0.99155873 10197915
-0.76376325 0.11148505 0.97268993 2894892
-0.7441023 0.10884417 0.95661664 2894892
0.33405265 0.10874804 0.96558994 10197915
0.3694461 0.11250585 0.98000658 10197915
0.42500931 0.11512472 0.97496003 10197915
0.47501323 0.11513197 0.97516191 10197915
0.52496576 0.11513926 0.97512901 10197915
0.57498193 0.1151465 0.9752239 10197915
0.6250627 0.11515383 0.97531587 10197915
0.67497587 0.11516105 0.97534484 10197915
0.72495496 0.11516827 0.97543913 10197915
0.76522446 0.11516742 0.98103112 10197915
0.39096361 -0.45438996 1.0252217 2039583
0.40818936 -0.4583492 1.0429928 2039583
0.38309413 -0.42493007 1.01714 6447714
0.40773687 -0.42501381 1.0425709 8947848
0.38304794 -0.37501106 1.0171597 7500402
0.40779251 -0.37499443 1.0426967 5263440
0.38309678 -0.32493469 1.0172808 2039583
0.40781462 -0.3249217 1.0427881 2039583
0.38313553 -0.27494681 1.0173872 2039583
0.40787572 -0.2748805 1.042919 2039583
0.38269687 -0.22526905 1.0170028 2039583
0.40739262 -0.22449526 1.0424892 2039583
0.38254032 -0.17504525 1.0169102 2039583
0.4072414 -0.17501743 1.0424011 2039583
0.3825663 -0.12499584 1.0170054 2039583
0.40673774 -0.1254044 1.0419481 2039583
0.3826125 -0.075005546 1.0171189 2039583
0.40658215 -0.075018361 1.0418566 2039583
0.38266042 -0.025004864 1.0172365 2039583
0.40666398 -0.025037676 1.0420088 2039583
0.38270175 0.025008515 1.0173483 9013641
0.40670836 0.025041325 1.0421221 8947848
0.38246921 0.075280622 1.0171767 10197915
0.40671527 0.075043909 1.0421983 10197915
-0.81419218 0.11487492 1.0310165 2894892
-0.79308736 0.11490787 1.0063306 2894892
0.38323316 0.10896868 1.0157908 10197915
0.42009449 0.11275457 1.0294354 10197915
0.4750275 0.11507166 1.0249914 10197915
0.52498341 0.11507898 1.0249825 10197915
0.57500678 0.11508626 1.0250664 10197915
0.62497562 0.11509345 1.0251482 10197915
0.67495018 0.11510072 1.0252143 10197915
0.72499353 0.11510792 1.0252794 10197915
0.77492452 0.11511511 1.0254312 10197915
0.81220603 0.11510757 1.0362561 10197915
0.43387935 -0.46424291 1.0694971 2631720
0.4566384 -0.46994615 1.0929748 4737096
0.43220776 -0.42496303 1.0678246 11053224
0.45630774 -0.42490891 1.0926946 10526880
0.43226457 -0.37497574 1.0679517 3092271
0.45637196 -0.37492701 1.0928291 2039583
0.43230996 -0.32490069 1.0680656 2039583
0.45640203 -0.32510465 1.0929283 2039583
0.43235695 -0.2749103 1.0681804 2039583
0.45645928 -0.27510065 1.093055 2039583
0.43240654 -0.225044 1.0683018 2039583
0.4565222 -0.22503041 1.0931888 2039583
0.43244535 -0.17501259 1.0684093 2039583
0.45655802 -0.17500472 1.0932938 2039583
0.43192086 -0.12478098 1.0679383 2039583
0.45662564 -0.12496859 1.0934317 2039583
0.43175244 -0.074987143 1.0678296 2039583
0.45665061 -0.074921422 1.0935261 2039583
0.43186036 -0.024998799 1.068012 2039583
0.45672718 -0.0249198 1.0936726 2039583
0.43190762 0.02500242 1.0681268 8947848
0.45677722 0.024923429 1.0937918 8882055
0.43189403 0.075012639 1.0681802 10197915
0.45679995 0.074946858 1.0938838 10197915
-0.85909015 0.1147999 1.0875716 2894892
-0.83899659 0.11483155 1.063841 2894892
0.43313685 0.10881022 1.0675009 10197915
0.47035676 0.11284002 1.0806248 10197915
0.52500772 0.1150172 1.0760835 10197915
0.57497418 0.11502452 1.0761265 10197915
0.62502062 0.11503164 1.0762558 10197915
0.67507362 0.11503898 1.0762626 10197915
0.72505993 0.11504629 1.0763304 10197915
0.77505124 0.11505345 1.0764719 10197915
0.82407427 0.11505964 1.0772849 10197915
0.85867852 0.11504903 1.0902859 10197915
0.49287465 -0.50283837 1.1303244 2039583
0.505862 -0.5058533 1.1437225 2039583
0.48134619 -0.47389558 1.1184653 6974058
0.50536007 -0.47505927 1.1432467 9211020
0.48071915 -0.42496505 1.117887 8421504
0.5054341 -0.42510295 1.1433909 6184542
0.48080179 -0.3749882 1.1180403 2039583
0.50548017 -0.37506825 1.1435058 2039583
0.48083404 -0.32510516 1.11814 2039583
0.50553995 -0.32509017 1.1436365 2039583
0.48088652 -0.27508464 1.1182641 2039583
0.50559056 -0.2751008 1.1437564 2039583
0.48094454 -0.22499071 1.1183922 2039583
0.50565565 -0.22503367 1.1438926 2039583
0.48099458 -0.17494866 1.1185104 2039583
0.50570667 -0.1749548 1.1440139 2039583
0.48105177 -0.12491667 1.1186396 2039583
0.50576192 -0.1249332 1.1441385 2039583
0.48111019 -0.074958012 1.1187676 2039583
0.50581259 -0.07503546 1.1442585 2039583
0.48113772 -0.024989245 1.1188622 2039583
0.50586772 -0.025060141 1.1443833 2039583
0.48119 0.02499285 1.1189849 8816262
0.50592315 0.025063802 1.1445084 8816262
0.48126757 0.074983545 1.1191336 10197915
0.50511265 0.075024813 1.1437405 10197915
-0.90565723 0.11472238 1.1460137 2894892
-0.88331097 0.11475748 1.1197149 2894892
0.48253715 0.10887365 1.1181846 10197915
0.51995814 0.11298882 1.1286213 10197915
0.57502234 0.11496726 1.1234813 10197915
0.6250515 0.11497436 1.123652 10197915
0.67508668 0.11498176 1.1236225 10197915
0.72503692 0.11498892 1.12376 10197915
0.77489728 0.11499635 1.1236963 10197915
0.82485932 0.11500342 1.1239011 10197915
0.87173706 0.11500754 1.126204 10197915
0.90397233 0.11499394 1.141331 10197915
0.53272694 -0.51207954 1.1714383 2368548
0.55551463 -0.51730394 1.1949465 2039583
0.53029954 -0.47505096 1.1689816 9145227
0.55544484 -0.47499371 1.1949323 2039583
0.53037733 -0.42507622 1.1691343 3815994
0.55515581 -0.42614976 1.1947006 2039583
0.53040767 -0.37504479 1.1692311 2039583
0.55460078 -0.37511539 1.1941969 2039583
0.53048921 -0.32507139 1.1693847 2039583
0.55467653 -0.32508299 1.1943434 2039583
0.53053498 -0.27506322 1.1694994 2039583
0.55472225 -0.27503902 1.194459 2039583
0.53060627 -0.22497597 1.1696416 2039583
0.55480587 -0.22498481 1.1946135 2039583
0.53063023 -0.17499258 1.1697329 2039583
0.55485177 -0.17501855 1.1947287 2039583
0.53073817 -0.12497536 1.1699135 2039583
0.55489743 -0.12504089 1.1948444 2039583
0.53075403 -0.07494729 1.1699985 2039583
0.55500305 -0.074952349 1.1950217 2039583
0.53084588 -0.024977731 1.1701605 2039583
0.55501872 -0.02495537 1.1951059 2039583
0.53090358 0.024981361 1.1702877 8224125
0.55507928 0.024959 1.1952364 6974058
0.5300262 0.074986905 1.1694489 10197915
0.5551852 0.074977763 1.1954132 10197915
-0.95146865 0.11465272 1.1980362 2894892
-0.92886901 0.11468118 1.1772622 2894892
0.53137231 0.10914171 1.1675402 10197915
0.57057023 0.1132357 1.176003 10197915
0.62501717 0.11491773 1.1704558 10197915
0.67509955 0.11492512 1.1704546 10197915
0.72509295 0.11493237 1.1705257 10197915
0.77509046 0.11493963 1.1706022 10197915
0.82519305 0.11494681 1.1707515 10197915
0.87500942 0.11495408 1.1707853 10197915
0.91752499 0.11495444 1.175642 10197915
0.5970729 -0.55194247 1.2377865 2039583
0.60529417 -0.5536595 1.2462679 2039583
0.58170307 -0.52292073 1.2219636 2039583
0.6049875 -0.52497154 1.2459899 2039583
0.58072585 -0.4749679 1.2210219 2039583
0.60503751 -0.47508118 1.24611 2039583
0.58035791 -0.4247019 1.2207103 2039583
0.60511988 -0.42492259 1.2462634 2039583
0.57890886 -0.3750917 1.2192819 2039583
0.60418946 -0.37467837 1.2453713 2039583
0.57894617 -0.32505041 1.219389 2039583
0.60422051 -0.32506749 1.2454712 2039583
0.57898498 -0.27504307 1.219497 2039583
0.60428679 -0.27504721 1.2456076 2039583
0.57904315 -0.22497545 1.2196256 2039583
0.60372663 -0.22622344 1.2450963 2039583
0.57912272 -0.17502224 1.2197756 2039583
0.6033895 -0.17495383 1.244818 2039583
0.57916689 -0.12508352 1.2198896 2039583
0.60342884 -0.12507313 1.2449272 2039583
0.57923019 -0.075058423 1.220023 2039583
0.60353744 -0.075050145 1.2451069 2039583
0.5793137 -0.025022473 1.2201778 2039583
0.60356098 -0.02502152 1.2451996 2039583
0.57937813 0.025000861 1.2203114 6908265
0.60363197 0.024895737 1.2453408 6776679
0.57942253 0.074957415 1.2204252 10197915
0.60372984 0.074947119 1.2455096 10197915
-0.96752965 0.11461724 1.2254351 2894892
-0.94816387 0.11464073 1.2083731 2894892
0.58084458 0.10925575 1.2180519 10197915
0.6210441 0.11346132 1.2257848 10197915
0.67511356 0.11486356 1.2213604 10197915
0.72515488 0.11487076 1.2214772 10197915
0.77499717 0.11487791 1.2215987 10197915
0.8249467 0.11488535 1.2215446 10197915
0.87500614 0.11489251 1.2216687 10197915
0.92507041 0.11489979 1.2217424 10197915
0.9642207 0.11489533 1.2301887 10197915
0.63264757 -0.56013966 1.2744869 2039583
0.65340596 -0.56478101 1.2959031 2039583
0.62926269 -0.52502275 1.2710421 2039583
0.65339375 -0.52490717 1.2959446 2039583
0.62933415 -0.47493902 1.2711831 2039583
0.65349722 -0.47502992 1.2961189 2039583
0.62939095 -0.42492783 1.2713101 2039583
0.65353698 -0.42495894 1.2962282 2039583
0.62944806 -0.37498859 1.2714372 2039583
0.65362459 -0.37487888 1.2963862 2039583
0.62954557 -0.3250111 1.2716053 2039583
0.65369588 -0.3249661 1.2965277 2039583
0.62959212 -0.27502161 1.2717216 2039583
0.65376729 -0.27504262 1.2966698 2039583
0.62897462 -0.2246684 1.271153 2039583
0.65382326 -0.22492926 1.2967964 2039583
0.62867349 -0.17498796 1.2709103 2039583
0.65392727 -0.17498378 1.2969714 2039583
0.62872142 -0.12506126 1.2710271 2039583
0.65396661 -0.12502864 1.2970803 2039583
0.62878996 -0.075045168 1.2711661 2039583
0.65407032 -0.075058721 1.2972549 2039583
0.62888151 -0.025018105 1.2713304 2039583
0.65410966 -0.025084289 1.2973641 2039583
0.62895161 0.024995418 1.2714696 6710886
0.65418136 0.025087964 1.297506 6645093
0.62899852 0.074938886 1.2715851 10197915
0.65399206 0.072941124 1.2973753 10197915
-1.0145253 0.1145389 1.2844898 2894892
-0.99115646 0.11457492 1.2575332 2894892
0.63049507 0.10902112 1.2698145 10197915
0.67243791 0.113861 1.2744353 10197915
0.72520381 0.11481066 1.2711735 10197915
0.77501976 0.11481779 1.2713161 10197915
0.82510841 0.11482506 1.2713966 10197915
0.87507015 0.11483226 1.271507 10197915
0.92503822 0.11483962 1.2714951 10197915
0.97475541 0.11484648 1.2718495 10197915
1.0097759 0.11483956 1.2818313 10197915
0.69971609 -0.60063142 1.3436439 2039583
0.703578 -0.60151887 1.347628 2039583
0.68022144 -0.5710724 1.3235669 2039583
0.70337677 -0.57498133 1.3474567 2039583
0.67851877 -0.52501118 1.3218712 2039583
0.70345402 -0.52479768 1.3476045 2039583
0.67862958 -0.4750551 1.322055 2039583
0.70351738 -0.47488064 1.3477379 2039583
0.67831141 -0.4252845 1.321793 2039583
0.70312381 -0.42262569 1.3474032 2039583
0.67757535 -0.37494373 1.3211027 2039583
0.70247728 -0.3749502 1.3468006 2039583
0.67766088 -0.32499129 1.3212589 2039583
0.70255417 -0.32495508 1.3469474 2039583
0.67773128 -0.27499664 1.3213998 2039583
0.70261312 -0.2749483 1.3470765 2039583
0.67779911 -0.22493085 1.3215389 2039583
0.70270842 -0.2249328 1.3472439 2039583
0.67789215 -0.17494497 1.3217028 2039583
0.70280361 -0.17490414 1.3474103 2039583
0.67795891 -0.12503944 1.3218397 2039583
0.70203608 -0.12725344 1.3466834 2039583
0.6780138 -0.075001419 1.3219639 2039583
0.70172876 -0.075304247 1.3464367 2039583
0.67810571 -0.024983395 1.3221275 2039583
0.70180577 -0.025103865 1.3465848 2039583
0.67818028 0.024987016 1.3222715 6316128
0.70188302 0.025107546 1.3467326 4473924
0.67782128 0.075342201 1.3219702 10197915
0.70195985 0.075329944 1.3468797 10197915
-1.0595648 0.11446417 1.3408034 2894892
-1.0390177 0.11449473 1.3180418 2894892
0.67904127 0.10939147 1.3187209 10197915
0.72234571 0.1138671 1.3225434 10197915
0.7750414 0.11476002 1.319117 10197915
0.8250944 0.11476743 1.3190664 10197915
0.87501973 0.11477453 1.3192494 10197915
0.92494953 0.11478171 1.3193666 10197915
0.97502446 0.11478915 1.3193158 10197915
1.0229329 0.11479378 1.3212881 10197915
1.0562142 0.11478156 1.3354276 10197915
0.73351973 -0.6083988 1.3785176 2039583
0.75227731 -0.61270922 1.3978686 2039583
0.72800255 -0.57500023 1.3728691 2039583
0.75233883 -0.57511336 1.3979838 2039583
0.72817385 -0.52500701 1.373113 2039583
0.75242084 -0.52536201 1.3981359 2039583
0.72816354 -0.47503266 1.3731711 2039583
0.75250381 -0.47502127 1.3982899 2039583
0.72783476 -0.42531708 1.3728999 2039583
0.75195473 -0.42063838 1.3977975 2039583
0.72714108 -0.37496874 1.3722532 2039583
0.75136822 -0.37510383 1.3972539 2039583
0.72718018 -0.32494381 1.3723618 2039583
0.75143522 -0.32506761 1.3973914 2039583
0.72723329 -0.2749742 1.3724837 2039583
0.75153255 -0.27502093 1.39756 2039583
0.72732359 -0.22502801 1.3726459 2039583
0.75161493 -0.22525224 1.3977132 2039583
0.72745973 -0.17503762 1.3728545 2039583
0.75171232 -0.17518146 1.3978821 2039583
0.72650731 -0.12475416 1.3719397 2039583
0.75176531 -0.12481522 1.398005 2039583
0.72636384 -0.075018369 1.371859 2039583
0.751863 -0.074722387 1.398174 2039583
0.72638601 -0.025010016 1.3719512 2039583
0.75194514 -0.024909867 1.3983264 2039583
0.72646588 0.025013676 1.3721009 3289650
0.75202703 0.024913494 1.3984787 2500134
0.72660214 0.075043939 1.3723102 10197915
0.75185019 0.071462639 1.3983597 10197915
-1.1020465 0.11440128 1.3876356 2894892
-1.0832474 0.11442154 1.373181 2894892
0.72838056 0.10940368 1.3693887 10197915
0.77339691 0.11417528 1.3723544 10197915
0.82494009 0.11470493 1.3707045 10197915
0.87496519 0.11471219 1.3707935 10197915
0.92499739 0.1147196 1.3707259 10197915
0.97489315 0.11472667 1.3709257 10197915
1.025079 0.11473393 1.3710531 10197915
1.0708209 0.11473613 1.3747824 10197915
1.1033939 0.11472069 1.3915099 10197915
0.77718985 -0.61676711 1.4235718 2039583
0.80083776 -0.61787468 1.4479744 2039583
0.77619052 -0.57494515 1.422598 2039583
0.80091351 -0.57473755 1.4481108 2039583
0.77630895 -0.52494168 1.422789 2039583
0.80100071 -0.52499992 1.4482689 2039583
0.77635628 -0.47496107 1.4229052 2039583
0.80108798 -0.47525164 1.448427 2039583
0.77644879 -0.42507374 1.4230677 2039583
0.80117625 -0.42489296 1.4485867 2039583
0.77653062 -0.37507144 1.4232208 2039583
0.80126351 -0.37512287 1.4487447 2039583
0.77662653 -0.32491946 1.4233888 2039583
0.80135071 -0.32534185 1.4489013 2039583
0.77669263 -0.27492943 1.4235239 2039583
0.80143893 -0.27495018 1.449061 2039583
0.77680385 -0.22506824 1.4237077 2039583
0.8015269 -0.22514755 1.4492207 2039583
0.77688992 -0.17505673 1.4238635 2039583
0.80161458 -0.17533395 1.4493787 2039583
0.77695984 -0.1249994 1.4240048 2039583
0.80170304 -0.12490907 1.4495382 2039583
0.77704799 -0.075035751 1.4241637 2039583
0.80179054 -0.07507357 1.4496965 2039583
0.77713019 -0.025026754 1.4243165 2039583
0.80187786 -0.025227156 1.4498547 2039583
0.77721542 0.025030401 1.424472 2302755
0.80194008 0.010212047 1.4499677 2039583
0.77684796 0.075377494 1.4241616 10197915
-1.1239153 0.1143544 1.4237561 2894892
-1.0985608 0.11438503 1.4015241 2894892
0.77778286 0.10911464 1.4211504 10197915
0.82491839 0.11463775 1.4262674 10197915
0.87505424 0.1146449 1.4264871 10197915
0.92504871 0.11465232 1.4264036 10197915
0.97504765 0.11465936 1.4266672 10197915
1.0252023 0.11466663 1.4267144 10197915
1.0752172 0.11467398 1.4267164 10197915
1.1193807 0.11467329 1.4326757 10197915
1.1513849 0.11465825 1.4490039 10197915
0.82536066 -0.61779493 1.4732809 2039583
0.85002565 -0.61407971 1.4987396 2039583
0.82508677 -0.57494658 1.4730566 2039583
0.85009831 -0.57501125 1.498868 2039583
0.82516253 -0.52500266 1.4732033 2039583
0.85019076 -0.52539128 1.4990307 2039583
0.82525331 -0.47492975 1.4733644 2039583
0.8502844 -0.47514012 1.4991953 2039583
0.82536918 -0.42499995 1.4735515 2039583
0.85037792 -0.42487782 1.4993606 2039583
0.82543647 -0.37502068 1.4736891 2039583
0.85047024 -0.37522528 1.4995235 2039583
0.82552862 -0.3248781 1.4738529 2039583
0.85056376 -0.32494101 1.4996883 2039583
0.82562631 -0.27491462 1.4740219 2039583
0.85065734 -0.27464572 1.4998536 2039583
0.82571524 -0.22505584 1.4741827 2039583
0.85072231 -0.2398676 1.4999682 2039583
0.82581329 -0.17503272 1.4743507 2039583
0.82587838 -0.12499886 1.4744875 2039583
0.82599211 -0.074991614 1.4746721 2039583
0.82608134 -0.024975806 1.4748324 2039583
0.82528144 0.025364745 1.4740747 2039583
0.82483935 0.075021945 1.4736867 10132122
-1.1670523 0.11428286 1.4776827 2894892
-1.1467031 0.11430744 1.459857 2894892
0.82704341 0.10873485 1.4731742 10197915
0.87498504 0.1145812 1.4791157 10197915
0.9248777 0.11458858 1.47908 10197915
0.9747799 0.11459578 1.4791729 10197915
1.0250939 0.11460306 1.4792701 10197915
1.075213 0.1146103 1.4793602 10197915
1.1249261 0.1146175 1.4794538 10197915
1.1652943 0.11461746 1.4843791 10197915
0.87590057 -0.61760479 1.5254353 2039583
0.87521595 -0.5752821 1.5247874 2039583
0.87457544 -0.52502602 1.5241954 2039583
0.87462431 -0.47506744 1.5243143 2039583
0.87476128 -0.42505619 1.5245224 2039583
0.87484115 -0.37503326 1.5246741 2039583
0.87494344 -0.32491633 1.5248475 2039583
0.87502301 -0.27487081 1.5249971 2039583
0.87419504 -0.22463675 1.524212 2039583
0.87367326 -0.17501871 1.5237415 2039583
0.87375379 -0.12492573 1.5238932 2039583
0.8738957 -0.074939869 1.524107 2039583
0.87394714 -0.024983373 1.5242282 2039583
0.87404233 0.024987031 1.5243957 2039583
0.87418252 0.07496538 1.5246065 9803157
-1.2118425 0.11420856 1.5336975 2894892
-1.1913331 0.1142383 1.5115653 2894892
0.87648475 0.10890657 1.5233941 10197915
0.92489105 0.11453021 1.5273322 10197915
0.97514963 0.11453733 1.5275699 10197915
1.0254172 0.11454474 1.5275258 10197915
1.0752714 0.11455179 1.5277623 10197915
1.1249164 0.11455914 1.5277172 10197915
1.1749895 0.11456639 1.5278144 10197915
1.2115793 0.11456033 1.5372561 10197915
0.91087544 -0.61780316 1.5615296 2039583
0.89967233 -0.56253594 1.5500435 2039583
0.91089827 -0.5748347 1.5616114 2039583
0.89974701 -0.52469128 1.5501717 2039583
0.91108888 -0.52497041 1.5618762 2039583
0.89984542 -0.47465041 1.5503417 2039583
0.91113931 -0.47509089 1.5619955 2039583
0.89994413 -0.4245984 1.5505115 2039583
0.91125345 -0.42509353 1.5621817 2039583
0.89999717 -0.39764333 1.5506029 2039583
0.90981597 -0.37465954 1.5607663 2039583
0.90981913 -0.32479537 1.560838 2039583
0.90994245 -0.27484891 1.5610332 2039583
0.90998167 -0.22507796 1.5611423 2039583
0.91013044 -0.17501794 1.5613632 2039583
0.91020554 -0.12494735 1.5615097 2039583
0.91034168 -0.075049654 1.5617179 2039583
0.91038054 -0.025051899 1.5618263 2039583
0.91048062 0.02505555 1.5619977 2039583
0.90941674 0.074362852 1.5609667 9474192
-1.2571498 0.11413379 1.5900228 2894892
-1.2355634 0.11416478 1.5669935 2894892
0.92122531 0.11073586 1.566946 10197915
0.97489309 0.11447515 1.5789379 10197915
1.0248926 0.11448256 1.5788795 10197915
1.0748913 0.11448941 1.5792893 10197915
1.1251217 0.11449689 1.5792372 10197915
1.1751401 0.11450391 1.5794904 10197915
1.2237569 0.11451013 1.5802414 10197915
1.2584411 0.11449955 1.5932055 10197915
-1.3058364 0.1140558 1.6485362 2894892
-1.2817941 0.11408728 1.6254401 2894892
0.9475382 0.11442728 1.6152177 10197915
0.97652721 0.11442073 1.6241351 10197915
1.0247943 0.11442719 1.6246421 10197915
1.0746745 0.11443441 1.6247479 10197915
1.1248924 0.1144415 1.6249763 10197915
1.1747833 0.11444871 1.6250788 10197915
1.2250165 0.11445612 1.625056 10197915
1.2722064 0.11446078 1.6269197 10197915
-1.3244559 0.11401726 1.6781863 2894892
0.98717111 0.11437191 1.6658101 10197915
1.0246955 0.11436863 1.6730654 10197915
1.074672 0.11437585 1.6731762 10197915
1.1248845 0.11438286 1.6734643 10197915
1.174868 0.11439053 1.673201 10197915
1.2248625 0.11439729 1.6736754 10197915
1.2748625 0.11440495 1.6734121 10197915
1.3182735 0.11440264 1.6806151 10197915
-1.3617427 0.11395736 1.7231482 2894892
-1.3436587 0.11397737 1.7087965 2894892
1.0286506 0.11430904 1.7228447 10197915
1.0749085 0.11431388 1.7244674 10197915
1.1253467 0.11432096 1.7247266 10197915
1.1754385 0.11432819 1.7248352 10197915
1.2251759 0.11433555 1.7247901 10197915
1.2749206 0.11434254 1.7250519 10197915
1.3250309 0.11434978 1.725161 10197915
1.3627828 0.1143507 1.7290007 10197915
-1.4138416 0.11387 1.7890748 2894892
-1.386572 0.1139102 1.7591591 2894892
1.0404795 0.11426197 1.7631834 10197915
1.0748632 0.11426135 1.7678668 10197915
1.1251036 0.11426841 1.7681401 10197915
1.174989 0.1142756 1.7682514 10197915
1.2248805 0.11428279 1.7683629 10197915
1.2751383 0.11429022 1.7683139 10197915
1.325044 0.11429744 1.7684202 10197915
1.3742225 0.11430413 1.7688624 10197915
1.4076807 0.11429571 1.7799008 10197915
-1.4579849 0.11379767 1.8435067 2894892
-1.4382715 0.11382336 1.8246408 2894892
1.0819621 0.11420107 1.8185703 10197915
1.1248468 0.11419904 1.8254669 10197915
1.1748379 0.11420622 1.8255889 10197915
1.2250845 0.1142132 1.8259408 10197915
1.2748317 0.11422067 1.8258122 10197915
1.322243 0.11423385 1.8206446 10197915
1.3747485 0.11424916 1.814368 10197915
1.4214061 0.11425336 1.8165666 10197915
1.4511511 0.11424601 1.826256 10197915
-1.5028164 0.11373089 1.8932502 2894892
-1.4814019 0.11375166 1.8787303 2894892
1.0978813 0.11413618 1.8741467 10197915
1.1275856 0.11412727 1.8851404 10197915
1.1753296 0.11413227 1.8868002 10197915
1.2250406 0.11413917 1.88712 10197915
1.2751573 0.1141464 1.887239 10197915
1.3263286 0.11417478 1.870006 10197915
1.3749224 0.11419103 1.8624618 10197915
1.4247801 0.11419846 1.8623891 10197915
1.4672726 0.1141996 1.8665917 10197915
-1.5251503 0.1136802 1.9324811 2894892
1.1384064 0.11407997 1.9256214 10197915
1.1751583 0.11408524 1.9257102 10197915
1.2246978 0.11409237 1.9258313 10197915
1.2750432 0.11409961 1.9259536 10197915
1.3275403 0.11412089 1.9147162 10197915
1.3747075 0.11412995 1.9129667 10197915
1.4247332 0.11413716 1.9130872 10197915
1.4751546 0.11414415 1.9134163 10197915
1.5138034 0.11414216 1.9197801 10197915
-1.5596997 0.11362591 1.9731506 2894892
-1.5474621 0.11362769 1.9731812 2894892
1.1461484 0.11404864 1.952399 10197915
1.1768483 0.11403818 1.9647586 10197915
1.2251506 0.11404339 1.9663527 10197915
1.2749234 0.11405056 1.9664762 10197915
1.3247027 0.1140577 1.9665997 10197915
1.3748895 0.11406521 1.9664987 10197915
1.4250904 0.11407214 1.9668487 10197915
1.4752917 0.11407968 1.9667479 10197915
1.5250974 0.11408686 1.9668711 10197915
1.5614295 0.11407884 1.9778925 10197915
-1.6073608 0.11354983 2.0302536 2894892
-1.5838394 0.11357834 2.0095854 2894892
1.1894931 0.11397855 2.0156045 10197915
1.224812 0.11397513 2.0227289 10197915
1.2747562 0.11398201 2.023103 10197915
1.3251294 0.11398926 2.0232317 10197915
1.3750813 0.11399672 2.0231118 10197915
1.4250487 0.11400363 2.0234866 10197915
1.4750153 0.11401112 2.0233676 10197915
1.5249935 0.11401801 2.023742 10197915
1.5745581 0.11402513 2.0238686 10197915
1.6105349 0.11401272 2.0385299 10197915
-1.6561358 0.11346956 2.0907671 2894892
-1.6313637 0.11349847 2.0698552 2894892
1.2331114 0.11390909 2.0783908 10197915
1.2754439 0.11390959 2.0830917 10197915
1.3251482 0.11391709 2.0829515 10197915
1.3748548 0.11392386 2.083353 10197915
1.4250052 0.1139311 2.0834846 10197915
1.4747239 0.11393855 2.0833445 10197915
1.5244536 0.11394539 2.083746 10197915
1.575052 0.11395299 2.0836172 10197915
1.6239638 0.11395898 2.0845797 10197915
1.6596118 0.11394609 2.0995476 10197915
-1.6750476 0.11342844 2.1224127 2894892
1.247921 0.11384851 2.1302729 10197915
1.2744402 0.11385231 2.1303442 10197915
1.3248312 0.11385956 2.1304796 10197915
1.3752286 0.1138668 2.130615 10197915
1.4247482 0.1138739 2.1307483 10197915
1.4751585 0.11388113 2.1308837 10197915
1.525575 0.11388839 2.1310191 10197915
1.5751131 0.1138955 2.1311522 10197915
1.6246578 0.11390263 2.1312854 10197915
1.6724387 0.11390948 2.1314142 10197915
-1.7202526 0.11335593 2.1769369 2894892
-1.693652 0.1133863 2.1550355 2894892
1.2854012 0.11380214 2.1731904 10197915
1.3249557 0.11379945 2.1801882 10197915
1.3751633 0.11380705 2.1800191 10197915
1.4249353 0.11381418 2.1801558 10197915
1.4751565 0.11382102 2.1806016 10197915
1.5249392 0.11382817 2.1807384 10197915
1.5747281 0.11383531 2.1808751 10197915
1.6249647 0.11384289 2.180706 10197915
1.6747692 0.11385006 2.1808431 10197915
1.7199007 0.11384829 2.1877816 10197915
-1.7592815 0.11329405 2.2233081 2894892
-1.7454958 0.11329603 2.2233465 2894892
1.3278593 0.11373722 2.2320049 10197915
1.3751007 0.11374401 2.2321382 10197915
1.4251269 0.11375118 2.2322786 10197915
1.4751595 0.11375838 2.23242 10197915
1.5251983 0.11376556 2.2325604 10197915
1.5752439 0.11377273 2.2327015 10197915
1.6252953 0.11377992 2.2328427 10197915
1.6753534 0.11378711 2.2329834 10197915
1.7254174 0.11379427 2.2331243 10197915
1.7634333 0.11379974 2.2332313 10197915
-1.8130716 0.11319806 2.2960944 2894892
-1.7839364 0.11324435 2.2614374 2894892
1.3380312 0.11369508 2.2680562 10197915
1.3747407 0.11370031 2.2681613 10197915
1.4246325 0.11370746 2.2683041 10197915
1.4745314 0.11371463 2.2684464 10197915
1.5253778 0.11372194 2.2685919 10197915
1.575289 0.11372909 2.2687349 10197915
1.6252066 0.11373624 2.2688777 10197915
1.6751302 0.11374339 2.2690206 10197915
1.7250606 0.11375057 2.2691636 10197915
1.774997 0.11375773 2.2693064 10197915
1.8023227 0.11376163 2.2693841 10197915
-1.8538531 0.11314597 2.3342683 2894892
-1.8393811 0.11314806 2.3343115 2894892
1.3494949 0.11365173 2.3052959 10197915
1.3791065 0.113639 2.3194497 10197915
1.425312 0.11363938 2.3247428 10197915
1.474998 0.11364696 2.3245113 10197915
1.5246959 0.11365362 2.3250341 10197915
1.5748839 0.11366082 2.3251812 10197915
1.6245829 0.1136684 2.3249502 10197915
1.6747867 0.11367559 2.3251114 10197915
1.7254695 0.11368242 2.3256228 10197915
1.775201 0.11368997 2.3253915 10197915
1.8217349 0.11369199 2.3294032 10197915
1.8577145 0.11367813 2.3452475 10197915
-1.8734488 0.11309535 2.3738017 2894892
1.3973309 0.11356399 2.3836386 10197915
1.4250314 0.11356796 2.3837218 10197915
1.4745005 0.11357505 2.3838708 10197915
1.5249659 0.11358227 2.3840222 10197915
1.5754373 0.1135895 2.3841741 10197915
1.6249255 0.1135966 2.3843229 10197915
1.6744199 0.11360367 2.3844719 10197915
1.7249106 0.11361092 2.3846235 10197915
1.7754074 0.11361814 2.3847756 10197915
1.8249207 0.11362524 2.3849244 10197915
1.8734493 0.1136322 2.3850703 10197915
-1.9106827 0.11304039 2.4146419 2894892
-1.8957132 0.11304253 2.4146879 2894892
1.434567 0.11351964 2.4248796 10197915
1.4758322 0.11352553 2.4250054 10197915
1.5251551 0.11353261 2.4251566 10197915
1.574484 0.11353969 2.4253075 10197915
1.6248261 0.11354688 2.4254615 10197915
1.6751746 0.11355409 2.4256155 10197915
1.7255288 0.11356129 2.4257693 10197915
1.7748832 0.11356837 2.4259202 10197915
1.8242426 0.11357543 2.4260714 10197915
1.8746167 0.11358266 2.4262252 10197915
1.9149197 0.11358842 2.4263487 10197915
-1.9522681 0.1129832 2.4569056 2894892
-1.9370379 0.11298539 2.4569533 2894892
1.4464859 0.11346991 2.4674897 10197915
1.4751625 0.11347403 2.4675789 10197915
1.5253512 0.11348119 2.4677351 10197915
1.5745219 0.11348823 2.4678881 10197915
1.6247231 0.11349541 2.4680445 10197915
1.6749309 0.11350262 2.4682004 10197915
1.7251446 0.11350979 2.4683571 10197915
1.7753649 0.11351698 2.4685133 10197915
1.8245665 0.11352402 2.4686666 10197915
1.8747996 0.11353121 2.4688227 10197915
1.9250388 0.11353841 2.4689791 10197915
1.9568256 0.11354294 2.4690781 10197915
-2.0126083 0.1128664 2.546118 2894892
-1.9774996 0.11291737 2.5083156 2894892
1.4848918 0.113422 2.5117037 10197915
1.5255524 0.1134278 2.5118322 10197915
1.5756017 0.11343498 2.511991 10197915
1.6256572 0.11344215 2.5121496 10197915
1.6757191 0.1134493 2.5123081 10197915
1.7257876 0.11345646 2.5124667 10197915
1.7758621 0.11346361 2.5126252 10197915
1.8259426 0.11347079 2.5127838 10197915
1.8749868 0.1134778 2.5129395 10197915
1.9240364 0.11348482 2.5130947 10197915
1.9741359 0.11349197 2.5132535 10197915
-2.0562403 0.11280316 2.5931616 2894892
-2.0401676 0.11280546 2.5932145 2894892
1.4981618 0.11336868 2.5574486 10197915
1.524701 0.11337246 2.557534 10197915
1.5745993 0.1133796 2.5576947 10197915
1.6255655 0.1133869 2.5578594 10197915
1.6754762 0.11339402 2.5580206 10197915
1.7253938 0.11340117 2.5581815 10197915
1.7753172 0.1134083 2.5583427 10197915
1.8252468 0.11341545 2.5585039 10197915
1.8751827 0.11342258 2.5586646 10197915
1.9251252 0.11342973 2.558826 10197915
1.9750738 0.11343688 2.5589869 10197915
2.0175881 0.11344294 2.559124 10197915
-2.1004207 0.11273754 2.6419764 2894892
-2.0840459 0.1127399 2.6420312 2894892
1.5367918 0.1133168 2.6049693 10197915
1.5746391 0.11332218 2.6050935 10197915
1.624387 0.11332931 2.6052568 10197915
1.674141 0.11333643 2.6054204 10197915
1.7249832 0.11334369 2.6055872 10197915
1.7758318 0.11335094 2.6057544 10197915
1.825605 0.11335807 2.6059179 10197915
1.8753843 0.11336517 2.6060815 10197915
1.9251697 0.11337228 2.606245 10197915
1.9749615 0.11337942 2.6064086 10197915
2.0247595 0.11338653 2.6065722 10197915
2.0615709 0.11339179 2.606693 10197915
-2.1251607 0.11267257 2.6927404 2894892
1.5757846 0.11326293 2.6542885 10197915
1.6242679 0.11326986 2.6544509 10197915
1.6749614 0.1132771 2.6546204 10197915
1.7256618 0.11328434 2.6547904 10197915
1.7752658 0.11329141 2.6549563 10197915
1.8248765 0.11329851 2.6551225 10197915
1.8755955 0.11330573 2.655292 10197915
1.9252185 0.11331284 2.6554582 10197915
1.9748477 0.11331993 2.6556244 10197915
2.0255859 0.11332717 2.6557946 10197915
2.075228 0.11333425 2.6559603 10197915
2.1061184 0.11333867 2.6560638 10197915
-2.1667504 0.11260279 2.7454374 2894892
1.5915734 0.11320347 2.7054279 10197915
1.6252675 0.11320826 2.705543 10197915
1.6746902 0.11321532 2.7057114 10197915
1.7252427 0.11322255 2.7058833 10197915
1.7758018 0.11322974 2.7060561 10197915
1.8252431 0.11323679 2.7062249 10197915
1.8746911 0.11324389 2.706394 10197915
1.9252688 0.11325108 2.7065661 10197915
1.9758531 0.11325833 2.7067382 10197915
2.0253201 0.11326539 2.7069075 10197915
2.0747924 0.11327244 2.7070768 10197915
2.1242712 0.11327948 2.7072449 10197915
2.151262 0.11328335 2.7073369 10197915
1.63203 0.11314494 2.758656 10197915
1.6755515 0.11315113 2.7588072 10197915
1.7248052 0.11315818 2.7589786 10197915
1.7740647 0.11316521 2.7591498 10197915
1.8244762 0.11317239 2.7593253 10197915
1.8748944 0.11317957 2.7595007 10197915
1.9253188 0.11318678 2.7596762 10197915
1.9757496 0.11319397 2.7598517 10197915
2.0250404 0.11320099 2.7600229 10197915
2.0743377 0.11320806 2.7601945 10197915
2.1247873 0.11321523 2.76037 10197915
2.17295 0.11322211 2.7605376 10197915
-2.2134678 0.11252958 2.8002222 2894892
-2.1961153 0.11253206 2.8002841 2894892
1.6484114 0.11308055 2.8139334 10197915
1.6752812 0.11308438 2.8140287 10197915
1.724352 0.11309138 2.8142025 10197915
1.774598 0.11309855 2.8143804 10197915
1.82485 0.11310569 2.814559 10197915
1.8751087 0.11311287 2.8147376 10197915
1.9253731 0.11312004 2.8149159 10197915
1.9744755 0.11312703 2.8150899 10197915
2.0247529 0.11313421 2.8152683 10197915
2.0750365 0.11314138 2.8154469 10197915
2.1253264 0.11314856 2.8156254 10197915
2.1756232 0.11315572 2.8158038 10197915
2.2200766 0.11316206 2.8159616 10197915
-2.2587404 -0.56874496 2.8604703 2894892
-2.258765 -0.52507335 2.8605025 2894892
-2.2588079 -0.47496891 2.8605268 2894892
-2.2587886 -0.42486131 2.8606136 2894892
-2.2490203 -0.42221165 2.8707769 2894892
-2.2588229 -0.37492177 2.8606477 2894892
-2.2490482 -0.37464315 2.8708127 2894892
-2.2588573 -0.32498085 2.8606799 2894892
-2.2490773 -0.32469487 2.8708503 2894892
-2.258893 -0.27495471 2.8607092 2894892
-2.2491069 -0.27474543 2.8708875 2894892
-2.25894 -0.22484344 2.8607306 2894892
-2.2491367 -0.22479461 2.8709252 2894892
-2.2590399 -0.1745664 2.8606935 2894892
-2.2491655 -0.17484255 2.8709626 2894892
-2.2589815 -0.12444644 2.8608229 2894892
-2.2491953 -0.12488916 2.8710003 2894892
-2.2590113 -0.074668787 2.8608596 2894892
-2.2492244 -0.074934445 2.8710375 2894892
-2.2590399 -0.024889888 2.8608966 2894892
-2.249254 -0.024978438 2.8710752 2894892
-2.2590699 0.024890328 2.860935 2894892
-2.2492831 0.024978876 2.8711126 2894892
-2.2590992 0.074671865 2.8609717 2894892
-2.2493126 0.0749375 2.8711505 2894892
-2.2592237 0.10635422 2.8603778 2894892
-2.2462683 0.10916054 2.8642421 2894892
1.6893058 0.11301693 2.8715572 10197915
1.7238808 0.11302187 2.8716826 10197915
1.7739607 0.11302898 2.8718638 10197915
1.8240461 0.11303612 2.8720455 10197915
1.8741386 0.11304327 2.8722262 10197915
1.9242374 0.1130504 2.8724082 10197915
1.9743421 0.11305755 2.8725893 10197915
2.0244532 0.11306468 2.8727708 10197915
2.0745707 0.11307183 2.8729522 10197915
2.1246943 0.11307897 2.8731334 10197915
2.174825 0.11308611 2.8733153 10197915
2.2249615 0.11309326 2.8734965 10197915
2.2679405 0.11309939 2.8736527 10197915
1.7331249 0.11295067 2.931591 10197915
1.7745111 0.11295656 2.9317441 10197915
1.8256416 0.11296383 2.9319332 10197915
1.8755608 0.11297095 2.9321177 10197915
1.9254862 0.11297807 2.9323022 10197915
1.9754183 0.11298518 2.932487 10197915
2.0253565 0.11299227 2.9326711 10197915
2.0753009 0.11299939 2.9328563 10197915
2.1252515 0.1130065 2.9330409 10197915
2.1752086 0.11301361 2.9332252 10197915
2.2251716 0.11302074 2.9334104 10197915
2.2751415 0.11302787 2.9335945 10197915
2.3165843 0.11303376 2.933748 10197915
1.7775747 0.11288155 2.9941893 10197915
1.8260639 0.11288846 2.9943719 10197915
1.875803 0.11289553 2.9945598 10197915
1.9255478 0.1129026 2.9947472 10197915
1.9752992 0.11290969 2.994935 10197915
2.0250571 0.11291677 2.9951229 10197915
2.074821 0.11292385 2.9953105 10197915
2.1245909 0.11293093 2.9954991 10197915
2.1743674 0.11293801 2.9956861 10197915
2.2241499 0.11294512 2.9958749 10197915
2.2739387 0.11295219 2.9960625 10197915
2.3249791 0.11295945 2.9962552 9869208
2.3673096 0.11296548 2.9964151 8028038
1.7960123 0.11280528 3.0594053 10197915
1.8252316 0.11280943 3.0595181 10197915
1.8747822 0.11281648 3.0597093 10197915
1.9243387 0.11282352 3.0599005 10197915
1.9751724 0.11283077 3.0600963 10197915
2.0247416 0.11283781 3.0602877 10197915
2.0743172 0.11284486 3.0604789 10197915
2.12517 0.1128521 3.0606749 10197915
2.174758 0.11285914 3.0608661 10197915
2.2243519 0.1128662 3.0610576 9277587
2.2752244 0.11287344 3.0612538 6647674
2.3248308 0.11288049 3.0614452 4083554
2.3744442 0.11288754 3.0616364 1189700
2.4177012 0.1128937 3.0618036 793917
1.8412483 0.11272948 3.1276336 10197915
1.8750175 0.11273428 3.1277661 10197915
1.9243772 0.11274128 3.1279609 10197915
1.9750427 0.11274848 3.128161 10197915
2.0257144 0.1127557 3.1283605 10197915
2.0750933 0.1127627 3.1285555 10197915
2.1244783 0.11276973 3.1287496 8291466
2.175169 0.11277694 3.1289499 5332846
2.2258663 0.11278415 3.1291499 2637653
2.2752705 0.11279116 3.1293445 861506
2.3246799 0.11279818 3.1295395 1058371
2.3740962 0.1128052 3.1297348 1059398
2.4248185 0.11281242 3.1299341 926529
2.4703445 0.11281889 3.1301143 793660
1.8872194 0.11265002 3.1989684 10197915
1.9257466 0.11265549 3.1991241 10197915
1.9749072 0.11266249 3.199322 10066329
2.0240738 0.11266945 3.1995203 8028294
2.0745757 0.11267662 3.199724 4149090
2.1210966 0.11268324 3.1999114 1387848
2.1463528 0.11268684 3.2000139 796227
2.1755989 0.11269098 3.2001312 993348
2.2247906 0.11269796 3.2003298 994118
2.273988 0.11270496 3.2005281 994118
2.324522 0.11271211 3.2007322 795457
2.375062 0.11271931 3.2009358 992578
2.4256089 0.11272649 3.2011397 1059397
2.4748316 0.11273348 3.2013381 927042
2.5227296 0.11274026 3.2015314 794173
1.9339739 0.1125665 3.2736232 5921370
1.9747622 0.11257228 3.2737913 3684408
2.0250735 0.11257942 3.273999 4079166
2.0753911 0.11258655 3.2742062 3820638
2.1243548 0.1125935 3.2744086 993091
2.1746855 0.11260066 3.2746165 861762
2.2250218 0.1126078 3.2748237 1059397
2.2753646 0.11261493 3.2750313 994118
2.3257139 0.11262207 3.2752395 994118
2.3747089 0.11262903 3.2754414 860993
2.4250705 0.11263618 3.2756493 926529
2.4754388 0.11264332 3.2758572 927556
2.5244522 0.11265029 3.2760594 993091
2.5748334 0.11265742 3.2762673 859966
2.6034305 0.11266148 3.2763853 859709
1.9815742 0.11247897 3.3518445 2039583
2.0247316 0.11248508 3.3520269 2039583
2.074856 0.11249219 3.3522387 4144959
2.1249871 0.11249927 3.3524504 1848139
2.1751239 0.11250639 3.3526623 927298
2.2252676 0.11251351 3.3528743 862019
2.2754173 0.11252061 3.3530858 928068
2.3255732 0.11252773 3.3532977 928325
2.3757355 0.11253484 3.3535097 928582
2.4259045 0.11254195 3.3537219 861250
2.4760799 0.11254907 3.3539336 926786
2.5262613 0.11255617 3.3541455 992579
2.5750546 0.1125631 3.354352 1059141
2.6238546 0.11257002 3.354558 860480
2.6587145 0.11257496 3.3547051 794173
2.0300782 0.11238694 3.4338896 2039583
2.0742948 0.11239319 3.4340808 2039583
2.1256495 0.11240046 3.434303 3158838
2.1755843 0.11240756 3.4345193 927555
2.2255251 0.11241463 3.4347355 993091
2.2754724 0.11242169 3.4349511 862019
2.3254254 0.11242877 3.435168 862276
2.3753853 0.11243585 3.435384 993605
2.4253511 0.11244292 3.4356005 928582
2.4753237 0.11245 3.4358165 927300
2.5253022 0.11245707 3.4360328 927043
2.5752873 0.11246416 3.4362497 1058115
2.6252785 0.11247124 3.4364657 993092
2.675276 0.11247832 3.436682 926786
2.716707 0.11248419 3.4368613 728894
2.081013 0.1122901 3.5200462 2039583
2.1248798 0.11229631 3.5202403 2039583
2.1746013 0.11230334 3.5204608 1909029
2.224329 0.11231039 3.5206814 993091
2.2740633 0.11231743 3.5209029 1059140
2.3238034 0.11232446 3.5211234 862018
2.3750136 0.11233171 3.5213501 796483
2.4262297 0.11233896 3.5215769 993605
2.4759891 0.112346 3.5217979 928325
2.5257549 0.11235303 3.5220196 993093
2.5755267 0.11236007 3.5222399 927043
2.6253052 0.11236714 3.5224607 927556
2.6750896 0.11237417 3.5226815 992835
2.7248797 0.11238122 3.5229027 992836
2.7746792 0.11238837 3.5231268 794944
2.8010464 0.11239216 3.5232456 925246
2.1330731 0.11218827 3.6106367 2039583
2.1750717 0.1121942 3.6108277 2039583
2.224576 0.11220121 3.611053 1974048
2.2755866 0.11220842 3.611285 992834
2.3251035 0.11221541 3.6115103 1059140
2.3746264 0.11222241 3.6117353 862019
2.425657 0.11222964 3.6119678 861763
2.4751921 0.11223663 3.6121936 862276
2.5247338 0.11224363 3.6124184 862020
2.5757833 0.11225086 3.6126509 862276
2.6253374 0.11225787 3.6128764 860737
2.6748979 0.11226487 3.613102 861250
2.7244644 0.11227188 3.6133275 993349
2.7740359 0.11227883 3.6135516 927043
2.8251171 0.11228605 3.6137836 860994
2.8626809 0.11229136 3.6139545 860223
2.1848004 0.11208042 3.705992 2039583
2.2248323 0.11208607 3.7061787 2039583
2.2756469 0.11209325 3.7064164 2039583
2.3249278 0.11210021 3.7066464 1123388
2.3742149 0.11210717 3.7068765 993605
2.4250491 0.11211435 3.7071142 927555
2.4758892 0.11212154 3.7073514 927299
2.5251954 0.11212848 3.707581 861763
