# .PCD v0.7 - Point Cloud Data file format
VERSION 0.7
FIELDS x y z rgb
SIZE 4 4 4 4
TYPE F F F U
COUNT 1 1 1 1
WIDTH 1188
HEIGHT 1
VIEWPOINT 0 0 0 1 0 0 0
POINTS 1188
DATA ascii
0.025491342 0.10307593 2.6752968 10197915
0.075357154 0.1030627 2.674953 10197915
0.12520999 0.10304939 2.6746078 10197915
0.17505006 0.1030361 2.6742628 10197915
0.22487725 0.10302284 2.6739194 10197915
0.27469161 0.10300955 2.673573 10197915
0.32449305 0.10299627 2.673229 10197915
0.37538815 0.10298271 2.672878 10197915
0.42516366 0.10296946 2.6725321 10197915
0.47492644 0.10295619 2.6721885 10197915
0.52467644 0.10294294 2.6718447 10197915
0.57441336 0.10292967 2.6715009 10197915
0.62524271 0.10291616 2.67115 10197915
0.67495394 0.10290289 2.6708059 10197915
0.72465217 0.10288963 2.6704607 10197915
0.77544206 0.10287613 2.6701105 10197915
0.82511449 0.10286286 2.6697664 10197915
0.8747741 0.10284963 2.6694224 10197915
0.92552459 0.10283614 2.6690722 10197915
0.97515845 0.10282289 2.6687286 10197915
1.0247798 0.10280966 2.6683855 10197915
1.0754906 0.10279616 2.6680355 10197915
1.1250857 0.10278294 2.6676912 10197915
1.1746683 0.10276973 2.6673486 10197915
1.2253399 0.10275624 2.6669993 10197915
1.2748965 0.10274298 2.6666555 10197915
1.324441 0.10272983 2.6663129 10197915
1.3750727 0.10271633 2.6659625 10197915
1.4256912 0.1027028 2.6656115 10197915
1.475197 0.10268965 2.6652713 10197915
1.5246894 0.10267644 2.6649282 10197915
1.5752686 0.10266297 2.6645782 10197915
1.6247363 0.1026498 2.664237 10197915
1.6741902 0.10263661 2.6638944 10197915
1.7247307 0.10262316 2.6635454 10197915
1.7752575 0.10260969 2.6631961 10000536
1.8257709 0.10259622 2.6628458 2039583
1.8751743 0.10258307 2.6625051 2039583
1.9179795 0.10257165 2.6622083 2039583
-0.35291773 0.10293434 2.7303386 2960685
-0.32574826 0.10292724 2.73015 4276545
-0.27594569 0.10291397 2.7297983 10197915
-0.22502464 0.10290045 2.7294395 10197915
-0.17411685 0.10288692 2.7290804 10197915
-0.12435332 0.10287368 2.728729 10197915
-0.074602619 0.10286047 2.7283788 10197915
-0.024864698 0.10284724 2.7280281 10197915
0.024860434 0.10283399 2.7276769 10197915
0.074572809 0.10282081 2.7273276 10197915
0.12427237 0.10280759 2.7269762 10197915
0.17508818 0.10279404 2.7266173 10197915
0.22589087 0.10278058 2.7262602 10197915
0.27555153 0.10276736 2.7259092 10197915
0.3251994 0.10275414 2.725559 10197915
0.37483472 0.10274098 2.72521 10197915
0.4244571 0.10272776 2.7248595 10197915
0.47519407 0.1027143 2.7245011 10197915
0.52591801 0.10270082 2.7241442 10197915
0.57550144 0.1026876 2.723794 10197915
0.62507242 0.10267443 2.7234445 10197915
0.67463082 0.10266126 2.7230959 10197915
0.72417605 0.10264809 2.7227454 10197915
0.77483445 0.10263462 2.7223885 10197915
0.82547957 0.10262115 2.7220316 10197915
0.87498629 0.10260797 2.7216818 10197915
0.9244805 0.10259484 2.7213335 10197915
0.97508627 0.10258139 2.7209761 10197915
1.0256786 0.10256793 2.7206192 10197915
1.0751345 0.1025548 2.7202716 10197915
1.124577 0.10254164 2.7199225 10197915
1.1751301 0.10252819 2.7195652 10197915
1.2256707 0.10251479 2.7192099 10197915
1.2750747 0.10250162 2.7188609 10197915
1.3244659 0.10248849 2.7185123 10197915
1.3749675 0.10247508 2.7181568 10197915
1.425455 0.10246163 2.7178004 10197915
1.4748077 0.10244851 2.717452 10197915
1.5252699 0.10243512 2.7170968 10197915
1.5757191 0.10242176 2.7167425 10197915
1.625035 0.10240876 2.7163975 10197915
1.6743369 0.10239562 2.7160492 10197915
1.724746 0.10238223 2.7156932 10197915
1.7751428 0.10236886 2.7153387 10197915
1.8244058 0.10235573 2.7149909 7763574
1.8747759 0.10234234 2.7146354 2039583
1.9251335 0.10232897 2.7142808 2039583
1.9620533 0.10231913 2.71402 2039583
-0.35650799 0.10268352 2.7848921 2960685
-0.32533109 0.10267524 2.7846677 5263440
-0.2745342 0.10266174 2.7843013 10197915
-0.22490475 0.10264861 2.7839451 10197915
-0.17528807 0.10263546 2.7835882 10197915
-0.12453056 0.10262197 2.7832224 10197915
-0.074939549 0.10260885 2.7828667 10197915
-0.025361286 0.10259569 2.7825098 10197915
0.025356846 0.10258221 2.7821445 10197915
0.074909523 0.1025691 2.7817888 10197915
0.12444936 0.10255595 2.7814322 10197915
0.17512821 0.10254247 2.7810671 10197915
0.22579385 0.10252909 2.7807038 10197915
0.27529514 0.10251595 2.7803469 10197915
0.32478362 0.10250278 2.7799902 10197915
0.37541011 0.1024894 2.7796273 10197915
0.42487299 0.10247628 2.7792714 10197915
0.47432318 0.10246313 2.7789152 10197915
0.52491063 0.10244977 2.7785521 10197915
0.5754844 0.10243633 2.7781878 10197915
0.62489617 0.10242321 2.777832 10197915
0.67429537 0.10241015 2.7774775 10197915
0.72483021 0.10239673 2.7771132 10197915
0.7753517 0.10238332 2.7767503 10197915
0.8258602 0.10236993 2.7763872 10197915
0.8752079 0.10235684 2.7760317 10197915
0.92454302 0.10234375 2.775677 10197915
0.9750126 0.10233039 2.7753146 10197915
1.0254685 0.10231698 2.774951 10197915
1.0759116 0.10230362 2.7745886 10197915
1.1251955 0.10229055 2.7742338 10197915
1.1744665 0.10227747 2.7738793 10197915
1.2248707 0.1022641 2.7735169 10197915
1.2752616 0.10225076 2.7731547 10197915
1.3256391 0.10223737 2.7727919 10197915
1.3748595 0.10222433 2.7724385 10197915
1.4240667 0.10221128 2.7720842 10197915
1.4744053 0.10219791 2.7717218 10197915
1.5247314 0.10218459 2.7713606 10197915
1.5750438 0.10217123 2.7709982 10197915
1.6253433 0.10215792 2.7706366 10197915
1.6756295 0.10214458 2.7702754 10197915
1.725903 0.10213124 2.7699132 10197915
1.7750206 0.10211822 2.7695603 10197915
1.8241264 0.10210522 2.7692072 10197915
1.87436 0.10209186 2.7688453 5526612
1.9245816 0.10207855 2.7684848 2039583
1.9747901 0.10206524 2.7681236 2039583
2.0067341 0.10205675 2.7678936 2039583
-0.36024371 0.10242221 2.8416624 2960685
-0.32489645 0.10241284 2.8414023 6250335
-0.27424264 0.10239942 2.8410301 10197915
-0.22477974 0.10238637 2.840668 10197915
-0.17532946 0.10237327 2.8403049 10197915
-0.1247149 0.10235986 2.8399327 10197915
-0.074113518 0.1023465 2.8395627 10197915
-0.024701698 0.10233343 2.8391993 10197915
0.024697486 0.10232034 2.8388362 10197915
0.075259753 0.10230699 2.8384659 10197915
0.12580886 0.1022936 2.8380949 10197915
0.17516959 0.10228053 2.8377318 10197915
0.22451779 0.10226752 2.8373702 10197915
0.27502778 0.10225414 2.8369997 10197915
0.32552469 0.10224076 2.8366284 10197915
0.3748346 0.10222775 2.836267 10197915
0.42530525 0.10221438 2.8358965 10197915
0.47576281 0.10220102 2.835526 10197915
0.52503449 0.10218803 2.8351648 10197915
0.57429332 0.10217497 2.8348031 10197915
0.62471181 0.1021616 2.8344324 10197915
0.67511773 0.10214832 2.8340633 10197915
0.72433823 0.10213529 2.8337016 10197915
0.77471739 0.10212193 2.8333316 10197915
0.82508439 0.10210865 2.8329628 10197915
0.87426668 0.10209563 2.8326015 10197915
0.92460668 0.10208227 2.8322313 10197915
0.97493452 0.10206901 2.8318632 10197915
1.0252484 0.10205567 2.8314936 10197915
1.0755494 0.10204235 2.8311231 10197915
1.1246685 0.10202941 2.8307643 10197915
1.1749431 0.10201608 2.8303945 10197915
1.2252051 0.10200277 2.8300252 10197915
1.2754545 0.1019895 2.8296576 10197915
1.3256902 0.1019762 2.829288 10197915
1.3747447 0.1019632 2.8289275 10197915
1.4249552 0.10194996 2.8285601 10197915
1.4751519 0.10193666 2.828191 10197915
1.5253357 0.10192339 2.8278227 10197915
1.5755088 0.10191029 2.8274589 10197915
1.6244999 0.1018973 2.8270991 10197915
1.6746453 0.10188406 2.8267317 10197915
1.7247775 0.10187079 2.8263636 10197915
1.7748959 0.1018575 2.8259947 10197915
1.8250022 0.10184429 2.825628 10197915
1.8750947 0.10183103 2.8252604 10197915
1.9251744 0.10181774 2.824892 3355443
1.9752414 0.10180455 2.8245256 2039583
2.0252953 0.10179129 2.8241572 2039583
2.052063 0.1017842 2.823961 2039583
-0.25350019 0.10212091 2.8999691 10197915
-0.22464991 0.10211336 2.8997543 10197915
-0.17417115 0.10210001 2.8993757 10197915
-0.12490696 0.102087 2.8990061 10197915
-0.075655423 0.10207404 2.8986382 10197915
-0.025215551 0.10206071 2.8982599 10197915
0.025211165 0.10204738 2.8978813 10197915
0.075624757 0.10203414 2.8975046 10197915
0.12482537 0.10202114 2.897136 10197915
0.17401336 0.10200814 2.8967667 10197915
0.2243882 0.10199489 2.8963902 10197915
0.27474985 0.1019816 2.8960125 10197915
0.32509834 0.10196829 2.8956349 10197915
0.37543386 0.10195503 2.8952587 10197915
0.4257561 0.10194174 2.8948812 10197915
0.47486764 0.10192877 2.8945124 10197915
0.52396685 0.10191585 2.8941455 10197915
0.57425046 0.10190257 2.8937688 10197915
0.62452096 0.10188928 2.8933916 10197915
0.67477846 0.10187604 2.8930156 10197915
0.72502291 0.1018628 2.8926394 10197915
0.77525413 0.10184951 2.8922622 10197915
0.82547253 0.10183629 2.8918867 10197915
0.87567765 0.10182305 2.8915105 10197915
0.9258697 0.10180978 2.8911335 10197915
0.97604877 0.10179656 2.8907585 10197915
1.0250207 0.10178366 2.8903918 10197915
1.0739799 0.10177072 2.8900244 10197915
1.1241205 0.1017575 2.8896489 10197915
1.1742481 0.10174429 2.8892739 10197915
1.2243624 0.10173102 2.8888977 10197915
1.2744642 0.10171784 2.8885226 10197915
1.3245528 0.10170463 2.8881476 10197915
1.3746278 0.10169138 2.8877718 10197915
1.4246904 0.1016782 2.8873973 10197915
1.47474 0.10166501 2.8870223 10197915
1.5247761 0.10165177 2.8866467 10197915
1.5748004 0.10163864 2.8862734 10197915
1.6248106 0.10162541 2.8858981 10197915
1.6748078 0.1016122 2.8855228 10197915
1.7247928 0.10159906 2.8851497 10197915
1.7747639 0.10158585 2.8847744 10197915
1.8247221 0.10157265 2.8843999 10197915
1.8746687 0.10155951 2.8840265 10197915
1.9246007 0.10154632 2.883652 10000536
1.97452 0.10153313 2.8832777 2039583
2.0244281 0.10152 2.8829048 2039583
2.0731335 0.10150713 2.8825393 2039583
-0.36413544 0.10215016 2.9007995 2960685
-0.32564682 0.10213999 2.9005105 7039851
-0.27874863 0.10212759 2.9001586 10197915
1.27952 0.10143285 2.9498379 10197915
1.3245828 0.10142104 2.9494946 10197915
1.3745041 0.10140789 2.9491119 10197915
1.4256293 0.1013944 2.9487202 10197915
1.4755256 0.10138134 2.9483395 10197915
1.5254087 0.10136829 2.9479604 10197915
1.5752795 0.10135522 2.9475799 10197915
1.6251363 0.10134213 2.9471996 10197915
1.6749799 0.10132898 2.9468169 10197915
1.7248108 0.10131589 2.9464362 10197915
1.7746289 0.10130279 2.9460557 10197915
1.8244338 0.10128967 2.9456739 10197915
1.8754404 0.10127625 2.9452832 10197915
1.9252199 0.10126318 2.9449031 10197915
1.9749854 0.10125006 2.9445221 8421504
2.0247388 0.10123695 2.9441411 2039583
2.0744796 0.10122391 2.9437613 2039583
2.120569 0.10121176 2.9434083 2039583
-0.36819214 0.1018664 2.9624465 2960685
-0.3252005 0.10185506 2.9621167 8092539
-0.27485064 0.10184179 2.9617305 10197915
-0.22574177 0.10182893 2.9613564 10197915
-0.17541791 0.10181566 2.9609706 10197915
-0.12510708 0.10180239 2.9605849 10197915
-0.074809507 0.1017892 2.9602017 10197915
-0.024524849 0.10177596 2.9598157 10197915
0.024520695 0.10176303 2.9594402 10197915
0.074779436 0.10174984 2.9590564 10197915
0.1250252 0.10173663 2.9586718 10197915
0.1752578 0.10172339 2.958287 10197915
0.2254775 0.1017102 2.9579031 10197915
0.27445969 0.10169731 2.9575286 10197915
0.32465348 0.10168408 2.957144 10197915
0.37483436 0.1016709 2.9567609 10197915
0.4250021 0.10165771 2.956377 10197915
0.47515684 0.10164449 2.9559925 10197915
0.5252986 0.1016313 2.9556091 10197915
0.57542741 0.10161813 2.9552264 10197915
0.62554306 0.10160492 2.9548421 10197915
0.67564583 0.10159174 2.9544587 10197915
0.72451413 0.10157891 2.9540854 10197915
0.77459091 0.10156571 2.9537015 10197915
0.82465494 0.10155253 2.9533186 10197915
0.87470627 0.1015394 2.9529369 10197915
0.92474431 0.10152622 2.952553 10197915
0.97476923 0.10151304 2.9521699 10197915
1.0247819 0.10149992 2.9517884 10197915
1.0747808 0.10148673 2.9514048 10197915
1.1247667 0.10147357 2.9510221 10197915
1.1747407 0.10146047 2.9506412 10197915
1.2247007 0.10144731 2.9502578 10197915
1.2539401 0.1014396 2.9500339 10197915
-0.37242544 0.10157046 3.0267739 2960685
-0.32598999 0.10155825 3.0264103 9079434
-0.27580199 0.10154507 3.0260177 10197915
-0.22562714 0.10153196 3.0256267 10197915
-0.17546508 0.10151877 3.0252337 10197915
-0.1253161 0.1015056 3.0248411 10197915
-0.075180158 0.10149249 3.0244505 10197915
-0.025057163 0.10147933 3.0240581 10197915
0.025052831 0.10146616 3.0236659 10197915
0.075149879 0.10145304 3.0232749 10197915
0.12523392 0.10143989 3.0228834 10197915
0.17530493 0.10142674 3.0224915 10197915
0.22536311 0.10141363 3.0221004 10197915
0.27540824 0.10140049 3.0217099 10197915
0.32544035 0.10138737 3.021318 10197915
0.37545961 0.10137425 3.020927 10197915
0.42546606 0.10136114 3.0205367 10197915
0.47545928 0.10134802 3.0201449 10197915
0.52543968 0.10133489 3.0197542 10197915
0.57540733 0.10132182 3.0193648 10197915
0.6253618 0.1013087 3.0189736 10197915
0.67530322 0.10129558 3.0185826 10197915
0.72523236 0.10128252 3.0181937 10197915
0.77514803 0.10126941 3.0178027 10197915
0.82505071 0.1012563 3.0174119 10197915
0.87494105 0.10124324 3.0170231 10197915
0.92481816 0.10123016 3.0166328 10197915
0.97468215 0.10121705 3.016242 10197915
1.0245337 0.10120399 3.0158536 10197915
1.0743723 0.10119092 3.0154641 10197915
1.1241974 0.10117783 3.0150738 10197915
1.1740105 0.10116477 3.0146849 10197915
1.2250552 0.10115138 3.014286 10197915
1.2760861 0.101138 3.0138865 10197915
1.3258597 0.10112493 3.0134976 10197915
1.3756206 0.1011119 3.0131092 10197915
1.4253682 0.10109882 3.0127196 10197915
1.475103 0.10108578 3.0123305 10197915
1.5248257 0.10107277 3.0119431 10197915
1.5745345 0.1010597 3.0115535 10197915
1.6242316 0.1010467 3.0111661 10197915
1.675157 0.10103334 3.0107682 10197915
1.7260687 0.10101996 3.0103691 10197915
1.7757266 0.10100696 3.0099814 10197915
1.8253711 0.10099393 3.0095935 10197915
1.8750025 0.10098089 3.0092053 10197915
1.9246218 0.10096787 3.0088172 10197915
1.9742285 0.10095489 3.0084302 10197915
2.0250611 0.10094153 3.0080321 7237230
2.0758805 0.10092819 3.0076351 2039583
2.1254487 0.10091522 3.0072484 2039583
2.1688092 0.10090383 3.0069084 2039583
2.2423368 -1.3673623 3.0949287 2039583
2.2514119 -1.3656945 3.0894895 2039583
2.2425764 -1.3249508 3.0949883 2039583
2.251471 -1.3414106 3.0895703 2039583
2.2427182 -1.2750181 3.0951426 2039583
2.2426081 -1.2255812 3.0954466 2039583
2.2500145 -1.2076061 3.0910866 2039583
2.2420397 -1.1750621 3.0960302 2039583
2.250093 -1.1756315 3.0911939 2039583
2.2423577 -1.1256366 3.096076 2039583
2.250217 -1.124468 3.0913646 2039583
2.2431688 -1.0749679 3.0958328 2039583
2.2503383 -1.0745778 3.0915313 2039583
2.2433417 -1.0250038 3.0959687 2039583
2.2504594 -1.0246826 3.0916977 2039583
2.2434111 -0.97503328 3.096168 2039583
2.250581 -0.97478193 3.0918646 2039583
2.2435842 -0.92505902 3.0963032 2039583
2.2507021 -0.92487574 3.092031 2039583
2.2436531 -0.87507671 3.0965016 2039583
2.2508233 -0.87496424 3.0921979 2039583
2.2438262 -0.82509273 3.096638 2039583
2.2509446 -0.82504731 3.0923645 2039583
2.2445743 -0.77560121 3.0964255 2039583
2.2510664 -0.77512497 3.0925314 2039583
2.244976 -0.725012 3.0964282 2039583
2.2511878 -0.72519743 3.0926981 2039583
2.2450204 -0.67501032 3.0966413 2039583
2.2513092 -0.6752643 3.092865 2039583
2.2452183 -0.62502021 3.0967622 2039583
2.2514305 -0.62532598 3.0930316 2039583
2.2452629 -0.57500637 3.0969756 2039583
2.2515521 -0.57538217 3.0931985 2039583
2.2454612 -0.52500671 3.0970972 2039583
2.2516732 -0.52543294 3.0933654 2039583
2.2453165 -0.47716722 3.0974131 2039583
2.2500381 -0.4641104 3.0946414 2039583
2.2456658 -0.42475167 3.0974543 2039583
2.2501345 -0.42438418 3.0947745 2039583
2.2457876 -0.37472564 3.0976224 2039583
2.2502563 -0.37440133 3.0949414 2039583
2.245909 -0.32469431 3.0977893 2039583
2.2503774 -0.32441321 3.0951085 2039583
2.2460301 -0.27465737 3.0979571 2039583
2.2504988 -0.27441961 3.0952759 2039583
2.2461517 -0.22461505 3.0981243 2039583
2.2506204 -0.22442062 3.0954423 2039583
2.2462733 -0.17456733 3.0982919 2039583
2.2507415 -0.17441621 3.0956094 2039583
2.247226 -0.1248927 3.0979574 2039583
2.2508633 -0.12440649 3.0957766 2039583
2.2474101 -0.074442849 3.0980897 2039583
2.2509847 -0.074391291 3.0959437 2039583
2.2475317 -0.02438763 3.0982566 2039583
2.2511063 -0.024370736 3.0961111 2039583
2.2476504 0.024389341 3.0984199 2039583
2.2512252 0.024372447 3.0962741 2039583
2.2477717 0.074455284 3.0985875 2039583
2.2513463 0.074403703 3.0964413 2039583
-0.40122491 0.10126763 3.0941484 2960685
-0.37556309 0.1012609 3.0939429 2960685
-0.32553142 0.10124779 3.0935426 10197915
-0.27551267 0.1012347 3.0931427 10197915
-0.22550707 0.10122166 3.0927439 10197915
-0.1755141 0.10120856 3.092344 10197915
-0.12553421 0.10119547 3.091944 10197915
-0.075567149 0.10118245 3.0915463 10197915
-0.025613064 0.10116936 3.0911465 10197915
0.025608536 0.10115595 3.0907362 10197915
0.075536631 0.10114294 3.0903385 10197915
0.12545167 0.10112987 3.0899391 10197915
0.17535396 0.1011168 3.0895398 10197915
0.22524326 0.10110376 3.0891416 10197915
0.27511987 0.10109073 3.0887434 10197915
0.32498336 0.10107766 3.0883446 10197915
0.37483415 0.10106462 3.0879459 10197915
0.42467213 0.10105163 3.0875487 10197915
0.47449714 0.10103857 3.0871499 10197915
0.5243091 0.10102554 3.086751 10197915
0.57538545 0.10101222 3.0863445 10197915
0.6251716 0.10099918 3.0859458 10197915
0.67494476 0.10098612 3.0855477 10197915
0.72470552 0.10097315 3.085151 10197915
0.77445316 0.10096014 3.0847533 10197915
0.82546294 0.10094677 3.0843453 10197915
0.87518489 0.10093378 3.0839481 10197915
0.92489386 0.1009208 3.0835516 10197915
0.97458982 0.10090778 3.0831535 10197915
1.024273 0.10089479 3.0827565 10197915
1.0752175 0.10088149 3.0823505 10197915
1.1248747 0.10086849 3.0819528 10197915
1.1745191 0.10085548 3.0815558 10197915
1.2254238 0.10084222 3.0811503 10197915
1.2750425 0.10082922 3.0807533 10197915
1.3246479 0.10081621 3.0803561 10197915
1.3755133 0.10080296 3.0799508 10197915
1.4250932 0.10078998 3.0795543 10197915
1.4746612 0.10077707 3.0791595 10197915
1.5254883 0.1007639 3.0787578 10197915
1.5750297 0.10075092 3.0783608 10197915
1.6245582 0.10073794 3.0779648 10197915
1.6753445 0.10072471 3.0775602 10197915
1.7248474 0.10071174 3.0771639 10197915
1.7743374 0.10069878 3.0767679 10197915
1.8250841 0.10068555 3.0763633 10197915
1.8758171 0.10067227 3.0759575 10197915
1.9252681 0.10065932 3.0755618 10197915
1.9747074 0.1006464 3.0751674 10197915
2.0254006 0.10063316 3.0747623 10197915
2.0748134 0.1006202 3.074367 6513507
2.1242146 0.10060729 3.0739727 2039583
2.1748691 0.10059406 3.0735683 2039583
2.2179139 0.10058279 3.0732238 2039583
2.1620984 -1.4031224 3.142921 2039583
2.1752338 -1.3748157 3.1351709 2039583
2.2166893 -1.3708012 3.1103072 2039583
2.1755762 -1.3250402 3.1352034 2039583
2.2174394 -1.3250177 3.1100769 2039583
2.175771 -1.2748871 3.1353242 2039583
2.2176232 -1.275106 3.1102064 2039583
2.1758404 -1.2249187 3.135529 2039583
2.2176251 -1.2250564 3.110445 2039583
2.1768074 -1.1751032 3.1351838 2039583
2.2178538 -1.1749318 3.1105487 2039583
2.1769984 -1.125018 3.135313 2039583
2.2180934 -1.1247853 3.1106455 2039583
2.17711 -1.0750659 3.1354859 2039583
2.2189288 -1.0749415 3.1103835 2039583
2.1763549 -1.0250347 3.1361761 2039583
2.2182746 -1.0249096 3.1110165 2039583
2.1764023 -0.97493762 3.136394 2039583
2.2181983 -0.97506076 3.1113009 2039583
2.1765254 -0.92503911 3.136555 2039583
2.2184505 -0.92496729 3.1113894 2039583
2.1770759 -0.87520093 3.1364641 2039583
2.2185631 -0.87498528 3.1115632 2039583
2.1776781 -0.82497525 3.136343 2039583
2.2186322 -0.82500207 3.1117606 2039583
2.1778157 -0.77509874 3.1364994 2039583
2.2194312 -0.77475017 3.111522 2039583
2.1779563 -0.72500437 3.1366587 2039583
2.2199101 -0.72498673 3.1114731 2039583
2.1780009 -0.67495662 3.1368699 2039583
2.2197852 -0.67498493 3.1117902 2039583
2.1781516 -0.62501055 3.1370173 2039583
2.2200677 -0.62491834 3.1118605 2039583
2.1783867 -0.57495356 3.1371202 2039583
2.2201793 -0.57502127 3.1120317 2039583
2.1791449 -0.52516055 3.1369014 2039583
2.2202163 -0.52505869 3.1122501 2039583
2.1794496 -0.47514525 3.1369572 2039583
2.2207069 -0.4747127 3.1121964 2039583
2.1796045 -0.42499483 3.1371064 2039583
2.2214687 -0.42512086 3.1119773 2039583
2.1795456 -0.37489334 3.1373847 2039583
2.2214592 -0.37508592 3.1122246 2039583
2.1797662 -0.32495359 3.1374903 2039583
2.2216241 -0.3249304 3.112365 2039583
2.1795449 -0.27506751 3.1378591 2039583
2.2213936 -0.27483499 3.1127448 2039583
2.1793668 -0.22516799 3.138212 2039583
2.2206812 -0.2251143 3.1134093 2039583
2.1800764 -0.17544064 3.1380243 2039583
2.2213535 -0.17483392 3.1132476 2039583
2.180068 -0.12517245 3.138267 2039583
2.2220523 -0.12505254 3.1130669 2039583
2.1805809 -0.07455387 3.1382055 2039583
2.2222185 -0.074806094 3.1132088 2039583
2.1804776 -0.024704428 3.1385052 2039583
2.2223396 -0.024506655 3.1133778 2039583
2.1805937 0.024706205 3.1386719 2039583
2.2224565 0.024508379 3.1135426 2039583
2.1809337 0.074566312 3.1387129 2039583
2.222578 0.074818715 3.1137111 2039583
1.3767029 0.10047977 3.1498184 10197915
1.4248081 0.10046726 3.1494265 10197915
1.4754995 0.10045403 3.1490114 10197915
1.5248791 0.10044117 3.1486082 10197915
1.5742458 0.10042832 3.1482055 10197915
1.6248982 0.10041509 3.1477907 10197915
1.6755375 0.10040189 3.1473765 10197915
1.7248662 0.10038906 3.1469746 10197915
1.774181 0.10037618 3.1465712 10197915
1.8247807 0.10036297 3.1461568 10197915
1.8753685 0.10034983 3.145745 10197915
1.9246448 0.10033697 3.1453419 10197915
1.9752048 0.10032376 3.1449277 10197915
2.025753 0.10031062 3.1445155 10197915
2.0749912 0.10029778 3.1441133 10197915
2.1242166 0.10028493 3.1437104 6118749
2.1696057 0.10021617 3.1415551 2039583
2.0830424 -1.4137956 3.1903243 2039583
2.1219423 -1.4084728 3.1669989 2039583
2.0840473 -1.3749424 3.1899066 2039583
2.1254864 -1.3749467 3.1650329 2039583
2.0841773 -1.3249501 3.1900685 2039583
2.1256161 -1.3249965 3.165195 2039583
2.0843322 -1.2751092 3.1902161 2039583
2.1257482 -1.2750422 3.165355 2039583
2.0843837 -1.2251074 3.190424 2039583
2.1251009 -1.2250839 3.1659842 2039583
2.1500463 -1.2218844 3.1510255 2039583
2.0845141 -1.1750218 3.1905859 2039583
2.1249704 -1.1749717 3.1663024 2039583
2.1510081 -1.1741593 3.150677 2039583
2.0845926 -1.1250091 3.1907799 2039583
2.1251402 -1.1250342 3.16644 2039583
2.1512222 -1.1245611 3.1507869 2039583
2.0856488 -1.0750574 3.1903849 2039583
2.1252537 -1.0750917 3.1666112 2039583
2.1513155 -1.0743523 3.1509721 2039583
2.0853367 -1.0254005 3.1908116 2039583
2.1248653 -1.0248439 3.1670871 2039583
2.1514304 -1.0248016 3.1511402 2039583
2.0849388 -0.9750101 3.1912923 2039583
2.1245673 -0.97501081 3.1675034 2039583
2.1515458 -0.97524554 3.1513093 2039583
2.0851038 -0.92499673 3.1914318 2039583
2.1247368 -0.92495191 3.1676428 2039583
2.1516612 -0.92568398 3.1514781 2039583
2.0852175 -0.87506604 3.1916056 2039583
2.1247313 -0.87493634 3.1678858 2039583
2.1521854 -0.87310243 3.1514149 2039583
2.085289 -0.8250404 3.1918015 2039583
2.1248791 -0.82501197 3.1680377 2039583
2.1528528 -0.82467043 3.151247 2039583
2.0856886 -0.77528071 3.1918004 2039583
2.1249895 -0.77503371 3.1682096 2039583
2.1529386 -0.77422225 3.1514382 2039583
2.086477 -0.72486389 3.1915689 2039583
2.1251919 -0.72505021 3.1683288 2039583
2.1530538 -0.72464806 3.1516061 2039583
2.0865963 -0.67484462 3.1917377 2039583
2.1252346 -0.67506111 3.1685426 2039583
2.1531694 -0.67506891 3.1517756 2039583
2.0867174 -0.6248197 3.1919055 2039583
2.1254003 -0.62501884 3.1686842 2039583
2.1532848 -0.62548429 3.1519439 2039583
2.0868776 -0.57488465 3.192049 2039583
2.125479 -0.57497162 3.1688778 2039583
2.1533999 -0.575894 3.1521132 2039583
2.0869634 -0.52494442 3.1922369 2039583
2.125598 -0.52501512 3.1690459 2039583
2.1543 -0.52436644 3.1518204 2039583
2.0869834 -0.47490281 3.1924648 2039583
2.1256685 -0.47510144 3.1692426 2039583
2.154598 -0.47433934 3.1518815 2039583
2.087738 -0.42522919 3.1922503 2039583
2.1249566 -0.425235 3.1699088 2039583
2.1538324 -0.42399707 3.1525819 2039583
2.088176 -0.37477255 3.1922295 2039583
2.1249733 -0.37516192 3.1701396 2039583
2.1538663 -0.37486953 3.1527979 2039583
2.0882957 -0.3247385 3.1923971 2039583
2.1251159 -0.32512051 3.1702945 2039583
2.1539822 -0.32525259 3.152966 2039583
2.0884078 -0.27490216 3.1925688 2039583
2.125283 -0.27497387 3.1704359 2039583
2.1540978 -0.27563041 3.153136 2039583
2.0885897 -0.2252689 3.1926982 2039583
2.1254306 -0.22477232 3.1705878 2039583
2.1545062 -0.22473642 3.1531351 2039583
2.087981 -0.17591575 3.193301 2039583
2.1246204 -0.17461583 3.1713138 2039583
2.1552963 -0.17482306 3.1529005 2039583
2.0878654 -0.12579697 3.1936111 2039583
2.1245902 -0.12482442 3.1715717 2039583
2.155375 -0.12409732 3.1530957 2039583
2.0888839 -0.075406313 3.1932409 2039583
2.1247046 -0.074898578 3.1717422 2039583
2.1554909 -0.074462295 3.1532643 2039583
2.0889976 -0.025136653 3.193414 2039583
2.1248193 -0.024967398 3.1719139 2039583
2.1556063 -0.024821946 3.1534336 2039583
2.0891109 0.025138471 3.1935883 2039583
2.1249359 0.024969194 3.1720839 2039583
2.1557221 0.024823723 3.1536028 2039583
2.0892241 0.075419053 3.1937611 3947580
2.1250494 0.074911177 3.1722541 3421236
2.1558375 0.074474715 3.1537716 2039583
-0.4064005 0.10094464 3.164391 2960685
-0.37621936 0.10093676 3.164144 4079166
-0.32505253 0.1009234 3.1637249 10197915
-0.27389926 0.10091008 3.1633067 10197915
-0.2240707 0.1008971 3.1629004 10197915
-0.17425489 0.10088409 3.162493 10197915
-0.12445188 0.10087109 3.1620855 10197915
-0.074661769 0.10085815 3.16168 10197915
-0.024884403 0.10084517 3.1612723 10197915
0.02488013 0.10083216 3.1608651 10197915
0.074631877 0.10081923 3.1604595 10197915
0.12437084 0.10080627 3.160053 10197915
0.17409694 0.10079327 3.1596458 10197915
0.22511831 0.10077997 3.1592293 10197915
0.27612638 0.10076671 3.158813 10197915
0.3258135 0.10075373 3.1584063 10197915
0.37548774 0.10074077 3.158 10197915
0.42514956 0.10072786 3.1575956 10197915
0.47479829 0.1007149 3.1571891 10197915
0.52443427 0.10070194 3.1567831 10197915
0.57405776 0.10068903 3.1563783 10197915
0.6249736 0.10067576 3.1559625 10197915
0.67587602 0.10066246 3.155545 10197915
0.72546053 0.10064954 3.1551406 10197915
0.77503228 0.10063664 3.1547363 10197915
0.82459116 0.1006237 3.1543305 10197915
0.87413728 0.10061078 3.1539249 10197915
0.92497444 0.10059756 3.1535108 10197915
0.97579777 0.1005843 3.1530948 10197915
1.0253049 0.10057137 3.1526897 10197915
1.0748001 0.1005585 3.1522863 10197915
1.124282 0.10054559 3.1518819 10197915
1.1750526 0.10053234 3.1514664 10197915
1.2258106 0.10051912 3.1510518 10197915
1.2752538 0.10050625 3.1506481 10197915
1.3246845 0.10049333 3.1502435 10197915
1.3519962 0.1004862 3.1500201 10197915
2.0304313 -1.4207652 3.2218723 2039583
2.0588834 -1.4167871 3.2048113 2039583
2.031354 -1.3749543 3.2215352 2039583
2.0592959 -1.3750588 3.2047646 2039583
2.0314138 -1.32491 3.2217422 2039583
2.0593731 -1.3251187 3.2049568 2039583
2.0315859 -1.2749279 3.2218776 2039583
2.0594962 -1.2750264 3.2051234 2039583
2.0311041 -1.2253289 3.222403 2039583
2.059068 -1.224146 3.2056251 2039583
2.0308225 -1.1750271 3.2228148 2039583
2.0587435 -1.1748155 3.2060571 2039583
2.0309765 -1.1249843 3.2229624 2039583
2.0588593 -1.125069 3.2062268 2039583
2.031004 -1.0749344 3.2231846 2039583
2.0599096 -1.0750694 3.2058361 2039583
2.0311086 -1.0248783 3.2233651 2039583
2.0600297 -1.025133 3.2060025 2039583
2.0312784 -0.97503126 3.2234991 2039583
2.0601501 -0.97495496 3.2061703 2039583
2.0313005 -0.92510706 3.2237272 2039583
2.0602887 -0.92489147 3.2063277 2039583
2.0314865 -0.87503517 3.223855 2039583
2.0604014 -0.87482393 3.206502 2039583
2.0316188 -0.82495964 3.2240186 2039583
2.0604839 -0.82499361 3.206691 2039583
2.0310376 -0.77494556 3.2253551 2039583
2.0608914 -0.77468467 3.2066877 2039583
2.0309932 -0.7250101 3.2252269 2039583
2.0616457 -0.72508329 3.2064724 2039583
2.030957 -0.67502332 3.2251685 2039583
2.0617921 -0.67508298 3.2066257 2039583
2.0310893 -0.62501496 3.2252946 2039583
2.0619369 -0.62507802 3.2067795 2039583
2.0311713 -0.57486844 3.2254875 2039583
2.0620835 -0.57506853 3.2069309 2039583
2.0311987 -0.52491891 3.2257109 2039583
2.0620625 -0.52494067 3.2071836 2039583
2.0313585 -0.47510278 3.225853 2039583
2.0621529 -0.47480676 3.2073698 2039583
2.0314717 -0.4250733 3.2260253 2039583
2.0629768 -0.42449281 3.2071168 2039583
2.0316079 -0.37522066 3.2261817 2039583
2.0633152 -0.37492466 3.2071512 2039583
2.0306678 -0.32493368 3.2269883 2039583
2.0626712 -0.32531747 3.2077763 2039583
2.0306671 -0.27484679 3.227231 2039583
2.0626626 -0.27511212 3.2080226 2039583
2.031177 -0.22526167 3.2271616 2039583
2.0627756 -0.22462067 3.2081962 2039583
2.0310378 -0.17516096 3.2274852 2039583
2.0627668 -0.1743999 3.2084434 2039583
2.0311022 -0.12442537 3.2276907 2039583
2.0631762 -0.12515344 3.2084346 2039583
2.0313101 -0.074959084 3.2278032 2039583
2.0640638 -0.075758077 3.2081373 2039583
2.0313659 -0.025408942 3.2280054 2039583
2.0641754 -0.025253907 3.208312 2039583
2.0314786 0.025410797 3.2281835 2039583
2.0642891 0.025255755 3.2084873 2039583
1.935936 0.099996686 3.2182662 10197915
1.974403 0.09998668 3.2179439 10197915
2.0312283 0.076218255 3.2277839 4079166
2.0644016 0.075770929 3.208663 4013373
-0.41047317 0.10060614 3.2378807 2960685
-0.37422028 0.10059671 3.2375772 5592405
-0.32455081 0.10058378 3.2371612 10197915
-0.27489433 0.10057089 3.2367463 10197915
-0.22525042 0.10055801 3.2363317 10197915
-0.17561933 0.10054509 3.2359159 10197915
-0.12466003 0.10053184 3.2354889 10197915
-0.075054683 0.100519 3.2350762 10197915
-0.025462104 0.10050609 3.2346606 10197915
0.025457632 0.10049284 3.2342341 10197915
0.07502456 0.10048 3.2338209 10197915
0.12457868 0.10046712 3.2334065 10197915
0.17545889 0.10045388 3.23298 10197915
0.22498737 0.10044102 3.2325659 10197915
0.27450314 0.10042818 3.2321532 10197915
0.32534388 0.10041495 3.2317271 10197915
0.37483388 0.10040208 3.2313128 10197915
0.42431134 0.10038926 3.2309003 10197915
0.47511271 0.10037605 3.2304754 10197915
0.52590066 0.10036283 3.2300496 10197915
0.57533956 0.10034999 3.2296371 10197915
0.62476557 0.10033718 3.2292244 10197915
0.67551416 0.10032396 3.2287991 10197915
0.72491455 0.10031112 3.2283857 10197915
0.7743026 0.10029833 3.2279742 10197915
0.82501173 0.10028513 3.2275496 10197915
0.87570775 0.10027193 3.2271252 10197915
0.92505729 0.10025916 3.2267132 10197915
0.97439367 0.10024633 3.2263007 10197915
1.0250504 0.10023315 3.2258761 10197915
1.0756941 0.10021999 3.2254527 10197915
1.1249925 0.10020722 3.2250414 10197915
1.1742777 0.10019439 3.2246287 10197915
1.2248818 0.10018121 3.2242048 10197915
1.2754734 0.10016813 3.2237833 10197915
1.3247204 0.10015531 3.223371 10197915
1.3739544 0.10014249 3.2229586 10197915
1.4245068 0.10012939 3.222537 10197915
1.4750481 0.10011642 3.2221193 10197915
1.5255734 0.10010326 3.2216961 10197915
1.5747571 0.10009053 3.2212861 10197915
1.6239277 0.10007775 3.2208748 10197915
1.6744136 0.10006461 3.2204521 10197915
1.7248875 0.1000515 3.2200305 10197915
1.7753478 0.10003842 3.219609 10197915
1.8257945 0.10002527 3.2191863 10197915
1.8749006 0.10001251 3.2187755 10197915
1.9107287 0.10000326 3.2184772 10197915
2.049742 -1.2030799 3.2962196 2039583
2.0510631 -1.2216215 3.2983441 2039583
2.0477133 -1.174611 3.2929568 2039583
2.044172 -1.1249146 3.2872622 2039583
2.040643 -1.0753886 3.2815876 2039583
2.0371258 -1.0260347 3.2759314 2039583
2.0335212 -0.97544712 3.2701344 2039583
2.0299289 -0.9250381 3.2643583 2039583
2.0263495 -0.87480694 3.2586021 2039583
2.0227828 -0.82475269 3.2528658 2039583
2.0482156 -0.11614571 3.2981598 2039583
2.0451744 -0.075047858 3.293262 2039583
2.0414355 -0.024520809 3.2872407 2039583
2.0378103 0.024462814 3.2814035 2039583
1.3370222 0.099798188 3.2998741 10197915
1.3751642 0.099788293 3.299547 10197915
1.4241939 0.099775612 3.2991278 10197915
1.4745727 0.099762596 3.2986977 10197915
1.5249376 0.099749535 3.2982659 10197915
1.5752895 0.099736482 3.2978339 10197915
1.6256291 0.099723496 3.2974048 10197915
1.6745944 0.099710792 3.2969847 10197915
1.7249072 0.099697746 3.2965534 10197915
1.7752075 0.099684753 3.2961235 10197915
1.8254941 0.099671751 3.2956932 10197915
1.8757674 0.099658705 3.2952623 10197915
1.9246695 0.099646047 3.2948437 10197915
1.9749178 0.099633068 3.2944145 10197915
2.0287673 0.086051799 3.2839198 6645093
2.0687044 -1.4691842 3.3267124 2039583
2.0655026 -1.4242537 3.3215642 2039583
2.0620022 -1.3751326 3.3159351 2039583
2.0584116 -1.324741 3.3101609 2039583
2.0548327 -1.2745231 3.3044059 2039583
2.0525894 -1.2430412 3.3007984 2039583
2.0803959 -0.55097878 3.349978 2039583
2.078408 -0.52411568 3.3467767 2039583
2.0747545 -0.4747504 3.340894 2039583
2.0711143 -0.42555994 3.335032 2039583
2.0673828 -0.37514293 3.3290241 2039583
2.0636652 -0.32490733 3.3230381 2039583
2.0599608 -0.27485201 3.3170726 2039583
2.0562699 -0.22497617 3.3111289 2039583
2.052592 -0.17527869 3.3052065 2039583
2.0496383 -0.13536656 3.3004503 2039583
2.0503502 -0.14498842 3.3015969 2039583
0.57805091 0.099994659 3.3063707 10197915
0.62454861 0.099982649 3.3059738 10197915
0.67513609 0.099969529 3.3055398 10197915
0.72571045 0.099956423 3.3051066 10197915
0.77490556 0.09994372 3.3046863 10197915
0.82408786 0.099930972 3.3042653 10197915
0.87462294 0.099917866 3.3038321 10197915
0.92514515 0.099904798 3.3033991 10197915
0.97428948 0.09989211 3.3029797 10197915
1.0247855 0.099879004 3.3025467 10197915
1.0752681 0.099865921 3.3021135 10197915
1.1243744 0.099853247 3.3016951 10197915
1.174831 0.099840187 3.3012624 10197915
1.2252746 0.099827111 3.3008299 10197915
1.2743421 0.0998144 3.30041 10197915
1.3111355 0.099804901 3.3000963 10197915
-0.41611499 0.10025208 3.3148818 2960685
-0.37487581 0.10024139 3.3145285 6710886
-0.32402593 0.10022819 3.3140922 10197915
-0.27456328 0.1002154 3.3136699 10197915
-0.22511323 0.10020262 3.3132467 10197915
-0.17567576 0.1001898 3.3128226 10197915
-0.12487829 0.10017662 3.3123877 10197915
-0.074094094 0.10016351 3.311954 10197915
-0.024695219 0.1001507 3.3115306 10197915
0.024691012 0.10013791 3.3111069 10197915
0.074064657 0.10012516 3.3106854 10197915
0.12479659 0.10011201 3.3102512 10197915
0.17551529 0.10009885 3.3098166 10197915
0.22485042 0.10008611 3.3093939 10197915
0.27417308 0.10007336 3.3089731 10197915
0.3248525 0.10006022 3.3085384 10197915
0.37551868 0.10004708 3.308104 10197915
0.42480287 0.10003433 3.307683 10197915
0.47407448 0.1000216 3.3072615 10197915
0.52470136 0.10000847 3.3068271 10197915
0.55343032 0.10000102 3.306581 10197915
2.110688 -0.96030116 3.398756 2039583
2.107996 -0.92392504 3.3944216 2039583
2.1043453 -0.87459463 3.3885427 2039583
2.0994256 -0.80811834 3.380621 2039583
2.1012409 -0.83265001 3.3835442 2039583
2.0969751 -0.77500713 3.3766749 2039583
2.0932562 -0.72475666 3.3706868 2039583
2.089551 -0.67468572 3.3647201 2039583
2.0858583 -0.62479019 3.3587739 2039583
2.0822837 -0.57648951 3.353018 2039583
-0.42062336 0.099880375 3.3956227 2960685
-0.37415531 0.099868372 3.3952146 8158332
-0.32488295 0.099855632 3.3947816 10197915
-0.27562338 0.099842981 3.394351 10197915
-0.22496933 0.099829905 3.3939066 10197915
-0.17432852 0.099816829 3.3934619 10197915
-0.12510705 0.099804111 3.3930302 10197915
-0.075898282 0.099791475 3.3925998 10197915
-0.025296481 0.099778384 3.3921556 10197915
0.025292063 0.099765331 3.3917112 10197915
0.075867392 0.099752299 3.3912687 10197915
0.12502524 0.099739626 3.3908381 10197915
0.17417043 0.099726945 3.3904066 10197915
0.22470678 0.099713884 3.3899624 10197915
0.27523014 0.099700898 3.3895211 10197915
0.32574007 0.099687859 3.3890774 10197915
0.3748343 0.099675164 3.3886466 10197915
0.4239161 0.099662535 3.3882163 10197915
0.47438732 0.099649519 3.3877745 10197915
0.52484524 0.099636488 3.3873315 10197915
0.57528985 0.099623449 3.3868883 10197915
0.62572169 0.0996105 3.3864477 10197915
0.67614007 0.099597476 3.3860049 10197915
0.72514534 0.099584818 3.3855748 10197915
0.77413815 0.099572182 3.3851452 10197915
0.82451802 0.099559218 3.3847044 10197915
0.87488449 0.099546209 3.3842618 10197915
0.92523766 0.099533185 3.3838198 10197915
0.97557831 0.099520266 3.3833797 10197915
1.0259053 0.099507272 3.3829381 10197915
1.0762191 0.099494264 3.3824964 10197915
1.125123 0.099481657 3.3820672 10197915
1.1740148 0.099469073 3.38164 10197915
1.2242898 0.099456087 3.3811984 10197915
1.2745519 0.099443108 3.3807569 10197915
1.3248016 0.099430174 3.380317 10197915
1.3750376 0.09941721 3.3798769 10197915
1.4252602 0.099404231 3.3794355 10197915
1.4754709 0.099391341 3.3789968 10197915
1.5256677 0.099378377 3.3785563 10197915
1.575851 0.099365391 3.3781154 10197915
1.6260215 0.099352479 3.3776758 10197915
1.6761799 0.099339575 3.3772371 10197915
1.7263238 0.099326611 3.3767965 10197915
1.7750627 0.099314034 3.3763683 10197915
1.8237902 0.099301495 3.3759425 10197915
1.8738961 0.09928856 3.3755026 10197915
1.9239889 0.099275604 3.3750627 10197915
1.974069 0.099262707 3.3746235 10197915
2.0241365 0.099249832 3.374186 10197915
2.0714099 0.099237606 3.3737707 10197915
2.1144691 -1.0113915 3.4048445 2039583
2.1126308 -0.98655444 3.4018846 2039583
2.114774 0.087584302 3.4098852 4079166
-0.45133987 0.099496648 3.4806228 2960685
-0.42535612 0.099489965 3.4803891 2960685
-0.37484133 0.099476963 3.4799342 9342606
-0.32433957 0.099463962 3.4794793 10197915
-0.27529359 0.099451408 3.4790404 10197915
-0.22481792 0.099438436 3.4785864 10197915
-0.17435528 0.09942545 3.478132 10197915
-0.12534714 0.099412851 3.4776912 10197915
-0.074910671 0.099399932 3.4772394 10197915
-0.024487156 0.09938696 3.4767857 10197915
0.024483021 0.099374354 3.4763448 10197915
0.074880496 0.099361427 3.4758923 10197915
0.12526499 0.099348485 3.47544 10197915
0.17419723 0.099335901 3.4749997 10197915
0.22455566 0.099322945 3.4745462 10197915
0.27490124 0.09931007 3.4740956 10197915
0.32523349 0.099297114 3.4736428 10197915
0.37555265 0.099284165 3.4731896 10197915
0.42442158 0.099271603 3.4727504 10197915
0.47471508 0.099258728 3.4722998 10197915
0.52499533 0.099245787 3.4718471 10197915
0.57526231 0.099232845 3.4713945 10197915
0.62551671 0.09921997 3.4709437 10197915
0.67432255 0.099207439 3.4705057 10197915
0.72455066 0.099194512 3.4700534 10197915
0.77476579 0.099181592 3.4696012 10197915
0.82496834 0.099168748 3.4691517 10197915
0.87515759 0.099155836 3.4687002 10197915
0.92533332 0.099142917 3.4682484 10197915
0.97549653 0.099130042 3.4677978 10197915
1.0242141 0.099117555 3.467361 10197915
1.0743512 0.09910465 3.4669096 10197915
1.1244754 0.099091746 3.4664588 10197915
1.174587 0.099078909 3.4660091 10197915
1.2246854 0.099066034 3.465559 10197915
1.2747704 0.099053144 3.4651079 10197915
1.3248422 0.099040262 3.4646575 10197915
1.3749031 0.0990275 3.4642115 10197915
1.4249506 0.099014729 3.4637647 10197915
1.4749837 0.09900187 3.4633145 10197915
1.525005 0.098989069 3.4628663 10197915
1.5750118 0.098976202 3.4624166 10197915
1.6250062 0.098963328 3.461966 10197915
1.6749879 0.098950513 3.4615178 10197915
1.7249566 0.09893769 3.4610691 10197915
1.7749116 0.098924838 3.4606197 10197915
1.8248538 0.098911986 3.4601698 10197915
1.8747842 0.098899208 3.4597228 10197915
1.9247007 0.098886363 3.4592741 10197915
1.9746039 0.098873526 3.4588244 10197915
2.0244946 0.098860703 3.4583759 10197915
2.074373 0.098847926 3.4579291 10197915
2.1213889 0.098835833 3.4575055 10197915
1.6927687 0.098536484 3.549931 10197915
1.72498 0.098528303 3.5496356 10197915
1.7747501 0.09851557 3.5491772 10197915
1.8245068 0.098502815 3.5487173 10197915
1.8742507 0.098490059 3.5482581 10197915
1.9239835 0.098477401 3.5478017 10197915
1.9737015 0.09846466 3.547343 10197915
2.0248685 0.098451532 3.5468707 10197915
2.0760224 0.098438457 3.5463986 10197915
2.1257026 0.098425776 3.5459423 10197915
2.1739082 0.09841343 3.5454974 10197915
-0.45698133 0.099086553 3.5697479 2960685
-0.42441016 0.099078216 3.569447 3750201
-0.37408301 0.099065304 3.5689824 10197915
-0.32376891 0.099052422 3.5685177 10197915
-0.27494732 0.099039979 3.5680697 10197915
-0.22613791 0.099027462 3.5676191 10197915
-0.17586228 0.099014588 3.5671549 10197915
-0.12559974 0.099001721 3.5666916 10197915
-0.075350322 0.09898892 3.5662301 10197915
-0.025113866 0.098976031 3.5657663 10197915
0.025109513 0.098963164 3.5653021 10197915
0.075319871 0.098950341 3.5648403 10197915
0.1255172 0.098937519 3.5643783 10197915
0.17570144 0.098924659 3.563915 10197915
0.22587264 0.098911792 3.5634515 10197915
0.27603102 0.098898999 3.5629909 10197915
0.32617626 0.098886169 3.5625286 10197915
0.37630838 0.098873317 3.5620656 10197915
0.42495364 0.098860852 3.5616164 10197915
0.47358692 0.09884847 3.5611703 10197915
0.52368081 0.098835632 3.560708 10197915
0.57376164 0.098822787 3.5602453 10197915
0.62382966 0.098809987 3.5597842 10197915
0.67388493 0.098797217 3.5593238 10197915
0.72392696 0.09878438 3.5588615 10197915
0.77395582 0.098771572 3.5583999 10197915
0.82397211 0.098758787 3.5579395 10197915
0.87397528 0.098746017 3.5574791 10197915
0.92396539 0.098733209 3.5570178 10197915
0.97394246 0.098720394 3.5565562 10197915
1.0239073 0.098707661 3.5560973 10197915
1.0738585 0.098694876 3.5556366 10197915
1.1237971 0.098682061 3.5551753 10197915
1.1737221 0.098669283 3.5547147 10197915
1.2236354 0.098656572 3.5542567 10197915
1.2750021 0.098643392 3.5537825 10197915
1.3263555 0.098630242 3.5533082 10197915
1.376229 0.098617524 3.55285 10197915
1.4260892 0.098604761 3.5523899 10197915
1.4759361 0.098591983 3.5519302 10197915
1.5257708 0.098579235 3.5514708 10197915
1.5755928 0.098566525 3.5510123 10197915
1.625401 0.098553754 3.5505533 10197915
1.6678747 0.098542869 3.5501611 10197915
0.98588026 0.09828563 3.6498439 10197915
1.0250902 0.098275661 3.649473 10197915
1.0748456 0.09826301 3.6490037 10197915
1.1245879 0.098250329 3.6485326 10197915
1.174317 0.098237634 3.648061 10197915
1.2255402 0.098224595 3.6475775 10197915
1.275244 0.098211966 3.6471083 10197915
1.3249347 0.098199315 3.6466386 10197915
1.3746147 0.098186798 3.6461737 10197915
1.4242804 0.098174185 3.6457052 10197915
1.4754366 0.098161139 3.6452203 10197915
1.5250756 0.098148465 3.6447501 10197915
1.5747023 0.098135851 3.6442814 10197915
1.6258196 0.098122843 3.6437988 10197915
1.6754196 0.098110184 3.6433284 10197915
1.7250067 0.09809754 3.6428585 10197915
1.7745824 0.098084949 3.6423912 10197915
1.8241446 0.098072328 3.6419222 10197915
1.8751947 0.098059297 3.6414387 10197915
1.9247307 0.098046653 3.640969 10197915
1.9742553 0.098034091 3.6405027 10197915
2.0252662 0.09802109 3.6400199 10197915
2.0747631 0.098008454 3.6395507 10197915
2.1242476 0.097995833 3.6390827 9803157
2.17522 0.097982898 3.6386018 4144959
2.2246783 0.097970277 3.6381333 2500134
2.2516508 0.097963393 3.6378775 2039583
-0.46291849 0.09865474 3.6635504 2960685
-0.42493302 0.098645039 3.6631908 5197647
-0.37480316 0.098632254 3.6627157 10197915
-0.32468617 0.098619476 3.662241 10197915
-0.27458245 0.098606765 3.6617694 10197915
-0.22449142 0.09859398 3.6612945 10197915
-0.17441346 0.098581195 3.66082 10197915
-0.1243484 0.098568469 3.6603465 10197915
-0.074296437 0.098555736 3.6598747 10197915
-0.024257239 0.098542973 3.6594002 10197915
0.024253178 0.098530591 3.6589408 10197915
0.074266739 0.098517872 3.658468 10197915
0.12426753 0.098505154 3.6579957 10197915
0.17425522 0.098492399 3.657522 10197915
0.22574417 0.098479256 3.6570342 10197915
0.27570587 0.098466583 3.656563 10197915
0.32565445 0.098453857 3.6560905 10197915
0.37559021 0.098441102 3.6556177 10197915
0.42551282 0.098428361 3.6551445 10197915
0.47542304 0.098415703 3.6546741 10197915
0.52531993 0.098402984 3.654202 10197915
0.57520407 0.098390251 3.6537287 10197915
0.6250751 0.098377526 3.6532564 10197915
0.67493403 0.098364897 3.6527872 10197915
0.72477931 0.098352171 3.6523147 10197915
0.77461183 0.098339468 3.6518424 10197915
0.82443148 0.09832675 3.6513708 10197915
0.87574798 0.098313749 3.6508875 10197915
0.92554146 0.098301031 3.6504154 10197915
0.96023881 0.098292172 3.6500869 10197915
1.1521176 -1.6629627 3.7479231 11711154
1.1521658 -1.6242125 3.7480798 11711154
1.1522276 -1.574608 3.7482808 11711154
1.1522894 -1.5249977 3.748482 11711154
1.1523513 -1.4753824 3.7486832 11513775
1.1524131 -1.4257619 3.7488842 2039583
1.1524363 -1.3753456 3.7491121 2039583
1.1536927 -1.3274457 3.7485883 2039583
1.1539123 -1.2750496 3.7487078 2039583
1.1539761 -1.2238669 3.7489152 2039583
1.154038 -1.1742295 3.7491164 2039583
1.1540999 -1.1245871 3.7493172 2039583
1.1541618 -1.074939 3.7495182 2039583
1.1542238 -1.025286 3.7497196 2039583
1.1542816 -0.97873133 3.749908 2039583
0.83111829 0.09787003 3.7497885 10197915
0.87606764 0.09785869 3.7493539 10197915
0.92565483 0.097846113 3.748872 10197915
0.97522879 0.097833522 3.7483897 10197915
1.0247902 0.097820938 3.7479074 10197915
1.0743395 0.097808413 3.7474279 10197915
1.1238755 0.097795852 3.7469466 10197915
1.1749461 0.09778288 3.7464495 10197915
1.2260031 0.097769909 3.7459524 10197915
1.275501 0.097757414 3.7454734 10197915
1.3249854 0.097744852 3.7449927 10197915
1.3744568 0.097732298 3.7445111 10197915
1.4239162 0.097719774 3.7440317 10197915
1.4749079 0.097706862 3.7435369 10197915
1.5258853 0.097693913 3.743041 10197915
1.5753053 0.097681358 3.7425599 10197915
1.6247134 0.097668871 3.7420812 10197915
1.6741083 0.097656347 3.7416015 10197915
1.725033 0.097643413 3.7411063 10197915
1.7759445 0.097630493 3.7406111 10197915
1.8253015 0.097618021 3.7401328 10197915
1.874645 0.097605504 3.7396533 10197915
1.9239752 0.097592972 3.7391734 10197915
1.9748337 0.097580053 3.7386785 10197915
2.0256808 0.097567223 3.7381868 10197915
2.0749726 0.097554713 3.7377071 10197915
2.1242514 0.097542189 3.7372277 10197915
2.1750574 0.097529292 3.7367337 10197915
2.2258518 0.09751647 3.7362421 2236962
2.2750921 0.09750396 3.7357633 2039583
2.3073997 0.09749575 3.7354484 2039583
1.081224 -1.67303 3.7904296 2039583
1.1227587 -1.6674095 3.7655241 2763306
1.1723968 -1.6696901 3.7757125 11711154
1.0821251 -1.6253984 3.7901156 2039583
1.1245242 -1.625001 3.7646692 2829099
1.1709235 -1.6251711 3.7734425 11711154
1.0832978 -1.5751092 3.7896538 2039583
1.1245683 -1.5749305 3.7648838 2829099
1.1710556 -1.5753231 3.7738671 11711154
1.0834266 -1.525214 3.7898164 2039583
1.1246715 -1.5249379 3.7650588 2829099
1.1710292 -1.5251549 3.7740302 11711154
1.0834078 -1.4751805 3.7900674 2039583
1.1246634 -1.4750195 3.7653091 2829099
1.1713216 -1.4749744 3.7747238 9013641
1.0834666 -1.4250112 3.7902734 2039583
1.1248357 -1.4250158 3.7654395 2697513
1.1714534 -1.4250926 3.7751498 2039583
1.0835466 -1.3749691 3.7904665 2039583
1.1247761 -1.3749242 3.7657158 2697513
1.1715857 -1.3751993 3.7755752 2039583
1.083535 -1.3250506 3.7907124 2039583
1.124889 -1.324908 3.7658899 2697513
1.1685169 -1.3245376 3.7719548 2039583
1.0836774 -1.2751278 3.7908657 2039583
1.1249065 -1.2749703 3.7661233 2697513
1.1684247 -1.2746354 3.7720747 2039583
1.0840952 -1.2255381 3.7908537 2039583
1.1250194 -1.2250264 3.7662926 2697513
1.1685454 -1.2247547 3.7724648 2039583
1.0851631 -1.1750516 3.7904549 2039583
1.1250285 -1.1749941 3.766526 2697513
1.1686351 -1.1746078 3.772789 2039583
1.08513 -1.1251471 3.7907143 2039583
1.1251496 -1.1249574 3.7666936 2697513
1.168691 -1.1241932 3.773072 2039583
1.0852962 -1.0752376 3.7908535 2039583
1.1251496 -1.0749973 3.7669315 2697513
1.168736 -1.0742655 3.7733624 2039583
1.0852777 -1.0251777 3.7911055 2039583
1.1252795 -1.0250316 3.7670929 2697513
1.1657331 -1.0242378 3.7687869 2039583
1.0853209 -0.97511476 3.7913194 2039583
1.1253583 -0.97489798 3.7672873 2697513
1.1654017 -0.97416866 3.7684379 2039583
1.0853953 -0.92504388 3.7915146 2039583
1.1253327 -0.92483854 3.7675407 2697513
1.1640303 -0.92526388 3.7663069 2039583
1.0854542 -0.87496942 3.7917211 2039583
1.1254102 -0.87485671 3.7677345 2697513
1.164012 -0.87515545 3.7665064 2039583
1.0860871 -0.8256259 3.7915773 2039583
1.1254538 -0.82486963 3.7679496 2697513
1.164148 -0.82478261 3.7668419 2039583
1.0869133 -0.77498192 3.7913246 2039583
1.1255755 -0.77504098 3.7681179 2697513
1.1643575 -0.77465296 3.7673628 2039583
1.0870148 -0.72491616 3.7915039 2039583
1.1256011 -0.72512513 3.7683413 2697513
1.1644663 -0.72477579 3.7677145 2039583
