# .PCD v0.7 - Point Cloud Data file format
VERSION 0.7
FIELDS x y z rgb
SIZE 4 4 4 4
TYPE F F F U
COUNT 1 1 1 1
WIDTH 1077
HEIGHT 1
VIEWPOINT 0 0 0 1 0 0 0
POINTS 1077
DATA ascii
-0.047922116 -0.20042787 0.44892284 2894892
0.011499445 -0.20043144 0.44896162 2894892
-0.023186047 -0.17221618 0.43465579 2894892
0.0067028799 -0.17473495 0.4464663 2894892
-0.023338228 -0.12504154 0.4343785 2894892
0.006540372 -0.12516361 0.44646737 2894892
-0.023219071 -0.075005725 0.43443224 2894892
0.006476026 -0.074998476 0.44652066 2894892
-0.023227222 -0.025005395 0.43456048 2894892
0.0064035067 -0.025168851 0.44656897 2894892
-0.023170419 0.024956182 0.43465671 2894892
0.0062890984 0.024994979 0.44659609 2894892
-0.023049964 0.074998342 0.43471092 5066061
0.0062699015 0.074916661 0.4466728 5526612
-0.35271358 0.11534756 0.44692153 10197915
-0.31969425 0.11535293 0.42790833 10197915
-0.27499563 0.11530967 0.42363548 10197915
-0.22500259 0.11524898 0.42341581 9539985
-0.17499894 0.11518849 0.42319646 8618883
-0.12514506 0.11512769 0.42317513 10197915
-0.074939445 0.11506501 0.42397135 10197915
-0.023910878 0.11077944 0.42734551 10197915
0.021563932 0.11348309 0.42779627 10197915
0.075008892 0.1148847 0.42336845 10197915
0.12501217 0.11482412 0.42314932 10197915
0.17492688 0.11476274 0.4234708 10197915
0.22512156 0.11470072 0.42383173 10197915
0.27500096 0.11464059 0.42376086 10197915
0.31959718 0.11457703 0.42772442 10197915
0.3525973 0.11449193 0.4466033 10197915
-0.065318257 -0.20776077 0.48174071 2894892
-0.049233511 -0.20100869 0.45139664 2894892
0.036170878 -0.20335703 0.4620204 2894892
0.077399947 -0.20823841 0.48384389 2894892
0.10390809 -0.21155234 0.49787578 2894892
-0.061830476 -0.1750095 0.47530639 2894892
-0.049187422 -0.17504984 0.45143136 2894892
0.031412743 -0.17500107 0.45955086 2829099
0.074323684 -0.17499991 0.48227447 2894892
0.10374445 -0.17500016 0.49785092 2894892
-0.061748423 -0.1251352 0.47538647 2894892
-0.049124714 -0.12338237 0.45155472 2894892
0.031292848 -0.12494072 0.45957473 2894892
0.074341342 -0.12500083 0.48237035 2894892
0.10376555 -0.12500195 0.49795151 2894892
-0.0616518 -0.075008385 0.47543779 2894892
-0.049016666 -0.075017191 0.45157695 2894892
0.031218035 -0.075019337 0.45962226 2894892
0.074340552 -0.074987777 0.48245814 2894892
0.10362115 -0.075304963 0.4979614 2894892
-0.061690323 -0.025007671 0.47574529 2894892
-0.049046837 -0.024989136 0.4518683 2894892
0.030960854 -0.024941878 0.45957342 2894892
0.0741565 -0.024998814 0.48244625 2894892
0.10357574 -0.0250034 0.49802396 2894892
-0.061696522 0.024933992 0.47599176 2894892
-0.048990421 0.026286269 0.45200199 2894892
0.030846898 0.025002982 0.45960063 2894892
0.074169978 0.024996636 0.48253977 2894892
0.10354981 0.024728557 0.49809897 2894892
-0.061508588 0.074991927 0.47586983 3092271
-0.048876274 0.074983113 0.452014 3815994
0.030824983 0.0750333 0.45967641 5855577
0.07417652 0.074997582 0.48263219 6447714
0.10338333 0.075004362 0.4980967 6908265
-0.3659685 0.11528432 0.48012161 10197915
-0.32498309 0.11524937 0.47391805 10197915
-0.27500203 0.11518938 0.4736647 9408399
-0.2249966 0.11512908 0.47341821 3684408
-0.17499286 0.11506917 0.47317451 3223857
-0.1248889 0.11500736 0.47360113 8487297
-0.073174261 0.11227314 0.47310978 9868950
-0.048910704 0.10771404 0.45218891 10197915
0.031668924 0.10854182 0.45917696 10197915
0.075686134 0.11029087 0.47636259 10197915
0.12249888 0.1138301 0.47616574 10197915
0.17500831 0.11464436 0.47304633 10197915
0.22484894 0.11458137 0.4742001 10197915
0.27500379 0.11452042 0.47413647 10197915
0.32500604 0.11446021 0.4738861 10197915
0.36581492 0.11439645 0.47987467 10197915
-0.10099485 -0.22279669 0.54904497 2894892
-0.088391379 -0.21748276 0.52526802 2829099
0.12982267 -0.21441555 0.51159155 2894892
0.1757569 -0.21988131 0.53590661 2894892
0.2011998 -0.22287536 0.54937446 2894892
-0.10060142 -0.17537199 0.54852414 2894892
-0.086889558 -0.17512907 0.52263087 2894892
0.12849133 -0.17500293 0.51095575 2894892
0.17454702 -0.17499852 0.53534585 2894892
0.20123646 -0.17499858 0.5494774 2894892
-0.10042427 -0.12507448 0.5484249 2894892
-0.086699016 -0.12483978 0.52250594 2894892
0.12848008 -0.12504101 0.5110383 2894892
0.17453757 -0.12496158 0.5354259 2894892
0.20105499 -0.12627769 0.54946631 2894892
-0.1004914 -0.075024605 0.5487864 2894892
-0.086592458 -0.075008087 0.52253795 2894892
0.1281141 -0.074945293 0.51093215 2894892
0.17434299 -0.074998677 0.5354113 2894892
0.20103228 -0.075130053 0.54954392 2894892
-0.10055696 -0.025022687 0.54914397 2894892
-0.086647935 -0.025006508 0.52287781 2894892
0.12808231 -0.025004465 0.51100343 2894892
0.17438287 -0.02499859 0.53551948 2894892
0.20106113 -0.025486272 0.54964584 2894892
-0.1003089 0.023791358 0.54890406 2894892
-0.086659327 0.025069758 0.52313423 2894892
0.12805431 0.025051147 0.5110743 2894892
0.17439978 0.024980197 0.53561586 2894892
0.20080352 0.025769625 0.54959869 2894892
-0.1003399 0.075087003 0.54920274 2894892
-0.086446725 0.074992858 0.52296394 2894892
0.12788583 0.074999474 0.51107138 7237230
0.17418061 0.074994102 0.5355866 7829367
0.20058475 0.075059697 0.54956901 8224125
-0.41208962 0.11521352 0.53322345 10197915
-0.37498477 0.1151913 0.52364373 10197915
-0.32477799 0.11512973 0.52387315 9211020
-0.27499032 0.11506916 0.52406192 3223857
-0.22498704 0.11500891 0.52378458 2697513
-0.17499462 0.11494888 0.52350467 2894892
-0.12487608 0.11480544 0.52433807 3223857
-0.0881662 0.11002598 0.52064127 5460819
0.12919874 0.10862152 0.5103972 10197915
0.17567743 0.11033913 0.5280115 10197915
0.22423276 0.11423128 0.52506375 10197915
0.27501228 0.11440123 0.52397782 10197915
0.32503933 0.11434142 0.52371913 10197915
0.37498939 0.11428124 0.52345896 10197915
0.412453 0.11421195 0.53338218 10197915
-0.12073981 -0.25612357 0.58617628 2894892
0.23966782 -0.25244683 0.56969243 2894892
0.27635434 -0.25678894 0.58911121 2894892
-0.11428056 -0.22495607 0.57412493 2894892
0.22602582 -0.22465564 0.56251681 2894892
0.27304614 -0.22499889 0.58741552 2894892
-0.11393283 -0.17482115 0.57370263 2894892
0.22552107 -0.17501029 0.56233627 2894892
0.27278671 -0.17499205 0.58736521 2894892
-0.11387579 -0.12500033 0.57382977 2894892
0.22531085 -0.1249539 0.56231302 2894892
0.27254552 -0.12502915 0.58732486 2894892
-0.1139413 -0.075004697 0.57418686 2894892
0.22531079 -0.074994765 0.56239974 2894892
0.27256432 -0.075005561 0.58742237 2894892
-0.11373463 -0.025133872 0.57402992 2894892
0.22533324 -0.024981663 0.56249976 2894892
0.27262086 -0.025006387 0.58753937 2894892
-0.11335633 0.025036672 0.57354969 2894892
0.22509515 0.024999652 0.56246114 2894892
0.27239239 0.024965221 0.58750582 2894892
-0.11340326 0.074996524 0.57387185 2894892
0.22514914 0.075000092 0.56257415 8553090
0.27240252 0.074999489 0.58759862 9211020
-0.45867887 0.11514052 0.58745217 10197915
-0.42386132 0.11512826 0.57487082 10197915
-0.37505573 0.11507145 0.57387066 9145227
-0.32535237 0.11501032 0.57418454 3158064
-0.27499235 0.11494856 0.574453 2236962
-0.22499929 0.11488851 0.5741542 2894892
-0.1750015 0.11482866 0.57383257 2894892
-0.12385214 0.11182212 0.57205755 2894892
0.2267884 0.10857508 0.56181729 10197915
0.27475625 0.11043877 0.57914048 10197915
0.32496959 0.11422307 0.57321113 10197915
0.37525827 0.1141615 0.5734058 10197915
0.42389363 0.11409839 0.57507801 10197915
0.45914713 0.114023 0.58874702 10197915
-0.15218569 -0.2693854 0.64549947 2894892
-0.13989194 -0.26419228 0.62230736 2894892
0.29844415 -0.25940868 0.60080427 2894892
0.32667986 -0.26274872 0.61574692 2829099
0.37156144 -0.26805702 0.63950682 2236962
-0.15223308 -0.22511095 0.64579612 2894892
-0.1384611 -0.22482039 0.61978948 2894892
0.29847914 -0.22498953 0.60088313 2894892
0.32439372 -0.22500567 0.61460608 2894892
0.37003353 -0.2250853 0.63877267 2565927
-0.15224192 -0.17604077 0.646043 2894892
-0.13844316 -0.17500852 0.61999035 2894892
0.29853529 -0.17498742 0.60100019 2894892
0.32445309 -0.17500329 0.61472487 2894892
0.37000281 -0.17500189 0.63884377 2565927
-0.15194899 -0.12506244 0.64572871 2894892
-0.13853747 -0.12500304 0.62040186 2894892
0.29828227 -0.12467976 0.60095394 2894892
0.3245137 -0.12499915 0.61484432 2894892
0.37007588 -0.12500484 0.63897103 2565927
-0.15204956 -0.075018354 0.64615256 2894892
-0.13862148 -0.075004511 0.62079412 2894892
0.29812548 -0.076095119 0.60095572 2894892
0.32436743 -0.074910805 0.61485273 2894892
0.36997357 -0.075121306 0.63900238 2565927
-0.15214875 -0.024976214 0.64657438 2894892
-0.13837941 -0.024817189 0.62057143 2894892
0.29803458 -0.024947898 0.60099715 2894892
0.3242895 -0.025000378 0.61489886 2894892
0.36983359 -0.025004728 0.63901645 2565927
-0.15224777 0.024997916 0.64699531 2894892
-0.13836317 0.024988817 0.62077314 2894892
0.29779071 0.025385987 0.60095567 2894892
0.32434961 0.02499613 0.61501896 2894892
0.36990935 0.025001286 0.63914382 4605510
-0.15193234 0.074231692 0.64663029 2894892
-0.13844933 0.074989334 0.6211713 2894892
0.29781735 0.074952848 0.60105652 9539985
0.32442299 0.074993797 0.61514384 9934743
0.36990672 0.074926771 0.63922983 10197915
-0.50533777 0.11506703 0.64193892 10197915
-0.47187024 0.11506583 0.62541097 10197915
-0.4251954 0.11501025 0.62499356 8947848
-0.37509876 0.11494958 0.62490374 2894892
-0.32510582 0.11488966 0.62459159 2039583
-0.27500692 0.11482953 0.62428057 2631720
-0.2249891 0.11476959 0.62394065 2894892
-0.17367792 0.11427524 0.62482411 2894892
-0.13945429 0.10985062 0.61818117 2894892
0.29787219 0.10736883 0.60110748 10197915
0.32616481 0.10875421 0.61368597 10197915
0.37328911 0.11063164 0.62944055 10197915
0.42529678 0.11397902 0.6243543 10197915
0.47229886 0.11391512 0.62725359 10197915
0.50583172 0.11383591 0.64333177 10197915
-0.17556538 -0.30422741 0.68948853 2894892
0.44369248 -0.30159116 0.67764401 6908265
0.47083497 -0.30480596 0.69201118 11645361
-0.16762131 -0.27403566 0.67462766 2894892
0.39595255 -0.27124828 0.65241706 2039583
0.42518297 -0.2739667 0.66789162 5395026
0.467673 -0.27494982 0.69038826 7171437
-0.16733781 -0.22497565 0.67432237 2894892
0.39535537 -0.22455733 0.65218323 2039583
0.42416504 -0.22500226 0.66743731 2171169
0.46727529 -0.22499874 0.69026792 2039583
-0.16732733 -0.17480578 0.67453736 2894892
0.39533317 -0.17500554 0.65225804 2039583
0.42425597 -0.17500138 0.66757411 2171169
0.46736553 -0.17499635 0.69040036 2039583
-0.16684587 -0.12522516 0.67385948 2894892
0.39541885 -0.12498988 0.65239054 2039583
0.42433849 -0.1249999 0.66770464 2171169
0.46745157 -0.12500966 0.69053513 2039583
-0.16662 -0.074994482 0.67366892 2894892
0.39530155 -0.074438013 0.65241683 2039583
0.42441881 -0.075006112 0.66783434 2171169
0.46730614 -0.075151563 0.69054335 2039583
-0.16672364 -0.024998022 0.67409885 2894892
0.39516556 -0.025001854 0.65243095 2039583
0.42450711 -0.025006656 0.66796732 2171169
0.4671948 -0.024992527 0.69057184 2039583
-0.16683413 0.024997389 0.67454147 2894892
0.39524409 0.024985904 0.65255934 7303023
0.42459208 0.025008664 0.66810018 7763574
0.46729216 0.024984423 0.69071168 8092539
-0.16647176 0.075092539 0.67409223 2894892
0.39524186 0.075320885 0.65264636 10197915
0.42466483 0.075010553 0.66822708 10197915
0.46735683 0.074966371 0.6908313 10197915
-0.55235165 0.11499114 0.69759607 10197915
-0.51940393 0.11499708 0.67836839 10197915
-0.47512311 0.11495464 0.67360616 8882055
-0.42501521 0.11489109 0.67475587 2763306
-0.37504283 0.11483108 0.67445046 2039583
-0.32503006 0.11477156 0.67398971 2105376
-0.27499318 0.11471142 0.67369866 2829099
-0.2250095 0.11465158 0.67333496 2894892
-0.17564012 0.11154762 0.67224574 2894892
0.39505845 0.10742175 0.65247142 10197915
0.42605868 0.10881334 0.66613364 10197915
0.47256202 0.11078874 0.68025732 10197915
0.51951635 0.11373488 0.67866647 10197915
0.55222285 0.11365148 0.69695222 10197915
-0.20373197 -0.31612232 0.74262488 2894892
-0.19129577 -0.31085917 0.71916407 2894892
0.49328834 -0.30746749 0.70389616 11711154
0.52650136 -0.31139997 0.72147703 11579568
0.56540889 -0.31599674 0.74207199 9211020
-0.20371214 -0.27500337 0.74277979 2894892
-0.19015089 -0.2750181 0.71716899 2894892
0.49304977 -0.27490455 0.70382655 5395026
0.52440369 -0.27499697 0.72042841 3289650
0.56491303 -0.27499768 0.74188 2039583
-0.20384943 -0.22493979 0.74327362 2894892
-0.19028842 -0.2250264 0.71766382 2894892
0.4927274 -0.22502206 0.70374364 2039583
0.52450466 -0.2249929 0.72057295 2039583
0.56469208 -0.22519191 0.74185044 2039583
-0.20388386 -0.1756161 0.74356991 2894892
-0.19040017 -0.17500623 0.71810842 2894892
0.49281484 -0.17501934 0.70387733 2039583
0.52460849 -0.17499818 0.72071135 2039583
0.5646174 -0.17499337 0.74189949 2039583
-0.20347579 -0.1249771 0.74303603 2894892
-0.1902999 -0.12464259 0.71815515 2894892
0.4929091 -0.12501468 0.70401502 2039583
0.52471244 -0.12499546 0.72085494 2039583
0.56473601 -0.12499238 0.74204808 2039583
-0.20360851 -0.074972346 0.74352092 2894892
-0.19006304 -0.07501962 0.71794081 2894892
0.49251661 -0.075007595 0.70389289 2039583
0.52456373 -0.074872352 0.72086489 2039583
0.56484097 -0.075014174 0.74219269 2039583
-0.20366329 -0.024543036 0.74386066 2894892
-0.19011723 -0.025156569 0.71827585 2894892
0.49218136 -0.025002265 0.70380229 2039583
0.52442747 -0.025000222 0.72087961 2039583
0.56450701 -0.025108164 0.74210256 2039583
-0.20323899 0.025048409 0.7432915 2894892
-0.18971205 0.024980601 0.71774578 2894892
0.4922784 0.02500885 0.70394135 8026746
0.52453613 0.02499523 0.72102624 7960953
0.56455284 0.025017615 0.74221259 7829367
-0.20327455 0.074456021 0.74358982 2894892
-0.18983908 0.074984349 0.71821988 2894892
0.492369 0.075072631 0.70407861 10197915
0.52464706 0.074992172 0.7211678 10197915
0.56466013 0.075010248 0.74235857 10197915
-0.56550533 0.1149289 0.73033392 10197915
-0.52497751 0.1148946 0.72409159 8816262
-0.47495529 0.11483471 0.72374237 2697513
-0.42496243 0.11477502 0.7233305 2039583
-0.37441942 0.11471192 0.7240364 2039583
-0.32487431 0.11465071 0.72447348 2500134
-0.27499497 0.11459114 0.72406334 2894892
-0.2232499 0.1138505 0.7251631 2894892
-0.19106327 0.10944621 0.71670794 2894892
0.49215394 0.10731993 0.703843 10197915
0.52625871 0.10884397 0.71843505 10197915
0.56534261 0.109726 0.73582476 10197915
-0.23069401 -0.35248676 0.79337198 2960685
-0.22100967 -0.32271701 0.77522242 2894892
0.59016895 -0.31894049 0.75517756 7303023
0.60401428 -0.32059219 0.76250619 6513507
-0.22035292 -0.27500775 0.77420563 2894892
0.59007752 -0.27501455 0.75520581 2039583
0.60409105 -0.27503082 0.76262635 2039583
-0.22050799 -0.22501782 0.77473277 2894892
0.58984298 -0.22470027 0.75516987 2039583
0.60420799 -0.2250374 0.76277566 2039583
-0.22049445 -0.17480692 0.7749424 2894892
0.58977205 -0.17499761 0.75521934 2039583
0.60433215 -0.1750634 0.76292938 2039583
-0.21965174 -0.12528828 0.77358288 2894892
0.58989197 -0.12501089 0.75537014 2039583
0.60444534 -0.12503004 0.76307607 2039583
-0.21952908 -0.075010233 0.77358633 2894892
0.59000409 -0.075004525 0.75551647 2039583
0.60456562 -0.074977472 0.76322711 2039583
-0.21968473 -0.025012605 0.77411407 2894892
0.58965915 -0.02486412 0.75542146 2039583
0.60469067 -0.024983672 0.76338059 2039583
-0.21983516 0.025000565 0.77463269 2894892
0.58971369 0.024979293 0.75553674 7763574
0.6048097 0.024990242 0.76353085 7763574
-0.21984972 0.075193428 0.77489489 2894892
0.58939731 0.074784383 0.75545669 10197915
0.60447997 0.075453475 0.76344466 10197915
-0.612225 0.11485524 0.78492737 10197915
-0.57490379 0.11483518 0.77433944 8553090
-0.52498919 0.11477569 0.77388215 2631720
-0.47502145 0.11471602 0.77346331 2039583
-0.42502588 0.11465627 0.77305633 2039583
-0.37545428 0.11459432 0.7737903 2105376
-0.32490149 0.1145315 0.77438474 2829099
-0.27500281 0.11447186 0.77399856 2894892
-0.22711056 0.11112543 0.77213985 2894892
0.58963871 0.10754575 0.75520033 10197915
0.60437644 0.10709953 0.7633276 10197915
-0.25570777 -0.36299878 0.84056044 2894892
-0.24338846 -0.35783133 0.81732011 2894892
-0.255483 -0.32454976 0.8403163 2894892
-0.24201643 -0.32523158 0.81488156 2894892
-0.2549426 -0.27501169 0.83952731 2894892
-0.24148814 -0.27498761 0.81411946 2894892
-0.25510314 -0.22492647 0.84006542 2894892
-0.24166648 -0.22508126 0.81469017 2894892
-0.25493139 -0.17585652 0.83997035 2894892
-0.24182329 -0.17507544 0.81522024 2894892
-0.25462282 -0.12493349 0.83962673 2894892
-0.24144216 -0.12449914 0.81473678 2894892
-0.25478902 -0.074891783 0.84017485 2894892
-0.24136183 -0.075060263 0.81481701 2894892
-0.25496039 -0.024959402 0.8407324 2894892
-0.24152471 -0.025024746 0.815359 2894892
-0.25512633 0.024981067 0.84127921 2894892
-0.24168207 0.02498503 0.81589031 2894892
-0.25528711 0.075043656 0.84181732 2894892
-0.24183355 0.074966595 0.81641006 2894892
-0.65857595 0.11478312 0.83867347 10197915
-0.62402928 0.11477296 0.82536292 8355711
-0.57494992 0.1147164 0.82410866 2500134
-0.52500051 0.1146568 0.8236624 2039583
-0.47499973 0.114597 0.82328254 2039583
-0.42476296 0.11453662 0.82301772 2039583
-0.37488595 0.1144717 0.82480562 2434341
-0.32488865 0.11441208 0.82438058 2894892
-0.27304783 0.11338928 0.82568181 2894892
-0.24251722 0.1092755 0.81445247 2894892
-0.28590214 -0.40078348 0.89740533 2960685
-0.27447298 -0.37083378 0.87596148 2894892
-0.27344951 -0.32500648 0.87424368 2894892
-0.27362856 -0.27503407 0.87481576 2894892
-0.27384061 -0.22502086 0.87545007 2894892
-0.27303833 -0.17498167 0.87417012 2894892
-0.2724044 -0.12502125 0.87320739 2894892
-0.27259031 -0.075026773 0.87379193 2894892
-0.27275243 -0.025015835 0.87433189 2894892
-0.27293041 0.024989242 0.87490135 2894892
-0.27313462 0.074961334 0.87552154 2894892
-0.70497853 0.11471106 0.89241886 10197915
-0.67192984 0.1147101 0.8760258 8026746
-0.62498635 0.11466006 0.87308788 2434341
-0.57497287 0.11460049 0.87261456 2039583
-0.52436948 0.11453748 0.87327886 2039583
-0.47499999 0.11447476 0.87443763 2039583
-0.42520517 0.1144149 0.87420332 2039583
-0.37491372 0.11434908 0.87619478 2829099
-0.32493025 0.11428934 0.87579006 2894892
-0.27956456 0.1109099 0.87332904 2894892
-0.30806097 -0.41008478 0.93920815 2894892
-0.29511786 -0.40458351 0.91479152 2960685
-0.30708098 -0.37592593 0.93751734 2894892
-0.29359293 -0.37498334 0.91204965 2894892
-0.30663633 -0.32501876 0.93691617 2894892
-0.29376003 -0.32499608 0.91259962 2894892
-0.30685243 -0.27499634 0.93755853 2894892
-0.29397297 -0.27499744 0.9132356 2894892
-0.30635309 -0.22422063 0.93685341 2894892
-0.29356918 -0.2258686 0.91270304 2894892
-0.30624452 -0.17515397 0.93687814 2894892
-0.29279119 -0.17400174 0.91147768 2894892
-0.30642694 -0.12505664 0.93745691 2894892
-0.29261959 -0.12492135 0.91138339 2894892
-0.30657482 -0.075266786 0.93796927 2894892
-0.29281864 -0.07496807 0.91199267 2894892
-0.30582047 -0.02502984 0.93677998 2894892
-0.29300112 -0.025004342 0.91257083 2894892
-0.30602244 0.024986962 0.93739581 2894892
-0.293192 0.025026089 0.91316611 2894892
-0.3062135 0.074938029 0.93799013 2894892
-0.29337889 0.07506638 0.91375309 2894892
-0.75045514 0.114642 0.94443864 10197915
-0.71860147 0.11464514 0.92694408 7434609
-0.67429149 0.1146 0.92331195 2368548
-0.62495404 0.1145369 0.92465299 2039583
-0.57498401 0.11447746 0.92414355 2039583
-0.52567625 0.114416 0.92479956 2039583
-0.47496155 0.11435103 0.92622221 2039583
-0.42499939 0.11429138 0.92578107 2368548
-0.37494582 0.11423188 0.9252646 2894892
-0.32254097 0.11286788 0.92647439 2894892
-0.29397875 0.10875073 0.9130584 2894892
-0.32812724 -0.41688874 0.97707134 2894892
-0.32692689 -0.37484971 0.97500092 2894892
-0.32563409 -0.3250356 0.97279298 2894892
-0.32584065 -0.2750392 0.97341704 2894892
-0.32607478 -0.22497742 0.97409415 2894892
-0.32629094 -0.17491651 0.97473675 2894892
-0.32650468 -0.12495843 0.97537345 2894892
-0.32662052 -0.074845821 0.97582757 2894892
-0.32523891 -0.025483288 0.97344923 2894892
-0.32495886 0.024998862 0.97315669 2894892
-0.32514411 0.075038165 0.97374004 2894892
-0.76549959 0.11457151 0.9816277 5921370
-0.7250129 0.11454164 0.97352034 2368548
-0.67579472 0.11448029 0.97416294 2039583
-0.62503761 0.11441451 0.9759168 2039583
-0.57501036 0.11435524 0.97533208 2039583
-0.52497733 0.11429558 0.9748711 2039583
-0.47499594 0.11423615 0.97431701 2039583
-0.42500892 0.11417654 0.97385597 2763306
-0.37495843 0.11411694 0.97334939 2894892
-0.33088899 0.1106728 0.97154099 2894892
-0.35898548 -0.41807684 1.0353405 2894892
-0.345741 -0.41813794 1.010329 2894892
-0.35803065 -0.37494335 1.0337397 2894892
-0.34561679 -0.37414619 1.0103002 2894892
-0.35827157 -0.32504877 1.034428 2894892
-0.34498045 -0.32506114 1.0093281 2894892
-0.35809731 -0.27416822 1.0343375 2894892
-0.34487316 -0.27609232 1.0093548 2894892
-0.35751578 -0.22495262 1.0334702 2894892
-0.34423879 -0.22507019 1.008396 2894892
-0.35770115 -0.17497569 1.0340532 2894892
-0.34447795 -0.17515568 1.0090815 2894892
-0.35795826 -0.1250546 1.034773 2894892
-0.34467402 -0.12507294 1.0096856 2894892
-0.3581911 -0.075129338 1.0354468 2894892
-0.34492362 -0.075028926 1.0103914 2894892
-0.3571946 -0.025052657 1.0337991 2894892
-0.34443757 -0.023647463 1.0097141 2894892
-0.35743114 0.025003133 1.0344802 2894892
-0.34418517 0.024928553 1.0094653 2894892
-0.35765302 0.074979566 1.035133 2894892
-0.34441659 0.074827515 1.0101359 2894892
-0.81082624 0.11450441 1.0327237 7171437
-0.77423137 0.11447928 1.0246414 2565927
-0.72495282 0.11441463 1.0266589 2039583
-0.67495841 0.1143553 1.0260887 2039583
-0.62501788 0.11429568 1.0256467 2039583
-0.57500613 0.11423647 1.0250239 2039583
-0.52498531 0.11417687 1.0245447 2039583
-0.47501701 0.11411761 1.0239574 2302755
-0.42503956 0.11405805 1.0234783 2894892
-0.37284756 0.11255926 1.0243984 2894892
-0.34483218 0.10848486 1.0093493 2894892
-0.37963554 -0.41798955 1.0743384 2894892
-0.37857908 -0.37497929 1.0725452 2894892
-0.37882364 -0.32493666 1.07324 2894892
-0.37907344 -0.27500579 1.0739465 2894892
-0.37930965 -0.22501023 1.0746264 2894892
-0.37958091 -0.17499228 1.0753727 2894892
-0.37981752 -0.1249548 1.076054 2894892
-0.37943 -0.075525701 1.0755539 2894892
-0.37765872 -0.024967303 1.0724455 2894892
-0.37790459 0.02498899 1.0731437 2894892
-0.37813976 0.075052939 1.0738218 2894892
-0.85707688 0.11443263 1.0862901 9079434
-0.82321221 0.11441663 1.0757685 3289650
-0.77582365 0.11436065 1.0751138 2039583
-0.72497368 0.11429281 1.0776713 2039583
-0.67491573 0.11423354 1.0770354 2039583
-0.62498647 0.11417391 1.0766119 2039583
-0.57495928 0.1141148 1.0759429 2039583
-0.52498364 0.11405548 1.0753696 2039583
-0.47498506 0.11399601 1.0748358 2697513
-0.42496523 0.11393645 1.0743369 2894892
-0.38289666 0.11037974 1.0716974 2894892
-0.40484071 -0.41802505 1.1219379 2894892
-0.3962363 -0.41821209 1.1056876 2894892
-0.40509439 -0.37485173 1.1226192 2894892
-0.39644209 -0.37521291 1.1062775 2894892
-0.40534064 -0.32498989 1.123317 2894892
-0.39671919 -0.32516095 1.1070353 2894892
-0.40562358 -0.2750634 1.1240853 2894892
-0.3969619 -0.27504662 1.1077282 2894892
-0.4046483 -0.22410855 1.1224821 2894892
-0.39615327 -0.22686535 1.106427 2894892
-0.4046613 -0.17512827 1.1227366 2894892
-0.39607415 -0.17511185 1.1065198 2894892
-0.40357366 -0.12534752 1.1209158 2894892
-0.39632046 -0.12499672 1.1072198 2894892
-0.40374884 -0.075111441 1.1214819 2894892
-0.39577672 -0.072543442 1.106438 2894892
-0.40403023 -0.025103677 1.1222469 2894892
-0.39542463 -0.025046729 1.1059955 2894892
-0.40427569 0.024970831 1.1229452 2894892
-0.39568302 0.025068527 1.1067182 2894892
-0.40455708 0.074953079 1.1237106 2894892
-0.3959572 0.074940391 1.1074697 2894892
-0.9044255 0.11435466 1.142983 10197915
-0.87117189 0.1143559 1.1255641 4276545
-0.82541436 0.11430062 1.1254511 2039583
-0.77496403 0.11423923 1.1255112 2039583
-0.72488159 0.11417972 1.1249605 2039583
-0.67484945 0.11412053 1.1243075 2039583
-0.62496442 0.1140611 1.1238261 2039583
-0.57503808 0.11400212 1.1231409 2039583
-0.52398169 0.11393759 1.1241891 2236962
-0.47493777 0.11387255 1.1265016 2894892
-0.4244957 0.11287159 1.1239568 2894892
-0.3962543 0.10783654 1.1074958 2894892
-0.91879988 0.11428726 1.1785049 5460819
-0.87498152 0.11424608 1.1734768 2039583
-0.824965 0.11418699 1.1727916 2039583
-0.77500135 0.11412761 1.1722598 2039583
-0.72489446 0.1140681 1.1716893 2039583
-0.67493445 0.1140091 1.1710031 2039583
-0.62512738 0.11395005 1.1703974 2039583
-0.57483906 0.11387903 1.1745601 2039583
-0.52598119 0.11381739 1.1755205 2631720
-0.4750132 0.11374865 1.1783978 2894892
-0.43721619 0.11371104 1.1749307 2894892
-0.9655236 0.11421444 1.2327358 6579300
-0.92514533 0.11418397 1.2249662 2236962
-0.87505984 0.11412471 1.224329 2039583
-0.82502502 0.11406545 1.2236948 2039583
-0.77494013 0.11400605 1.2231029 2039583
-0.72480631 0.11394691 1.222379 2039583
-0.6748234 0.11388775 1.2217432 2039583
-0.62489587 0.11382861 1.2211101 2039583
-0.57524574 0.1137576 1.2255918 2171169
-0.5250926 0.11369769 1.2251921 2894892
-0.4751021 0.11363862 1.2244989 2894892
-0.44499895 0.11361779 1.2179149 2894892
-1.0109521 0.1141453 1.2847687 7895160
-0.97481179 0.11412408 1.2752709 2829099
-0.92493141 0.11406496 1.2746718 2039583
-0.87510407 0.11400621 1.2739534 2039583
-0.82506227 0.11394656 1.2734753 2039583
-0.77507132 0.11388789 1.2726312 2039583
-0.7248683 0.11382836 1.2720301 2039583
-0.67484742 0.11376914 1.2713971 2039583
-0.62362969 0.11370125 1.2737734 2039583
-0.57495499 0.11363756 1.2757075 2565927
-0.52499771 0.11357825 1.275142 2894892
-0.47974518 0.11353061 1.2720834 2894892
-1.0578748 0.11407227 1.3391974 9737364
-1.0237161 0.11406469 1.3249981 3815994
-0.97511989 0.11401051 1.3229955 2039583
-0.92503291 0.11395114 1.322379 2039583
-0.87486142 0.11389179 1.3217245 2039583
-0.82501787 0.11383313 1.3209368 2039583
-0.77508771 0.11377399 1.3203223 2039583
-0.72479713 0.11371448 1.3196673 2039583
-0.67483097 0.11365569 1.3188781 2039583
-0.62554282 0.11357943 1.3257494 2105376
-0.57511806 0.1135079 1.3300607 2829099
-0.5251165 0.11344895 1.3293329 2894892
-0.48946249 0.1134153 1.3252838 2894892
-1.1057904 0.11399303 1.3967211 10197915
-1.072143 0.11399465 1.3789389 4802889
-1.0252359 0.11394659 1.3752186 2039583
-0.97501999 0.11388722 1.3745416 2039583
-0.92485642 0.11382829 1.3737135 2039583
-0.87488687 0.11376916 1.3730769 2039583
-0.82482755 0.11370996 1.3724021 2039583
-0.77481753 0.11365106 1.3716518 2039583
-0.72471988 0.1135921 1.370864 2039583
-0.67467034 0.11353283 1.3702254 2039583
-0.62616622 0.11346453 1.3741562 2434341
-0.57478398 0.11339901 1.3754627 2894892
-0.52512175 0.11334067 1.3746471 2894892
-0.49641252 0.11332872 1.3650508 2894892
-1.1292069 -0.61797667 1.4278152 11711154
-1.1297176 -0.57455873 1.4289904 11711154
-1.1297506 -0.52491087 1.4292363 11711154
-1.1295834 -0.47495559 1.4289868 11711154
-1.116245 -0.42065391 1.4275402 6513507
-1.0866098 -0.4180679 1.4427007 2039583
-1.1149089 -0.37500173 1.4276466 6052956
-1.0866425 -0.37500998 1.4427508 2039583
-1.1149337 -0.32499513 1.4277198 6052956
-1.0866965 -0.32502174 1.4428144 2039583
-1.115012 -0.27498418 1.4277655 2960685
-1.0867556 -0.27506196 1.4428678 2039583
-1.1150222 -0.22498582 1.4278461 2368548
-1.0872285 -0.22504294 1.4426996 2039583
-1.1150658 -0.17489232 1.427912 2368548
-1.0871874 -0.17514142 1.4428132 2039583
-1.1146804 -0.1249589 1.4282032 2368548
-1.0868634 -0.12502855 1.4430699 2039583
-1.1148304 -0.074851289 1.4282098 2368548
-1.0869738 -0.075133279 1.443099 2039583
-1.1147896 -0.024852725 1.4283186 2368548
-1.0869554 -0.025111586 1.4431977 2039583
-1.1148371 0.02485412 1.4283807 2368548
-1.0869976 0.02511305 1.4432603 2039583
-1.1149749 0.074861273 1.4283942 5000268
-1.0871207 0.075123444 1.4432833 2039583
-1.1145442 0.10754244 1.4276407 5395026
-1.0836977 0.10873304 1.4383529 2039583
-1.0250665 0.11383048 1.4237344 2039583
-0.97502154 0.11377206 1.4227693 2039583
-0.92502224 0.11371253 1.4222591 2039583
-0.87507832 0.11365418 1.4212959 2039583
-0.82366651 0.11358033 1.426052 2039583
-0.77512312 0.11351906 1.4270577 2039583
-0.72478473 0.11345948 1.4263994 2039583
-0.6747939 0.11340057 1.4256544 2039583
-0.62515491 0.11334223 1.4248348 2829099
-0.57511973 0.11328299 1.4242239 2894892
-0.53163004 0.11323806 1.420909 2894892
-1.1581061 -0.61811 1.4845507 2039583
-1.1436648 -0.61802083 1.4575326 9868950
-1.1590436 -0.57513332 1.4865048 2039583
-1.1454822 -0.57571959 1.4611299 7763574
-1.1587273 -0.52497196 1.4861475 2039583
-1.1455249 -0.52492809 1.4614464 7434609
-1.1581193 -0.47674578 1.4852341 2039583
-1.1451257 -0.47496653 1.4609325 7500402
-1.143389 -0.44785583 1.4578096 9474192
-1.0616652 -0.41809848 1.45603 2039583
-1.0255874 -0.41814953 1.475311 2039583
-0.98993832 -0.41818789 1.494368 2039583
-1.0617015 -0.37498277 1.4560853 2039583
-1.025438 -0.37490341 1.4754672 2039583
-0.98978585 -0.37526509 1.4945194 2039583
-1.0617598 -0.32499695 1.4561409 2039583
-1.025229 -0.32500193 1.4756699 2039583
-0.98954165 -0.32502118 1.4947431 2039583
-1.0613885 -0.27490455 1.456427 2039583
-1.0248535 -0.27502131 1.4759557 2039583
-0.98960948 -0.27498654 1.4947915 2039583
-1.0618546 -0.224951 1.4562654 2039583
-1.0248467 -0.2250212 1.4760416 2039583
-0.9899469 -0.22519068 1.494702 2039583
-1.0618647 -0.1749692 1.4563459 2039583
-1.0249618 -0.1750278 1.4760706 2039583
-0.99018288 -0.17494655 1.4946576 2039583
-1.0619761 -0.12509149 1.4563746 2039583
-1.024963 -0.12497538 1.4761604 2039583
-0.99017507 -0.12508956 1.4947501 2039583
-1.0618922 -0.075013272 1.4565051 2039583
-1.0250685 -0.075028054 1.4761884 2039583
-0.9902212 -0.074932955 1.4948149 2039583
-1.0620669 -0.024936184 1.4565003 2039583
-1.0249764 -0.025076363 1.4763186 2039583
-0.99027252 -0.024802234 1.4948739 2039583
-1.0621117 0.024937611 1.4565618 2039583
-1.025021 0.025077811 1.4763861 2039583
-0.99030429 0.024773628 1.4949436 2039583
-1.0620395 0.075001821 1.4566879 2039583
-1.0252031 0.075027131 1.476383 2039583
-0.99036896 0.074884787 1.4949933 2039583
-1.0621439 0.10725923 1.4564652 2039583
-1.0248234 0.10761707 1.4747062 2039583
-0.9838165 0.10960744 1.4863365 2039583
-0.9252035 0.11358917 1.4739925 2039583
-0.87512875 0.11353027 1.4731852 2039583
-0.82663804 0.11346146 1.4773464 2039583
-0.77495998 0.11339359 1.4794781 2039583
-0.72473156 0.11333415 1.4788342 2039583
-0.67455059 0.11327533 1.4779353 2434341
-0.6246317 0.11321659 1.4771688 2894892
-0.57476121 0.11315785 1.4764029 2894892
-0.54092056 0.11312582 1.4726115 2894892
-1.1801271 -0.61804706 1.5257508 2039583
-1.1797638 -0.57496637 1.5252717 2039583
-1.1793761 -0.52493596 1.5247802 2039583
-1.1782582 -0.48193073 1.5228902 2039583
-0.96456802 -0.41826758 1.5079267 2039583
-0.924887 -0.41824311 1.529138 2039583
-0.89296919 -0.41834012 1.5461967 2039583
-0.96460074 -0.37503973 1.5079871 2039583
-0.92494708 -0.37497193 1.5291802 2039583
-0.89298654 -0.37511507 1.5462629 2039583
-0.96462882 -0.32499632 1.5080558 2039583
-0.92496902 -0.32499847 1.529256 2039583
-0.89303911 -0.32507104 1.5463217 2039583
-0.96467656 -0.27498716 1.5081217 2039583
-0.9250266 -0.27503312 1.5293109 2039583
-0.89307386 -0.27497697 1.5463903 2039583
-0.96504331 -0.22483344 1.5080085 2039583
-0.92507046 -0.22503883 1.5293746 2039583
-0.89311463 -0.22492456 1.546456 2039583
-0.96524942 -0.17500401 1.507988 2039583
-0.92510766 -0.17501594 1.5294427 2039583
-0.89314002 -0.1749132 1.5465291 2039583
-0.96532601 -0.12499271 1.5080315 2039583
-0.9251309 -0.12496436 1.5295177 2039583
-0.89342088 -0.12539673 1.546465 2039583
-0.96528578 -0.074976392 1.5081422 2039583
-0.92509335 -0.07494504 1.5296227 2039583
-0.89370751 -0.074956439 1.5463992 2039583
-0.9653275 -0.02499309 1.5082049 2039583
-0.92530274 -0.024984596 1.5295997 2039583
-0.89374602 -0.024986437 1.546466 2039583
-0.96536893 0.02499452 1.5082711 2039583
-0.92534322 0.024986025 1.5296651 2039583
-0.89378405 0.024987863 1.5465324 2039583
-0.96541035 0.074986383 1.508335 2039583
-0.92521286 0.074955143 1.529821 2039583
-0.89382249 0.07496646 1.5465986 2039583
-0.96547014 0.10683843 1.5083416 2039583
-0.92487788 0.10734588 1.5287795 2039583
-0.88496274 0.1097231 1.5382973 2039583
-0.82502478 0.11333738 1.5284555 2039583
-0.77502269 0.1132789 1.5275223 2039583
-0.72485983 0.11322023 1.5265852 2039583
-0.67496771 0.11316088 1.526075 2763306
-0.62512076 0.11310259 1.5251448 2894892
-0.57607418 0.11304663 1.523628 2894892
-0.54713577 0.11304975 1.5076087 2894892
-1.2094352 -0.61822146 1.5805851 2039583
-1.1959484 -0.61828279 1.5553509 2039583
-1.2095439 -0.57598525 1.5809852 2039583
-1.1962979 -0.57256466 1.5562176 2039583
-1.2101686 -0.52499235 1.5823885 2039583
-1.1966885 -0.52512187 1.5571694 2039583
-1.2092317 -0.48998475 1.5808015 2039583
-1.1962312 -0.48668349 1.5564935 2039583
-0.86830151 -0.41832817 1.5593812 2039583
-0.82533205 -0.41841313 1.5823501 2039583
-0.79634428 -0.41836298 1.597842 2039583
-0.86830997 -0.37496743 1.5594527 2039583
-0.82535726 -0.37501362 1.5824082 2039583
-0.79635459 -0.37487498 1.597913 2039583
-0.86833781 -0.32496578 1.5595262 2039583
-0.8253963 -0.32500327 1.5824759 2039583
-0.79640454 -0.3249566 1.597973 2039583
-0.86838692 -0.2749767 1.5595845 2039583
-0.82543379 -0.27500239 1.5825443 2039583
-0.79646641 -0.27513027 1.5980268 2039583
-0.86840677 -0.22498477 1.5596613 2039583
-0.82547015 -0.22501031 1.5826117 2039583
-0.79647666 -0.22510596 1.5981078 2039583
-0.86845529 -0.17500493 1.5597229 2039583
-0.82554281 -0.17502777 1.5826591 2039583
-0.79651111 -0.17479569 1.5981766 2039583
-0.86872876 -0.12483481 1.5596632 2039583
-0.82552105 -0.12505375 1.5827572 2039583
-0.79652143 -0.12485585 1.598258 2039583
-0.86895216 -0.075009994 1.5596312 2039583
-0.82554263 -0.075042799 1.582832 2039583
-0.79678029 -0.07608027 1.598205 2039583
-0.86858392 -0.025120109 1.5599146 2039583
-0.82503235 -0.02492395 1.5831929 2039583
-0.79713702 -0.02515866 1.5981028 2039583
-0.86862183 0.02512156 1.5599813 2039583
-0.82506818 0.024925353 1.5832608 2039583
-0.79717135 0.025160119 1.5981721 2039583
-0.86866152 0.075125664 1.5600477 2039583
-0.8252359 0.074969284 1.5832573 2039583
-0.79722649 0.075155869 1.5982291 2039583
-0.86834115 0.10681037 1.560184 2039583
-0.82475889 0.1074544 1.5816572 2039583
-0.78229582 0.11085731 1.5854025 2039583
-0.72522408 0.11309792 1.5779704 2368548
-0.67540562 0.11303938 1.577158 2894892
-0.62498301 0.11297974 1.5764829 2894892
-0.58402199 0.11293825 1.5730432 2894892
-1.2328176 -0.61816341 1.624331 2039583
-1.2324002 -0.57509619 1.6237504 2039583
-1.2320442 -0.52513504 1.6233177 2039583
-1.228489 -0.4950904 1.6168067 2039583
-0.77159178 -0.4184584 1.6110728 2039583
-0.72519273 -0.41851151 1.6358724 2697513
-0.69919813 -0.41897205 1.6497656 2894892
-0.7715795 -0.37500498 1.6111543 2039583
-0.7251721 -0.37498891 1.6359583 2697513
-0.69922453 -0.3752434 1.6498276 2894892
-0.77164006 -0.32499176 1.6112102 2039583
-0.72524452 -0.32502583 1.6360085 2697513
-0.69925493 -0.32467833 1.6498996 2894892
-0.77167755 -0.27495727 1.611276 2039583
-0.72523093 -0.27504364 1.6361022 2697513
-0.69928366 -0.27684239 1.6499671 2894892
-0.77169144 -0.22498518 1.6113554 2039583
-0.72529423 -0.22501305 1.6361543 2697513
-0.77176124 -0.17505924 1.611406 2039583
-0.72535884 -0.17496417 1.6362059 2697513
-0.77179325 -0.12502804 1.6114769 2039583
-0.72532618 -0.12493938 1.6363114 2697513
-0.77187997 -0.074817568 1.6115175 2039583
-0.7254554 -0.075059146 1.6363299 2697513
-0.77245569 -0.024978729 1.6112949 2039583
-0.72534359 -0.025084781 1.6364748 2697513
-0.77248901 0.024980182 1.6113651 2039583
-0.72537434 0.025086252 1.6365466 2697513
-0.77231246 0.074951507 1.6115451 2039583
-0.7255528 0.075054422 1.6365392 2697513
-0.77223104 0.10666958 1.6115195 2039583
-0.7250666 0.10726673 1.634801 2697513
-0.67523235 0.11293089 1.6224875 2894892
-0.62270272 0.11286081 1.6251109 2894892
-0.59302437 0.11283023 1.6228355 2894892
-1.2609292 -0.61840022 1.6769254 2039583
-1.247454 -0.6179114 1.6517165 2039583
-1.2605398 -0.57525754 1.6763982 2039583
-1.2470851 -0.57463187 1.6512282 2039583
-1.2605338 -0.52955627 1.6765988 2039583
-1.2477793 -0.52136469 1.652775 2039583
-1.2464476 -0.49980977 1.6503838 2039583
-0.6908164 -0.41854358 1.6542463 2894892
-0.69084495 -0.37499017 1.6543069 2894892
-0.69087911 -0.32497209 1.6543756 2894892
-0.69093186 -0.27481785 1.6544341 2894892
-0.69154006 -0.22506088 1.6541959 2894892
-0.69145912 -0.1750378 1.654326 2894892
-0.69159931 -0.12501584 1.6543381 2894892
-0.69151878 -0.074980564 1.6544685 2894892
-0.69165891 -0.024953596 1.6544801 2894892
-0.6916846 0.024909062 1.654554 2894892
-0.69161195 0.074945144 1.6546795 2894892
-0.68378299 0.10899763 1.6610643 2894892
-0.62928677 0.11276057 1.6704255 2894892
-1.2855121 -0.61821592 1.7229187 2039583
-1.2867687 -0.5745644 1.7254736 2039583
-1.2852949 -0.53457111 1.7229024 2039583
-0.70601505 0.11271734 1.7275094 2894892
-0.67545348 0.11269408 1.7217041 2894892
-0.6357103 0.11265131 1.7194169 2894892
-1.3115745 -0.61850917 1.7716795 2039583
-1.2999859 -0.60250324 1.7500721 2039583
-1.3144604 -0.57422322 1.7772838 2039583
-1.2999471 -0.59813517 1.7500199 2039583
-1.3123832 -0.54162461 1.7735506 2039583
-0.71707982 0.11260283 1.7810801 2894892
-0.67514217 0.11256447 1.7758254 2894892
-0.64289325 0.11256081 1.7609684 2894892
-1.3511286 -0.61783427 1.8456858 2039583
-1.3368555 -0.61844367 1.8189797 2039583
-1.3507462 -0.57638067 1.8451631 2039583
-1.3378731 -0.57595682 1.8210809 2039583
-1.3342234 -0.54728508 1.8143859 2039583
-0.75464118 0.11249782 1.8441439 2894892
-0.72507405 0.11248461 1.8346286 2894892
-0.68119532 0.11243676 1.8323611 2894892
-1.3657948 -0.61850458 1.8731223 2039583
-1.364849 -0.58043253 1.8715297 2039583
-0.76359695 0.11240611 1.8870549 2894892
-0.72532392 0.11236829 1.8834372 2894892
-0.68983233 0.11233331 1.8800412 2894892
-1.4034152 -0.61837292 1.9435083 2039583
-1.389871 -0.61839271 1.9181683 2039583
-1.4031516 -0.5908857 1.9431432 2039583
-1.388654 -0.58656299 1.9160384 2039583
-0.77125102 0.11229727 1.9365052 2894892
-0.72596347 0.1122467 1.9346694 2894892
-0.69734222 0.11224344 1.9214959 2894892
-1.4197185 -0.61854059 1.9740098 2039583
-1.4162549 -0.59341115 1.9676473 2039583
-0.80599272 0.11225331 1.9725953 2894892
-0.77735305 0.11221574 1.9737612 2894892
-0.73187447 0.11215507 1.9760413 2894892
-1.4538245 -0.62140536 2.0378067 2039583
-1.4413309 -0.61929071 2.014442 2039583
-1.4363633 -0.59896934 2.0052426 2039583
-0.81658429 0.11214665 2.0226183 2894892
-0.77511239 0.11210325 2.0197105 2894892
-0.73904854 0.11207151 2.0146654 2894892
-1.470468 -0.62632293 2.0689228 2039583
-0.85620964 0.11201929 2.0960455 2894892
-0.82507634 0.11202037 2.0797791 2894892
-0.77676433 0.11196627 2.0778713 2894892
-0.74786824 0.11196656 2.0630732 2894892
-1.5056211 -0.6354109 2.1346498 2039583
-1.4922675 -0.63201606 2.1096816 2039583
-0.86299926 0.11195181 2.1277719 2894892
-0.82476854 0.11190741 2.1269276 2894892
-0.78390121 0.11185993 2.1260254 2894892
-0.90198737 0.11183916 2.1947567 2894892
-0.87296271 0.11184145 2.179029 2894892
-0.8249051 0.11178979 2.1762309 2894892
-0.79126585 0.11176942 2.1676478 2894892
-0.90889418 0.11176439 2.229542 2894892
-0.87440729 0.11172444 2.2287447 2894892
-0.82690877 0.11166936 2.2276468 2894892
-0.91697228 0.11168844 2.2654727 2894892
-0.8752988 0.11164016 2.2644939 2894892
-0.8336584 0.11159194 2.2635157 2894892
-0.9574405 0.11155587 2.3414893 2894892
-0.92474359 0.11156275 2.3220041 2894892
-0.87523413 0.11150726 2.320065 2894892
-0.84229028 0.11149277 2.3093884 2894892
-0.96575701 0.11147135 2.3811262 2894892
-0.92492145 0.11142419 2.3801184 2894892
-0.87914455 0.11137129 2.3789887 2894892
-0.97334558 0.11138263 2.4221003 2894892
-0.92471391 0.11132649 2.4208791 2894892
-0.88725895 0.11128327 2.4199393 2894892
-1.0080246 0.11132186 2.4651964 2894892
-0.97501153 0.11128377 2.4643536 2894892
-0.92450064 0.11122555 2.4630635 2894892
-0.8946293 0.11119108 2.4623005 2894892
-1.0166391 0.11122728 2.5091412 2894892
-0.97463584 0.1111789 2.5080497 2894892
-0.92742383 0.11112448 2.5068228 2894892
-1.0512464 0.11115898 2.5553646 2894892
-1.0255679 0.1111294 2.5546844 2894892
-0.97153974 0.11104479 2.5626435 2894892
-0.93820214 0.11099768 2.5654106 2894892
-1.0609802 0.11105784 2.6026132 2894892
-1.0209975 0.11098777 2.6116166 2894892
-0.97956032 0.11090277 2.6261275 2894892
-1.0710816 0.11095293 2.6516423 2894892
-1.0311068 0.11090701 2.6505451 2894892
-0.98315907 0.11073119 2.699805 2894892
-1.1064873 0.11087269 2.7032549 2894892
-1.0747784 0.11083632 2.702368 2894892
-1.0249892 0.11077917 2.7009752 2894892
-0.99559057 0.11074546 2.7001529 2894892
-1.117878 0.11076002 2.7561882 2894892
-1.0751549 0.11071105 2.7549696 2894892
-1.0243968 0.11065287 2.7535219 2894892
-0.99673104 0.11062118 2.7527332 2894892
-1.1544766 0.11067132 2.8119595 2894892
-1.1250118 0.11063758 2.8111024 2894892
-1.0743703 0.1105796 2.8096297 2894892
-1.0320126 0.11053111 2.8083975 2894892
-1.1661093 0.11054851 2.8692446 2894892
-1.1252191 0.11050177 2.868031 2894892
-1.0747536 0.11044405 2.8665338 2894892
-1.0423373 0.11040702 2.865572 2894892
-1.2028002 0.11044884 2.929661 2894892
-1.1745431 0.11041658 2.9288049 2894892
-1.1254365 0.11036049 2.9273179 2894892
-1.0788312 0.11030728 2.9259062 2894892
-1.2159566 0.11031607 2.9918952 2894892
-1.1745512 0.11026885 2.9906144 2894892
-1.124409 0.11021167 2.989064 2894892
-1.0893383 0.11017168 2.9879792 2894892
-1.2540603 0.11020529 3.0576012 2894892
-1.2245541 0.11017171 3.056669 2894892
-1.1745598 0.11011477 3.055089 2894892
-1.1258963 0.11005935 3.0535517 2894892
-1.268944 0.11006137 3.1254578 2894892
-1.225667 0.11001217 3.1240599 2894892
-1.1758797 0.10995556 3.1224525 2894892
-1.1392255 0.10991386 3.1212683 2894892
-1.3086617 0.10993817 3.1971865 2894892
-1.2751079 0.10990007 3.1960785 2894892
-1.2241472 0.10984223 3.1943958 2894892
-1.1759179 0.10978745 3.1928041 2894892
-1.3241354 0.10977975 3.2714088 2894892
-1.2760663 0.10972527 3.2697849 2894892
-1.2253021 0.10966772 3.2680702 2894892
-1.1896597 0.10962731 3.2668662 2894892
-1.3581113 -0.57040626 3.3209724 2894892
-1.3272744 -0.57013285 3.3374534 2894892
-1.3579509 -0.52539027 3.321136 2894892
-1.327457 -0.52486593 3.3374383 2894892
-1.3579808 -0.47527784 3.3212075 2894892
-1.3273438 -0.47489148 3.3375828 2894892
-1.3581161 -0.42478147 3.3212221 2894892
-1.3273787 -0.42498448 3.3376508 2894892
-1.3581457 -0.37447 3.3212943 2894892
-1.3274045 -0.37500593 3.3377223 2894892
-1.3581216 -0.32473907 3.321393 2894892
-1.3274583 -0.32495627 3.3377826 2894892
-1.3581502 -0.27520859 3.3214648 2894892
-1.3275117 -0.2749052 3.3378441 2894892
-1.3581797 -0.22567573 3.3215342 2894892
-1.3276405 -0.22471663 3.3378577 2894892
-1.3581032 -0.17553551 3.3216629 2894892
-1.3277036 -0.17445648 3.3379133 2894892
-1.3583428 -0.12465376 3.3216236 2894892
-1.3275723 -0.12446293 3.3380737 2894892
-1.3582671 -0.074312635 3.3217514 2894892
-1.3276006 -0.074679375 3.3381386 2894892
-1.3582969 -0.024771351 3.3218222 2894892
-1.327629 -0.024893578 3.3382177 2894892
-1.3583254 0.024772046 3.3218915 2894892
-1.3276572 0.024894299 3.3382843 2894892
-1.3583546 0.07431756 3.3219633 2894892
-1.327686 0.074684314 3.3383574 2894892
-1.3583721 0.10459633 3.3220069 2894892
-1.3281999 0.10520779 3.3380384 2894892
-1.2756629 0.10954043 3.3469172 2894892
-1.229316 0.10948799 3.3453147 2894892
-1.3021584 -0.57056201 3.3508782 2894892
-1.274912 -0.56999856 3.365442 2894892
-1.2389722 -0.57068169 3.3846514 2894892
-1.302184 -0.52476084 3.3509448 2894892
-1.2744812 -0.52517992 3.3657494 2894892
-1.2382532 -0.52465004 3.3851147 2894892
-1.3022122 -0.47479376 3.3510165 2894892
-1.2744528 -0.4751811 3.3658524 2894892
-1.2382652 -0.47463948 3.385196 2894892
-1.3022399 -0.42482451 3.3510885 2894892
-1.2744858 -0.42511714 3.3659227 2894892
-1.2372911 -0.42463097 3.3858032 2894892
-1.302268 -0.37485325 3.35116 2894892
-1.274519 -0.37505135 3.3659909 2894892
-1.2373763 -0.3753849 3.385843 2894892
-1.3022959 -0.32487977 3.3512321 2894892
-1.2745609 -0.32504687 3.366055 2894892
-1.2372438 -0.32544482 3.3860016 2894892
-1.3023237 -0.27490413 3.3513043 2894892
-1.2746118 -0.27510425 3.3661151 2894892
-1.23727 -0.2749508 3.3860748 2894892
-1.3023521 -0.22492637 3.3513765 2894892
-1.2747461 -0.22528864 3.3661327 2894892
-1.2372972 -0.22445439 3.3861499 2894892
-1.30238 -0.17494649 3.3514485 2894892
-1.2747998 -0.17553434 3.3661876 2894892
-1.2371851 -0.1743634 3.386296 2894892
-1.3024079 -0.12496444 3.3515201 2894892
-1.2746586 -0.1255174 3.3663511 2894892
-1.2374921 -0.12529258 3.3862185 2894892
-1.3024359 -0.074980237 3.3515923 2894892
-1.2746862 -0.075312033 3.3664236 2894892
-1.2373767 -0.075758174 3.386364 2894892
-1.3024638 -0.024993889 3.3516641 2894892
-1.2747141 -0.025104497 3.3664954 2894892
-1.2374029 -0.025253206 3.3864386 2894892
-1.3024918 0.024994604 3.3517363 2894892
-1.2747415 0.025105212 3.3665695 2894892
-1.2374299 0.025253937 3.386513 2894892
-1.3025198 0.074985251 3.3518085 2894892
-1.2747688 0.075317077 3.366641 2894892
-1.2374564 0.07576327 3.3865852 2894892
-1.3036853 0.10412828 3.3512361 2894892
-1.2747847 0.10460826 3.3666842 2894892
-1.2374725 0.10522797 3.3866282 2894892
