# .PCD v0.7 - Point Cloud Data file format
VERSION 0.7
FIELDS x y z rgb
SIZE 4 4 4 4
TYPE F F F U
COUNT 1 1 1 1
WIDTH 866
HEIGHT 1
VIEWPOINT 0 0 0 1 0 0 0
POINTS 866
DATA ascii
0.29642138 -0.20044692 0.4489654 2894892
0.29751492 -0.17500846 0.44827682 2894892
0.31788903 -0.17225298 0.4347339 2894892
0.29752132 -0.12524025 0.44834819 2894892
0.31862277 -0.12496988 0.43431643 2894892
0.2975572 -0.075223878 0.44839957 2894892
0.31856343 -0.074998416 0.43443573 2894892
0.29762241 -0.024997497 0.44843286 2894892
0.31860301 -0.0250006 0.43448243 2894892
0.29765749 0.025001377 0.44848558 2894892
0.31864309 0.024998568 0.43453082 2894892
0.2977556 0.074647591 0.44849592 2894892
0.31867474 0.074998185 0.4345873 2894892
-0.35277009 0.11610679 0.4469932 10197915
-0.31973717 0.11610149 0.42803356 10197915
-0.27499384 0.11607126 0.42385879 10197915
-0.22499269 0.11603318 0.4237172 10197915
-0.17499179 0.11599569 0.42357939 10197915
-0.12499636 0.11595818 0.42344943 10197915
-0.074997731 0.11591987 0.4233048 10197915
-0.024994982 0.11588343 0.42316803 10197915
0.025006577 0.11584535 0.4230302 10197915
0.074974924 0.11580599 0.42349845 10197915
0.12500131 0.11576886 0.42403182 10197915
0.17500567 0.11573068 0.42389932 10197915
0.22501002 0.11569272 0.42375526 10197915
0.27755776 0.11476273 0.42640176 9408399
0.31724569 0.10994251 0.43046322 5329233
0.23393027 -0.20973067 0.49050376 2894892
0.26680359 -0.20484273 0.46865264 2894892
0.23516092 -0.17500882 0.48973697 2894892
0.27322075 -0.17500205 0.4644289 2894892
0.23533705 -0.12499794 0.48969641 2894892
0.2732513 -0.12500258 0.46448621 2894892
0.23536229 -0.074999906 0.48975742 2894892
0.27339393 -0.074977033 0.46446913 2894892
0.23525257 -0.025022833 0.48990482 2894892
0.27332798 -0.02498994 0.46458521 2894892
0.23532593 0.024937602 0.48993191 2894892
0.27334923 0.025000732 0.46464869 2894892
0.23544757 0.074998111 0.4899272 2894892
0.27345288 0.075040489 0.46465704 2894892
-0.36597785 0.11608326 0.48013496 10197915
-0.3249976 0.11605837 0.47401688 10197915
-0.27500349 0.11602081 0.47384736 10197915
-0.22500384 0.11598315 0.47370479 10197915
-0.17499812 0.11594479 0.47354943 10197915
-0.12500003 0.11590761 0.47338551 10197915
-0.075009078 0.1158697 0.47324204 10197915
-0.02488563 0.11583207 0.47324648 10197915
0.024997447 0.11579332 0.47373047 10197915
0.074817151 0.11575588 0.47381827 10197915
0.12500049 0.11571746 0.47422075 10197915
0.17499754 0.11567974 0.47406822 10197915
0.22947204 0.11164378 0.48099306 6381921
0.27230832 0.10898688 0.46393198 4144959
0.14714718 -0.22262798 0.54818815 2894892
0.17394687 -0.21864581 0.53037596 2829099
0.20947893 -0.2133659 0.50675589 2894892
0.14717861 -0.17498621 0.54823959 2894892
0.17565089 -0.17499954 0.52930319 2894892
0.20986877 -0.17498998 0.50655597 2894892
0.14721763 -0.12517643 0.54828936 2894892
0.1756665 -0.12500139 0.52938038 2894892
0.21005127 -0.12500291 0.5065102 2894892
0.14740819 -0.075004578 0.5482381 2894892
0.17569554 -0.075000577 0.52943033 2894892
0.21007644 -0.075000629 0.50656742 2894892
0.1474216 -0.024986725 0.54830581 2894892
0.17570707 -0.025000768 0.5294987 2894892
0.21009941 -0.025004158 0.50663048 2894892
0.14743885 0.02499065 0.54836982 2894892
0.17572723 0.024998387 0.52955699 2894892
0.21019147 0.025105588 0.50664526 2894892
0.14748026 0.074810453 0.54841793 2894892
0.17575665 0.074997954 0.52962059 2894892
0.21031538 0.075003862 0.50663602 2894892
-0.41203639 0.11606451 0.533099 10197915
-0.37498498 0.11604609 0.52359325 10197915
-0.32477954 0.11600751 0.52386171 10197915
-0.27499062 0.1159698 0.52420604 10197915
-0.22499323 0.11593206 0.52402937 10197915
-0.17500308 0.11589424 0.52386105 10197915
-0.12500353 0.1158563 0.52370262 10197915
-0.074994981 0.11581866 0.52352452 10197915
-0.025155624 0.11578088 0.52353621 10197915
0.024997467 0.11574242 0.52416062 10197915
0.07500495 0.11570479 0.52398336 10197915
0.12780972 0.11468543 0.52685112 8882055
0.17439921 0.10993345 0.52598667 4342338
0.21007642 0.10836633 0.50653082 3092271
0.083070271 -0.25715464 0.5907408 2894892
0.1105173 -0.25307667 0.57249868 2894892
0.084768265 -0.22500068 0.58966327 2894892
0.12254013 -0.22470297 0.5645479 2829099
0.084852986 -0.17508286 0.58968085 2894892
0.12277299 -0.17500049 0.56446832 2894892
0.0850133 -0.12499844 0.58965015 2894892
0.12280834 -0.12497744 0.56451994 2894892
0.085022084 -0.075007625 0.58972204 2894892
0.12300344 -0.074997529 0.56446564 2894892
0.08503107 -0.025008891 0.58979106 2894892
0.12302025 -0.024999201 0.56453025 2894892
0.085041396 0.025005668 0.58985913 2894892
0.12303563 0.024996765 0.56459689 2894892
0.085275277 0.075005174 0.58977979 2894892
0.12307075 0.075017676 0.56464911 2894892
-0.45921886 0.11604367 0.58891922 10197915
-0.42400312 0.11603136 0.57483763 10197915
-0.37503016 0.11599542 0.57374579 10197915
-0.32533598 0.11595735 0.57409889 10197915
-0.27501214 0.11591864 0.57453328 10197915
-0.22501068 0.1158811 0.57436162 10197915
-0.17499511 0.11584332 0.57416761 10197915
-0.12499046 0.11580572 0.57397252 10197915
-0.07498391 0.11576796 0.57379478 10197915
-0.02498761 0.11573035 0.57361388 10197915
0.025010701 0.11569262 0.57341588 10000536
0.079503864 0.11159731 0.58082652 5197647
0.1220701 0.10902376 0.56377059 3158064
-0.0029747547 -0.26994196 0.64793658 2894892
0.02358464 -0.26599696 0.63028377 2894892
0.059103813 -0.26071769 0.60667288 2894892
-0.0029538788 -0.22498903 0.64799124 2894892
0.025542038 -0.22500093 0.62904662 2894892
0.059544493 -0.22500525 0.60643393 2894892
-0.0029505368 -0.17500375 0.64806455 2894892
0.025538573 -0.17500345 0.62912047 2894892
0.05963394 -0.17486726 0.60645092 2894892
-0.0029556146 -0.12503114 0.64814353 2894892
0.025546588 -0.12500268 0.62919438 2894892
0.059793316 -0.12499982 0.60641992 2894892
-0.0027707971 -0.075508691 0.6480962 2894892
0.025551336 -0.075000532 0.62926394 2894892
0.059804335 -0.074995257 0.60648894 2894892
-0.0026875173 -0.024970703 0.64811754 2894892
0.025549527 -0.025000382 0.62934154 2894892
0.059803318 -0.024997298 0.60656536 2894892
-0.0026878328 0.024974588 0.64819282 2894892
0.025551114 0.024998901 0.629417 2894892
0.059810318 0.024995232 0.60663652 2894892
-0.0026835361 0.074985318 0.6482662 2894892
0.025559105 0.074998729 0.62948495 2894892
0.060061362 0.075000435 0.60654557 2894892
-0.50593615 0.11602376 0.64348733 10197915
-0.47237521 0.1160147 0.62731773 10197915
-0.42500699 0.11598132 0.62489074 10197915
-0.37506434 0.11594373 0.62469518 10197915
-0.32505238 0.11590607 0.62449116 10197915
-0.27498725 0.11586829 0.62429005 10197915
-0.2249839 0.11583067 0.62408262 10197915
-0.17499764 0.11579301 0.62388158 10197915
-0.12500104 0.1157554 0.62367868 10197915
-0.074993908 0.11571768 0.62347323 10132122
-0.021828976 0.11455617 0.6268279 7237230
0.024260143 0.10997853 0.62564325 3355443
0.059827898 0.10845059 0.60636997 2894892
-0.068251655 -0.30464244 0.69128895 2894892
-0.045670267 -0.3012864 0.67627877 2894892
-0.065407157 -0.27499244 0.68944186 2894892
-0.028341556 -0.27342689 0.66480076 2894892
-0.065414682 -0.22499985 0.68952245 2894892
-0.02752207 -0.22500479 0.66432583 2894892
-0.065423906 -0.17500745 0.68960565 2894892
-0.027519369 -0.17500198 0.6644026 2894892
-0.065363504 -0.12508726 0.68964034 2894892
-0.027531384 -0.12500101 0.66448575 2894892
-0.065142266 -0.075007074 0.68956894 2894892
-0.027341543 -0.07493078 0.66443312 2894892
-0.065139391 -0.025005335 0.68964279 2894892
-0.027248893 -0.025000909 0.66445094 2894892
-0.065146938 0.024997808 0.68972433 2894892
-0.027254188 0.024997808 0.66452694 2894892
-0.06516429 0.074994415 0.68981111 2894892
-0.027262803 0.074997082 0.66460949 2894892
-0.55226117 0.11600458 0.69704044 10197915
-0.51957035 0.11599843 0.67868197 10197915
-0.47496188 0.11596888 0.67451513 10197915
-0.42497084 0.1159313 0.67430377 10197915
-0.37505019 0.11589371 0.67406559 10197915
-0.32506767 0.11585611 0.67385566 10197915
-0.27500734 0.11581837 0.67364991 10197915
-0.22499706 0.11578055 0.67342913 10197915
-0.17464456 0.11574217 0.6737861 10197915
-0.12501511 0.11570377 0.67462379 8487297
-0.070821747 0.11157542 0.68112999 3815994
-0.028380977 0.10904194 0.66380447 2894892
-0.1533953 -0.31727105 0.74788368 2894892
-0.12677184 -0.31335053 0.7301873 2894892
-0.090913571 -0.30802593 0.7063517 2894892
-0.15338083 -0.27495053 0.74793851 2894892
-0.12437435 -0.27499953 0.72865015 2829099
-0.090385281 -0.27501813 0.70605141 2894892
-0.15339893 -0.22495143 0.74802637 2894892
-0.12438326 -0.22500078 0.72873127 2894892
-0.090393424 -0.22500511 0.70613247 2894892
-0.15312569 -0.17542124 0.74791986 2894892
-0.12440214 -0.17500716 0.72882265 2894892
-0.090407841 -0.17498095 0.70621723 2894892
-0.1530838 -0.12503298 0.7479682 2894892
-0.12441237 -0.12500162 0.72890496 2894892
-0.090342559 -0.12483475 0.70624936 2894892
-0.15309295 -0.075074971 0.74805021 2894892
-0.1244312 -0.074992418 0.72899342 2894892
-0.090111107 -0.075001672 0.70617133 2894892
-0.15311135 -0.025066623 0.74813831 2894892
-0.12444356 -0.024996292 0.72907692 2894892
-0.090119235 -0.025006566 0.70625436 2894892
-0.15312946 0.02507057 0.74822628 2894892
-0.12445752 0.024992034 0.72915959 2894892
-0.090130031 0.0250105 0.70633674 2894892
-0.153025 0.074296877 0.74823171 2894892
-0.1244748 0.074991234 0.72924775 2894892
-0.090138681 0.07500951 0.70641744 2894892
-0.56514746 0.1159815 0.72947657 10197915
-0.52497923 0.11595736 0.72324681 10197915
-0.47456944 0.11591824 0.72420204 10197915
-0.42498824 0.11588033 0.7246412 10197915
-0.37507564 0.11584271 0.72438633 10197915
-0.32506537 0.11580504 0.72417939 10197915
-0.27498093 0.1157674 0.72393715 10197915
-0.2249933 0.11572979 0.72368711 9211020
-0.17243618 0.11462608 0.72725397 5131854
-0.12577833 0.10979624 0.72616178 2894892
-0.090388358 0.10827506 0.70640785 2894892
-0.22299463 -0.35264611 0.79410857 2894892
-0.21587566 -0.32493663 0.78941673 2894892
-0.17904055 -0.32112131 0.76493293 2894892
-0.21570423 -0.27515125 0.78937894 2894892
-0.17794964 -0.27500236 0.76426673 2894892
-0.21549077 -0.22499526 0.78931242 2894892
-0.17796184 -0.22500168 0.76436514 2894892
-0.2155212 -0.17499222 0.78940892 2894892
-0.17767838 -0.17493607 0.76424682 2894892
-0.21555197 -0.12500325 0.78950584 2894892
-0.17763522 -0.12499604 0.76428652 2894892
-0.21556063 -0.07500203 0.78958696 2894892
-0.1776396 -0.075002797 0.76438248 2894892
-0.21560405 -0.024998061 0.78969181 2894892
-0.17768818 -0.025003904 0.76447678 2894892
-0.21538891 0.024853542 0.78962386 2894892
-0.17770462 0.024997121 0.76455641 2894892
-0.21523313 0.075006679 0.78959721 2894892
-0.1775617 0.075098917 0.7645576 2894892
-0.61185062 0.11596156 0.78404617 10197915
-0.57490087 0.11594456 0.7732293 10197915
-0.52499866 0.11590717 0.77284938 10197915
-0.47551736 0.11586864 0.77388352 10197915
-0.4250218 0.11582979 0.77449626 10197915
-0.37510908 0.11579226 0.77421927 10197915
-0.32511091 0.11575456 0.77397949 9803157
-0.27500021 0.11571699 0.77373755 6316128
-0.22081308 0.11150334 0.78162605 2960685
-0.17849359 0.10893578 0.76384598 2894892
-0.26967251 -0.35957968 0.82513571 2894892
-0.24191417 -0.35547504 0.80668443 2894892
-0.26800853 -0.32498455 0.82408059 2894892
-0.24115464 -0.32500651 0.80622649 2894892
-0.26775461 -0.27484199 0.8239879 2894892
-0.24073914 -0.27500072 0.80602372 2894892
-0.26762724 -0.22499229 0.82398033 2894892
-0.24037842 -0.22502053 0.80586153 2894892
-0.26766482 -0.17501859 0.82408077 2894892
-0.24040915 -0.1749924 0.80595863 2894892
-0.26769444 -0.12501758 0.82417554 2894892
-0.2404314 -0.12499809 0.80604708 2894892
-0.26772881 -0.074996479 0.82427341 2894892
-0.24046059 -0.074992344 0.80614585 2894892
-0.26775342 -0.024996351 0.82436931 2894892
-0.24049509 -0.024990322 0.80624312 2894892
-0.2677812 0.024992136 0.824462 2894892
-0.24026233 0.025237253 0.80616337 2894892
-0.26782691 0.074983165 0.82456893 2894892
-0.24012868 0.074986033 0.80614978 2894892
-0.65814251 0.11594254 0.83745545 10197915
-0.62389535 0.11593018 0.82403696 10197915
-0.57463115 0.11589365 0.82327217 10197915
-0.52496523 0.11585435 0.82493597 10197915
-0.47494635 0.11581682 0.82464951 10197915
-0.42499092 0.11577926 0.82436299 10197915
-0.37513027 0.11574172 0.8241204 7763574
-0.32511434 0.11570411 0.82383746 3487029
-0.2720589 0.11057709 0.82170087 2894892
-0.24044017 0.1082531 0.80616492 2894892
-0.70582181 0.11592063 0.89469749 10197915
-0.67188668 0.11591257 0.87729621 10197915
-0.62499452 0.11588031 0.87409681 10197915
-0.57543278 0.11584257 0.87428957 10197915
-0.52500409 0.11580241 0.87624854 10197915
-0.47503632 0.11576481 0.87597269 10132122
-0.42506051 0.11572733 0.87564558 9803157
-0.37515762 0.1156898 0.87540478 3421236
-0.3259885 0.11565349 0.87447929 2894892
-0.29711279 0.11564665 0.85965532 2894892
-0.75198323 0.11590128 0.94833946 10197915
-0.71958786 0.11589508 0.9302665 10197915
-0.67495519 0.11586549 0.92608207 10197915
-0.62497348 0.11582799 0.92576045 10197915
-0.57497543 0.11579041 0.92545235 10197915
-0.52500951 0.11575288 0.92518359 10132122
-0.47502813 0.11571533 0.92485845 10066329
-0.42503104 0.11567775 0.92457777 7105644
-0.37516263 0.11564029 0.92428207 2894892
-0.33290407 0.11561053 0.92207903 2894892
-0.76496285 0.11587866 0.98035002 10197915
-0.72494274 0.11585442 0.97439539 10197915
-0.67489767 0.11581684 0.97406203 10197915
-0.62494457 0.11577932 0.97376394 10197915
-0.5749656 0.11574186 0.97338444 10132122
-0.52501887 0.11570426 0.97316325 10000536
-0.47504681 0.11566684 0.97275406 9934743
-0.42468768 0.11562856 0.97289121 4013373
-0.37515876 0.11558834 0.97555351 2894892
-0.34119305 0.11556789 0.97037458 2894892
-0.81191999 0.11585841 1.0354807 10197915
-0.77483362 0.11584154 1.024413 10197915
-0.72488409 0.1158042 1.023922 10197915
-0.67491263 0.11576674 1.0235707 10197915
-0.62503618 0.11572926 1.0232229 10132122
-0.57500923 0.11569175 1.0228904 10000536
-0.52501464 0.11565413 1.0226314 10000536
-0.47505248 0.11561679 1.022191 7960953
-0.42533028 0.11557904 1.0222738 2894892
-0.3761377 0.11553929 1.024685 2894892
-0.34806654 0.11553254 1.0104209 2894892
-0.85829443 0.115839 1.0892859 10197915
-0.82387173 0.11582617 1.0762347 10197915
-0.7749806 0.1157904 1.0749946 10197915
-0.72486687 0.1157528 1.0746462 10197915
-0.67485785 0.11571527 1.0742849 10132122
-0.62503314 0.115678 1.0738519 10000536
-0.57501554 0.11564033 1.0736026 10000536
-0.52503139 0.11560285 1.0732536 10000536
-0.47507867 0.11556543 1.0728576 4671303
-0.42501056 0.11552782 1.0725577 2894892
-0.38308969 0.11549845 1.0702438 2894892
-0.90387714 0.11582108 1.141088 10197915
-0.87142432 0.11581248 1.1253033 10197915
-0.82498121 0.1157758 1.1268128 10197915
-0.77501237 0.11573826 1.126519 10197915
-0.72484189 0.11570065 1.1261272 10132122
-0.67485809 0.11566319 1.1257306 10000536
-0.62498677 0.11562587 1.1253268 10000536
-0.57491308 0.11558817 1.1251017 10000536
-0.52494943 0.11555083 1.1246109 8421504
-0.47494131 0.11551319 1.1243857 2894892
-0.42488697 0.11547583 1.1238668 2894892
-0.39131248 0.1154559 1.1184021 2894892
-0.95223039 0.11579838 1.1996212 10197915
-0.91910499 0.11579258 1.1805855 10197915
-0.8752141 0.11576576 1.1742285 10197915
-0.82500607 0.11572336 1.1785815 10197915
-0.77494979 0.11568584 1.1781986 10197915
-0.72482896 0.1156482 1.1778948 10197915
-0.67473775 0.11561072 1.177434 10066329
-0.62487751 0.11557326 1.1771297 10000536
-0.57495087 0.11553588 1.1767106 10000536
-0.52505642 0.11549858 1.1762534 5066061
-0.47509724 0.11546095 1.1760268 2894892
-0.42660424 0.11542576 1.1745385 2894892
-0.39822137 0.11542138 1.1576362 2894892
-0.96435386 0.11577638 1.2304217 10197915
-0.92500001 0.11575175 1.225332 10197915
-0.87496233 0.11571417 1.2249897 10197915
-0.82495958 0.11567652 1.2247555 10197915
-0.7749871 0.1156393 1.2241967 10197915
-0.72479361 0.11560161 1.2238542 10197915
-0.67488575 0.11556422 1.223456 10132122
-0.62477988 0.11552626 1.2234937 10000536
-0.57497966 0.11548406 1.2279108 8816262
-0.52495235 0.1154465 1.2275996 2894892
-0.47495738 0.11540912 1.2271136 2894892
-0.43443841 0.11538123 1.2243786 2894892
-1.0124416 0.115754 1.2884814 10197915
-0.97464943 0.11573812 1.2759042 10197915
-0.92508197 0.11570124 1.2752508 10197915
-0.87503278 0.11566378 1.2748396 10197915
-0.82501358 0.11562631 1.2744251 10197915
-0.77502739 0.11558891 1.2739636 10197915
-0.72475666 0.11555114 1.2736477 10197915
-0.67472774 0.1155138 1.2731348 10197915
-0.62525076 0.11547644 1.2730179 10066329
-0.57504845 0.11543316 1.2782526 5592405
-0.52510577 0.11539591 1.2776536 2894892
-0.4749285 0.11535827 1.2773008 2894892
-0.44257578 0.11533882 1.2723264 2894892
-1.0591537 0.115734 1.3431104 10197915
-1.0242106 0.11572014 1.330691 10197915
-0.97491235 0.11568371 1.3298036 10197915
-0.92489749 0.11564641 1.3291998 10197915
-0.87491339 0.11560891 1.3288752 10197915
-0.82496184 0.1155717 1.3282706 10197915
-0.77504361 0.11553416 1.328016 10197915
-0.72474331 0.11549649 1.3275831 10197915
-0.67474872 0.11545907 1.3271506 10197915
-0.62492788 0.11542182 1.3266898 9539985
-0.57500082 0.11538453 1.3261892 3092271
-0.52510518 0.11534709 1.3258309 2894892
-0.47701249 0.11531226 1.3242751 2894892
-0.44878349 0.11530866 1.3067122 2894892
-1.1025031 0.11571965 1.3896604 10197915
-1.0717189 0.11570869 1.3774979 10197915
-1.0249336 0.11567535 1.3754259 10197915
-0.97504497 0.115638 1.3749827 10197915
-0.92499459 0.11560056 1.3745373 10197915
-0.87497914 0.11556302 1.374195 10197915
-0.82499617 0.11552573 1.3736472 10197915
-0.77504331 0.11548837 1.3732028 10197915
-0.72357917 0.11544649 1.3760618 10197915
-0.67530221 0.11540701 1.378979 10197915
-0.62510997 0.11536935 1.3786052 6316128
-0.57509005 0.1153319 1.3781967 2894892
-0.52510518 0.11529451 1.3777109 2894892
-0.4852792 0.11526747 1.3746427 2894892
-1.1503849 0.11569791 1.4469908 10197915
-1.1190156 0.11569042 1.4308947 10197915
-1.0749065 0.1156636 1.4244329 10197915
-1.0248548 0.11562613 1.4240108 10197915
-0.97513592 0.11558899 1.4235133 10197915
-0.92515182 0.1155517 1.4229243 10197915
-0.87505001 0.11551408 1.4226341 10197915
-0.82498139 0.11547676 1.4220015 10197915
-0.77494669 0.11543921 1.421712 10197915
-0.72695601 0.1154007 1.4238294 10197915
-0.67518628 0.11535738 1.4279189 9934743
-0.62489527 0.11531964 1.4275665 3289650
-0.57503515 0.11528257 1.4268754 2894892
-0.52500695 0.11524504 1.4265286 2894892
-0.49328831 0.11522511 1.4224955 2894892
-1.1689214 -0.56719726 1.4889008 9079434
-1.168911 -0.52505267 1.4889052 6447714
-1.1689051 -0.47501436 1.4889084 6447714
-1.1689069 -0.42497563 1.4888984 6447714
-1.1689038 -0.37498659 1.4888972 6447714
-1.1689006 -0.32502225 1.4888949 6447714
-1.1688875 -0.27500862 1.4889059 6447714
-1.1688975 -0.22497097 1.4888877 6447714
-1.1689028 -0.1749578 1.4888737 6447714
-1.1688983 -0.12501846 1.4888762 6447714
-1.1688484 -0.075055093 1.4889474 6447714
-1.1689142 -0.025020506 1.4888438 6447714
-1.1689109 0.025020422 1.488843 6447714
-1.1688405 0.075054638 1.4889413 6447714
-1.1678195 0.10878508 1.4874893 8882055
-1.1250743 0.11564833 1.4769623 10197915
-1.0747542 0.11561061 1.4766091 10197915
-1.0246688 0.11557334 1.4760039 10197915
-0.97482461 0.11553604 1.475528 10197915
-0.92480415 0.11549865 1.4750502 10197915
-0.87502384 0.11546146 1.474575 10197915
-0.82507008 0.11542393 1.4742248 10197915
-0.7749427 0.11538658 1.4736198 10197915
-0.72525936 0.11534944 1.473145 10197915
-0.67519629 0.11531197 1.4726702 7368816
-0.62496448 0.11527452 1.4721878 2894892
-0.57496661 0.11523697 1.4718374 2894892
-0.52691847 0.11520215 1.4702789 2894892
-0.49938363 0.11519598 1.4557996 2894892
-1.1560313 -0.56717426 1.5083245 9145227
-1.1395261 -0.56722158 1.5331941 9342606
-1.1560298 -0.52496225 1.5083232 6447714
-1.1395197 -0.52501655 1.5331976 6447714
-1.1560282 -0.47500244 1.5083205 6447714
-1.1395148 -0.47499409 1.5331981 6447714
-1.1560192 -0.42501053 1.5083282 6447714
-1.1395159 -0.42500785 1.5331955 6447714
-1.1560311 -0.37498856 1.508299 6447714
-1.1395144 -0.37500435 1.5331931 6447714
-1.1560159 -0.32499808 1.508314 6447714
-1.1395178 -0.32500055 1.5331814 6447714
-1.1560113 -0.27500716 1.5083165 6447714
-1.1395062 -0.27501476 1.5331916 6447714
-1.156011 -0.22501655 1.5083119 6447714
-1.1395043 -0.22501209 1.5331876 6447714
-1.1560202 -0.17502622 1.508293 6447714
-1.1395105 -0.17499134 1.533168 6447714
-1.1560309 -0.12500584 1.5082688 6447714
-1.1395119 -0.12495291 1.5331625 6447714
-1.155997 -0.074985132 1.5083128 6447714
-1.1394758 -0.074950382 1.5332129 6447714
-1.1559943 -0.024995014 1.5083096 6447714
-1.1395245 -0.024985 1.5331345 6447714
-1.1559923 0.024994947 1.5083075 6447714
-1.1395231 0.024984941 1.5331281 6447714
-1.1559905 0.074984655 1.5083057 6447714
-1.1394711 0.074949749 1.5332032 6447714
-1.1560484 0.1079433 1.5081402 8750469
-1.1362691 0.10923062 1.5311396 9013641
-1.0750037 0.1155626 1.5241127 10197915
-1.0252117 0.11552527 1.5239018 10197915
-0.97523344 0.11548807 1.5232713 10197915
-0.92507595 0.11545045 1.5227772 10197915
-0.87495428 0.11541301 1.5222833 10197915
-0.82507318 0.11537572 1.5217916 10197915
-0.77522832 0.11533832 1.5214376 10197915
-0.7254132 0.1153013 1.5208089 10197915
-0.67541742 0.11526385 1.5203166 4276545
-0.62524515 0.11522626 1.5199614 2894892
-0.57510817 0.11518891 1.5193279 2894892
-0.53454483 0.11516088 1.5167906 2894892
-1.1146719 -0.56722921 1.5706464 9474192
-1.0977269 -0.56721389 1.5961865 9605778
-1.1146477 -0.52500486 1.5706791 6447714
-1.097721 -0.52489078 1.5961922 6447714
-1.1146595 -0.47498563 1.5706574 6447714
-1.0977309 -0.47504652 1.5961719 6447714
-1.1146581 -0.42498243 1.5706556 6447714
-1.0977162 -0.42511871 1.5961857 6447714
-1.1146549 -0.37500721 1.5706545 6447714
-1.0977166 -0.37502593 1.5961744 6447714
-1.1146561 -0.32500359 1.5706433 6447714
-1.0977175 -0.32493362 1.5961682 6447714
-1.1146499 -0.2750006 1.5706419 6447714
-1.0977246 -0.27492452 1.5961499 6447714
-1.114641 -0.22501193 1.5706505 6447714
-1.0977014 -0.22491513 1.5961772 6447714
-1.1146412 -0.17500883 1.570647 6447714
-1.0976982 -0.17490515 1.5961772 6447714
-1.114643 -0.12500606 1.57064 6447714
-1.0977088 -0.1250626 1.596157 6447714
-1.1146251 -0.075003482 1.5706617 6447714
-1.097716 -0.075221449 1.5961406 6447714
-1.1146662 -0.02500245 1.5705935 6447714
-1.0977011 -0.025128203 1.5961572 6447714
-1.114664 0.025002386 1.570591 6447714
-1.0976992 0.025128121 1.5961561 6447714
-1.1146187 0.075003058 1.5706547 6447714
-1.0977088 0.075221039 1.5961292 6447714
-1.1143802 0.10815423 1.5703461 8947848
-1.0852689 0.11202683 1.5845655 9605778
-1.0253468 0.11547378 1.5747142 10197915
-0.97501099 0.11543606 1.5743524 10197915
-0.92493129 0.11539891 1.5735356 10197915
-0.8748799 0.11536135 1.5731814 10197915
-0.82486165 0.11532394 1.5728235 10197915
-0.77487457 0.11528675 1.5721625 10197915
-0.72514105 0.11524953 1.5716522 8158332
-0.67521793 0.11521221 1.5711476 2894892
-0.6248951 0.11517466 1.5706351 2894892
-0.57503724 0.11513728 1.5702786 2894892
-0.54278398 0.11511909 1.5641174 2894892
-1.0788803 -0.56726468 1.6245825 9737364
-1.0788821 -0.5250138 1.6245755 6447714
-1.0788931 -0.47501534 1.6245539 6447714
-1.0788769 -0.4249897 1.6245737 6447714
-1.0788734 -0.37499142 1.6245722 6447714
-1.0788842 -0.32502156 1.6245487 6447714
-1.0788708 -0.27501032 1.6245636 6447714
-1.0788662 -0.22499916 1.6245617 6447714
-1.0788734 -0.17501642 1.6245453 6447714
-1.078877 -0.12499131 1.6245338 6447714
-1.0788782 -0.075008325 1.6245255 6447714
-1.0788465 -0.025027219 1.6245667 6447714
-1.0788453 0.02502716 1.6245636 6447714
-1.078872 0.075007908 1.6245151 6447714
-1.0776436 0.10842206 1.6244074 9079434
-1.0250418 0.11541845 1.6291863 10197915
-0.97477973 0.11538093 1.6286514 10197915
-0.92499799 0.11534377 1.6281275 10197915
-0.87502646 0.11530626 1.6277715 10197915
-0.82485908 0.11526917 1.6269048 10197915
-0.77495295 0.11523159 1.6267183 10197915
-0.72530198 0.11519469 1.6260227 4473924
-0.6752305 0.11515729 1.6254995 2894892
-0.62519526 0.11511993 1.6249677 2894892
-0.57780784 0.11508629 1.6227471 2894892
-1.0562253 -0.56725949 1.6587244 9934743
-1.0394846 -0.56734484 1.6839519 10066329
-1.0562178 -0.52493441 1.6587319 6447714
-1.0394846 -0.52502054 1.6839449 6447714
-1.0562156 -0.47497129 1.6587287 6447714
-1.0394882 -0.4749755 1.6839337 6447714
-1.0562115 -0.42500696 1.658729 6447714
-1.039482 -0.42497763 1.6839349 6447714
-1.0562096 -0.37500325 1.6587254 6447714
-1.0394717 -0.37497935 1.6839442 6447714
-1.0562085 -0.32495916 1.6587222 6447714
-1.0394819 -0.32498148 1.6839234 6447714
-1.056201 -0.27495575 1.6587248 6447714
-1.0394672 -0.27500686 1.6839364 6447714
-1.0562109 -0.22499296 1.6587061 6447714
-1.0394651 -0.22500937 1.6839314 6447714
-1.0562085 -0.17502931 1.6587017 6447714
-1.0394861 -0.17498884 1.683893 6447714
-1.0561887 -0.12506737 1.658725 6447714
-1.0394548 -0.12496887 1.6839366 6447714
-1.0561856 -0.074902415 1.6587206 6447714
-1.0394889 -0.075065099 1.6838783 6447714
-1.0562078 -0.024861658 1.6586794 6447714
-1.0394355 -0.02509227 1.6839523 6447714
-1.056206 0.024861606 1.6586776 6447714
-1.0394355 0.025092203 1.6839499 6447714
-1.05618 0.074901983 1.6587087 6447714
-1.0394849 0.075064756 1.6838713 6447714
-1.0561013 0.10776459 1.6588254 9013641
-1.0366975 0.10884567 1.682701 9211020
-0.97511494 0.11533224 1.6769464 10197915
-0.92513818 0.11529481 1.6765434 10197915
-0.87519538 0.11525768 1.6758612 10197915
-0.82528472 0.11522028 1.6754602 10197915
-0.77505547 0.11518282 1.674914 8553090
-0.72521245 0.11514575 1.6742332 2894892
-0.67539608 0.11510842 1.6738335 2894892
-0.62491995 0.11507089 1.6731498 2894892
-0.58573675 0.11504281 1.6715866 2894892
-1.0143725 -0.56734163 1.721799 10263708
-0.99788433 -0.56746393 1.7466418 10395294
-1.0143313 -0.52499074 1.7218523 6447714
-0.99786431 -0.52505833 1.7466651 6447714
-1.0143684 -0.47500089 1.7217889 6447714
-0.99788064 -0.47498229 1.746635 6447714
-1.0143429 -0.4250108 1.7218237 6447714
-0.99785113 -0.4250524 1.7466717 6447714
-1.0143405 -0.37500232 1.7218204 6447714
-0.99787724 -0.37512264 1.7466274 6447714
-1.0143572 -0.32499373 1.7217896 6447714
-0.99785376 -0.32504636 1.7466584 6447714
-1.0143409 -0.27498546 1.7218071 6447714
-0.99786985 -0.27511859 1.7466277 6447714
-1.0143367 -0.22499599 1.7218063 6447714
-0.99785835 -0.22504301 1.746637 6447714
-1.0143509 -0.1749887 1.7217813 6447714
-0.9978556 -0.17511351 1.7466342 6447714
-1.0143187 -0.12498041 1.7218236 6447714
-0.99785286 -0.12518422 1.746631 6447714
-1.0144083 -0.074973829 1.7216766 6447714
-0.99785078 -0.075255096 1.7466278 6447714
-1.0142719 -0.024967331 1.7218728 6447714
-0.99784911 -0.025326189 1.7466242 6447714
-1.0142689 0.024967253 1.7218697 6447714
-0.99784827 0.025326129 1.7466204 6447714
-1.0144006 0.074973382 1.7216669 6447714
-0.99784672 0.075254641 1.7466167 6447714
-1.0140831 0.1080799 1.7213646 9211020
-0.98254901 0.11266544 1.7344351 9803157
-0.92480713 0.11524288 1.7275335 10197915
-0.87489563 0.11520547 1.7271768 10197915
-0.82477695 0.11516786 1.7268193 10197915
-0.77468938 0.11513071 1.7260557 5066061
-0.72511685 0.11509372 1.7255013 2894892
-0.67509282 0.11505641 1.7249478 2894892
-0.62486702 0.11501896 1.7243806 2894892
-0.59323967 0.11500534 1.7141834 2894892
-0.97930676 -0.56737441 1.7746409 10526880
-0.97929442 -0.5249933 1.7746512 6447714
-0.97930735 -0.47499847 1.7746247 6447714
-0.97928858 -0.42498523 1.7746413 6447714
-0.97930253 -0.37499103 1.7746154 6447714
-0.97928405 -0.32499602 1.7746338 6447714
-0.97930658 -0.27498391 1.7745955 6447714
-0.9792667 -0.22498938 1.7746493 6447714
-0.9793222 -0.17499559 1.7745597 6447714
-0.97924626 -0.12498382 1.7746664 6447714
-0.97938395 -0.074990392 1.7744529 6447714
-0.97920221 -0.024998425 1.7747184 6447714
-0.97920054 0.024998333 1.7747153 6447714
-0.97937936 0.074989952 1.7744417 6447714
-0.97804832 0.10810786 1.7750492 9342606
-0.92482096 0.11518753 1.7821921 10197915
-0.87470108 0.11514999 1.7817817 10197915
-0.82497782 0.11511289 1.7812078 8816262
-0.77528697 0.11507587 1.7806345 2894892
-0.72526288 0.11503873 1.7798897 2894892
-0.67526472 0.1150013 1.7794803 2894892
-0.62919396 0.11496816 1.7777462 2894892
-0.95596671 -0.5674333 1.809809 10724259
-0.93946373 -0.56740314 1.8346744 10790052
-0.95597923 -0.52504575 1.809785 6447714
-0.9394502 -0.52493227 1.83469 6447714
-0.95596367 -0.47505853 1.8098011 6447714
-0.93947208 -0.47495621 1.8346509 6447714
-0.95596564 -0.42502335 1.8097923 6447714
-0.93944949 -0.4249799 1.8346784 6447714
-0.95595831 -0.37498704 1.809797 6447714
-0.93946582 -0.37500364 1.8346479 6447714
-0.95596278 -0.32500181 1.809785 6447714
-0.93944335 -0.32502821 1.8346759 6447714
-0.95595682 -0.2749663 1.8097842 6447714
-0.93944955 -0.27502033 1.8346634 6447714
-0.95595688 -0.2249812 1.8097771 6447714
-0.93946654 -0.22501357 1.8346334 6447714
-0.95597643 -0.1750454 1.8097428 6447714
-0.93946117 -0.17497547 1.8346288 6447714
-0.9559232 -0.12511109 1.8098178 6447714
-0.93943435 -0.1249366 1.8346659 6447714
-0.95595825 -0.074877441 1.8097593 6447714
-0.93947822 -0.075058192 1.8345966 6447714
-0.95595014 -0.024793338 1.8097619 6447714
-0.93941706 -0.025082869 1.8346815 6447714
-0.95594805 0.024793278 1.8097606 6447714
-0.93941474 0.025082793 1.8346757 6447714
-0.9559536 0.074876934 1.809745 6447714
-0.93947232 0.075057723 1.8345841 6447714
-0.9558714 0.10776368 1.8098605 9408399
-0.93607861 0.10896426 1.8330717 9539985
-0.87501544 0.11510365 1.8277535 10197915
-0.82514864 0.11506628 1.8273453 5723991
-0.77493137 0.11502887 1.8267508 2894892
-0.72513258 0.11499193 1.8259796 2894892
-0.67535925 0.11495465 1.8255726 2894892
-0.63707119 0.11492823 1.823034 2894892
-0.91446817 -0.56748092 1.8723444 11053224
-0.8977378 -0.56738591 1.8975559 11119017
-0.91452545 -0.5250302 1.8722532 6447714
-0.89776248 -0.52493411 1.8975135 6447714
-0.91450721 -0.47501048 1.872275 6447714
-0.89773881 -0.47501338 1.897541 6447714
-0.91449028 -0.42499131 1.8722956 6447714
-0.89774489 -0.42509398 1.8975269 6447714
-0.91450572 -0.3749958 1.8722669 6447714
-0.89775038 -0.37517518 1.8975129 6447714
-0.91450483 -0.32497674 1.8722651 6447714
-0.89775568 -0.32525763 1.8974984 6447714
-0.9144879 -0.2750054 1.8722824 6447714
-0.89774233 -0.27514049 1.8975097 6447714
-0.91451943 -0.22500999 1.8722292 6447714
-0.89774108 -0.22482866 1.8975062 6447714
-0.91448164 -0.1750153 1.8722774 6447714
-0.89772874 -0.17471021 1.8975195 6447714
-0.91449064 -0.12504482 1.8722541 6447714
-0.89774853 -0.12519155 1.8974829 6447714
-0.91448832 -0.074955635 1.87225 6447714
-0.89773524 -0.075466521 1.8974946 6447714
-0.91449082 -0.024940152 1.8722433 6447714
-0.89773363 -0.025155466 1.8974911 6447714
-0.9144879 0.024940085 1.8722357 6447714
-0.89773238 0.025155399 1.897488 6447714
-0.91448277 0.074955061 1.872238 6447714
-0.89773047 0.075466082 1.8974843 6447714
-0.91430402 0.10789529 1.871969 9539985
-0.88307476 0.11243168 1.8838807 9605778
-0.82454711 0.11501666 1.8759278 3026478
-0.77494866 0.11497992 1.8751276 2894892
-0.72538519 0.11494277 1.874723 2894892
-0.67506862 0.11490548 1.87392 2894892
-0.64438552 0.11488817 1.8680774 2894892
-0.87961805 -0.5675177 1.9248605 7697781
-0.87958127 -0.5250237 1.9249099 4934475
-0.87959981 -0.47498792 1.924877 4934475
-0.87958586 -0.42499799 1.9248912 4934475
-0.87959737 -0.3750082 1.9248681 4934475
-0.8796016 -0.32499552 1.9248576 4934475
-0.87957329 -0.27498341 1.9248937 4934475
-0.8795718 -0.22499472 1.9248884 4934475
-0.87959045 -0.17498273 1.9248502 4934475
-0.87961018 -0.1249254 1.9248147 4934475
-0.8795194 -0.074913613 1.9249444 4934475
-0.87962002 -0.024973769 1.9247849 4934475
-0.87961864 0.024973694 1.9247819 4934475
-0.8795138 0.074913159 1.924935 5000268
-0.87839037 0.10815169 1.9245012 6645093
-0.82551879 0.1149655 1.9271843 2894892
-0.77536708 0.11492837 1.9263499 2894892
-0.7252515 0.11489087 1.925933 2894892
-0.67932606 0.11485817 1.9238427 2894892
-0.85651958 -0.567433 1.9596696 2894892
-0.84015405 -0.56752181 1.9843305 2894892
-0.85652894 -0.52490216 1.9596494 2894892
-0.84016931 -0.52497816 1.9843041 2894892
-0.85651267 -0.47500288 1.9596679 2894892
-0.84016627 -0.47499496 1.9843034 2894892
-0.85651165 -0.42497867 1.9596629 2894892
-0.84016097 -0.42501208 1.984304 2894892
-0.85651529 -0.37501732 1.959653 2894892
-0.84014803 -0.37494698 1.984318 2894892
-0.85650265 -0.32499361 1.9596646 2894892
-0.84014279 -0.32496428 1.9843189 2894892
-0.85650879 -0.27496949 1.959646 2894892
-0.84016424 -0.27502346 1.98428 2894892
-0.85651505 -0.22507195 1.9596285 2894892
-0.84016359 -0.22499955 1.9842706 2894892
-0.85648483 -0.17504816 1.9596699 2894892
-0.84015173 -0.1750588 1.9842827 2894892
-0.8564952 -0.12502444 1.959648 2894892
-0.84015083 -0.12507689 1.9842774 2894892
-0.85654294 -0.075192995 1.9595701 2894892
-0.8400948 -0.074929647 1.9843552 2894892
-0.8564918 -0.025167547 1.9596388 2894892
-0.84018898 -0.024911972 1.9842062 2894892
-0.85649037 0.02516748 1.959635 2894892
-0.8401863 0.024911914 1.9842016 2894892
-0.85653734 0.075192511 1.9595587 2894892
-0.8400895 0.0749292 1.9843416 2894892
-0.85632318 0.10765549 1.9598666 2894892
-0.8360821 0.10906658 1.9830337 2894892
-0.77498388 0.1148733 1.9804302 2894892
-0.72510999 0.11483596 1.9800184 2894892
-0.68836015 0.11481162 1.9765689 2894892
-0.81507683 -0.56760031 2.0221202 2894892
-0.7982173 -0.56748974 2.0475259 2894892
-0.81511301 -0.52504891 2.0220628 2894892
-0.79820365 -0.52479094 2.0475411 2894892
-0.81511766 -0.47504503 2.0220461 2894892
-0.79822612 -0.4747462 2.0475013 2894892
-0.81509531 -0.42501202 2.0220709 2894892
-0.79821259 -0.42497867 2.0475149 2894892
-0.8150894 -0.37500814 2.0220737 2894892
-0.79821074 -0.37493056 2.0475099 2894892
-0.81509703 -0.32503319 2.0220551 2894892
-0.79820961 -0.32488263 2.0475066 2894892
-0.81510913 -0.27503011 2.022032 2894892
-0.79820788 -0.27483496 2.0475025 2894892
-0.81507802 -0.22499761 2.0220721 2894892
-0.79820621 -0.22478732 2.0474982 2894892
-0.81512177 -0.17499477 2.0219965 2894892
-0.79820436 -0.17474 2.0474935 2894892
-0.81506068 -0.12499202 2.0220816 2894892
-0.79820275 -0.12469285 2.0474904 2894892
-0.81514645 -0.075105704 2.0219464 2894892
-0.79820168 -0.074645907 2.0474863 2894892
-0.81502861 -0.025132192 2.0221174 2894892
-0.79819971 -0.024599176 2.0474815 2894892
-0.81502789 0.025132135 2.0221112 2894892
-0.7981981 0.024599114 2.0474777 2894892
-0.81514102 0.075105235 2.0219338 2894892
-0.79819655 0.074645437 2.0474739 2894892
-0.81480294 0.10762232 2.0221007 2894892
-0.78570974 0.11146516 2.034677 2894892
-0.724787 0.11479265 2.0225122 2894892
-0.69616783 0.11477134 2.0221367 2894892
-0.78034014 -0.56761754 2.0744672 2894892
-0.78034514 -0.52501798 2.0744522 2894892
-0.78033358 -0.47499877 2.0744624 2894892
-0.78036642 -0.42498004 2.0744073 2894892
-0.78033 -0.37498993 2.0744569 2894892
-0.78036201 -0.32500055 2.074403 2894892
-0.78032553 -0.27501118 2.0744503 2894892
-0.78032923 -0.22499223 2.0744395 2894892
-0.78035384 -0.17497507 2.0743945 2894892
-0.78036487 -0.12507184 2.0743699 2894892
-0.7803812 -0.074998431 2.0743394 2894892
-0.78026909 -0.024923807 2.0744998 2894892
-0.78026843 0.024923725 2.0744965 2894892
-0.78037727 0.074998014 2.074327 2894892
-0.77886361 0.10842606 2.0727181 2894892
-0.72843879 0.11475205 2.0653229 2894892
-0.75689113 -0.5676192 2.1098013 2894892
-0.74201912 -0.56768006 2.1322122 2894892
-0.7569409 -0.52500969 2.1097195 2894892
-0.7420122 -0.52502525 2.1322169 2894892
-0.75690532 -0.47496834 2.1097672 2894892
-0.74201041 -0.47505257 2.1322117 2894892
-0.75693357 -0.42500284 2.1097195 2894892
-0.74200708 -0.42501622 2.1322095 2894892
-0.75690717 -0.37496257 2.1097529 2894892
-0.74200553 -0.3750439 2.132206 2894892
-0.75693321 -0.32492372 2.1097066 2894892
-0.74200618 -0.32500729 2.1322012 2894892
-0.75689536 -0.2749556 2.1097591 2894892
-0.7420212 -0.27497238 2.1321733 2894892
-0.75690979 -0.22499171 2.1097288 2894892
-0.74200404 -0.22506192 2.1321905 2894892
-0.75692427 -0.17502473 2.1096995 2894892
-0.74202847 -0.17509022 2.1321483 2894892
-0.75693136 -0.12484231 2.1096847 2894892
-0.74194098 -0.12505414 2.1322751 2894892
-0.75686377 -0.075018227 2.109781 2894892
-0.74205148 -0.0747713 2.1321034 2894892
-0.7569288 -0.025204349 2.1096749 2894892
-0.7419849 -0.024733601 2.1321943 2894892
-0.75692785 0.02520428 2.1096692 2894892
-0.74198359 0.024733549 2.1321907 2894892
-0.75686032 0.07501778 2.1097665 2894892
-0.74204636 0.074770801 2.1320865 2894892
-0.75693172 0.10743255 2.1095717 2894892
-0.74115056 0.10826891 2.1303711 2894892
