# .PCD v0.7 - Point Cloud Data file format
VERSION 0.7
FIELDS x y z rgb
SIZE 4 4 4 4
TYPE F F F U
COUNT 1 1 1 1
WIDTH 1152
HEIGHT 1
VIEWPOINT 0 0 0 1 0 0 0
POINTS 1152
DATA ascii
-1.158931 -0.32506052 1.6611582 6447714
-1.1394045 -0.32501608 1.6862643 6447714
-1.1589103 -0.27505034 1.6611823 6447714
-1.139425 -0.27498138 1.6862339 6447714
-1.1589307 -0.22504142 1.6611519 6447714
-1.1393874 -0.22499588 1.6862786 6447714
-1.1589144 -0.17503114 1.6611706 6447714
-1.1394272 -0.1750097 1.6862233 6447714
-1.1589149 -0.1250228 1.6611629 6447714
-1.1393735 -0.12502395 1.6862873 6447714
-1.1589206 -0.074898548 1.6611527 6447714
-1.1394501 -0.075135499 1.686186 6447714
-1.1589333 -0.024891431 1.6611341 6447714
-1.1393725 -0.025149852 1.6862814 6447714
-1.1589322 0.024891384 1.6611314 6447714
-1.139369 0.025149796 1.6862804 6447714
-1.1589167 0.074898176 1.661147 6447714
-1.1394444 0.075135268 1.6861825 6447714
-1.1587696 0.1077589 1.661296 9539985
-1.1365923 0.10890185 1.6845413 9671571
-1.0752891 0.11527122 1.6760584 10197915
-1.0251803 0.11521979 1.6754527 10197915
-0.97512108 0.11516884 1.6745689 10197915
-0.92510277 0.11511752 1.6739649 10197915
-0.87513101 0.11506658 1.6730825 10197915
-0.82520318 0.11501535 1.6724795 10197915
-0.77496874 0.11496397 1.6717324 10197915
-0.72513282 0.11491319 1.6708521 10197915
-0.67498887 0.11486129 1.6706581 10197915
-0.62478417 0.11479837 1.6791664 10197915
-0.57489491 0.11474714 1.6786022 10197915
-0.52505523 0.11469593 1.6780447 10197915
-0.47502705 0.11464497 1.6771088 10197915
-0.42503896 0.11459417 1.6761787 10197915
-0.37487087 0.11454238 1.6757982 10197915
-0.32497171 0.11449157 1.6748643 10197915
-0.27489084 0.1144404 1.6741203 10197915
-0.22485028 0.11438921 1.6733676 10197915
-0.17508976 0.11433817 1.6728101 10197915
-0.12491091 0.11428709 1.6718775 10132122
-0.075004391 0.11423604 1.6711264 10066329
-0.025146781 0.11418509 1.6703851 7960953
0.022531781 0.11413144 1.6735522 2894892
0.074769124 0.11407048 1.6788259 2894892
0.11855262 0.11402534 1.6784915 2894892
-1.1142609 -0.56736326 1.7186108 8289918
-1.0949627 -0.56746733 1.7434196 8421504
-1.1142558 -0.52498931 1.7186129 6447714
-1.0949631 -0.52503306 1.7434125 6447714
-1.1142831 -0.4749954 1.7185718 6447714
-1.0949706 -0.47501433 1.743399 6447714
-1.1142477 -0.425001 1.7186121 6447714
-1.0949526 -0.42499694 1.7434183 6447714
-1.1142825 -0.37504584 1.7185649 6447714
-1.0949726 -0.37503958 1.7433887 6447714
-1.1142504 -0.32505196 1.7185996 6447714
-1.0949547 -0.32502148 1.7434081 6447714
-1.1142802 -0.27500102 1.7185578 6447714
-1.0949677 -0.27500308 1.7433871 6447714
-1.1142352 -0.2249878 1.7186106 6447714
-1.0949367 -0.22504675 1.743421 6447714
-1.114279 -0.17497531 1.7185503 6447714
-1.0949842 -0.17509027 1.7433562 6447714
-1.1142532 -0.12502077 1.7185795 6447714
-1.0949496 -0.12495237 1.7433975 6447714
-1.114303 -0.074970745 1.7185128 6447714
-1.0949489 -0.075115822 1.7433949 6447714
-1.1142021 -0.024920359 1.7186399 6447714
-1.0949467 -0.025279334 1.7433938 6447714
-1.1142004 0.024920318 1.7186371 6447714
-1.094945 0.025279285 1.7433908 6447714
-1.1142999 0.074970447 1.718503 6447714
-1.0949433 0.075115494 1.7433872 6447714
-1.1140848 0.10806661 1.7181383 9737364
-1.0859516 0.11081313 1.7359051 9868950
-1.0252008 0.11515622 1.7264384 10197915
-0.97517532 0.11510485 1.7258761 10197915
-0.92519975 0.11505403 1.7249056 10197915
-0.87502295 0.11500301 1.7239394 10197915
-0.82489008 0.11495152 1.7233691 10197915
-0.77504659 0.11490031 1.7228096 10197915
-0.72524422 0.11484967 1.7218419 10197915
-0.67524278 0.11479832 1.7212783 10197915
-0.62494415 0.11473405 1.7308015 10197915
-0.57484895 0.11468267 1.7301831 10197915
-0.5247997 0.11463173 1.7292581 10197915
-0.47479531 0.11458043 1.7286407 10197915
-0.42483377 0.11452958 1.7277169 10197915
-0.37491977 0.11447839 1.7271012 10197915
-0.3246879 0.11442705 1.7263268 10197915
-0.27486297 0.11437636 1.7254051 10197915
-0.22507958 0.11432525 1.7247907 10197915
-0.17498194 0.11427405 1.7240185 10197915
-0.1249321 0.11422328 1.7229447 10066329
-0.07492999 0.11417182 1.7224761 10000536
-0.024966735 0.11412074 1.7217058 7895160
0.024951853 0.11406975 1.7209364 2894892
0.075178199 0.11401863 1.7200134 2894892
0.1207469 0.11397161 1.7196444 2894892
-1.0709618 -0.5674147 1.774269 8553090
-1.070953 -0.52498478 1.774278 6447714
-1.0709882 -0.47498494 1.7742305 6447714
-1.070953 -0.4250007 1.7742702 6447714
-1.070982 -0.37504727 1.7742299 6447714
-1.070941 -0.325032 1.7742791 6447714
-1.0709976 -0.27498633 1.7742004 6447714
-1.0709269 -0.224987 1.7742864 6447714
-1.0710015 -0.17498809 1.7741885 6447714
-1.07091 -0.12498865 1.7743013 6447714
-1.0710793 -0.074990325 1.7740796 6447714
-1.0708661 -0.02499311 1.7743474 6447714
-1.070865 0.024993073 1.7743461 6447714
-1.0710737 0.074989997 1.7740713 6447714
-1.070411 0.1078518 1.7743839 9803157
-1.0250971 0.11508835 1.7806573 10197915
-0.97486788 0.11503687 1.7800307 10197915
-0.924676 0.11498582 1.7790706 10197915
-0.87490606 0.11493454 1.7786175 10197915
-0.8251816 0.11488417 1.7774982 10197915
-0.77512246 0.11483284 1.7768739 10197915
-0.72511595 0.11478198 1.7759172 10197915
-0.67514753 0.11473073 1.7752939 10197915
-0.62522846 0.11467995 1.7743382 10197915
-0.57535028 0.11462881 1.7737164 10197915
-0.5251469 0.11457752 1.7729235 10197915
-0.47499153 0.1145267 1.7718027 10197915
-0.42488399 0.11447512 1.7713389 10197915
-0.37481511 0.11442398 1.7705475 10197915
-0.32479081 0.11437289 1.7697577 10197915
-0.2751824 0.11432243 1.768806 10197915
-0.22524558 0.11427137 1.7680215 10197915
-0.17499501 0.11421987 1.7673883 10066329
-0.12514901 0.11416894 1.7666006 10000536
-0.074195065 0.11410457 1.7757094 10000536
-0.025022587 0.11405262 1.7763084 7829367
0.025007643 0.11400151 1.7755132 2894892
0.074982688 0.11395103 1.7742773 2894892
0.12274311 0.11390111 1.7744415 2894892
-1.0508168 -0.56754553 1.8001705 8684676
-1.0313637 -0.56748462 1.8251773 8816262
-1.0508155 -0.5250349 1.8001679 6447714
-1.0313572 -0.5250023 1.8251789 6447714
-1.0508139 -0.47506639 1.8001659 6447714
-1.0313922 -0.47501078 1.8251303 6447714
-1.0508125 -0.42509797 1.800163 6447714
-1.031345 -0.4250015 1.8251864 6447714
-1.0508112 -0.37512982 1.8001602 6447714
-1.0313931 -0.37504402 1.8251216 6447714
-1.0508095 -0.32516178 1.8001581 6447714
-1.031354 -0.32505283 1.8251665 6447714
-1.050808 -0.27519384 1.8001554 6447714
-1.0313798 -0.27499267 1.8251293 6447714
-1.0508065 -0.2252261 1.8001525 6447714
-1.0313588 -0.22500169 1.8251528 6447714
-1.050805 -0.17525846 1.8001503 6447714
-1.031373 -0.17499352 1.8251317 6447714
-1.0508035 -0.12529099 1.8001478 6447714
-1.0313389 -0.12498492 1.8251716 6447714
-1.050802 -0.075323634 1.8001447 6447714
-1.0314622 -0.074977785 1.8250073 6447714
-1.0508004 -0.025356442 1.8001423 6447714
-1.0312872 -0.024971092 1.8252268 6447714
-1.0507991 0.025356391 1.8001401 6447714
-1.0312859 0.024971046 1.8252248 6447714
-1.0507976 0.075323321 1.8001369 6447714
-1.0314579 0.074977435 1.8249996 6447714
-1.0507965 0.10739155 1.8001354 9803157
-1.0301428 0.10813874 1.8249336 9934743
-0.97506207 0.11497964 1.8259692 10197915
-0.924721 0.11492826 1.8251529 10197915
-0.87480855 0.11487751 1.8241627 10197915
-0.82493979 0.11482639 1.8235352 10197915
-0.77511406 0.11477577 1.8225466 10197915
-0.72533536 0.11472472 1.8219206 10197915
-0.67521721 0.11467355 1.821108 10197915
-0.62476903 0.11462227 1.8201152 10197915
-0.57473874 0.11457121 1.8192985 10197915
-0.52514076 0.11452036 1.8186748 10197915
-0.47520101 0.11446936 1.8178654 10197915
-0.42492887 0.11441827 1.8168756 10197915
-0.37470484 0.11436676 1.816236 10197915
-0.32489902 0.11431594 1.8154287 10197915
-0.27408695 0.11426298 1.8154708 10132122
-0.22486927 0.1141993 1.8254709 10066329
-0.17513043 0.11414824 1.8249027 10000536
-0.12493117 0.11409729 1.8238472 10000536
-0.076160498 0.11403526 1.8328509 10000536
-0.025078643 0.11398035 1.8342364 7763574
0.02506364 0.11392918 1.8334125 2894892
0.074777454 0.11387867 1.832412 2894892
0.12445028 0.11382775 1.8317806 2894892
0.15044224 0.11378627 1.8433219 2894892
-1.005945 -0.56754726 1.8578553 8947848
-0.98664087 -0.56748909 1.8826693 9079434
-1.0059711 -0.52503669 1.8578138 6447714
-0.98665166 -0.52499497 1.8826536 6447714
-1.0059607 -0.47500676 1.8578235 6447714
-0.98664469 -0.47499579 1.8826585 6447714
-1.0059515 -0.42503721 1.8578317 6447714
-0.98663628 -0.42496988 1.8826634 6447714
-1.0059785 -0.37512609 1.8577915 6447714
-0.98667026 -0.37502497 1.8826125 6447714
-1.0059401 -0.3250964 1.8578368 6447714
-0.98663586 -0.32505387 1.8826513 6447714
-1.00596 -0.27506873 1.8578073 6447714
-0.98664457 -0.27500165 1.8826364 6447714
-1.0059808 -0.22503845 1.8577749 6447714
-0.98663872 -0.22494981 1.8826387 6447714
-1.0059154 -0.1750101 1.8578562 6447714
-0.98662829 -0.17497809 1.8826498 6447714
-1.0059913 -0.125043 1.8577553 6447714
-0.98667926 -0.12506138 1.8825806 6447714
-1.0058991 -0.075008795 1.8578682 6447714
-0.98665631 -0.075011186 1.8826051 6447714
-1.0059879 -0.02498894 1.857751 6447714
-0.98659539 -0.024959123 1.8826787 6447714
-1.005987 0.024988897 1.8577492 6447714
-0.98659426 0.024959056 1.8826755 6447714
-1.0058959 0.075008512 1.8578633 6447714
-0.98665273 0.075010926 1.8825982 6447714
-1.0059748 0.1076954 1.8577362 10000536
-0.98430324 0.10867701 1.8807508 10066329
-0.92515802 0.11486834 1.8735085 10197915
-0.87509358 0.11481725 1.8726752 10197915
-0.82507789 0.11476671 1.8714557 10197915
-0.77510864 0.11471524 1.8710114 10197915
-0.72517771 0.1146643 1.8701805 10197915
-0.67529112 0.1146134 1.8693504 10197915
-0.62506384 0.11456239 1.868324 10197915
-0.5748778 0.11451095 1.8676794 10197915
-0.52473867 0.11446002 1.8666548 10197915
-0.47464392 0.11440867 1.8660114 10197915
-0.42497933 0.11435801 1.8651848 10197915
-0.37497738 0.1143072 1.8641626 10197915
-0.32501301 0.11425601 1.8635215 10197915
-0.2751137 0.1142034 1.8640391 10132122
-0.22512084 0.11412286 1.8868502 10000536
-0.17501362 0.11407174 1.8860048 10000536
-0.12495475 0.1140212 1.8847656 10000536
-0.074944258 0.11396969 1.8843175 10000536
-0.024971489 0.11391871 1.8834747 7697781
0.024956606 0.11386779 1.8826325 2894892
0.075225204 0.11381675 1.8815905 2894892
0.12545215 0.11376528 1.8809381 2894892
0.15243049 0.11373466 1.8830074 2894892
-0.9615407 -0.56760281 1.9149379 9211020
-0.94198453 -0.56759632 1.9400768 9342606
-0.9615407 -0.5249933 1.9149362 6447714
-0.94200402 -0.5250476 1.9400451 6447714
-0.96152139 -0.4750118 1.9149567 6447714
-0.94199008 -0.47506389 1.9400589 6447714
-0.9615224 -0.42506391 1.914952 6447714
-0.94198155 -0.42503005 1.9400671 6447714
-0.96152371 -0.37505037 1.9149425 6447714
-0.94198281 -0.37509659 1.940062 6447714
-0.96154326 -0.32503623 1.9149132 6447714
-0.94199276 -0.32506284 1.9400456 6447714
-0.96149451 -0.27502245 1.9149692 6447714
-0.94198424 -0.27498016 1.9400532 6447714
-0.9615199 -0.22500959 1.9149302 6447714
-0.94196963 -0.22499669 1.9400676 6447714
-0.96152669 -0.17499653 1.9149184 6447714
-0.94197506 -0.1750136 1.940055 6447714
-0.96157736 -0.12498231 1.9148464 6447714
-0.94200599 -0.12488139 1.9400127 6447714
-0.96139383 -0.075001054 1.9150769 6447714
-0.94197971 -0.07479886 1.9400409 6447714
-0.96157461 -0.025026631 1.9148407 6447714
-0.94196278 -0.024916021 1.9400593 6447714
-0.9615742 0.025026569 1.9148387 6447714
-0.94196171 0.024915947 1.9400574 6447714
-0.9613902 0.075000741 1.9150716 6447714
-0.94197589 0.074798547 1.9400347 6447714
-0.96161097 0.10768297 1.914479 10066329
-0.93689066 0.10939452 1.9351749 10066329
-0.87500101 0.11475354 1.9236307 10197915
-0.82522559 0.11470277 1.9227799 10197915
-0.77509457 0.11465191 1.9217153 10197915
-0.72501141 0.11460058 1.9210668 10197915
-0.67496794 0.11454981 1.9200041 10197915
-0.62497562 0.11449858 1.9193567 10197915
-0.57501942 0.11444788 1.9182957 10197915
-0.52511781 0.11439676 1.9176501 10197915
-0.4748542 0.11434549 1.9167906 10197915
-0.4246352 0.11429428 1.9159319 10197915
-0.37486583 0.11424378 1.9148743 10197915
-0.32473478 0.11419265 1.9140176 10132122
-0.27582628 0.11414198 1.9138221 10000536
-0.22495979 0.11407437 1.9255271 10000536
-0.17462453 0.11402304 1.9246608 10000536
-0.12513255 0.11397258 1.9238091 10000536
-0.07386402 0.11390474 1.9353886 10000536
-0.024858428 0.11385367 1.9354296 7631988
0.02484368 0.113803 1.9345688 2894892
0.074897215 0.11375225 1.9334892 2894892
0.12490966 0.11370102 1.9328345 2894892
0.15416151 0.11366975 1.9335403 2894892
-0.91735488 -0.56765187 1.9717407 9474192
-0.89767295 -0.56756181 1.9970421 9605778
-0.91735452 -0.52497625 1.9717402 6447714
-0.89767861 -0.5250352 1.9970303 6447714
-0.91735309 -0.4749729 1.9717392 6447714
-0.89768428 -0.47506335 1.9970188 6447714
-0.91734028 -0.42499444 1.9717504 6447714
-0.89765537 -0.42509016 1.9970514 6447714
-0.9173218 -0.37501648 1.9717666 6447714
-0.89766133 -0.37511754 1.9970396 6447714
-0.91736042 -0.32503843 1.9717143 6447714
-0.89767426 -0.3249813 1.9970198 6447714
-0.91732061 -0.27501097 1.9717603 6447714
-0.89767933 -0.27484521 1.997007 6447714
-0.91733646 -0.22500917 1.9717375 6447714
-0.89766401 -0.22503713 1.9970217 6447714
-0.91733682 -0.175007 1.9717302 6447714
-0.89766264 -0.17539629 1.9970187 6447714
-0.91735888 -0.12505403 1.9716954 6447714
-0.89764798 -0.12509035 1.9970338 6447714
-0.91725963 -0.075100914 1.9718186 6447714
-0.89767426 -0.074629478 1.9969963 6447714
-0.9173947 -0.025053315 1.9716417 6447714
-0.89765948 -0.024820134 1.9970107 6447714
-0.9173938 0.025053276 1.9716384 6447714
-0.89765757 0.024820086 1.9970076 6447714
-0.91725671 0.075100601 1.9718126 6447714
-0.89767003 0.074629113 1.9969875 6513507
-0.91704774 0.10782633 1.9713944 10132122
-0.88450176 0.11138339 1.9857398 10132122
-0.8249712 0.11463559 1.9763316 10197915
-0.77467191 0.11458433 1.975448 10197915
-0.72483552 0.11453328 1.9747989 10197915
-0.6750384 0.11448278 1.9736975 10197915
-0.6252926 0.11443181 1.9730499 10197915
-0.5751738 0.11438072 1.972169 10197915
-0.52469224 0.11432957 1.9710562 10197915
-0.47507569 0.1142787 1.9704096 10197915
-0.42509073 0.11422777 1.9695315 10197915
-0.37474787 0.11417674 1.9684215 10197915
-0.32485044 0.11412589 1.9675444 10132122
-0.27500117 0.11407451 1.9671198 10000536
-0.22520392 0.1140243 1.9657933 10000536
-0.17543948 0.1139736 1.964919 10000536
-0.12531692 0.11392222 1.9642636 10000536
-0.077394433 0.11385933 1.9746532 10000536
-0.025382498 0.1138032 1.9762297 7631988
0.02536712 0.11375151 1.9753314 2894892
0.075253338 0.11370073 1.9744489 2894892
0.12509476 0.11364989 1.9735671 2894892
0.15612306 0.11361843 1.9730203 2894892
-0.87588608 -0.56769627 2.0250497 9737364
-0.87584972 -0.5249787 2.0250916 6447714
-0.87590092 -0.47496715 2.0250223 6447714
-0.87587583 -0.42497835 2.0250514 6447714
-0.87584174 -0.37503675 2.0250866 6447714
-0.87587917 -0.32504824 2.0250313 6447714
-0.87585688 -0.27501348 2.0250578 6447714
-0.87587243 -0.22500247 2.025032 6447714
-0.87588215 -0.17496756 2.0250139 6447714
-0.87583065 -0.12493429 2.0250764 6447714
-0.8758921 -0.075062484 2.0249953 6447714
-0.87582958 -0.02510033 2.0250716 6447714
-0.87582844 0.025100304 2.025068 6447714
-0.8758893 0.075062141 2.0249872 6513507
-0.8749876 0.10778987 2.0250616 10132122
-0.82511449 0.11456469 2.0331917 10197915
-0.77507561 0.11451311 2.0327828 10197915
-0.72507465 0.1144628 2.0313833 10197915
-0.67511296 0.11441191 2.0304806 10197915
-0.62478215 0.11436035 2.0298181 10197915
-0.57491189 0.11430956 2.0289164 10197915
-0.52508587 0.11425879 2.0280161 10197915
-0.47489142 0.11420798 2.026861 10197915
-0.42515212 0.11415731 2.0259621 10197915
-0.37504309 0.11410596 2.0253034 10197915
-0.32497263 0.11405526 2.0241511 10197915
-0.2749553 0.11400405 2.0234945 10066329
-0.22497234 0.11395352 2.0223448 10000536
-0.17504625 0.11390234 2.0216894 10000536
-0.12473642 0.11385112 2.0207794 10000536
-0.074891396 0.11380064 2.0196323 10000536
-0.025095036 0.11374963 2.0189786 7566195
0.025080005 0.11369852 2.0180714 2894892
0.074787445 0.11364821 2.0169256 2894892
0.12445459 0.1135973 2.0162747 2894892
0.15744546 0.1135628 2.0164421 2894892
-0.85289657 -0.56774819 2.0546038 9868950
-0.83378482 -0.56773293 2.0791724 10000536
-0.85288596 -0.52504659 2.0546122 6447714
-0.83379877 -0.52500236 2.0791502 6447714
-0.85289401 -0.47496635 2.0545976 6447714
-0.83379412 -0.4750421 2.0791497 6447714
-0.85291821 -0.42502889 2.0545621 6447714
-0.83380687 -0.4249596 2.0791278 6447714
-0.85286695 -0.37509137 2.0546241 6447714
-0.83379501 -0.375 2.0791399 6447714
-0.85290009 -0.32501325 2.0545776 6447714
-0.83379412 -0.32504016 2.0791354 6447714
-0.85290521 -0.27507752 2.0545664 6447714
-0.83382767 -0.27495837 2.0790861 6447714
-0.85286045 -0.225136 2.0546205 6447714
-0.83375877 -0.22493759 2.0791712 6447714
-0.85291553 -0.17492281 2.0545452 6447714
-0.83378172 -0.17497778 2.0791371 6447714
-0.85288572 -0.12512442 2.0545774 6447714
-0.83385342 -0.12501948 2.0790403 6447714
-0.85288477 -0.074904338 2.0545743 6447714
-0.83381081 -0.075001493 2.0790915 6447714
-0.8528831 -0.024684349 2.0545704 6447714
-0.83373868 -0.024980059 2.0791802 6447714
-0.85288179 0.024684301 2.0545678 6447714
-0.83373743 0.024980005 2.0791781 6447714
-0.8528806 0.074904002 2.0545657 6579300
-0.83380789 0.075001128 2.0790827 6513507
-0.85287982 0.10724884 2.0545638 10197915
-0.83269727 0.10783302 2.0788193 10197915
-0.77538919 0.11445785 2.0772631 10197915
-0.72515112 0.11440671 2.0763352 10197915
-0.67495775 0.11435562 2.0754073 10197915
-0.62480944 0.11430455 2.0744812 10197915
-0.57470584 0.11425354 2.0735555 10197915
-0.52464688 0.11420259 2.0726309 10197915
-0.4746325 0.11415167 2.0717065 10197915
-0.42466262 0.1141008 2.0707831 10197915
-0.37473744 0.11404997 2.0698609 10197915
-0.32149968 0.11398008 2.0814798 10197915
-0.27490056 0.11392946 2.0831776 10132122
-0.22517061 0.11387851 2.0825231 10000536
-0.17505182 0.11382752 2.0815902 10000536
-0.12498213 0.11377721 2.080127 10000536
-0.074961595 0.11372565 2.0797276 10000536
-0.024977265 0.11367475 2.0787969 7434609
0.024962377 0.11362394 2.0778673 2894892
0.075281896 0.11357304 2.0766702 2894892
0.12556051 0.11352153 2.0759954 2894892
0.16038063 0.11348531 2.0760159 2894892
-0.80896592 -0.56777918 2.1110783 10132122
-0.78940535 -0.56777817 2.1362219 10263708
-0.80899346 -0.52498192 2.1110358 6447714
-0.78943545 -0.52500325 2.1361809 6447714
-0.80898118 -0.47495517 2.111048 6447714
-0.7894153 -0.47504804 2.1362026 6447714
-0.8090027 -0.42504498 2.1110168 6447714
-0.78943473 -0.42504549 2.1361735 6447714
-0.80895954 -0.37507734 2.111068 6447714
-0.7894085 -0.37509158 2.1362021 6447714
-0.80900764 -0.32505098 2.1110017 6447714
-0.78941548 -0.32508823 2.1361904 6447714
-0.80895782 -0.2750237 2.1110616 6447714
-0.78940594 -0.274988 2.1361988 6447714
-0.80897599 -0.22505789 2.1110351 6447714
-0.78940839 -0.22498463 2.1361928 6447714
-0.80898821 -0.175089 2.1110139 6447714
-0.78942007 -0.17498361 2.1361711 6447714
-0.80901176 -0.12489032 2.1109805 6447714
-0.78937131 -0.12497947 2.1362309 6447714
-0.80891198 -0.075035341 2.1111042 6447714
-0.78948355 -0.0747848 2.1360819 6447714
-0.8090089 -0.02519119 2.1109746 6447714
-0.78938764 -0.024780041 2.1361995 6447714
-0.80900818 0.025191143 2.1109712 6447714
-0.78938663 0.024779992 2.1361949 6447714
-0.80890852 0.075034969 2.111095 6513507
-0.78948021 0.074784495 2.1360691 6579300
-0.80904019 0.10739141 2.11062 10197915
-0.78498584 0.10902157 2.1324878 10197915
-0.72479314 0.11434779 2.1232793 10197915
-0.67523485 0.11429738 2.1223431 10197915
-0.62528414 0.1142469 2.1211197 10197915
-0.57492834 0.11419566 2.1201684 10197915
-0.52507097 0.11414456 2.1195059 10197915
-0.47480717 0.11409345 2.1185563 10197915
-0.42458838 0.11404233 2.1176071 10197915
-0.37486234 0.11399208 2.1163888 10197915
-0.32910872 0.11393498 2.1239707 10197915
-0.27540994 0.11387064 2.1306875 10197915
-0.22499369 0.11381935 2.1297274 10132122
-0.17462265 0.1137681 2.1287684 10000536
-0.12517956 0.11371782 2.1278274 10000536
-0.074898586 0.11366667 2.1268702 10000536
-0.024662554 0.11361557 2.1259139 7368816
0.024648039 0.1135654 2.1249752 2894892
0.074794352 0.11351438 2.1240206 2894892
0.12489589 0.11346342 2.1230674 2894892
0.16178538 0.11342593 2.1223657 2894892
-0.7644577 -0.56784314 2.1682935 10395294
-0.74509442 -0.56777602 2.193187 10526880
-0.76442146 -0.52499688 2.1683402 6447714
-0.74505359 -0.52495617 2.1932337 6447714
-0.76448792 -0.47496545 2.1682515 6447714
-0.74507529 -0.47498244 2.1932018 6447714
-0.76445752 -0.42493385 2.1682847 6447714
-0.74507147 -0.42511985 2.1932013 6447714
-0.7644375 -0.37497979 2.1683047 6447714
-0.74505311 -0.37514612 2.1932223 6447714
-0.76445377 -0.32498753 2.1682796 6447714
-0.74508381 -0.32505739 2.1931787 6447714
-0.76442754 -0.27495566 2.1683078 6447714
-0.74503696 -0.27508283 2.1932352 6447714
-0.76446617 -0.22500238 2.1682563 6447714
-0.74510223 -0.22499774 2.1931486 6447714
-0.76441985 -0.17501101 2.168309 6447714
-0.74501538 -0.17501815 2.1932547 6447714
-0.76441443 -0.12497856 2.1683099 6447714
-0.74510008 -0.12505201 2.1931386 6447714
-0.7645179 -0.07514599 2.1681695 6447714
-0.74501258 -0.075067692 2.1932466 6447714
-0.76440001 -0.025152629 2.168318 6447714
-0.74509776 -0.02510686 2.1931324 6447714
-0.76439911 0.025152579 2.1683123 6447714
-0.7450968 0.025106801 2.1931295 6447714
-0.76451528 0.075145647 2.1681612 6579300
-0.74500871 0.075067326 2.1932371 6579300
-0.76415604 0.1073573 2.1684244 10197915
-0.73904693 0.10936801 2.1867833 10197915
-0.67462224 0.11423571 2.1711795 10197915
-0.62487298 0.11418511 2.170218 10197915
-0.57516819 0.11413456 2.1692572 10197915
-0.52460468 0.11408315 2.1682799 10197915
-0.47498837 0.11403266 2.167321 10197915
-0.42102984 0.11396752 2.174509 10197915
-0.37473148 0.11390997 2.1819904 10197915
-0.32485884 0.11385927 2.1810193 10197915
-0.27458861 0.11380775 2.1803472 10197915
-0.22480734 0.1137571 2.1793768 10197915
-0.17507066 0.11370655 2.1784084 10066329
-0.12493695 0.11365595 2.1771245 10066329
-0.075286478 0.11360548 2.1761575 10132122
-0.02523772 0.11355422 2.1754894 7500402
0.025222523 0.1135029 2.1745064 2894892
0.075181417 0.11345249 2.1732273 2894892
0.12510034 0.11340138 2.1725616 2894892
0.16422704 0.11336099 2.1723437 2894892
-0.72066551 -0.56792378 2.2245917 10658466
-0.72072226 -0.52503794 2.224514 6447714
-0.72066671 -0.47502446 2.2245812 6447714
-0.72071755 -0.42498183 2.2245119 6447714
-0.72067165 -0.37503007 2.2245669 6447714
-0.72068906 -0.32501704 2.2245388 6447714
-0.72067702 -0.27497417 2.2245502 6447714
-0.72069675 -0.22499181 2.2245193 6447714
-0.72072357 -0.17501156 2.2244785 6447714
-0.7206623 -0.12506025 2.2245531 6447714
-0.72076243 -0.074926995 2.2244215 6447714
-0.72061211 -0.024884034 2.2246099 6447714
-0.7206105 0.024883993 2.2246063 6447714
-0.72075963 0.074926689 2.224412 6645093
-0.72020417 0.10779638 2.223321 10197915
-0.67490351 0.11417173 2.2226045 10197915
-0.62490219 0.11412093 2.2216146 10197915
-0.57495528 0.11407096 2.219979 10197915
-0.52504724 0.11401944 2.2196393 10197915
-0.47517926 0.11396875 2.218652 10197915
-0.42832181 0.11391731 2.2207608 10197915
-0.37485728 0.11384496 2.2341192 10197915
-0.32473114 0.11379403 2.2331197 10197915
-0.27464998 0.11374318 2.2321215 10197915
-0.22461365 0.11369237 2.2311244 10197915
-0.17462185 0.11364158 2.2301278 10197915
-0.1246747 0.11359082 2.2291317 10197915
-0.074772172 0.11354011 2.2281368 10197915
-0.024914168 0.11348945 2.2271426 7434609
0.024899356 0.11343883 2.2261488 2894892
0.074668467 0.11338825 2.2251565 2894892
0.12439324 0.11333775 2.224165 2894892
0.16579777 0.11329569 2.22334 2894892
-0.70028794 -0.5678767 2.2507865 10790052
-0.68078792 -0.56794834 2.2758551 10855845
-0.70028722 -0.52498227 2.2507839 6447714
-0.68074554 -0.52497894 2.2759075 6447714
-0.70028621 -0.47462809 2.2507813 6447714
-0.68074417 -0.47497299 2.2759054 6447714
-0.70028508 -0.424274 2.250778 6447714
-0.68075323 -0.42503315 2.2758875 6447714
-0.70028424 -0.37485251 2.2507744 6447714
-0.68076289 -0.37506059 2.2758687 6447714
-0.70028311 -0.3254312 2.250771 6447714
-0.68075407 -0.32505375 2.2758758 6447714
-0.70028216 -0.27507755 2.2507677 6447714
-0.68073034 -0.27504852 2.2759016 6447714
-0.70028114 -0.22472404 2.2507648 6447714
-0.6807428 -0.22504255 2.2758803 6447714
-0.70028013 -0.17437068 2.2507615 6447714
-0.68079293 -0.17500274 2.2758121 6447714
-0.70027918 -0.12494996 2.2507586 6447714
-0.68078619 -0.12499572 2.275816 6447714
-0.70027822 -0.075529337 2.2507548 6447714
-0.68057197 -0.07502377 2.2760882 6447714
-0.70027721 -0.025176413 2.2507517 6447714
-0.68085647 -0.025024256 2.2757201 6447714
-0.70027614 0.025176361 2.2507486 6447714
-0.68085587 0.025024209 2.2757137 6447714
-0.70027512 0.075528994 2.2507451 6710886
-0.68056887 0.07502342 2.2760763 6645093
-0.70027447 0.10723244 2.2507434 10197915
-0.67996591 0.10754518 2.2754908 10197915
-0.6249423 0.11405397 2.2752166 10197915
-0.57472759 0.11400297 2.2741988 10197915
-0.52550387 0.11395296 2.2732015 10197915
-0.47537827 0.11390206 2.2721858 10197915
-0.42529708 0.11385118 2.2711706 10197915
-0.37526095 0.11380037 2.2701569 10197915
-0.32526916 0.11374956 2.2691438 10197915
-0.27532229 0.1136989 2.2681322 10197915
-0.22447883 0.11364726 2.2671032 10197915
-0.17462142 0.11359666 2.2660933 10197915
-0.12480873 0.11354605 2.2650833 10197915
-0.075040117 0.1134955 2.2640753 10197915
-0.021130886 0.11342916 2.2722549 6316128
0.025037082 0.11337107 2.2802362 2894892
0.075076394 0.11331943 2.2799134 2894892
0.12506045 0.11326953 2.2781935 2894892
0.16845186 0.11322449 2.2781322 2894892
-0.65589494 -0.56805235 2.3078568 11053224
-0.63677806 -0.56797665 2.3324292 11119017
-0.65588629 -0.52502745 2.3078613 6447714
-0.63675845 -0.525002 2.332449 6447714
-0.65589178 -0.4750689 2.3078501 6447714
-0.6367892 -0.47500795 2.3324049 6447714
-0.65589744 -0.42511106 2.3078394 6447714
-0.63683206 -0.42496404 2.3323452 6447714
-0.65590292 -0.37515384 2.3078263 6447714
-0.63676077 -0.37497115 2.3324332 6447714
-0.65588552 -0.32507765 2.3078461 6447714
-0.63676316 -0.32492644 2.3324268 6447714
-0.65586847 -0.27500033 2.3078654 6447714
-0.63680321 -0.2749334 2.332372 6447714
-0.65587372 -0.22504273 2.3078544 6447714
-0.63677001 -0.22499228 2.3324111 6447714
-0.65588278 -0.17496648 2.3078356 6447714
-0.63674885 -0.17494757 2.3324344 6447714
-0.65593135 -0.12465683 2.3077679 6447714
-0.63680404 -0.12505683 2.3323581 6447714
-0.65588069 -0.074576281 2.3078279 6447714
-0.63681513 -0.075219773 2.3323412 6447714
-0.65587944 -0.024858721 2.3078237 6447714
-0.63674426 -0.025123715 2.3324294 6447714
-0.65587872 0.02485868 2.3078227 6447714
-0.63674349 0.02512366 2.3324261 6447714
-0.65587807 0.074575968 2.3078177 6645093
-0.63681275 0.075219467 2.3323309 6710886
-0.65587252 0.10708248 2.3078003 10197915
-0.63458753 0.10821009 2.3294947 10197915
-0.57081175 0.11393723 2.3235581 10197915
-0.52502155 0.11388187 2.3297038 10197915
-0.47461936 0.11383069 2.3286567 10197915
-0.42474785 0.11378053 2.3272433 10197915
-0.37492597 0.11372951 2.326586 10197915
-0.32465872 0.11367849 2.3255422 10197915
-0.27492583 0.11362847 2.3241334 10197915
-0.22523195 0.11357763 2.3234792 10197915
-0.17509876 0.11352673 2.3224378 10197915
-0.12501575 0.11347682 2.3206599 10197915
-0.074983016 0.11342511 2.3203592 10197915
-0.028418863 0.11337283 2.3234026 8289918
0.025175776 0.11329949 2.3374357 2894892
0.075497054 0.1132484 2.3363822 2894892
0.12577303 0.11319742 2.3353298 2894892
0.17117648 0.11315137 2.3343799 2894892
-0.61140984 -0.56798589 2.3650434 11250603
-0.5920794 -0.56812042 2.3898919 11382189
-0.61141342 -0.52493364 2.3650351 6447714
-0.59211522 -0.52505064 2.3898423 6447714
-0.61137545 -0.47496322 2.3650782 6447714
-0.59204584 -0.4750503 2.389926 6447714
-0.61141449 -0.42499235 2.3650231 6447714
-0.59207219 -0.42504883 2.38989 6447714
-0.61140478 -0.37508184 2.3650303 6447714
-0.59210116 -0.37495071 2.3898489 6447714
-0.61136764 -0.32511207 2.3650706 6447714
-0.59205598 -0.32494986 2.3899026 6447714
-0.61142832 -0.27501944 2.36499 6447714
-0.59207916 -0.27504787 2.3898668 6447714
-0.61138821 -0.22504722 2.3650374 6447714
-0.59212792 -0.22504918 2.3897986 6447714
-0.61135513 -0.17507888 2.3650753 6447714
-0.59203815 -0.17514674 2.3899097 6447714
-0.61148423 -0.12498763 2.364907 6447714
-0.5920167 -0.12514365 2.3899331 6447714
-0.61125654 -0.075010478 2.3651962 6447714
-0.59213698 -0.074757867 2.3897736 6447714
-0.61148226 -0.025052771 2.3649011 6447714
-0.592062 -0.024752334 2.3898664 6447714
-0.61148125 0.025052721 2.3648963 6447714
-0.59206122 0.024752265 2.389863 6447714
-0.61125326 0.075010166 2.3651869 6710886
-0.5921337 0.074757516 2.3897643 6710886
-0.61138928 0.10749052 2.3636563 10197915
-0.5872432 0.10920058 2.3848844 10197915
-0.52550107 0.1138087 2.3887751 10197915
-0.47580811 0.11375827 2.3877165 10197915
-0.42516693 0.11370689 2.3866382 10197915
-0.37457103 0.11365557 2.3855612 10197915
-0.32501176 0.11360529 2.3845053 10197915
-0.27549624 0.11355506 2.3834505 10197915
-0.22503561 0.11350383 2.382376 10197915
-0.17462029 0.11345267 2.3813021 10197915
-0.1252377 0.1134026 2.3802509 10197915
-0.074912533 0.11335153 2.3791792 10197915
-0.024632361 0.11330052 2.3781087 7237230
0.024617879 0.11325055 2.3770597 2894892
0.074808247 0.11319963 2.3759911 2894892
0.12495384 0.11314879 2.3749237 2894892
0.17210868 0.11310098 2.3739202 2894892
-0.56771302 -0.56810164 2.4212174 11513775
-0.54823846 -0.56785834 2.4462514 11579568
-0.56776512 -0.52501434 2.4211445 6447714
-0.54826748 -0.52495921 2.4462101 6447714
-0.56771088 -0.47504285 2.4212103 6447714
-0.54828781 -0.47496647 2.4461789 6447714
-0.56774384 -0.42498043 2.4211628 6447714
-0.54824477 -0.42496151 2.4462309 6447714
-0.56771499 -0.37500864 2.4211934 6447714
-0.54828703 -0.37531221 2.446173 6447714
-0.56774777 -0.32503697 2.4211466 6447714
-0.54826444 -0.32531098 2.4461966 6447714
-0.56776279 -0.27502078 2.4211235 6447714
-0.54826349 -0.2746391 2.4461927 6447714
-0.56771106 -0.22495922 2.421186 6447714
-0.54826266 -0.22498077 2.4461892 6447714
-0.5677256 -0.17485116 2.4211617 6447714
-0.54826218 -0.17532261 2.4461858 6447714
-0.56777072 -0.12497162 2.4211001 6447714
-0.5482614 -0.12465112 2.446183 6447714
-0.56773424 -0.075140312 2.4211414 6447714
-0.54826057 -0.07499329 2.4461784 6447714
-0.56767714 -0.025077004 2.4212112 6447714
-0.54825956 -0.025335532 2.4461746 6447714
-0.56767631 0.025076954 2.4212091 6447714
-0.54825872 0.025335485 2.446172 6447714
-0.56773216 0.075139865 2.4211318 6776679
-0.5482583 0.07499294 2.4461684 6710886
-0.56753975 0.10718268 2.4211497 10197915
-0.53533971 0.11040197 2.4373441 10197915
-0.47495058 0.11370597 2.4288597 10197915
-0.42545673 0.11365578 2.4277875 10197915
-0.37499765 0.11360461 2.4266946 10197915
-0.32458401 0.11355349 2.4256027 10197915
-0.27421564 0.11350241 2.4245117 10197915
-0.22489844 0.11345238 2.4234426 10197915
-0.1756251 0.11340243 2.4223754 10197915
-0.12539065 0.11335146 2.4212871 10197915
-0.075201362 0.11330056 2.4202001 10197915
-0.025057122 0.11324972 2.4191139 7237230
0.025042135 0.11319893 2.4180288 2894892
0.075096466 0.11314815 2.4169445 2894892
0.12510598 0.1130975 2.4158618 2894892
0.17407197 0.11304786 2.4148021 2894892
-0.52603275 -0.5681836 2.4747965 11645361
-0.52597737 -0.52499741 2.4748628 6513507
-0.52596605 -0.4749614 2.4748747 6447714
-0.52595454 -0.42500854 2.4748828 6447714
-0.52601421 -0.37501392 2.474803 6447714
-0.52594835 -0.32501954 2.4748819 6447714
-0.52600247 -0.27506712 2.4748094 6447714
-0.52601427 -0.22507226 2.4747887 6447714
-0.5259161 -0.17507899 2.4749117 6447714
-0.52598077 -0.12504521 2.4748256 6447714
-0.52588964 -0.074885726 2.4749408 6447714
-0.5260703 -0.024899123 2.4747024 6447714
-0.5260694 0.024899069 2.4746988 6447714
-0.52588695 0.074885413 2.4749291 6776679
-0.52517062 0.10736372 2.4744813 10197915
-0.47509137 0.11365288 2.4714684 10197915
-0.4247295 0.11360183 2.4703586 10197915
-0.37441269 0.11355082 2.4692495 10197915
-0.32516658 0.11350093 2.4681637 10197915
-0.27493933 0.11344998 2.467057 10197915
-0.22475679 0.11339912 2.46595 10197915
-0.17461959 0.11334831 2.4648449 10197915
-0.12452701 0.11329753 2.4637411 10197915
-0.075500347 0.11324784 2.4626606 10197915
-0.02549679 0.11319716 2.4615583 7237230
0.025481278 0.11314549 2.4604347 2894892
0.075394809 0.1130949 2.4593344 2894892
0.12526345 0.11304437 2.458236 2894892
0.17508787 0.11299392 2.4571388 2894892
0.20049307 0.11296818 2.456579 2894892
-0.50319684 -0.56818473 2.5041549 11711154
-0.48395959 -0.56824797 2.5288825 11711154
-0.50316536 -0.52495295 2.5041924 6579300
-0.48403987 -0.52508515 2.5287766 6645093
-0.50316441 -0.47515434 2.5041866 6447714
-0.48399109 -0.47505796 2.5288367 6447714
-0.50316381 -0.42535585 2.5041826 6447714
-0.48406246 -0.42492741 2.5287416 6447714
-0.50316304 -0.37555763 2.5041807 6447714
-0.48400888 -0.37495458 2.5288038 6447714
-0.50313956 -0.32540756 2.5042067 6447714
-0.48400071 -0.32498062 2.5288072 6447714
-0.50316161 -0.27492335 2.5041726 6447714
-0.48400548 -0.27495486 2.5287986 6447714
-0.50318348 -0.22444105 2.5041389 6447714
-0.48402238 -0.22498271 2.5287726 6447714
-0.50316 -0.1742909 2.5041656 6447714
-0.48396301 -0.17495638 2.5288472 6447714
-0.50315958 -0.12449333 2.5041628 6447714
-0.48402429 -0.12503539 2.5287616 6447714
-0.50315857 -0.074695885 2.5041585 6447714
-0.48407567 -0.075223789 2.5286922 6447714
-0.50315785 -0.0248986 2.5041537 6447714
-0.48396155 -0.025143959 2.5288336 6447714
-0.50315738 0.024898553 2.5041511 6447714
-0.48396066 0.025143925 2.5288301 6447714
-0.50315642 0.074695542 2.5041487 6776679
-0.48407322 0.075223453 2.528677 6842472
-0.50315601 0.10685607 2.5041451 10197915
-0.48228541 0.10780784 2.5269525 10197915
-0.42502186 0.11354702 2.5144722 10197915
-0.3748517 0.11349619 2.5133467 10197915
-0.32472634 0.11344542 2.5122221 10197915
-0.27464584 0.11339466 2.5110981 10197915
-0.22461008 0.11334396 2.5099752 10197915
-0.17461908 0.11329331 2.5088537 10197915
-0.12467272 0.11324271 2.5077333 10197915
-0.07477098 0.11319216 2.506614 10197915
-0.024913775 0.11314165 2.5054953 7105644
0.028956871 0.11306618 2.5210595 2894892
0.074814811 0.11301287 2.5255289 2894892
0.12446651 0.11296201 2.5248902 2894892
0.17511463 0.11291135 2.5232818 2894892
0.20408487 0.112872 2.5306654 2894892
-0.45846888 -0.56809443 2.5616562 11711154
-0.43931448 -0.56832492 2.5862772 11711154
-0.4584969 -0.52490008 2.5616119 6776679
-0.43931857 -0.52493048 2.5862679 6842472
-0.45842671 -0.47491398 2.5616982 6447714
-0.43928677 -0.47492805 2.5863035 6447714
-0.45847777 -0.42503569 2.5616271 6447714
-0.43930754 -0.42501464 2.5862708 6447714
-0.45845163 -0.37504682 2.5616591 6447714
-0.43931636 -0.37510246 2.5862551 6447714
-0.45845443 -0.32506424 2.5616479 6447714
-0.43926558 -0.32509804 2.5863152 6447714
-0.45847914 -0.27507678 2.5616131 6447714
-0.43930534 -0.2750096 2.5862613 6447714
-0.45844945 -0.22498558 2.5616481 6447714
-0.43927991 -0.22500612 2.5862896 6447714
-0.45844826 -0.17510618 2.5616474 6447714
-0.43937984 -0.17500663 2.5861588 6447714
-0.45850578 -0.12501885 2.5615656 6447714
-0.43921518 -0.12517963 2.5863659 6447714
-0.4583872 -0.075131081 2.5617139 6447714
-0.43933982 -0.074827135 2.586201 6447714
-0.45850423 -0.025263524 2.5615566 6447714
-0.43927759 -0.024643652 2.5862768 6447714
-0.45850375 0.025263472 2.5615554 6447714
-0.43927702 0.024643604 2.5862739 6447714
-0.4583855 0.075130716 2.5617032 6842472
-0.43933821 0.074826822 2.5861914 6842472
-0.45850426 0.10707415 2.5611763 10197915
-0.43578607 0.10850459 2.5803168 10197915
-0.37530664 0.11343958 2.5590477 10197915
-0.32533273 0.11338896 2.5579062 10197915
-0.27540377 0.11333846 2.556767 10197915
-0.22445826 0.11328691 2.5556045 10197915
-0.17461874 0.11323645 2.5544658 10197915
-0.12482393 0.11318602 2.5533283 10197915
-0.074690945 0.11310577 2.5758109 10197915
-0.025069799 0.11305616 2.5741649 7039851
0.020448176 0.11299781 2.5829167 2894892
0.075280987 0.11292443 2.5959499 2894892
0.12577137 0.11287339 2.5947759 2894892
0.17514314 0.11282346 2.5936279 2894892
0.20624806 0.11279198 2.5929043 2894892
-0.41433957 -0.56840771 2.6183827 11711154
-0.39526382 -0.56826502 2.642905 11711154
-0.41436109 -0.52508473 2.6183524 6974058
-0.394972 -0.52422875 2.6432762 6974058
-0.41436553 -0.47504964 2.6183438 6447714
-0.39434269 -0.47504219 2.6440811 6447714
-0.41437185 -0.42494753 2.618331 6447714
-0.39433527 -0.42483518 2.6440868 6447714
-0.41440064 -0.37491384 2.6182885 6447714
-0.3943682 -0.37499404 2.6440403 6447714
-0.41434357 -0.3249473 2.6183574 6447714
-0.39437407 -0.32515424 2.6440277 6447714
-0.41437986 -0.27498078 2.6183071 6447714
-0.39433998 -0.2749466 2.6440675 6447714
-0.41438928 -0.22508283 2.6182892 6447714
-0.39433959 -0.22455768 2.6440618 6447714
-0.41438344 -0.17504914 2.6182916 6447714
-0.39428502 -0.17452732 2.6441281 6447714
-0.41440186 -0.12488202 2.6182611 6447714
-0.39439359 -0.12524769 2.6439841 6447714
-0.41433331 -0.074847721 2.6183448 6447714
-0.39433792 -0.075582497 2.6440506 6447714
-0.41433269 -0.024949191 2.61834 6447714
-0.39433724 -0.025194146 2.644048 6447714
-0.41433239 0.024949174 2.6183357 6447714
-0.39433649 0.025194094 2.6440444 6447714
-0.41433194 0.074847378 2.6183333 6842472
-0.39433613 0.075582176 2.6440399 6974058
-0.41437104 0.10720538 2.616816 10197915
-0.38667917 0.10969969 2.6293719 10197915
-0.3248792 0.11332933 2.6052575 10197915
-0.27510801 0.113279 2.6041005 10197915
-0.2253809 0.11322874 2.6029446 10197915
-0.17569792 0.11317845 2.601789 10197915
-0.12276927 0.11309947 2.6208987 10197915
-0.07571163 0.11301599 2.6485021 10197915
-0.025227075 0.11296493 2.647305 6974058
0.025211891 0.11291392 2.6461093 2894892
0.075605318 0.11286293 2.6449153 2894892
0.12485945 0.11281316 2.6437488 2894892
0.17406978 0.1127634 2.6425822 2894892
0.20794672 0.11272914 2.6417797 2894892
-0.37111643 -0.5682956 2.6739488 11711154
-0.37085089 -0.52516019 2.6742871 7105644
-0.37014243 -0.47495615 2.6751921 6447714
-0.37016511 -0.42502782 2.6751571 6447714
-0.37022084 -0.37509838 2.6750808 6447714
-0.37012202 -0.3250584 2.6752026 6447714
-0.3701658 -0.27502027 2.6751437 6447714
-0.37017557 -0.22509135 2.675128 6447714
-0.37014687 -0.17505275 2.6751587 6447714
-0.37025818 -0.12490313 2.6750097 6447714
-0.36995548 -0.075025991 2.6753926 6447714
-0.37029597 -0.025109649 2.6749527 6447714
-0.37029535 0.0251096 2.6749477 6447714
-0.36995366 0.075025581 2.6753812 6908265
-0.36990961 0.10735066 2.6727278 10197915
-0.32440862 0.11326744 2.6543944 10197915
-0.27480105 0.11321731 2.6532199 10197915
-0.22523768 0.11316724 2.6520462 10197915
-0.17461793 0.11311603 2.6508465 10197915
-0.14382648 0.11308488 2.6501164 10197915
-0.073811002 0.11295045 2.6993811 10197915
-0.024594031 0.11290068 2.6981916 6842472
0.024579601 0.11285097 2.6970041 2894892
0.074825875 0.11280018 2.6957896 2894892
0.12502733 0.11274948 2.6945779 2894892
0.1751833 0.11269879 2.693367 2894892
0.21082407 0.11266276 2.6925054 2894892
-0.35021999 -0.56840813 2.7008107 11711154
-0.33086574 -0.56847399 2.7256925 11711154
-0.35021955 -0.52476984 2.7008076 7237230
-0.33087292 -0.52508843 2.7256794 7303023
-0.35021904 -0.47441819 2.7008038 6447714
-0.33084038 -0.47510451 2.7257164 6447714
-0.35021853 -0.42518547 2.7007999 6447714
-0.33086735 -0.42506143 2.7256765 6447714
-0.35021806 -0.37483403 2.7007961 6447714
-0.33086213 -0.37501976 2.7256775 6447714
-0.35021755 -0.32448274 2.7007921 6447714
-0.33083373 -0.32503548 2.7257085 6447714
-0.35021704 -0.27525046 2.7007883 6447714
-0.33085632 -0.27499288 2.7256768 6447714
-0.35021654 -0.22489946 2.7007842 6447714
-0.33087894 -0.22495185 2.7256439 6447714
-0.35021603 -0.17454858 2.7007804 6447714
-0.33080924 -0.17496763 2.7257288 6447714
-0.35021555 -0.12531675 2.7007771 6447714
-0.33086899 -0.12492548 2.7256455 6447714
-0.35021505 -0.074966177 2.7007728 6447714
-0.33094206 -0.074769162 2.7255478 6447714
-0.35021454 -0.024615724 2.7007689 6447714
-0.33080336 -0.024843149 2.7257223 6447714
-0.35021403 0.024615681 2.7007649 6447714
-0.33080277 0.024843121 2.7257187 6447714
-0.3502135 0.074965827 2.7007613 6974058
-0.33094063 0.074768849 2.7255354 6908265
-0.35021317 0.10741363 2.7007587 10197915
-0.3293969 0.10751488 2.7228813 10197915
-0.27560577 0.11315446 2.7042563 10197915
-0.22508888 0.11310338 2.7030358 10197915
-0.17461732 0.11305236 2.7018163 10197915
-0.12531151 0.11300249 2.7006252 10197915
-0.09955354 0.11297649 2.7000034 10197915
0.035312444 0.11277407 2.7496135 2894892
0.075154006 0.11273382 2.7486322 2894892
0.12520181 0.1126833 2.7474005 2894892
0.17520469 0.1126328 2.7461691 2894892
0.21267886 0.11259494 2.7452459 2894892
0.19586051 -0.61887574 2.7974346 2894892
0.21328111 -0.61870372 2.7838831 2894892
-0.30612156 -0.5683369 2.7575011 11711154
-0.28700644 -0.56840187 2.7820742 11711154
0.19586651 -0.57485342 2.7975192 2894892
0.21344218 -0.57498389 2.7838473 2894892
-0.30617484 -0.52492195 2.7574277 7368816
-0.28700334 -0.52495861 2.7820752 7434609
0.19587332 -0.52503568 2.7976172 2894892
0.2133182 -0.52496463 2.7840471 2894892
-0.30615172 -0.47484842 2.7574544 6447714
-0.28698793 -0.47495332 2.7820921 6447714
0.19588012 -0.47521424 2.7977152 2894892
0.21336409 -0.47494149 2.7841144 2894892
-0.30618945 -0.42477357 2.7574027 6447714
-0.28702444 -0.4250361 2.7820396 6447714
0.19585271 -0.42499506 2.7978387 2894892
0.21341792 -0.42500719 2.7841754 2894892
-0.3061128 -0.37488902 2.7574959 6447714
-0.28695112 -0.37512058 2.7821271 6447714
0.19592765 -0.37518314 2.7978835 2894892
0.21339424 -0.37497556 2.7842982 2894892
-0.30615041 -0.32481441 2.7574425 6447714
-0.28700131 -0.32511562 2.7820578 6447714
0.19590071 -0.32457069 2.7980084 2894892
0.21347958 -0.32503146 2.784333 2894892
-0.30612707 -0.27473825 2.757467 6447714
-0.28698623 -0.27511254 2.7820745 6447714
0.19590755 -0.27473548 2.798106 2894892
0.21330161 -0.27499533 2.7845743 2894892
-0.30614182 -0.22485474 2.7574427 6447714
-0.28700748 -0.2250172 2.7820399 6447714
0.19591439 -0.2248967 2.7982035 2894892
0.21342425 -0.22504431 2.7845821 2894892
-0.30621877 -0.17536062 2.757339 6447714
-0.28707221 -0.17492677 2.7819519 6447714
0.19649267 -0.17743923 2.7978513 2894892
0.21352434 -0.17509387 2.7846072 2894892
-0.3061485 -0.12566055 2.7574258 6447714
-0.286834 -0.12482865 2.7822549 6447714
0.19702768 -0.12517057 2.7975426 2894892
0.21341622 -0.12460025 2.784795 2894892
-0.30614805 -0.075396232 2.7574229 6447714
-0.28709534 -0.075278066 2.7819147 6447714
0.19703452 -0.075336725 2.7976394 2894892
0.21342357 -0.074993417 2.7848921 2894892
-0.30614766 -0.02513204 2.7574196 6447714
-0.28696302 -0.025356824 2.7820792 6447714
0.19704138 -0.025499368 2.7977369 2894892
0.21343094 -0.025383178 2.7849879 2894892
-0.30614731 0.025131993 2.7574158 6447714
-0.28696242 0.025356788 2.7820768 6447714
0.19704841 0.025500579 2.7978363 2894892
0.21343854 0.02538437 2.7850869 2894892
-0.30614689 0.075395904 2.75741 6974058
-0.28709388 0.075277716 2.781904 6908265
0.19705522 0.07534492 2.7979341 2894892
0.21344599 0.075001553 2.785183 2894892
-0.30611631 0.10737059 2.7571311 10197915
-0.28364506 0.10791051 2.7768686 10197915
-0.22493397 0.11303701 2.7560244 10197915
-0.17575993 0.11298732 2.7548132 10197915
-0.12548691 0.11293653 2.7535746 10197915
-0.075259067 0.1128858 2.7523375 10197915
-0.025076335 0.11283508 2.751101 6842472
0.010254179 0.11279938 2.7502308 2894892
0.19705953 0.10664419 2.7979946 2894892
0.21345055 0.10615817 2.7852442 2894892
0.13886601 -0.61854821 2.841769 2894892
0.17154951 -0.61876643 2.8163452 2894892
-0.2622366 -0.56856543 2.8139176 11711154
-0.24227165 -0.56848139 2.8395815 11711154
0.13894531 -0.57500881 2.8417959 2894892
0.17152035 -0.57505965 2.8164577 2894892
-0.26232445 -0.5249005 2.8138008 7566195
-0.242359 -0.52495688 2.8394651 7631988
0.13891818 -0.52510679 2.8419216 2894892
0.17153679 -0.52502787 2.8165486 2894892
-0.26223621 -0.47488019 2.8139093 6447714
-0.24232769 -0.47510588 2.8395011 6447714
0.13921371 -0.47564307 2.8417921 2894892
0.1715052 -0.4749921 2.8166757 2894892
-0.26235062 -0.42496499 2.8137581 6447714
-0.24232733 -0.42510787 2.8394992 6447714
0.14009923 -0.4250592 2.8412077 2894892
0.17160349 -0.42501357 2.8167009 2894892
-0.26225322 -0.3750478 2.8138793 6447714
-0.24233313 -0.37496793 2.8394873 6447714
0.14000952 -0.37497967 2.8413818 2894892
0.17144032 -0.37497053 2.816931 2894892
-0.26229674 -0.32502919 2.8138192 6447714
-0.24229564 -0.32497042 2.83953 6447714
0.14006196 -0.32502839 2.8414435 2894892
0.1716214 -0.32498798 2.8168938 2894892
-0.26228806 -0.2750065 2.8138254 6447714
-0.24234509 -0.27497441 2.8394613 6447714
0.14019613 -0.27481771 2.8414416 2894892
0.1716336 -0.27505749 2.8169878 2894892
-0.2622959 -0.22509198 2.8138103 6447714
-0.24239439 -0.22498202 2.8393929 6447714
0.14008355 -0.22485556 2.8416326 2894892
0.17144136 -0.22506848 2.8172405 2894892
-0.2622433 -0.17496422 2.8138728 6447714
-0.24231929 -0.17527837 2.8394837 6447714
0.14008838 -0.17541677 2.8417311 2894892
0.17229341 -0.17461073 2.8166814 2894892
-0.26237532 -0.12505549 2.8136981 6447714
-0.24222021 -0.12527342 2.839607 6447714
0.13998868 -0.12518074 2.8419113 2894892
0.17281315 -0.12508759 2.8163791 2894892
-0.26216412 -0.074916832 2.8139634 6447714
-0.24241714 -0.074708171 2.83935 6447714
0.14020447 -0.074576445 2.8418477 2894892
0.17248845 -0.07490769 2.8167343 2894892
-0.26237476 -0.024806786 2.8136876 6447714
-0.24231824 -0.024703559 2.8394747 6447714
0.14010306 -0.024725657 2.842031 2894892
0.17282526 -0.024745213 2.8165751 2894892
-0.26237434 0.024806738 2.8136835 6447714
-0.24231777 0.024703518 2.8394701 6447714
0.14010793 0.024726784 2.8421278 2894892
0.17283118 0.024746349 2.8166728 2894892
-0.26216307 0.074916482 2.8139508 6974058
-0.24241614 0.074707843 2.8393385 6974058
0.14021906 0.074584536 2.8421433 2894892
0.17250653 0.074915797 2.8170283 2894892
-0.26219669 0.10721586 2.8130367 10197915
-0.23638821 0.10853832 2.8306448 10197915
-0.1746164 0.11291735 2.8098719 10197915
-0.12450427 0.11286674 2.8086126 10197915
-0.074437372 0.11281618 2.8073549 10197915
-0.024414966 0.11276568 2.8060977 6710886
0.025562329 0.11271522 2.8048418 2894892
0.075495258 0.1126648 2.8035874 2894892
0.13539647 0.10822722 2.8304658 2894892
0.17271107 0.10721658 2.8144369 2894892
0.082470521 -0.61870217 2.8856373 2894892
0.11381063 -0.61867404 2.8612597 2894892
-0.21654563 -0.56863475 2.8726521 11711154
-0.19692899 -0.56848127 2.8978722 9539985
0.082485355 -0.57496333 2.8857174 2894892
0.11378374 -0.57493114 2.8613701 2894892
-0.21663982 -0.52512234 2.8725257 7763574
-0.19689305 -0.52464956 2.8979137 6579300
0.082495719 -0.52492934 2.8858111 2894892
0.11382859 -0.52486533 2.8614378 2894892
-0.21659724 -0.47506434 2.8725779 6447714
-0.1968659 -0.47481588 2.8979449 5526612
0.082483731 -0.4749715 2.8859236 2894892
0.11410606 -0.47445267 2.8613267 2894892
-0.21656512 -0.42493191 2.8726163 6447714
-0.19691944 -0.42561051 2.897871 5329233
0.082569085 -0.42509061 2.8859589 2894892
0.11499254 -0.42484176 2.8607392 2894892
-0.21657123 -0.37494731 2.8726046 6447714
-0.19689223 -0.37577718 2.8979023 5131854
0.082459591 -0.37512594 2.8861468 2894892
0.11492958 -0.37489465 2.8608902 2894892
-0.21657091 -0.3249633 2.8725989 6447714
-0.19689199 -0.32535291 2.8978968 5131854
0.082469918 -0.32507718 2.8862436 2894892
0.11494199 -0.32494357 2.8609838 2894892
-0.21660618 -0.27490538 2.872551 6447714
-0.19689162 -0.27492881 2.8978939 5131854
0.082480222 -0.27502528 2.8863373 2894892
0.11495436 -0.2749894 2.8610768 2894892
-0.21661872 -0.22492257 2.8725314 6447714
-0.19689135 -0.22450487 2.8978887 5131854
0.082505457 -0.22505 2.8864202 2894892
0.11498354 -0.2249413 2.8611577 2894892
-0.21672818 -0.17494133 2.8723869 6447714
-0.19686413 -0.17466845 2.8979199 5066061
0.082576007 -0.17523292 2.8864696 2894892
0.11506226 -0.17471036 2.8611994 2894892
-0.21654706 -0.12495931 2.8726115 6447714
-0.19691771 -0.12547109 2.8978457 4868682
0.082586341 -0.12541267 2.8865643 2894892
0.11501661 -0.1245636 2.8613379 2894892
-0.21654665 -0.074975431 2.8726077 6447714
-0.19689058 -0.075634994 2.897876 4671303
