# .PCD v0.7 - Point Cloud Data file format
VERSION 0.7
FIELDS x y z rgb
SIZE 4 4 4 4
TYPE F F F U
COUNT 1 1 1 1
WIDTH 1161
HEIGHT 1
VIEWPOINT 0 0 0 1 0 0 0
POINTS 1161
DATA ascii
-1.1751977 0.10415956 1.8219575 9934743
-1.1249866 0.10415918 1.821754 9934743
-1.0747826 0.10415669 1.8219075 9934743
-1.0249525 0.10415529 1.8218827 9934743
-0.97474885 0.10415494 1.8216796 9934743
-0.92454576 0.10415241 1.8218327 9934743
-0.8747195 0.104151 1.821808 9934743
-0.8248958 0.10415177 1.8214214 9934743
-0.7750808 0.10414817 1.8217583 10000536
-0.72525865 0.10414676 1.8217336 10000536
-0.67505878 0.1041464 1.8215306 10066329
-0.62486827 0.1041439 1.8216838 10132122
-0.57505018 0.10414248 1.821659 10197915
-0.52485788 0.10414214 1.8214556 10197915
-0.47466823 0.10413963 1.8216093 10197915
-0.42485422 0.10413823 1.8215843 10197915
-0.37466937 0.10413788 1.8213813 10197915
-0.32448041 0.10413536 1.8215343 10197915
-0.27505153 0.10413507 1.8213259 10197915
-0.22524141 0.10413362 1.8213068 10197915
-0.17506441 0.10413113 1.82146 10197915
-0.12525854 0.10412969 1.8214353 10197915
-0.075077444 0.10412933 1.8212322 10197915
-0.024901137 0.10412686 1.8213851 10197915
0.024900686 0.10412543 1.8213606 10197915
0.075074226 0.10412508 1.8211576 10197915
0.12524986 0.10412257 1.8213109 10197915
0.17504758 0.10412116 1.8212861 10197915
0.22521359 0.10412081 1.8210828 10197915
0.27538851 0.10411832 1.8212361 10197915
0.32479876 0.10411801 1.8210279 10197915
0.37459263 0.10411658 1.8210086 10197915
0.42475557 0.10411407 1.8211619 10197915
0.47492406 0.10411373 1.820959 3487029
0.50350654 0.1027023 1.822857 2894892
0.51330864 -0.81950855 1.8750159 2894892
0.51370001 -0.77329648 1.8778048 2894892
0.51389968 -0.72495514 1.8793722 2894892
0.5138424 -0.67497987 1.8792964 2894892
0.51373714 -0.62502319 1.878911 2894892
0.51358366 -0.57509369 1.8782163 2894892
0.51351798 -0.52498454 1.8780867 2894892
0.5133962 -0.47470492 1.8775986 2894892
0.51331431 -0.42463568 1.8773643 2894892
0.51316112 -0.37478495 1.8766706 2894892
0.51310396 -0.32495627 1.876596 2894892
0.51299042 -0.27494928 1.8761575 2894892
0.512869 -0.22477449 1.8756701 2894892
0.51276344 -0.17500134 1.8752822 2894892
0.51265901 -0.12525472 1.8749025 2894892
0.51256907 -0.075136691 1.8746165 2894892
0.5124476 -0.025043156 1.8741294 2894892
0.51234192 0.025036272 1.8737431 2894892
0.51225215 0.075088516 1.8734574 2894892
-1.4706333 0.1038506 1.8744882 9934743
-1.4251136 0.1038707 1.8709315 9934743
-1.3750963 0.10386813 1.8710994 9934743
-1.3250824 0.10386787 1.8708802 9934743
-1.2750692 0.10386528 1.8710485 9934743
-1.2250563 0.10386503 1.8708293 9934743
-1.1750478 0.10386243 1.8709974 9934743
-1.1250358 0.1038622 1.8707786 9934743
-1.0750315 0.10385962 1.8709463 10000536
-1.0250208 0.10385937 1.8707271 10000536
-0.97502095 0.10385678 1.8708951 10066329
-0.9254027 0.10385538 1.8708698 10132122
-0.87539959 0.10385516 1.8706508 10197915
-0.82540017 0.10385254 1.8708189 10197915
-0.77539819 0.10385229 1.8705994 10197915
-0.72540325 0.10384971 1.8707677 10197915
-0.67540228 0.10384946 1.8705486 10197915
-0.62541157 0.10384689 1.8707167 10197915
-0.57502764 0.10384545 1.8706913 10197915
-0.52464515 0.10384401 1.8706653 10197915
-0.47465861 0.10384377 1.8704461 10197915
-0.42466444 0.10384119 1.8706144 10197915
-0.37467909 0.10384094 1.8703952 10197915
-0.32468927 0.10383834 1.8705631 10197915
-0.27470511 0.1038381 1.870344 10197915
-0.22471955 0.10383553 1.870512 10197915
-0.17473654 0.10383526 1.8702929 10197915
-0.12475531 0.10383268 1.870461 10197915
-0.074773438 0.10383244 1.8702419 10197915
-0.024796488 0.10382986 1.87041 10197915
0.024796039 0.10382845 1.8703847 10197915
0.074770257 0.1038282 1.8701658 10197915
0.1247467 0.10382561 1.8703337 10197915
0.17471972 0.10382535 1.8701146 10197915
0.2246919 0.10382275 1.8702826 10197915
0.27466381 0.10382251 1.8700634 10197915
0.32463166 0.10381994 1.8702315 10197915
0.37460238 0.10381972 1.8700124 10197915
0.42456594 0.10381711 1.8701806 10197915
0.47492093 0.10381567 1.8701551 4605510
0.50853878 0.10307496 1.8719567 2894892
0.52230853 -0.85725641 1.9326826 2894892
0.520428 -0.82501549 1.9207749 2894892
0.52087849 -0.77681333 1.9239556 2894892
0.52130562 -0.72486317 1.9270064 2894892
0.52117544 -0.67470193 1.926463 2894892
0.52109164 -0.62481815 1.9262155 2894892
0.520962 -0.57496113 1.9256743 2894892
0.52087754 -0.52485538 1.9254241 2894892
0.52074754 -0.47477499 1.9248815 2894892
0.52066416 -0.42497486 1.9246348 2894892
0.52053463 -0.37519783 1.9240938 2894892
0.52045035 -0.325176 1.9238451 2894892
0.52032059 -0.2751759 1.9233025 2894892
0.52021366 -0.22518928 1.9229079 2894892
0.52015162 -0.1749692 1.9228032 2894892
0.51999873 -0.12476142 1.9221129 2894892
0.5207985 -0.073748313 1.9275547 2894892
0.52087104 -0.024968304 1.9283081 2894892
0.52076405 0.024961451 1.9279116 2894892
0.52067417 0.074863732 1.9276253 2894892
-1.5166478 0.10353018 1.9275993 9934743
-1.4749008 0.10355859 1.9226953 9934743
-1.4250981 0.1035559 1.9228799 10000536
-1.3752875 0.10355575 1.9226428 10000536
-1.3250884 0.10355182 1.9230388 10066329
-1.2748902 0.10355294 1.9225904 10066329
-1.2246863 0.1035515 1.9225638 10132122
-1.1748884 0.10354884 1.9227487 10197915
-1.1250868 0.1035487 1.9225113 10197915
-1.0752933 0.10354602 1.9226966 10197915
-1.0250965 0.10354462 1.9226702 10197915
-0.97450608 0.10354444 1.9224325 10197915
-0.92471278 0.10354175 1.9226174 10197915
-0.87492001 0.10354163 1.9223803 10197915
-0.82513106 0.10353893 1.9225652 10197915
-0.77533948 0.10353881 1.922328 10197915
-0.72475827 0.10353611 1.9225125 10197915
-0.67457128 0.10353469 1.9224861 10197915
-0.62478739 0.10353456 1.9222493 10197915
-0.57500333 0.10353187 1.9224341 10197915
-0.52522045 0.10353176 1.9221971 10197915
-0.47503713 0.10353034 1.9221709 10197915
-0.42486715 0.10352635 1.9225663 10197915
-0.3746891 0.10352751 1.9221179 10197915
-0.32490942 0.10352481 1.9223027 10197915
-0.27513567 0.1035247 1.9220659 10197915
-0.22495927 0.10352326 1.9220395 10197915
-0.17519253 0.10352056 1.9222244 10197915
-0.1250205 0.10351917 1.9221982 10197915
-0.074849814 0.10351773 1.9221714 10197915
-0.025085011 0.10351763 1.9219342 10197915
0.025084551 0.10351621 1.9219081 10197915
0.074846655 0.1035135 1.9220928 10197915
0.12501185 0.1035121 1.9220669 10197915
0.17517565 0.10351069 1.9220401 10197915
0.22493155 0.10351055 1.9218035 10197915
0.27509424 0.10350913 1.921777 10197915
0.32485169 0.10350645 1.9219618 10197915
0.37461239 0.10350633 1.9217247 10197915
0.42516145 0.10350361 1.9219092 10197915
0.47531733 0.10350221 1.9218827 5592405
0.51281404 0.10299944 1.9238846 2894892
0.52877629 -0.86554331 1.9742333 2894892
0.52928048 -0.82502335 1.9777122 2894892
0.52914417 -0.77509397 1.9771289 2894892
0.52902663 -0.72518325 1.976665 2894892
0.52891791 -0.6750837 1.9762584 2894892
0.52888358 -0.62501574 1.976331 2894892
0.52870053 -0.57496101 1.9754462 2894892
0.52861053 -0.52492648 1.9751596 2894892
0.52848321 -0.47491616 1.9746343 2894892
0.52837467 -0.42491931 1.974229 2894892
0.52828473 -0.37495098 1.973943 2894892
0.52821338 -0.32499865 1.9737771 2894892
0.52805811 -0.27486485 1.9730718 2894892
0.52794975 -0.22495724 1.9726658 2894892
0.52784145 -0.17506342 1.9722619 2894892
0.52772337 -0.12499101 1.9717951 2894892
0.52848577 -0.07626532 1.9769844 2894892
0.52864474 -0.024865672 1.9783069 2894892
0.52853608 0.025131952 1.9779005 2894892
0.52847719 0.075101376 1.9778149 2894892
-1.5642672 0.10318583 1.9846884 10197915
-1.525072 0.10322873 1.9774051 10197915
-1.4750719 0.10322732 1.9773779 10197915
-1.4250778 0.10322312 1.9778119 10197915
-1.3750917 0.10322451 1.977324 10197915
-1.3250958 0.1032231 1.9772972 10197915
-1.2751015 0.10322168 1.9772701 10197915
-1.2251197 0.10321748 1.9777043 10197915
-1.1751319 0.10321886 1.9772161 10197915
-1.1251416 0.10321746 1.9771897 10197915
-1.0747514 0.10321465 1.9773923 10197915
-1.0247654 0.10321323 1.9773657 10197915
-0.9751941 0.10321324 1.9771082 10197915
-0.92480356 0.10321043 1.9773118 10197915
-0.87482208 0.103209 1.9772847 10197915
-0.82525873 0.103209 1.9770274 10197915
-0.77527785 0.10320759 1.9770004 10197915
-0.72489685 0.10320479 1.9772036 10197915
-0.67492068 0.10320338 1.9771767 10197915
-0.62535906 0.10320337 1.9769193 10197915
-0.57497805 0.10320056 1.9771228 10197915
-0.52459842 0.10320055 1.9768652 10197915
-0.47504088 0.10319777 1.9770688 10197915
-0.42507145 0.10319635 1.9770418 10197915
-0.37469989 0.10319632 1.9767842 10197915
-0.32473159 0.1031949 1.9767574 10197915
-0.27518293 0.10319214 1.976961 10197915
-0.22521897 0.10319071 1.976934 10197915
-0.17484948 0.1031907 1.9766766 10197915
-0.12488645 0.1031893 1.9766494 10197915
-0.074936435 0.10318507 1.9770834 10197915
-0.024979692 0.10318648 1.9765955 10197915
0.024979243 0.10318506 1.9765687 10197915
0.074933261 0.10318087 1.9770026 10197915
0.12487782 0.10318226 1.9765148 10197915
0.17483269 0.10318084 1.9764878 10197915
0.2251911 0.10317805 1.9766915 10197915
0.27514145 0.10317662 1.9766642 10197915
0.32467386 0.10317662 1.9764071 10197915
0.37503228 0.10317378 1.9766099 10197915
0.42538235 0.10317378 1.9763526 10197915
0.47491753 0.10317101 1.9765563 6908265
0.51595443 0.10293385 1.9769725 2894892
0.53888923 -0.90629441 2.0390401 2894892
0.53658056 -0.87506247 2.024375 2894892
0.53740537 -0.82477301 2.0299726 2894892
0.53729564 -0.77499413 2.0295591 2894892
0.53723919 -0.72495401 2.0294883 2894892
0.53707576 -0.67522031 2.0287278 2894892
0.53699243 -0.62521595 2.0284853 2894892
0.53685474 -0.57495844 2.0278933 2894892
0.53677148 -0.52499926 2.0276511 2894892
0.53663445 -0.47506559 2.027061 2894892
0.53655064 -0.4248648 2.0268164 2894892
0.53641337 -0.37468797 2.0262253 2894892
0.53633016 -0.32481289 2.0259845 2894892
0.53619325 -0.27495947 2.025394 2894892
0.53610969 -0.22484319 2.0251498 2894892
0.5359723 -0.17474692 2.0245602 2894892
0.53588951 -0.12495562 2.0243189 2894892
0.53575271 -0.075182229 2.0237305 2894892
0.53566915 -0.025150061 2.0234866 2894892
0.53555846 0.02514312 2.0230675 2894892
0.53542119 0.075134039 2.0224786 2894892
-1.6039722 0.102969 2.0206866 10197915
-1.5754972 0.1029682 2.0206709 10197915
-1.5252481 0.10296679 2.0206437 10197915
-1.4750003 0.10296538 2.0206156 10197915
-1.4247537 0.10296397 2.0205879 10197915
-1.3745081 0.10296257 2.0205603 10197915
-1.3251016 0.10296116 2.0205331 10197915
-1.275697 0.10295977 2.0205057 10197915
-1.2254556 0.10295836 2.0204778 10197915
-1.1752163 0.10295697 2.0204504 10197915
-1.1249776 0.10295554 2.0204227 10197915
-1.0747409 0.10295413 2.0203948 10197915
-1.0245051 0.10295271 2.0203674 10197915
-0.97510821 0.10295134 2.0203402 10197915
-0.92571253 0.10294995 2.0203128 10197915
-0.87548101 0.10294853 2.0202851 10197915
-0.82525092 0.10294712 2.0202572 10197915
-0.77502227 0.10294571 2.0202298 10197915
-0.72242981 0.10286587 2.033128 10197915
-0.67486644 0.10285413 2.0348165 10197915
-0.62470132 0.1028512 2.0350411 10197915
-0.57495099 0.10284981 2.0350134 10197915
-0.52520198 0.10284841 2.0349858 10197915
-0.47504124 0.10284852 2.0347054 10197915
-0.42529306 0.10284713 2.0346782 10197915
-0.37513247 0.10284419 2.0349023 10197915
-0.32496589 0.10284432 2.0346224 10197915
-0.27480993 0.10284138 2.0348468 10197915
-0.22464415 0.1028415 2.0345666 10197915
-0.17491136 0.10283703 2.035044 10197915
-0.12517898 0.10283871 2.0345113 10197915
-0.075017929 0.10283577 2.0347359 10197915
-0.024868205 0.10283589 2.0344555 10197915
0.024867754 0.10283451 2.0344276 10197915
0.075014725 0.10283156 2.0346525 10197915
0.12517029 0.10283168 2.0343726 10197915
0.1753127 0.10282873 2.0345964 10197915
0.22504126 0.10282736 2.0345693 10197915
0.27476847 0.10282595 2.0345414 10197915
0.32490817 0.10282609 2.0342615 10197915
0.37505549 0.10282315 2.0344858 10197915
0.42519429 0.10282325 2.0342059 10197915
0.47491801 0.10282185 2.034178 8092539
0.52045637 0.10266957 2.0341036 2894892
0.54537868 -0.91576767 2.0807221 2894892
0.54489511 -0.87542707 2.0778482 2894892
0.54475403 -0.82504267 2.0772362 2894892
0.54467005 -0.77468133 2.0769899 2894892
0.54452962 -0.72491622 2.0763776 2894892
0.54444736 -0.67516881 2.0761411 2894892
0.54433572 -0.62515342 2.0757146 2894892
0.54419506 -0.57487488 2.0751035 2894892
0.54408234 -0.524903 2.0746734 2894892
0.54400045 -0.47523928 2.0744367 2894892
0.54388899 -0.42530602 2.0740118 2894892
0.5437482 -0.37510812 2.0734017 2894892
0.54366434 -0.3249318 2.0731561 2894892
0.54355282 -0.27506021 2.072731 2894892
0.54338413 -0.22492637 2.0719376 2894892
0.54332924 -0.17481446 2.0718768 2894892
0.54321778 -0.12500434 2.0714519 2894892
0.54307729 -0.074930616 2.0708435 2894892
0.54299343 -0.024877757 2.0705991 2894892
0.54288262 0.024870954 2.0701745 2894892
0.54274261 0.074882701 2.0695658 2894892
-1.6528698 0.10260382 2.0812016 10197915
-1.621617 0.10267414 2.0694301 10197915
-1.5750879 0.10269619 2.0655522 10197915
-1.5250061 0.10269322 2.0657842 10197915
-1.4749186 0.10269337 2.065496 10197915
-1.4248412 0.1026904 2.0657275 10197915
-1.3751857 0.10268903 2.0656996 10197915
-1.325107 0.10268917 2.0654116 10197915
-1.2750295 0.10268619 2.0656433 10197915
-1.2249511 0.10268637 2.0653551 10197915
-1.1748784 0.10268339 2.0655866 10197915
-1.1252297 0.102682 2.0655589 10197915
-1.0751599 0.10268217 2.0652704 10197915
-1.0250869 0.10267919 2.0655026 10197915
-0.97501808 0.10267937 2.0652139 10197915
-0.92494965 0.10267641 2.0654461 10197915
-0.87488163 0.10267658 2.0651579 10197915
-0.82481784 0.10267359 2.0653892 10197915
-0.77517873 0.10267219 2.0653615 10197915
-0.72880805 0.10261409 2.0747106 10197915
-0.6749357 0.10257643 2.0806463 10197915
-0.62493211 0.10257503 2.0806179 10197915
-0.57492959 0.10257365 2.0805898 10197915
-0.52492863 0.10257223 2.0805612 10197915
-0.47492892 0.10257085 2.080533 10197915
-0.4249306 0.10256944 2.0805044 10197915
-0.37493363 0.10256805 2.080476 10197915
-0.32493809 0.10256664 2.0804477 10197915
-0.27494386 0.10256524 2.0804191 10197915
-0.224951 0.10256384 2.0803907 10197915
-0.17495954 0.10256244 2.0803623 10197915
-0.12496941 0.10256105 2.0803342 10197915
-0.074980646 0.10255964 2.0803056 10197915
-0.024993243 0.10255825 2.0802774 10197915
0.024992784 0.10255684 2.0802488 10197915
0.074977458 0.10255544 2.0802207 10197915
0.12496076 0.10255405 2.0801921 10197915
0.17494269 0.10255264 2.0801637 10197915
0.22492327 0.10255124 2.0801353 10197915
0.27490249 0.10254985 2.080107 10197915
0.32488033 0.10254845 2.0800786 10197915
0.37485692 0.10254706 2.08005 10197915
0.42483199 0.10254565 2.0800216 10197915
0.47480574 0.10254426 2.0799935 9013641
0.52492869 0.10235938 2.0785716 2894892
0.55496961 -0.95463014 2.142184 2894892
0.55283517 -0.92446566 2.1286318 2894892
0.54995853 -0.86821818 2.1104589 2894892
0.55340576 -0.87699544 2.1325798 2894892
0.54986167 -0.8252303 2.1100874 2894892
0.55379105 -0.8244859 2.1353633 2894892
0.5497489 -0.77524298 2.1096542 2894892
0.5536781 -0.77478725 2.1349289 2894892
0.54963619 -0.72527593 2.1092222 2894892
0.55354083 -0.72467053 2.13434 2894892
0.54952347 -0.67532933 2.1087892 2894892
0.55345029 -0.67456734 2.1340501 2894892
0.54940879 -0.62452769 2.1083493 2894892
0.55333751 -0.62492979 2.1336157 2894892
0.5492962 -0.57462233 2.1079175 2894892
0.55320054 -0.57486981 2.1330273 2894892
0.54918373 -0.52473766 2.1074858 2894892
0.55311006 -0.52483326 2.1327386 2894892
0.54907125 -0.47487324 2.1070538 2894892
0.55299753 -0.47525659 2.1323042 2894892
0.54895878 -0.42502934 2.1066225 2894892
0.55286068 -0.42525309 2.131717 2894892
0.5488463 -0.37520581 2.1061912 2894892
0.55279249 -0.37484223 2.1315734 2894892
0.54873401 -0.32540277 2.1057599 2894892
0.5526557 -0.32487983 2.1309867 2894892
0.54861963 -0.27474684 2.1053214 2894892
0.55251908 -0.27494848 2.1304009 2894892
0.54850751 -0.22498479 2.1048903 2894892
0.55242884 -0.22502971 2.1301112 2894892
0.54839522 -0.17524324 2.1044598 2894892
0.55229235 -0.17513087 2.1295257 2894892
0.54828107 -0.12464984 2.1040215 2894892
0.5522244 -0.12481954 2.1293833 2894892
0.54816896 -0.074949197 2.1035912 2894892
0.5520637 -0.074525014 2.1286442 2894892
0.5480569 -0.025268998 2.1031613 2894892
0.5519737 -0.024689913 2.1283565 2894892
0.54794294 0.025261996 2.1027238 2894892
0.55186152 0.024683226 2.1279242 2894892
0.54783088 0.074901335 2.1022937 2894892
0.55174738 0.074917346 2.1274841 2894892
-1.7030098 0.10221615 2.1454542 10197915
-1.6712232 0.10228988 2.1331203 10197915
-1.6251121 0.10231446 2.1288233 10197915
-1.5748107 0.10231306 2.128794 10197915
-1.5249602 0.10230993 2.1290512 10197915
-1.4751031 0.10231026 2.128736 10197915
-1.4252573 0.10230715 2.1289933 10197915
-1.3749639 0.10230573 2.1289637 10197915
-1.3246711 0.10230434 2.1289344 10197915
-1.2748314 0.10230467 2.1286194 10197915
-1.2249795 0.10230155 2.1288764 10197915
-1.1751404 0.10230189 2.1285615 10197915
-1.1248515 0.10230049 2.1285322 10197915
-1.075014 0.10229737 2.1287894 10197915
-1.0251688 0.10229772 2.1284745 10197915
-0.97533613 0.10229458 2.1287315 10197915
-0.92505515 0.10229316 2.1287024 10197915
-0.87477481 0.10229177 2.1286731 10197915
-0.82494563 0.10229214 2.1283581 10197915
-0.77510756 0.102289 2.1286154 10197915
-0.72527909 0.10228934 2.1283004 10197915
-0.67500269 0.10228791 2.1282713 10197915
-0.62517935 0.10228481 2.1285284 10197915
-0.57490754 0.1022834 2.1284988 10197915
-0.52463698 0.102282 2.1284697 10197915
-0.47481817 0.10228234 2.1281552 10197915
-0.42498893 0.10227922 2.128412 10197915
-0.37517062 0.10227955 2.1280971 10197915
-0.32490355 0.10227817 2.1280675 10197915
-0.27508929 0.10227504 2.1283247 10197915
-0.22526427 0.10227537 2.1280096 10197915
-0.17501074 0.10227054 2.1285527 10197915
-0.12475741 0.10227258 2.1279516 10197915
-0.074937053 0.10226946 2.1282084 10197915
-0.025128903 0.10226978 2.1278937 10197915
0.025128445 0.1022684 2.1278648 10197915
0.074933879 0.10226526 2.1281216 10197915
0.12474877 0.1022656 2.1278064 10197915
0.17499393 0.10226073 2.1283491 10197915
0.22523645 0.10226278 2.1277483 10197915
0.27504787 0.10225967 2.1280048 10197915
0.32484591 0.10226 2.1276903 10197915
0.37509367 0.10225861 2.1276612 10197915
0.42489019 0.10225548 2.127918 10197915
0.47469491 0.10225582 2.1276031 10000536
0.52570593 0.10220923 2.1272619 3026478
0.55210149 0.10175109 2.1356931 2894892
0.56140184 -0.96359462 2.1835015 2894892
0.56078672 -0.92468899 2.1797736 2894892
0.56067222 -0.87484235 2.1793282 2894892
0.560525 -0.82531893 2.1786706 2894892
0.56044334 -0.77521461 2.1784387 2894892
0.56029439 -0.72513086 2.1777751 2894892
0.56021184 -0.67476344 2.1775393 2894892
0.56006342 -0.62471658 2.1768763 2894892
0.55994928 -0.5749948 2.1764338 2894892
0.5599007 -0.5249961 2.1764138 2894892
0.5597198 -0.4753159 2.1755407 2894892
0.55963832 -0.42535004 2.1753094 2894892
0.55948967 -0.37510726 2.1746466 2894892
0.55940819 -0.32518712 2.1744156 2894892
0.55926001 -0.27528897 2.1737542 2894892
0.55917782 -0.22510688 2.1735187 2894892
0.55902916 -0.1749447 2.1728568 2894892
0.55894792 -0.12510888 2.1726263 2894892
0.5588001 -0.075290591 2.1719666 2894892
0.55871803 -0.025193105 2.1717319 2894892
0.55860221 0.025186136 2.1712818 2894892
0.5584538 0.075242236 2.1706209 2894892
-1.7170639 0.10201275 2.1790822 10197915
-1.675518 0.10201158 2.1790574 10197915
-1.624941 0.10201018 2.1790276 10197915
-1.5752686 0.1020088 2.1789975 10197915
-1.5255977 0.10200743 2.1789682 10197915
-1.4750251 0.10200601 2.1789384 10197915
-1.4244537 0.1020046 2.1789079 10197915
-1.3747869 0.10200321 2.1788788 10197915
-1.3251213 0.10200185 2.178849 10197915
-1.2745541 0.10200043 2.1788189 10197915
-1.2248914 0.10199906 2.1787894 10197915
-1.1752297 0.10199767 2.1787601 10197915
-1.1246669 0.10199626 2.1787302 10197915
-1.0750079 0.10199489 2.1787004 10197915
-1.0253506 0.10199349 2.1786711 10197915
-0.97479171 0.10199209 2.1786408 10197915
-0.92513686 0.1019907 2.178611 10197915
-0.87548363 0.10198933 2.1785817 10197915
-0.82492876 0.10198791 2.1785514 10197915
-0.77437556 0.10198651 2.1785216 10197915
-0.7247262 0.10198513 2.1784918 10197915
-0.67507827 0.10198374 2.1784627 10197915
-0.62452918 0.10198234 2.1784322 10197915
-0.57488382 0.10198095 2.1784031 10197915
-0.52524006 0.10197959 2.1783736 10197915
-0.47469488 0.10197817 2.1783435 10197915
-0.42505378 0.10197678 2.178314 10197915
-0.37541395 0.1019754 2.1782846 10197915
-0.32487297 0.101974 2.1782546 10197915
-0.27523586 0.10197262 2.1782253 10197915
-0.22560014 0.10197123 2.1781952 10197915
-0.17506328 0.10196982 2.1781654 10197915
-0.12452786 0.10196842 2.1781352 10197915
-0.074896194 0.10196704 2.1781058 10197915
-0.025265884 0.10196566 2.1780765 10197915
0.025265422 0.10196425 2.1780465 10197915
0.074893035 0.10196289 2.1780167 10197915
0.12451927 0.10196148 2.1779871 10197915
0.17504644 0.1019601 2.1779571 10197915
0.2255722 0.10195868 2.177927 10197915
0.27519441 0.10195729 2.1778975 10197915
0.32481527 0.10195591 2.1778681 10197915
0.37533686 0.1019545 2.1778378 10197915
0.42495501 0.10195313 2.1778085 10197915
0.4745717 0.10195174 2.177779 10197915
0.52508932 0.10195034 2.1777492 3815994
0.55619663 0.10159773 2.1750588 2894892
0.56804395 -0.97284597 2.2261691 2894892
0.56781638 -0.924537 2.2249885 2894892
0.56770009 -0.87458146 2.2245326 2894892
0.56758386 -0.82464612 2.2240767 2894892
0.56746745 -0.77473122 2.2236218 2894892
0.5673514 -0.72483712 2.2231662 2894892
0.56718206 -0.67496556 2.2223692 2894892
0.56711912 -0.62511742 2.2222564 2894892
0.56837934 -0.57463008 2.2306573 2894892
0.56833744 -0.52519631 2.2306769 2894892
0.56818521 -0.4755103 2.2299881 2894892
0.56806952 -0.42552459 2.2295372 2894892
0.56798744 -0.37526417 2.2293026 2894892
0.56786984 -0.32501617 2.2288408 2894892
0.56775284 -0.27478886 2.2283823 2894892
0.56760049 -0.22459216 2.2276959 2894892
0.56748301 -0.17470935 2.2272325 2894892
0.56740344 -0.12516508 2.227011 2894892
0.56725132 -0.075022787 2.2263258 2894892
0.56716931 -0.02490142 2.2260923 2894892
0.56705308 0.024894617 2.2256358 2894892
0.56690103 0.074974708 2.2249508 2894892
-1.7666458 0.10163518 2.2416608 10197915
-1.7251199 0.10169431 2.2316868 10197915
-1.6751708 0.10169291 2.2316563 10197915
-1.6247709 0.10169351 2.2312999 10197915
-1.5748221 0.10169219 2.2312577 10197915
-1.5253465 0.10168876 2.2315652 10197915
-1.4754028 0.10168739 2.2315347 10197915
-1.4250042 0.10168795 2.2311785 10197915
-1.374602 0.10168459 2.2314734 10197915
-1.3251289 0.10168528 2.2311053 10197915
-1.2756563 0.10168184 2.2314131 10197915
-1.2252586 0.10168242 2.2310569 10197915
-1.1748667 0.10167904 2.2313519 10197915
-1.1249325 0.10167766 2.2313216 10197915
-1.0749998 0.10167627 2.2312911 10197915
-1.0250794 0.10167889 2.2305977 10197915
-0.97515333 0.10167351 2.2312303 10197915
-0.92522442 0.10167213 2.2311997 10197915
-0.87529707 0.10167074 2.2311692 10197915
-0.82491827 0.10167132 2.2308133 10197915
-0.7745294 0.10166793 2.231108 10197915
-0.72507572 0.10166861 2.2307403 10197915
-0.67515171 0.10166715 2.2307224 10197915
-0.62477875 0.10166377 2.2310171 10197915
-0.57485956 0.1016624 2.2309866 10197915
-0.52494174 0.101661 2.2309558 10197915
-0.4750286 0.10166366 2.2302625 10197915
-0.42512515 0.10165824 2.2308955 10197915
-0.37521139 0.10165686 2.230865 10197915
-0.32529902 0.10165548 2.2308345 10197915
-0.27493155 0.10165606 2.2304783 10197915
-0.22456162 0.10165269 2.2307732 10197915
-0.17511882 0.10165333 2.2304053 10197915
-0.12567809 0.10164994 2.2307129 10197915
-0.075311571 0.10165052 2.2303569 10197915
-0.024951624 0.10164714 2.2306516 10197915
0.024951173 0.10164575 2.2306211 10197915
0.075308368 0.10164633 2.2302649 10197915
0.12566935 0.10164294 2.2305593 10197915
0.17510197 0.10164362 2.2301922 10197915
0.22453395 0.10164021 2.2304997 10197915
0.27489015 0.10164078 2.2301435 10197915
0.32524115 0.10163742 2.2304385 10197915
0.3751345 0.10163604 2.230408 10197915
0.42502627 0.10163466 2.2303774 10197915
0.47490528 0.10163728 2.2296844 10197915
0.52479118 0.10163188 2.2303171 5000268
0.55983204 0.10154129 2.2320058 2894892
0.57647759 -1.009958 2.2801955 2894892
0.57524681 -0.97510278 2.2724836 2894892
0.57512915 -0.92501271 2.2720189 2894892
0.57501084 -0.87493551 2.2715509 2894892
0.57493114 -0.82520765 2.2713296 2894892
0.5748136 -0.77517611 2.2708662 2894892
0.57465696 -0.7248553 2.2701538 2894892
0.57457745 -0.67518044 2.2699332 2894892
-0.31647086 -0.62522984 2.2995687 11711154
0.57445961 -0.62521058 2.2694671 2894892
-0.31554776 -0.57648605 2.2997401 8750469
0.57566953 -0.57575464 2.2775385 2894892
-0.31508613 -0.53071368 2.2998676 6513507
0.57568729 -0.5252195 2.2779491 2894892
-0.31539619 -0.49739218 2.2999907 6513507
0.57559609 -0.4746269 2.2776587 2894892
0.57547754 -0.42452842 2.2771897 2894892
0.57533193 -0.37492138 2.2765424 2894892
0.57527024 -0.32486671 2.2764404 2894892
0.57509506 -0.27483493 2.2756059 2894892
0.57500637 -0.22528778 2.2753248 2894892
0.57488805 -0.17529182 2.2748575 2894892
0.57474041 -0.12484588 2.2742021 2894892
0.57467908 -0.074889496 2.2741003 2894892
0.57450426 -0.024965104 2.2732677 2894892
0.57438612 0.024958264 2.2728002 2894892
0.57432491 0.074841633 2.2726986 2894892
-1.8093954 0.10136403 2.2866397 10197915
-1.7752755 0.10136312 2.2866187 10197915
-1.7250438 0.10136171 2.2865872 10197915
-1.6748135 0.10136031 2.2865558 10197915
-1.6255324 0.10135897 2.2865252 10197915
-1.5753052 0.10135756 2.2864935 10197915
-1.525079 0.10135618 2.2864625 10197915
-1.4748544 0.1013548 2.2864308 10197915
-1.424631 0.1013534 2.2863998 10197915
-1.3753567 0.10135203 2.2863691 10197915
-1.3251361 0.10135065 2.2863381 10197915
-1.2749169 0.10134926 2.2863061 10197915
-1.2246993 0.10134787 2.2862751 10197915
-1.1744826 0.10134649 2.2862437 10197915
-1.1252153 0.10134511 2.2862132 10197915
-1.0750014 0.10134374 2.2861814 10197915
-1.024789 0.10134235 2.2861505 10197915
-0.97552544 0.10134098 2.2861192 10197915
-0.92531592 0.10133959 2.2860882 10197915
-0.87510753 0.1013382 2.2860568 10197915
-0.82490069 0.10133681 2.2860258 10197915
-0.77469534 0.10133544 2.2859943 10197915
-0.72543836 0.10133406 2.2859635 10197915
-0.67523563 0.10133268 2.2859321 10197915
-0.62503421 0.1013313 2.2859011 10197915
-0.57483417 0.10132989 2.2858694 10197915
-0.52463555 0.10132851 2.2858386 10197915
-0.47538537 0.10132715 2.2858074 10197915
-0.42518947 0.10132575 2.2857764 10197915
-0.37499493 0.10132437 2.2857449 9276813
-0.32480177 0.10132299 2.2857137 8553090
-0.27461001 0.10132159 2.2856822 9276813
-0.22536653 0.10132025 2.2856517 10197915
-0.1751775 0.10131884 2.2856205 10197915
-0.1249898 0.10131745 2.2855887 10197915
-0.074803524 0.10131608 2.285558 10197915
-0.024618577 0.10131469 2.2855263 10197915
0.024618136 0.10131331 2.2854955 10197915
0.07480035 0.10131194 2.2854643 10197915
0.12498116 0.10131054 2.2854328 10197915
0.17516062 0.10130915 2.2854016 10197915
0.22533876 0.10130778 2.2853701 10197915
0.27456871 0.10130641 2.2853396 10197915
0.32474405 0.10130502 2.2853084 10197915
0.37491804 0.10130363 2.2852769 10197915
0.42509064 0.10130224 2.2852457 10197915
0.47526196 0.10130087 2.2852147 10197915
0.52448517 0.10129951 2.2851837 6381921
0.56383419 0.10122705 2.2835493 2894892
0.58322912 -1.0195978 2.3235641 2894892
0.58290076 -0.97491044 2.3217137 2894892
0.58281267 -0.92518198 2.3214376 2894892
0.58269262 -0.87499088 2.32096 2894892
0.58257276 -0.82482064 2.3204825 2894892
0.58242339 -0.77515537 2.3198121 2894892
0.58309484 -0.72311914 2.3244352 2894892
0.58379662 -0.67544752 2.3292291 2894892
-0.62274873 -0.62478065 2.3465054 11711154
-0.57478076 -0.62446517 2.339128 11711154
-0.52464926 -0.62441254 2.3314145 11711154
-0.4747805 -0.62447602 2.3237431 11711154
-0.42517847 -0.62446159 2.3161125 11711154
-0.37492576 -0.62441033 2.3083797 11711154
-0.32674789 -0.62425274 2.3100214 11711154
0.5836761 -0.62513983 2.3287477 2894892
-0.62154871 -0.57538205 2.3466196 8618883
-0.57470256 -0.57500303 2.3394163 8553090
-0.52452052 -0.57499743 2.331696 8553090
-0.47468129 -0.5749929 2.3240256 8553090
-0.42515704 -0.57502615 2.3164084 8553090
-0.37496924 -0.57497823 2.308687 8553090
-0.32651034 -0.57471836 2.3096349 8289918
0.58351535 -0.5751797 2.328007 2894892
-0.62076682 -0.52527958 2.3468041 6513507
-0.57466286 -0.52506369 2.3397126 6513507
-0.52456337 -0.52506864 2.3320034 6513507
-0.47473642 -0.5250358 2.3243327 6513507
-0.42519918 -0.52500296 2.3167188 6513507
-0.37496048 -0.52498209 2.3089879 6513507
-0.3257421 -0.52453887 2.3092642 6447714
0.58343661 -0.52523673 2.3277931 2894892
-0.62000108 -0.47511515 2.3469906 6513507
-0.57486331 -0.47499382 2.3400464 6513507
-0.52457184 -0.47516498 2.3323071 6513507
-0.47480968 -0.47506493 2.32465 6513507
-0.42524135 -0.47496575 2.3170257 6513507
-0.37490904 -0.47489974 2.3092835 6513507
-0.32521144 -0.47495711 2.3091102 6513507
0.58327568 -0.47467655 2.3270533 2894892
-0.61881733 -0.42540923 2.3471093 6513507
-0.5751093 -0.42483199 2.340389 6513507
-0.52472305 -0.42517051 2.3326359 6513507
-0.47486117 -0.42508057 2.324966 6513507
-0.42526847 -0.42491591 2.3173344 6513507
-0.37502822 -0.42491302 2.3096044 6513507
-0.32540956 -0.42514321 2.3092618 6513507
0.58315462 -0.42476815 2.3265655 2894892
-0.61787111 -0.37556383 2.347266 6513507
-0.57516551 -0.37488988 2.3406999 6513507
-0.52483124 -0.37500757 2.3329554 6513507
-0.47490343 -0.37516049 2.3252766 6513507
-0.42526853 -0.37477663 2.3176365 6513507
-0.37514818 -0.37513325 2.3099256 6513507
-0.32537583 -0.37499738 2.3095026 6513507
0.58307713 -0.37521663 2.3263581 2894892
-0.61700684 -0.32519591 2.3474386 6447714
-0.57504773 -0.32513204 2.3409839 6447714
-0.52490216 -0.32479227 2.3332703 6513507
-0.4749552 -0.32526559 2.3255816 6513507
-0.42535886 -0.32466081 2.3179562 6513507
-0.37529808 -0.32530224 2.3102493 6513507
-0.32526276 -0.324806 2.3097801 6513507
0.58295697 -0.32503298 2.3258784 2894892
-0.61618626 -0.2752274 2.3476155 6447714
-0.57505333 -0.27528185 2.3412871 6447714
-0.52497333 -0.27456397 2.3335855 6447714
-0.47493523 -0.27543545 2.3258798 6447714
-0.42548585 -0.27468398 2.3182778 6513507
-0.37536997 -0.2752375 2.3105652 6513507
-0.32538021 -0.27492753 2.3100934 6513507
0.58279645 -0.2751964 2.3251379 2894892
-0.61498803 -0.22569098 2.3477318 6447714
-0.57528758 -0.22506444 2.3416276 6447714
-0.52522105 -0.22454941 2.3339274 6447714
-0.47512841 -0.22551054 2.3262157 6447714
-0.42554298 -0.22477156 2.3185904 6513507
-0.37529972 -0.2249786 2.3108594 6447714
-0.32539007 -0.22522406 2.3104174 6513507
0.58271784 -0.22537586 2.3249252 2894892
-0.61417621 -0.1755351 2.3479106 6513507
-0.57536584 -0.1746427 2.3419454 6513507
-0.52513278 -0.17499322 2.3342133 6513507
-0.47519273 -0.1754207 2.3265283 6513507
-0.4256002 -0.1748457 2.3188994 6513507
-0.37513125 -0.17459957 2.3111384 6513507
-0.32555503 -0.17532177 2.3106215 6513507
0.58259791 -0.1752539 2.324446 2894892
-0.61324704 -0.12499892 2.3480747 6513507
-0.57567203 -0.12482059 2.3422947 6513507
-0.52498722 -0.12546571 2.3344932 6513507
-0.47525692 -0.1253172 2.3268428 6513507
-0.42550042 -0.12477609 2.3191898 6513507
-0.37525466 -0.12461443 2.3114603 6513507
-0.32553524 -0.12490314 2.3107619 6513507
0.5824374 -0.1248368 2.3237081 2894892
-0.61229098 -0.075402044 2.3482273 6513507
-0.57529265 -0.075356215 2.3425364 6513507
-0.52525437 -0.075448453 2.3348358 6513507
-0.47532067 -0.07520026 2.327158 6513507
-0.4247269 -0.074948765 2.3193719 6513507
-0.37446824 -0.074698947 2.3116424 6513507
-0.32553375 -0.074647762 2.3111713 6513507
0.5823161 -0.074759245 2.3232214 2894892
-0.61134607 -0.025848756 2.3483832 6513507
-0.57559675 -0.025235808 2.3428864 6513507
-0.52532548 -0.025152521 2.3351524 6513507
-0.4753848 -0.025069753 2.3274674 6513507
-0.42478392 -0.024985895 2.3196816 6513507
-0.37451831 -0.024902608 2.3119538 6513507
-0.32554305 -0.024897758 2.3114941 6513507
0.5822379 -0.025023127 2.3230095 2894892
-0.6104176 0.024684923 2.3485472 6513507
-0.57567549 0.025240373 2.343205 6513507
-0.5253967 0.025157036 2.335469 6513507
-0.47544912 0.025074249 2.3277841 6513507
-0.42484093 0.024990378 2.3199964 6513507
-0.37456843 0.024907062 2.3122616 6513507
-0.32558116 0.024901591 2.3117611 6513507
0.58211774 0.025016256 2.3225305 2894892
-0.60902733 0.074984252 2.3486381 6513507
-0.57511449 0.075006165 2.3434207 6513507
-0.52546793 0.075480238 2.3357842 6513507
-0.47551349 0.075231805 2.3280988 6513507
-0.42489845 0.07498011 2.320312 6513507
-0.37461865 0.074730061 2.3125706 6513507
-0.32564768 0.074674681 2.3119743 6513507
0.58199793 0.075035043 2.3220522 2894892
-1.8242438 0.10113284 2.3248801 10197915
-1.7741349 0.10113147 2.3248484 10197915
-1.7249907 0.10113011 2.3248169 10197915
-1.675848 0.10112876 2.3247859 10197915
-1.6257428 0.10112735 2.324754 10197915
-1.5756391 0.10112597 2.3247221 10197915
-1.5255369 0.10112461 2.3246903 10197915
-1.475436 0.10112322 2.3246589 10197915
-1.4253362 0.10112183 2.3246269 10197915
-1.3752383 0.10112046 2.324595 10197915
-1.3251413 0.10111907 2.3245633 10197915
-1.275046 0.1011177 2.3245313 10197915
-1.2249519 0.10111631 2.3244998 10197915
-1.1748592 0.10111492 2.3244681 10197915
-1.1247678 0.10111355 2.3244362 10197915
-1.0746779 0.10111216 2.3244045 10197915
-1.0245893 0.10111077 2.3243728 10197915
-0.97450233 0.1011094 2.3243411 10197915
-0.92441618 0.10110801 2.3243091 10197915
-0.87433153 0.10110664 2.3242774 10197915
-0.82424855 0.10110526 2.3242457 10197915
-0.77416682 0.10110387 2.3242137 10197915
-0.7240864 0.10110249 2.3241823 10197915
-0.67497045 0.10110114 2.3241508 10197915
-0.62130004 0.10087381 2.3304284 8553090
-0.57928759 0.10077725 2.3308129 7960953
-0.5257045 0.10109702 2.3240566 7895160
-0.47563094 0.10109562 2.3240244 7105644
-0.42492586 0.10094059 2.3204603 6513507
-0.37464479 0.10060443 2.3127325 6513507
-0.32381135 0.10049367 2.3117843 6513507
-0.27535027 0.10109009 2.3238974 7237230
-0.22528352 0.10108873 2.3238661 10197915
-0.17521812 0.10108735 2.3238335 10197915
-0.12515409 0.10108597 2.323802 10197915
-0.075091451 0.10108458 2.3237708 10197915
-0.025030183 0.1010832 2.3237383 10197915
0.025029726 0.10108182 2.3237069 10197915
0.075088277 0.10108045 2.3236754 10197915
0.12514544 0.10107904 2.3236434 10197915
0.17520125 0.10107767 2.3236115 10197915
0.2252557 0.1010763 2.32358 10197915
0.27530873 0.10107492 2.3235483 10197915
0.32536045 0.10107352 2.3235164 10197915
0.37541083 0.10107215 2.3234849 10197915
0.42545971 0.10107076 2.3234529 10197915
0.47550738 0.10106938 2.323421 10197915
0.52555358 0.10106802 2.3233895 6908265
0.56757301 0.10101037 2.3220644 2894892
0.59296137 -1.0588474 2.3859303 2894892
0.59101963 -1.0250649 2.3736393 2894892
0.5908975 -0.97470945 2.3731484 2894892
0.5908199 -0.92503369 2.3729408 2894892
0.5906564 -0.87504053 2.3721802 2894892
0.59057802 -0.82508206 2.3719683 2894892
0.59045708 -0.77513421 2.3714838 2894892
0.59083349 -0.72702938 2.3741853 2894892
0.59184164 -0.67469209 2.3809767 2894892
-0.95983368 -0.62498307 2.398366 5395026
-0.92497116 -0.62470639 2.3930042 2631720
-0.875597 -0.62461144 2.3854084 3092271
-0.82548666 -0.62460381 2.3776982 2039583
-0.77570361 -0.62455565 2.3700397 2039583
-0.7252205 -0.62454051 2.3622737 7039851
-0.67507267 -0.62453872 2.3545585 11711154
-0.64790845 -0.62175655 2.350395 11711154
-0.30304632 -0.62473851 2.3673625 11645361
-0.29926577 -0.62429756 2.3919377 11184810
0.59172148 -0.62524474 2.3804934 2894892
-0.95894963 -0.57544726 2.3985312 5987163
-0.92508042 -0.5749982 2.3933227 5131854
-0.87560797 -0.57494694 2.3857112 6513507
-0.82542819 -0.5749774 2.3779907 5460819
-0.77522755 -0.57473278 2.3702693 4934475
-0.72476929 -0.57524937 2.3625023 6776679
-0.67495811 -0.57507056 2.3548408 8553090
-0.64698786 -0.57276654 2.3505509 8158332
-0.3030917 -0.57514894 2.367357 6776679
-0.2992858 -0.57478833 2.3920972 6513507
0.59156793 -0.57532346 2.3797977 2894892
-0.9580819 -0.52555746 2.3987002 6447714
-0.92485738 -0.52474093 2.3935933 6447714
-0.87557399 -0.52516961 2.3860075 6513507
-0.82581747 -0.52500772 2.3783536 6513507
-0.77512234 -0.52497661 2.3705535 6513507
-0.72459209 -0.5250321 2.3627801 6513507
-0.67524463 -0.52497923 2.3551874 6513507
-0.64609098 -0.52357197 2.3507106 6513507
-0.3030788 -0.52496958 2.3677356 6513507
-0.2993058 -0.52527261 2.3922575 6513507
0.59147888 -0.52542639 2.3795173 2894892
-0.9570086 -0.47490394 2.3988421 6447714
-0.92430198 -0.47503647 2.3938093 6447714
-0.87512934 -0.47511584 2.3862431 6447714
-0.82581896 -0.47498527 2.3786571 6513507
-0.77472681 -0.47495782 2.3707974 6513507
-0.72431135 -0.47509545 2.3630388 6513507
-0.67543334 -0.47495502 2.35552 6513507
-0.64515191 -0.47414398 2.3508656 6513507
-0.30311602 -0.47497725 2.367785 6513507
-0.29933667 -0.47525144 2.3923485 6513507
0.59135664 -0.47505209 2.379025 2894892
-0.95616323 -0.424546 2.3990169 6447714
-0.92463285 -0.42521489 2.3941617 6447714
-0.87490302 -0.42488822 2.3865135 6447714
-0.82574493 -0.42503327 2.3789492 6447714
-0.775325 -0.42495704 2.371191 6447714
-0.72459316 -0.42497793 2.3633859 6513507
-0.67516196 -0.42512536 2.3557799 6513507
-0.64419156 -0.42372444 2.3510244 6513507
-0.30314481 -0.42497554 2.3678916 6513507
-0.29933563 -0.42473841 2.3926513 6513507
0.59123421 -0.42469847 2.3785326 2894892
-0.95523351 -0.37490785 2.3991747 6447714
-0.92456597 -0.37501338 2.3944566 6447714
-0.87435699 -0.37464318 2.386734 6447714
-0.82473361 -0.37524357 2.3790953 6447714
-0.77404869 -0.37501863 2.3712981 6447714
-0.72468847 -0.37501168 2.3637042 6447714
-0.67519432 -0.37469059 2.3560905 6447714
-0.64294612 -0.37495321 2.3511281 6513507
-0.30314842 -0.37477443 2.3681607 6513507
-0.29936656 -0.37470391 2.3927431 6513507
0.59108084 -0.37485763 2.3778379 2894892
-0.95435458 -0.32549164 2.3993392 6447714
-0.92445415 -0.32475984 2.394743 6447714
-0.87434793 -0.3251833 2.387032 6447714
-0.82383311 -0.32487851 2.3792622 6447714
-0.7743904 -0.32505348 2.3716536 6447714
-0.72462451 -0.32499391 2.3639972 6447714
-0.67461199 -0.32498956 2.3563027 6447714
-0.64131802 -0.32452247 2.3511832 6447714
-0.30316904 -0.32476014 2.3683197 6513507
-0.29938656 -0.32516137 2.3929031 6513507
0.59099209 -0.32504451 2.3775589 2894892
-0.95342916 -0.2759544 2.3994973 6447714
-0.92480022 -0.27485561 2.3950984 6447714
-0.87435281 -0.27499369 2.3873367 6447714
-0.82418102 -0.2750507 2.3796175 6447714
-0.77422404 -0.27498636 2.3719327 6447714
-0.72503775 -0.27499431 2.3643641 6447714
-0.6744889 -0.27512825 2.3565862 6447714
-0.64035457 -0.27400941 2.3513415 6447714
-0.30320626 -0.27493614 2.3683696 6513507
-0.29941753 -0.27511919 2.3929951 6513507
0.59090328 -0.27523881 2.3772788 2894892
-0.95250934 -0.22655079 2.3996561 6447714
-0.92492419 -0.22527288 2.3954198 6447714
-0.87428117 -0.22475253 2.3876317 6447714
-0.82447362 -0.22504447 2.3799665 6447714
-0.77446181 -0.22506157 2.3722713 6447714
-0.72477233 -0.22507778 2.3646259 6447714
-0.67491949 -0.22481215 2.3569582 6447714
-0.63944185 -0.22443101 2.3515017 6447714
-0.30320135 -0.22510462 2.3686938 6513507
-0.299427 -0.2250668 2.3932259 6513507
0.59071666 -0.2249822 2.3763731 2894892
-0.95167339 -0.17734775 2.3998256 6513507
-0.92523545 -0.17542304 2.3957705 6513507
-0.87456268 -0.17510718 2.3879755 6513507
-0.82421768 -0.1747928 2.3802314 6513507
-0.77456629 -0.17496201 2.3725913 6513507
-0.72526628 -0.17504697 2.3650062 6513507
-0.67464495 -0.17504618 2.3572173 6513507
-0.63849819 -0.17480247 2.3516581 6513507
-0.30311698 -0.17433545 2.3695395 6513507
-0.29938525 -0.17773293 2.3937738 6513507
0.59062803 -0.1752174 2.3760941 2894892
-0.95153165 -0.14715432 2.399987 6513507
-0.92498899 -0.12483213 2.3960378 6513507
-0.8749004 -0.12532145 2.3883297 6513507
-0.82451308 -0.12525253 2.3805773 6513507
-0.77467078 -0.12484913 2.3729115 6513507
-0.72493351 -0.12510787 2.3652565 6513507
-0.6749202 -0.12501833 2.3575637 6513507
-0.63757092 -0.12419803 2.3518219 6513507
-0.30272171 -0.12498624 2.3723974 6513507
-0.29892045 -0.12512919 2.3971035 6513507
0.5904749 -0.12548107 2.3754005 2894892
-0.92433017 -0.074533813 2.3962421 6513507
-0.8745808 -0.074884512 2.3885856 6513507
-0.82462496 -0.074964181 2.380899 6513507
-0.77477497 -0.07472273 2.3732316 6513507
-0.72548115 -0.075045794 2.3656454 6513507
-0.6750111 -0.075216234 2.3578792 6513507
-0.63661677 -0.074584305 2.351975 6513507
-0.30272135 -0.074863598 2.3726926 6513507
-0.29894087 -0.074486658 2.3972671 6513507
0.59041739 -0.075270258 2.3753245 2894892
-0.92344081 -0.024938172 2.3964057 6513507
-0.87491661 -0.024742197 2.3889406 6513507
-0.8247366 -0.024662247 2.3812213 6513507
-0.77487999 -0.024582826 2.3735511 6513507
-0.72510791 -0.025084136 2.365891 6513507
-0.67510104 -0.025400696 2.3581953 6513507
-0.63567299 -0.024915788 2.3521318 6513507
-0.30278039 -0.02490755 2.3726015 6513507
-0.29896086 -0.024830364 2.3974273 6513507
0.59023112 -0.025092503 2.3744192 2894892
-0.92250764 0.02469795 2.3965638 6513507
-0.87503278 0.024746599 2.3892598 6513507
-0.82484603 0.024666604 2.3815372 6513507
-0.77498192 0.024587138 2.3738647 6513507
-0.72519797 0.02500722 2.3662076 6513507
-0.67519313 0.025405318 2.3585179 6513507
-0.63474482 0.02572928 2.3522959 6513507
-0.30280074 0.024909776 2.3727608 6513507
-0.29898089 0.024832578 2.3975878 6513507
0.59010905 0.025085595 2.3739293 2894892
-0.92161858 0.074304976 2.3967276 6513507
-0.87490368 0.074751772 2.3895423 6513507
-0.82495755 0.074995592 2.3818605 6513507
-0.77508724 0.074753881 2.3741858 6513507
-0.72577929 0.074995324 2.3666005 6513507
-0.67528403 0.075247772 2.3588338 6513507
-0.63378835 0.075381875 2.3524499 6513507
-0.30278251 0.074879281 2.3731718 6513507
-0.29900092 0.074502178 2.3977485 6513507
0.59005177 0.075221919 2.373853 2894892
-1.8650765 0.10089437 2.364435 10197915
-1.8248947 0.10089327 2.364409 10197915
-1.7749137 0.10089188 2.3643763 10197915
-1.7249341 0.10089051 2.3643446 10197915
-1.6749556 0.10088913 2.3643117 10197915
-1.6249788 0.10088775 2.3642797 10197915
-1.5750031 0.10088638 2.3642476 10197915
-1.5250288 0.100885 2.3642156 10197915
-1.4750558 0.10088362 2.3641829 10197915
-1.4250844 0.10088225 2.3641508 10197915
-1.3751144 0.10088089 2.3641186 10197915
-1.3251452 0.10087952 2.3640862 10197915
-1.2751778 0.10087813 2.364054 10197915
-1.225212 0.10087677 2.364022 10197915
-1.1752472 0.10087539 2.3639898 10197915
-1.1252838 0.10087399 2.3639574 10197915
-1.0753219 0.10087263 2.363925 10197915
-1.0253613 0.10087124 2.363893 10197915
-0.97540194 0.10086988 2.3638606 10197915
-0.92369443 0.10061244 2.3785124 8487297
-0.87937576 0.10061707 2.3726017 8355711
-0.82455289 0.10086573 2.3637633 8355711
-0.77459908 0.10086434 2.3637311 7697781
-0.72561574 0.10086151 2.3636646 7039851
-0.6753301 0.10066224 2.3589947 6579300
-0.63351995 0.10038769 2.3525605 6513507
-0.30263057 0.10061665 2.3672106 6513507
-0.27605444 0.10083069 2.364733 5658198
-0.22519737 0.10084923 2.3633769 10132122
-0.17525992 0.10084785 2.3633444 10197915
-0.12532383 0.10084648 2.3633122 10197915
-0.075389117 0.10084511 2.3632801 10197915
-0.025455762 0.10084372 2.3632479 10197915
0.025455285 0.10084233 2.3632147 10197915
0.075385906 0.10084096 2.363183 10197915
0.12531514 0.10083959 2.3631506 10197915
0.17524302 0.10083821 2.3631182 10197915
0.22516957 0.10083684 2.3630862 10197915
0.27509472 0.10083546 2.363054 10197915
0.32501853 0.10083408 2.3630216 10197915
0.37494099 0.1008327 2.3629899 10197915
0.42486206 0.10083132 2.3629575 10197915
0.47478181 0.10082995 2.3629251 10197915
0.52470016 0.1008286 2.3628929 7829367
0.56972313 0.1008273 2.3628631 2894892
0.59780043 -1.0654269 2.4170158 2894892
0.60123497 -1.0711085 2.4390736 2894892
0.5976994 -1.0241995 2.4166074 2894892
0.60112256 -1.0254452 2.438617 2894892
0.5975787 -0.97494489 2.4161193 2894892
0.60099757 -0.97472787 2.4381101 2894892
0.59745812 -0.92571062 2.4156318 2894892
0.60087508 -0.92504549 2.4376132 2894892
0.5973351 -0.87549192 2.4151342 2894892
0.60075265 -0.87538332 2.4371169 2894892
0.59721208 -0.82529378 2.4146369 2894892
0.60062784 -0.82472861 2.4366105 2894892
0.59708905 -0.7751165 2.4141397 2894892
0.60050553 -0.77510709 2.4361141 2894892
0.59696621 -0.72495985 2.4136429 2894892
0.6003834 -0.72550607 2.4356186 2894892
0.5968433 -0.67482376 2.413146 2894892
0.60025865 -0.67491359 2.435113 2894892
-1.201762 -0.62459272 2.4355903 6513507
-1.1755347 -0.62478662 2.4315538 6513507
-1.1256529 -0.62477821 2.4238803 6513507
-1.0749992 -0.62476373 2.4160869 6513507
-1.0246786 -0.62472022 2.4083447 6513507
-0.98535454 -0.62450963 2.4022956 6513507
-0.29428077 -0.62457627 2.4243391 10329501
0.59672052 -0.62470829 2.4126496 2894892
0.60013402 -0.62434202 2.434607 2894892
-1.2019252 -0.57421893 2.435921 6513507
-1.1755971 -0.57506531 2.4318657 6513507
-1.1257632 -0.57499647 2.4241989 6513507
-1.0751455 -0.57508391 2.4164107 6447714
-1.0248578 -0.57499647 2.4086735 6447714
-0.98432153 -0.57475692 2.4024389 6513507
-0.29428753 -0.5749709 2.4245858 2171169
0.59756327 -0.57062423 2.4183872 2894892
0.60003692 -0.58491009 2.4342129 2894892
-1.2020849 -0.52483922 2.436245 6513507
-1.1759273 -0.52497971 2.43222 6513507
-1.1248248 -0.52508563 2.4243562 6513507
-1.0742557 -0.52508491 2.4165771 6447714
-1.0249801 -0.52499944 2.4089956 6447714
-0.98336869 -0.52468646 2.4025958 6447714
-0.29432681 -0.52492636 2.424623 2171169
0.5981825 -0.52491093 2.422637 2894892
-1.2012271 -0.47400036 2.4364214 6513507
-1.1747955 -0.47463793 2.4323506 6513507
-1.124614 -0.4753401 2.4246256 6513507
-1.0743773 -0.47513446 2.416898 6447714
-1.0250925 -0.4749459 2.409317 6447714
-0.98250264 -0.47482288 2.4027646 6447714
-0.29434001 -0.47502136 2.4248285 2171169
0.598059 -0.47462937 2.4221368 2894892
-1.2013156 -0.42500278 2.4367318 5329233
-1.1741626 -0.42483908 2.4325557 4802889
-1.1241496 -0.42494124 2.42486 6052956
-1.074518 -0.42521465 2.417223 6447714
-1.0251973 -0.42483586 2.409636 6447714
-0.98161298 -0.42502689 2.4029293 6447714
-0.29434693 -0.42496368 2.4250755 2171169
0.59793544 -0.42436862 2.4216363 2894892
-1.2014788 -0.37457803 2.4370632 4276545
-1.1741982 -0.37502861 2.432862 2039583
-1.1243002 -0.37476227 2.4251878 2039583
-1.0746248 -0.37532467 2.4175415 5987163
-1.0253032 -0.37471253 2.4099565 6447714
-0.98068303 -0.37527925 2.4030893 6447714
-0.29439276 -0.37504414 2.4250689 2171169
0.59777844 -0.3746292 2.4209175 2894892
-1.2016388 -0.32514873 2.437387 4276545
-1.1741676 -0.32529423 2.4331594 2039583
-1.1244524 -0.32456982 2.4255149 2039583
-1.0747542 -0.32546508 2.4178636 5921370
-1.0254533 -0.3246187 2.4102838 6447714
-0.97990167 -0.32532924 2.4032712 6447714
-0.29438657 -0.32511702 2.4254022 2171169
0.59769106 -0.32491815 2.4206467 2894892
-1.2017986 -0.2757062 2.4377117 6118749
-1.1745398 -0.27523202 2.433521 5789784
-1.1247482 -0.27453488 2.4258637 5921370
-1.0749776 -0.2755031 2.4182017 6316128
-1.0247242 -0.27451271 2.410475 6447714
-0.97805828 -0.27532038 2.40329 6447714
-0.29441935 -0.27503967 2.425482 2171169
0.59756774 -0.27471912 2.4201472 2894892
-1.2018049 -0.22785453 2.4380031 6513507
-1.1746991 -0.22485383 2.4338508 6513507
-1.1248577 -0.22475238 2.426183 6513507
-1.0751227 -0.22544195 2.4185266 6447714
-1.0247376 -0.22471978 2.4107797 6447714
-0.97682446 -0.22479711 2.4034069 6447714
-0.29446498 -0.22510067 2.4254782 2171169
0.5974443 -0.22454084 2.4196479 2894892
-1.2010325 -0.17475015 2.4382067 6513507
-1.1748593 -0.17446169 2.4341805 6447714
-1.1247364 -0.17526972 2.4264646 6513507
-1.0752674 -0.17536728 2.4188535 6513507
-1.0248756 -0.17480539 2.411104 6513507
-0.97580051 -0.17440931 2.4035556 6513507
-0.29444629 -0.17501131 2.4258933 2171169
0.59728748 -0.1748811 2.4189293 2894892
-1.2011956 -0.12426104 2.4385378 6513507
-1.1750586 -0.12501886 2.4345114 6513507
-1.1249765 -0.12558953 2.4268029 6513507
-1.0754126 -0.1252791 2.4191792 6513507
-1.0250127 -0.12487761 2.4114275 6513507
-0.97501552 -0.12439963 2.4037387 6513507
-0.29447252 -0.12491234 2.4260154 2171169
0.59720039 -0.12525359 2.4186594 2894892
-1.2013556 -0.074768446 2.4388626 6513507
-1.1751299 -0.075611018 2.4348233 6513507
-1.1252077 -0.075414643 2.4271424 6513507
-1.075557 -0.075177372 2.4195054 6513507
-1.0251509 -0.07493645 2.4117513 6513507
-0.97506434 -0.074697055 2.404048 6513507
