# .PCD v0.7 - Point Cloud Data file format
VERSION 0.7
FIELDS x y z rgb
SIZE 4 4 4 4
TYPE F F F U
COUNT 1 1 1 1
WIDTH 1170
HEIGHT 1
VIEWPOINT 0 0 0 1 0 0 0
POINTS 1170
DATA ascii
-0.77520996 0.11138809 1.9768224 10000536
-0.7425009 0.11137749 1.9714217 10000536
-0.61599326 0.11126824 1.9767951 10000536
-0.57503223 0.11124334 1.9744912 10000536
-0.52537656 0.11120818 1.9736292 10132122
-0.47493312 0.11117126 1.9732118 10197915
-0.42492923 0.11113524 1.9725726 10197915
-0.37537375 0.11110016 1.9717116 10197915
-0.32502443 0.11106331 1.9712952 10197915
-0.27471337 0.11102763 1.9704252 10197915
-0.22483721 0.11099171 1.9697876 10197915
-0.17500116 0.11095464 1.9696046 10197915
-0.12519693 0.11091994 1.9685138 10197915
-0.075008757 0.11088324 1.9680994 10197915
-0.024862664 0.11084769 1.9672316 10197915
0.024851957 0.11081187 1.966596 10197915
0.074932963 0.11077525 1.9661825 10197915
0.12499087 0.11073977 1.9653159 10197915
0.17500491 0.11070316 1.9649035 10197915
0.22540122 0.11066686 1.9642589 10197915
0.27163339 0.11061133 1.9722484 8882055
0.32512474 0.11055926 1.9767834 6447714
0.36025867 0.11053398 1.9763308 6447714
-0.91326618 -0.62279123 2.0431168 6501942
-0.8749373 -0.62285459 2.0248785 6501685
-0.83629322 -0.62278813 2.0064895 6501685
-1.6100638 -0.59771299 2.0366254 2177618
-1.5744543 -0.59769022 2.0240161 2374226
-1.5251251 -0.59769964 2.0234218 2565429
-1.4750409 -0.59771061 2.0235872 5316126
-1.424955 -0.59772098 2.0233684 6566193
-1.3749617 -0.59773278 2.023618 6566193
-1.3250581 -0.59774351 2.023571 6566193
-1.2750592 -0.59775466 2.023736 6500400
-1.2252486 -0.59776509 2.0235574 4855575
-1.1766698 -0.59777242 2.0222039 4329231
-1.1289219 -0.59775823 2.0121493 4329231
-1.0900222 -0.59774452 2.0031664 4329231
-0.91341764 -0.57498008 2.0433164 6447714
-0.87506574 -0.57497448 2.0250666 6447714
-0.83630753 -0.57509506 2.0066237 6447714
-0.91346526 -0.52501369 2.0434732 6447714
-0.87509257 -0.52497268 2.0252125 6447714
-0.83637929 -0.52508122 2.0067923 6447714
-0.9135586 -0.4749743 2.0436513 6447714
-0.87500644 -0.47487628 2.0253067 6447714
-0.83627516 -0.47520366 2.006876 6447714
-0.91324002 -0.42547882 2.0436325 6447714
-0.87423849 -0.42500007 2.0250747 6447714
-0.83549958 -0.42493436 2.0066409 6447714
-0.91204137 -0.38800976 2.0431626 6447714
-0.87258828 -0.38330171 2.0244012 6447714
-0.83520317 -0.37868667 2.0066242 6447714
-1.515911 -0.30915254 2.0249848 1713713
-1.6087831 -0.28821385 2.0341949 1586511
-1.5743102 -0.28820887 2.0226936 1585997
-1.5199016 -0.29276374 2.0250034 1648693
-1.0658828 -0.28855109 2.0277765 2636363
-1.0248868 -0.28857049 2.0247803 1974048
-0.97487599 -0.28860387 2.0251627 2039583
-0.92506313 -0.28863618 2.0251896 2039583
-0.876661 -0.28866506 2.0241549 2039583
-0.8302719 -0.28867278 2.0147147 2039583
-0.79615551 -0.28867918 2.0080919 2039583
-1.6074846 0.11187622 2.0304098 1125191
-1.573294 0.11188611 2.0166574 1191240
-1.5250615 0.11185416 2.0149674 2964820
-1.4892346 0.11182985 2.0139289 10197915
-1.3139535 0.11166502 2.026577 1125707
-1.2750134 0.11163701 2.0260687 5003882
-1.2250961 0.11160109 2.0254169 10132122
-1.1811267 0.11156946 2.0248423 10066329
-1.0645621 0.11148557 2.0233204 1190213
-1.0249033 0.11145704 2.0228024 10000536
-0.97514665 0.11142124 2.0221529 10000536
-0.92457938 0.11138486 2.0214925 10000536
-0.87334466 0.11134308 2.0227227 10000536
-0.82487464 0.1112756 2.0346594 10000536
-0.77875257 0.11124723 2.0322006 10000536
-0.65225703 0.11111269 2.0473402 10197915
-0.62389767 0.11112905 2.0327907 10132122
-0.57483554 0.11109512 2.0316195 10000536
-0.52458805 0.11105964 2.0307102 10066329
-0.47478998 0.1110238 2.030055 10132122
-0.42503676 0.11098675 2.0298982 10197915
-0.37530667 0.11095226 2.0287466 10197915
-0.32518521 0.11091556 2.0283363 10197915
-0.2751019 0.11088017 2.0274286 10197915
-0.22504754 0.11084351 2.0270188 10197915
-0.17502727 0.11080819 2.0261128 10197915
-0.12503979 0.11077158 2.0257032 10197915
-0.075082436 0.11073631 2.0247979 10197915
-0.025161782 0.11069974 2.0243897 10197915
0.025150822 0.11066356 2.0237279 10197915
0.075006597 0.11062837 2.0228243 10197915
0.12483419 0.11059186 2.0224168 10197915
0.17504878 0.11055577 2.0217562 10197915
0.22480333 0.11052058 2.020854 10197915
0.27495447 0.1104845 2.0202026 9013641
0.32548389 0.11044753 2.0197778 6447714
0.36443666 0.11041608 2.0205927 6447714
-1.0167196 -0.62296861 2.0923445 6502199
-0.97438943 -0.62285084 2.0722017 6502199
-0.93816257 -0.62293434 2.0549629 6501942
-1.6560522 -0.59783155 2.0892482 1980754
-1.62283 -0.59780407 2.0750105 2374482
-1.5749415 -0.59781039 2.0732522 2042946
-1.5248311 -0.59782094 2.0733027 4658968
-1.474823 -0.59783244 2.0734174 6500400
-1.424924 -0.59784305 2.0732358 6566193
-1.3749139 -0.59785444 2.0734289 6566193
-1.3249025 -0.59786528 2.073442 6566193
-1.2764251 -0.59787178 2.0718536 5842470
-1.2299813 -0.59785837 2.0622098 4329231
-1.1934251 -0.59784555 2.0537035 4329231
-1.0157746 -0.57499278 2.0920236 6447714
-0.97444397 -0.57500809 2.0723562 6447714
-0.93830323 -0.57504809 2.0551581 6447714
-1.0158448 -0.52495378 2.0921907 6447714
-0.97452903 -0.52503127 2.0725307 6447714
-0.9383226 -0.52502972 2.0553019 6447714
-1.0159264 -0.4749068 2.0923636 6447714
-0.97460657 -0.47500947 2.0727022 6447714
-0.93841898 -0.47508526 2.0554805 6447714
-1.0156902 -0.4257386 2.0923834 6447714
-0.97472322 -0.42501661 2.0728903 6447714
-0.93806207 -0.42445493 2.0554459 6447714
-1.0025831 -0.3984403 2.0862193 6447714
-0.96892023 -0.39495894 2.07021 6447714
-0.93692696 -0.39090818 2.054997 6447714
-1.5020063 -0.30908203 2.0542035 2039583
-1.6556869 -0.28831172 2.0882936 1520462
-1.6226964 -0.28829736 2.0732338 1585998
-1.5750531 -0.28832364 2.0712674 1453636
-1.5221428 -0.28993818 2.0644848 1974048
-1.1012858 -0.28863668 2.0735464 3623000
-1.0642178 -0.27387804 2.0887268 2966103
-1.0316584 -0.28346592 2.0807257 1974822
-0.97663927 -0.2887142 2.0721896 2039583
-0.92943132 -0.28872067 2.0620022 2039583
-0.89514267 -0.28872824 2.0558298 2039583
-1.060998 -0.22479819 2.0939925 4418194
-1.0488766 -0.22887769 2.0988944 1783119
-1.0610616 -0.1747817 2.0941136 3958417
-1.049215 -0.17472422 2.0982382 1585998
-1.0610684 -0.12516971 2.0941947 3235469
-1.049227 -0.12517701 2.0982628 1322828
-1.0608771 -0.075739287 2.0942409 2644104
-1.0492393 -0.075628631 2.0982871 1191499
-1.0601486 -0.025158647 2.0940692 2446982
-1.0492518 -0.025209809 2.0983117 1125705
-1.0602117 0.025160627 2.0941937 2118018
-1.0492642 0.025210207 2.0983365 1125704
-1.0602432 0.075425491 2.0943089 1985405
-1.0492765 0.07563141 2.0983613 1059141
-1.6564106 0.11175572 2.0911138 1125191
-1.6222732 0.11176681 2.0769172 1191496
-1.5746325 0.11173645 2.0747874 2505041
-1.529109 0.11171565 2.0695777 9540244
-1.3592589 0.11154221 2.0871186 1125966
-1.3245435 0.11155599 2.0717173 1979984
-1.2747737 0.11152091 2.0707848 9342866
-1.2250553 0.11148587 2.0698555 10197915
-1.1911827 0.11148895 2.0588202 10066329
-1.105832 0.11136013 2.0837114 1125704
-1.0656695 0.10800762 2.084208 6845571
-1.0271037 0.11083873 2.070153 9671829
-0.97521424 0.11130559 2.0667872 10000536
-0.92525351 0.11126968 2.0661201 10000536
-0.87573701 0.11123343 2.0657258 10000536
-0.8246392 0.1111581 2.0799313 10000536
-0.78739589 0.11113133 2.0794306 9015190
-0.65762103 0.11103808 2.0776858 10197915
-0.62564474 0.1110151 2.0772557 10197915
-0.57554412 0.11097911 2.0765822 10132122
-0.52547622 0.11094313 2.0759091 10000536
-0.47544056 0.11090718 2.0752366 10132122
-0.42543748 0.11087125 2.074564 10197915
-0.37546685 0.11083537 2.0738924 10197915
-0.32552847 0.11079946 2.073221 10197915
-0.2756224 0.1107636 2.0725498 10197915
-0.22574867 0.11072776 2.0718791 10197915
-0.17504819 0.11069134 2.0711977 10197915
-0.12438092 0.11065493 2.0705166 10197915
-0.074604966 0.11061917 2.0698473 10197915
-0.022269517 0.11057181 2.072907 10197915
0.025036924 0.11050732 2.0840304 10197915
0.075089052 0.11047138 2.0833521 10197915
0.12509979 0.11043685 2.08214 10197915
0.17508279 0.11039957 2.0819974 10197915
0.22503737 0.11036369 2.0813215 10197915
0.27495944 0.11032785 2.0806456 9671571
0.32527128 0.11029238 2.0797005 6447714
0.37008098 0.11025682 2.0803883 6447714
-1.0658245 -0.62276626 2.1157124 6502456
-1.0416366 -0.62271661 2.104202 6502456
-1.7032434 -0.5979566 2.1446292 1849426
-1.6702404 -0.59791923 2.1263292 2374483
-1.6249337 -0.59791964 2.1225188 1913675
-1.574954 -0.59793037 2.1224868 3872283
-1.5250801 -0.59794128 2.1224158 6237228
-1.4750946 -0.59795249 2.1225798 6566193
-1.4249988 -0.59796393 2.1225367 6566193
-1.3765154 -0.59796834 2.1203551 6566193
-1.3295137 -0.59795278 2.1097574 6566193
-1.2936565 -0.59794176 2.1019881 6500400
-1.0659246 -0.57497883 2.1158862 6447714
-1.0407355 -0.57504874 2.1039011 6447714
-1.0660568 -0.52499455 2.1160829 6447714
-1.0407825 -0.52497369 2.1040571 6447714
-1.0660416 -0.47493947 2.1162117 6447714
-1.0408643 -0.47500041 2.1042297 6447714
-1.065644 -0.43156043 2.1161389 6447714
-1.0408367 -0.42859542 2.1043406 6447714
-1.7020576 -0.28840914 2.1420188 1389134
-1.6700224 -0.28839254 2.1262848 1586254
-1.6249589 -0.2884129 2.1225567 1388361
-1.5764824 -0.288441 2.1211703 1843751
-1.5430217 -0.2884298 2.1072755 2039583
-1.0839556 -0.26951411 2.1031346 2108730
-1.0404668 -0.2714566 2.1121569 2240058
-0.99808031 -0.28878021 2.1058967 2039583
-1.0836642 -0.22589041 2.1031144 2374739
-1.0425521 -0.22455406 2.1121926 2702674
-1.0829057 -0.17511129 2.10289 2441306
-1.0428095 -0.17503123 2.1116984 2374225
-1.0829984 -0.12459217 2.1030693 2177879
-1.042859 -0.1248557 2.1116457 1914190
-1.0827616 -0.074060231 2.103092 2112601
-1.0427538 -0.074865043 2.1119194 1519948
-1.0820268 -0.025264299 2.1028726 2113375
-1.0424582 -0.025095105 2.1125844 1323083
-1.0821193 0.025267173 2.1030519 2112859
-1.042473 0.025095506 2.1126111 1191240
-1.0822099 0.074935794 2.1032276 4875650
-1.0423831 0.074978285 2.1128471 1059141
-1.6690974 0.11168349 2.1226714 1191496
-1.6246636 0.11165158 2.1220655 993092
-1.5749276 0.11161587 2.121387 8488073
-1.548295 0.11159674 2.1210232 10197915
-1.3692161 0.11146817 2.1185794 1125963
-1.3223329 0.11142404 2.121973 6910331
-1.2753292 0.11135895 2.1334291 10197915
-1.2357806 0.11134639 2.1267686 10197915
-1.1221197 0.11124435 2.1331139 1584969
-1.0835432 0.10594525 2.1043394 8292499
-1.0356326 0.10742242 2.1184382 7896708
-0.97515702 0.11114427 2.129009 10000536
-0.92545795 0.11110857 2.128336 10000536
-0.87535918 0.11107189 2.1279297 10000536
-0.82527798 0.11103665 2.1269588 9803415
-0.79397112 0.11104473 2.1147499 6781841
-0.66508675 0.1109136 2.1278741 10066329
-0.62486696 0.11089209 2.124485 10197915
-0.57496488 0.11085699 2.1235173 10197915
-0.52463955 0.11082089 2.1228251 10066329
-0.4747934 0.11078439 2.1224215 10000536
-0.42497709 0.11074936 2.1214552 10132122
-0.37519759 0.11071291 2.121052 10197915
-0.3254433 0.11067791 2.1200864 10197915
-0.27485058 0.11064087 2.1196723 10197915
-0.22472258 0.1106049 2.118983 10197915
-0.17506978 0.11056998 2.1180196 10197915
-0.12500457 0.11053406 2.117331 10197915
-0.074985191 0.11049668 2.1172051 10197915
-0.026612613 0.11046036 2.1171644 10197915
0.024724783 0.1103844 2.1315491 10197915
0.07503543 0.11034831 2.130852 10197915
0.12531337 0.11031222 2.1301553 10197915
0.17467718 0.11027681 2.1294713 10197915
0.22488984 0.11024079 2.1287758 10197915
0.27506983 0.11020479 2.1280806 10197915
0.32521692 0.11016881 2.1273861 6447714
0.37445262 0.11013349 2.126704 6447714
-1.717067 -0.59804028 2.1801512 2243155
-1.6749926 -0.59803498 2.1740274 2045775
-1.6250348 -0.59804553 2.1740379 3217956
-1.5750777 -0.5980565 2.1740477 5776677
-1.5250043 -0.59806746 2.1741025 6566193
-1.4771453 -0.59806794 2.1699514 6566193
-1.4299817 -0.59805197 2.1592643 6566193
-1.3948331 -0.59804034 2.1513226 6566193
-1.4350234 -0.30934229 2.194968 1983590
-1.718025 -0.2884942 2.1822376 1520718
-1.675146 -0.28850791 2.1763415 1388619
-1.6252831 -0.28853995 2.1762102 1778733
-1.5891989 -0.28853512 2.1643074 2039583
-1.4353205 -0.29379451 2.1955359 1917541
-1.7170665 0.11156999 2.1804292 1191240
-1.6747662 0.11156134 2.1714649 1059654
-1.6247553 0.11152548 2.1707666 6186867
-1.5867811 0.11152695 2.159138 10000536
-1.4128879 0.11135117 2.1764355 1125966
-1.3747602 0.11134538 2.1675797 2965847
-1.3270833 0.11130868 2.1678922 10132122
-1.2769103 0.11123217 2.1828449 10197915
-1.1566409 0.11114594 2.1811528 1125704
-1.1384348 0.11113288 2.1808965 2702163
-1.0556501 0.11107355 2.1797321 10000536
-1.0247436 0.11105138 2.1792974 10000536
-0.97477227 0.11101557 2.1785944 10000536
-0.92483258 0.11097976 2.1778917 10000536
-0.87492543 0.11094399 2.1771896 10000536
-0.8304891 0.11091213 2.1765642 9146518
-0.6729033 0.11079916 2.1743472 10000536
-0.62496692 0.11076479 2.1736729 10132122
-0.57525277 0.11072914 2.1729734 10197915
-0.52557057 0.11069354 2.1722746 10132122
-0.47501799 0.11065728 2.1715634 10000536
-0.42449847 0.11062106 2.1708527 10066329
-0.37491322 0.11058552 2.1701555 10197915
-0.32535988 0.11054999 2.1694579 10197915
-0.27493829 0.11051386 2.1687486 10197915
-0.22454961 0.11047773 2.1680398 10197915
-0.17509267 0.11044227 2.1673439 10197915
-0.12566768 0.11040683 2.1666486 10197915
-0.071018569 0.11033689 2.1777532 10197915
-0.024864648 0.11029126 2.1819358 10197915
0.02485395 0.11025566 2.1812308 10197915
0.074981369 0.11021892 2.1808295 10197915
0.12508781 0.11018381 2.1798096 10197915
0.17514774 0.11014713 2.1794088 10197915
0.22519112 0.11011207 2.1783905 10197915
0.27518377 0.11007547 2.1779907 10197915
0.32560644 0.11003932 2.1772754 6908265
0.37554699 0.11000435 2.1762588 6447714
0.40455574 0.10996073 2.1846395 6447714
-1.7625462 -0.59815747 2.2320755 2111826
-1.7247933 -0.59814775 2.2246594 2177361
-1.6750531 -0.5981586 2.2246647 2564915
-1.6250517 -0.59816945 2.2247436 5184540
-1.5776014 -0.5981701 2.2207713 6566193
-1.531504 -0.59815377 2.2099319 6566193
-1.4209945 -0.30939257 2.2244492 2571345
-1.7621669 -0.28858045 2.2306943 1520462
-1.7250997 -0.28859243 2.2256162 1454156
-1.6751894 -0.28862488 2.2256932 1583416
-1.635247 -0.28864309 2.22245 2039583
-1.4585576 -0.28878748 2.2350259 1982561
-1.4239746 -0.29314554 2.2253466 2373967
-1.7598709 0.11148919 2.2240522 1125191
-1.7253982 0.11146449 2.2235601 1125960
-1.675112 0.11142847 2.2228413 4017247
-1.635092 0.11139981 2.2222693 10197915
-1.4520102 0.11126867 2.2196531 1390691
-1.4241687 0.11124872 2.219255 1059398
-1.3750045 0.1112135 2.2185528 9014159
-1.3258716 0.11117831 2.2178507 10197915
-1.286957 0.11115044 2.2172949 10197915
-1.1666341 0.11106425 2.2155752 993348
-1.1481386 0.11105099 2.2153108 8619915
-1.0693264 0.11093867 2.2357426 10000536
-1.0245947 0.11091755 2.2308843 10000536
-0.97483647 0.11088105 2.2305007 10000536
-0.92463696 0.11084513 2.2297781 10000536
-0.87493753 0.11081038 2.2287288 10000536
-0.83946264 0.11079938 2.2226677 8226964
-0.70687783 0.11066961 2.2342 10000536
-0.67460263 0.11066693 2.2258437 10000536
-0.62506908 0.11063061 2.2254629 10066329
-0.57509601 0.11059484 2.2247434 10197915
-0.52515501 0.11055908 2.2240236 10197915
-0.47479525 0.11052384 2.2229781 10132122
-0.42491689 0.11048817 2.2222478 10000536
-0.37554088 0.11045195 2.2218692 10132122
-0.32526654 0.11041678 2.2208247 10197915
-0.27503502 0.11037998 2.2204213 10197915
-0.22528805 0.11034437 2.2197049 10197915
-0.17511651 0.11030925 2.2186625 10197915
-0.12497787 0.11027256 2.2182593 10197915
-0.079363935 0.11022393 2.2237494 10197915
-0.024994597 0.11015543 2.2343774 10197915
0.024983784 0.11011968 2.2336521 10197915
0.074929714 0.11008392 2.2329266 10197915
0.12484325 0.11004818 2.2322025 10197915
0.17472436 0.11001249 2.231478 10197915
0.22457317 0.10997682 2.2307544 10197915
0.27438956 0.10994115 2.2300305 10197915
0.32509533 0.10990488 2.2292955 7566195
0.37576771 0.10986859 2.2285593 6447714
0.40891814 0.10984486 2.2280779 6447714
-1.3907406 -0.65149033 2.287683 4329231
-1.4530734 -0.62274522 2.2984259 6503484
-1.4246864 -0.62251729 2.2849181 6503484
-1.3938078 -0.62425703 2.2812626 4793637
-1.8093045 -0.59828103 2.2868404 1980498
-1.7743912 -0.59825963 2.2747748 2243154
-1.7252183 -0.59826839 2.2741306 1977153
-1.6775417 -0.59826553 2.2686827 4198674
-1.6321899 -0.59824997 2.2582653 6237228
-1.4531888 -0.57518041 2.2986083 6447714
-1.4247569 -0.57493424 2.285079 6447714
-1.3939244 -0.57492101 2.2810714 3947580
-1.4533354 -0.52522284 2.2988117 6447714
-1.4248064 -0.52490318 2.2852354 6447714
-1.3939376 -0.52509773 2.2811058 3947580
-1.4534307 -0.47526926 2.2989912 3881787
-1.4250145 -0.47526264 2.2854698 5921370
-1.3940636 -0.47669402 2.2809329 4079166
-1.4523979 -0.33905151 2.2988646 1651788
-1.4186028 -0.32661933 2.2771688 3685183
-1.3944067 -0.31978467 2.2803886 3158064
-1.8123006 -0.28869039 2.290761 1454926
-1.7740868 -0.28866702 2.2704802 1520205
-1.7252915 -0.28869689 2.2697523 1387844
-1.6782252 -0.28872377 2.2682185 1974049
-1.647254 -0.28871328 2.2553082 2039583
-1.4711599 -0.28887084 2.2736158 2440792
-1.4158615 -0.27353808 2.2621391 2440018
-1.3948252 -0.27495554 2.2794814 2305850
-1.4165914 -0.22508672 2.2628937 3232372
-1.3948497 -0.2249777 2.2794793 2768467
-1.4165289 -0.17509918 2.2629769 2838130
-1.3948196 -0.17492773 2.2795901 2440018
-1.4167421 -0.12474409 2.2631729 2312046
-1.3949046 -0.12502545 2.2794664 1979983
-1.4167851 -0.075057492 2.263267 2049388
-1.3948197 -0.074965164 2.2796905 1585740
-1.4168857 -0.02531781 2.2634137 1918315
-1.3949319 -0.02492426 2.2795098 1388619
-1.4169707 0.025319841 2.2635505 1655144
-1.3946199 0.025225347 2.2802114 1191497
-1.4170567 0.07502573 2.2636859 1522788
-1.3944457 0.074970454 2.280633 1124934
-1.8138065 0.11134069 2.2970243 1125448
-1.7747098 0.11135931 2.2784729 1191240
-1.7250669 0.11132562 2.2770412 2834004
-1.6789544 0.111306 2.2712159 9474451
-1.6482437 0.11131725 2.2579436 10132122
-1.5015086 0.11111733 2.2924166 1787515
-1.4723692 0.11113299 2.2779119 1125706
-1.4185319 0.10608596 2.2622185 4347757
-1.3865815 0.10770512 2.2765729 7962501
-1.327558 0.1110498 2.2679133 10197915
-1.2963854 0.11106542 2.2528355 10197915
-1.2096827 0.11091653 2.2850671 1125448
-1.1847869 0.1109551 2.2629573 2768212
-1.1074079 0.11083551 2.2866027 9014414
-1.0749757 0.11081232 2.286124 10000536
-1.0244443 0.11077619 2.2853782 10000536
-0.97489846 0.11074075 2.2846477 10000536
-0.92538446 0.11070535 2.283917 10000536
-0.87590206 0.11066996 2.2831874 9277846
-0.71435225 0.11055443 2.2808037 10000536
-0.6744929 0.11052593 2.2802157 10000536
-0.62517065 0.11049065 2.2794876 10000536
-0.5749324 0.11045473 2.2787466 10132122
-0.52472663 0.11041883 2.2780058 10197915
-0.47549999 0.11038362 2.2772794 10197915
-0.42535904 0.11034776 2.27654 10197915
-0.37525046 0.11031194 2.2758009 10197915
-0.32517457 0.11027612 2.2750616 10197915
-0.27513099 0.11024033 2.2743235 10197915
-0.22512014 0.11020457 2.2735858 10197915
-0.17514148 0.11016883 2.2728484 10197915
-0.12519546 0.11013311 2.2721114 10197915
-0.075281583 0.11009742 2.2713752 10197915
-0.025400259 0.11006175 2.2706392 10197915
0.025389086 0.11002541 2.2698901 10197915
0.075205408 0.10998981 2.269155 10197915
0.12498926 0.10995421 2.2684202 10197915
0.1747411 0.10991861 2.2676866 10197915
0.22446059 0.10988306 2.2669528 10197915
0.27508518 0.10984687 2.266206 10197915
0.32473996 0.10981134 2.2654736 7895160
0.37436244 0.10977587 2.2647414 6447714
0.41179335 0.10974909 2.2641892 6447714
-1.5560203 -0.62264323 2.347414 6503998
-1.5250169 -0.62256348 2.3326619 6503741
-1.4778047 -0.62257218 2.3101957 6503741
-1.8573728 -0.59840941 2.3435969 1914962
-1.8232954 -0.59837765 2.3276041 2243154
-1.7777314 -0.59836411 2.3179555 1782862
-1.7339189 -0.59834862 2.3077242 2433329
-1.5561147 -0.57503766 2.3475866 6447714
-1.5250788 -0.57498735 2.3328178 6447714
-1.4778174 -0.5750035 2.310329 6447714
-1.5559483 -0.54099214 2.3475976 6447714
-1.5211381 -0.52746379 2.331069 6447714
-1.4779574 -0.52497739 2.3105288 6447714
-1.5168864 -0.47532421 2.3291867 2565927
-1.4780531 -0.4752408 2.3107069 3355443
-1.5185218 -0.35599795 2.3302841 2047581
-1.4832613 -0.35285065 2.3135149 3294038
-1.5160152 -0.34366307 2.3291242 2113114
-1.4753954 -0.34053856 2.309804 2768467
-1.8545506 -0.2887871 2.3431072 1389133
-1.8230711 -0.28877956 2.3313503 1520461
-1.7751129 -0.28879157 2.323282 1388103
-1.7264211 -0.28882137 2.3225391 1843751
-1.6908053 -0.28880471 2.3057923 2039583
-1.5166478 -0.28897822 2.3313534 2113116
-1.4843509 -0.28895706 2.3135931 2702932
-1.853873 0.11127109 2.3355122 1191240
-1.8245032 0.11125012 2.3350718 1191497
-1.7745972 0.11121444 2.3343232 992835
-1.725701 0.11117952 2.33359 10000536
-1.5138451 0.11102815 2.3304131 1191757
-1.4894748 0.11101074 2.3300474 1059655
-1.4056994 0.11095087 2.3287911 10197915
-1.3755248 0.1109293 2.3283386 10197915
-1.3434137 0.11090638 2.3278568 10197915
-1.2219069 0.11081956 2.3260345 2242640
-1.1161071 0.11074398 2.3244483 9737622
-1.0744103 0.11071417 2.3238225 10000536
-1.0249838 0.11067885 2.3230813 10000536
-0.97558904 0.11064357 2.3223407 10000536
-0.92525804 0.11060761 2.3215861 10000536
-0.88269514 0.1105772 2.3209479 8949397
-0.72040039 0.11046124 2.3185141 10000536
-0.67505759 0.11042885 2.3178339 10000536
-0.62588573 0.1103937 2.3170962 10000536
-0.57578176 0.1103579 2.3163452 10000536
-0.52571034 0.11032213 2.315594 10197915
-0.47567126 0.11028637 2.3148439 10197915
-0.42566469 0.11025066 2.3140936 10197915
-0.37569058 0.11021495 2.3133442 10197915
-0.32574874 0.11017925 2.3125951 10197915
-0.27583927 0.11014361 2.3118467 10197915
-0.22222498 0.11006511 2.3265452 10197915
-0.17468871 0.1100211 2.3297026 10197915
-0.1244594 0.10998523 2.328943 10197915
-0.074746549 0.10995071 2.3278115 10197915
-0.025071355 0.10991427 2.32744 10197915
0.025060471 0.10987846 2.3266816 10197915
0.074671403 0.10984401 2.3255525 10197915
0.12474059 0.10980823 2.3248096 10197915
0.1752442 0.10977121 2.3244109 10197915
0.22524561 0.1097355 2.3236544 10197915
0.27521452 0.10969982 2.3228991 10197915
0.32466128 0.1096655 2.3217728 8553090
0.37456796 0.10962981 2.321032 6447714
0.41742808 0.10959269 2.3228924 6447714
-1.6575823 -0.6226353 2.3957424 6504255
-1.6236981 -0.62258977 2.3796184 6504255
-1.5802963 -0.62253129 2.3589652 6503998
-1.8657548 -0.59846222 2.3659546 2177619
-1.8375065 -0.59845108 2.3588386 2440275
-1.6574253 -0.5784871 2.3957868 6447714
-1.6234344 -0.57546836 2.3796184 6447714
-1.5803688 -0.57499003 2.3591263 6447714
-1.6100696 -0.54766691 2.3733344 6447714
-1.578307 -0.54369944 2.3582308 6447714
-1.8514949 -0.28883713 2.363353 1718096
-1.8224704 -0.28889146 2.3783355 1322826
-1.7746505 -0.28892657 2.3800864 1778474
-1.7390554 -0.28892818 2.3710251 2039583
-1.5509951 -0.28903574 2.3649781 2644365
-1.5470901 -0.28903833 2.3649995 1918055
-1.8694102 0.11118066 2.3749166 1191496
-1.8246101 0.11114867 2.3742342 1059654
-1.7748622 0.11111317 2.3734753 6384245
-1.7400564 0.11108832 2.3729446 10000536
-1.5513873 0.11095364 2.3700676 1721204
-1.5265976 0.11093595 2.3696897 1059655
-1.4176115 0.11085814 2.3680279 10197915
-1.3799977 0.11083131 2.3674541 10197915
-1.2563947 0.11074305 2.3655694 1191497
-1.2366371 0.11072896 2.3652682 2702676
-1.150748 0.11066768 2.3639591 3294296
-1.1250995 0.11064934 2.3635671 10197915
-1.0748116 0.11061345 2.3628004 10066329
-1.0245564 0.11057758 2.3620343 10000536
-0.97531807 0.11054242 2.3612835 10000536
-0.92512745 0.11050658 2.3605182 10000536
-0.88971698 0.11048131 2.3599782 8161171
-0.75699884 0.11030128 2.3908608 10000536
-0.72441715 0.11031223 2.3771687 10000536
-0.67445546 0.11027557 2.3767946 10000536
-0.62453437 0.11024096 2.3756328 10000536
-0.57463998 0.11020433 2.3752596 10000536
-0.52478033 0.11016979 2.3740993 10066329
-0.47495335 0.1101332 2.3737266 10197915
-0.42515531 0.1100987 2.3725669 10197915
-0.37539536 0.11006219 2.3721957 10197915
-0.32516819 0.11002634 2.3714228 10197915
-0.27448836 0.10999117 2.3702507 10197915
-0.22862369 0.10992824 2.3812103 10197915
-0.17519529 0.1098674 2.3891501 10197915
-0.12566504 0.10983208 2.3883827 10197915
-0.075177118 0.10979605 2.3875992 10197915
-0.024722066 0.10976011 2.386817 10197915
0.024711482 0.10972486 2.3860502 10197915
0.075100884 0.10968892 2.3852687 10197915
0.12545748 0.10965299 2.3844876 10197915
0.17479466 0.10961781 2.383723 10197915
0.22508579 0.10958193 2.3829422 10197915
0.27534428 0.10954609 2.3821635 10197915
0.32458532 0.10951097 2.3813996 9145227
0.37477845 0.1094752 2.3806214 6447714
0.42297286 0.1094408 2.3798738 6447714
-1.7616477 -0.62259167 2.4452617 6504512
-1.7249546 -0.62253791 2.4278018 6504512
-1.6827761 -0.62252617 2.4077308 6504512
-1.7614017 -0.59102094 2.4452295 6447714
-1.7231379 -0.58618414 2.4270351 6447714
-1.6822885 -0.58141202 2.4076092 6447714
-1.7606293 -0.46396124 2.4452026 2039583
-1.7254795 -0.46391997 2.4284761 2039583
-1.8079219 -0.27325064 2.4402733 1974306
-1.7848548 -0.27286407 2.4333022 3624550
-1.8063704 -0.22512245 2.4454601 2039583
-1.7851185 -0.22503093 2.4357648 5010073
-1.8050878 -0.17547712 2.4449823 2039583
-1.7852409 -0.17458737 2.4359312 4418967
-1.8051654 -0.1245985 2.4451556 2039583
-1.7854818 -0.12480269 2.4361479 3564434
-1.8053166 -0.074967846 2.4453609 2039583
-1.7853602 -0.07536862 2.4362054 2907534
-1.8054683 -0.025328856 2.4455652 2039583
-1.7856009 -0.025234237 2.4364226 2578827
-1.8056226 0.025331743 2.4457748 2039583
-1.7857232 0.025236528 2.4365888 2315398
-1.8057739 0.074987508 2.4459803 3618615
-1.7857211 0.075384475 2.4366982 2380419
-1.910809 0.11110517 2.4160666 1125447
-1.8743374 0.11107919 2.4155011 1191497
-1.8152938 0.10821829 2.4304187 6450039
-1.7846321 0.10721685 2.4303226 8358550
-1.5650038 0.11085856 2.4107041 1191757
-1.5397856 0.11084057 2.4103131 1059399
-1.4541055 0.11077948 2.4089839 10000536
-1.4248964 0.11075866 2.4085312 10066329
-1.3916692 0.11073495 2.408016 10197915
-1.3034353 0.11056378 2.4484088 1125704
-1.2749636 0.1105976 2.427084 1716811
-1.2468487 0.11063167 2.4057701 9408915
-1.1671032 0.11050382 2.431916 9803415
-1.1244949 0.11049146 2.4243035 10197915
-1.0744302 0.11045466 2.4239457 10132122
-1.0243895 0.1104201 2.4227378 10000536
-0.97439253 0.11038336 2.4223812 10000536
-0.92717904 0.11035597 2.4192209 9540502
-0.89797974 0.11038288 2.4003599 3825288
-0.76519763 0.1101803 2.4399173 10000536
-0.72457498 0.11015137 2.4392762 10000536
-0.67484015 0.11011592 2.4384911 10000536
-0.62513751 0.11008051 2.4377072 10000536
-0.57445329 0.11004439 2.4369078 10000536
-0.52481508 0.11000904 2.4361241 10000536
-0.47520879 0.1099737 2.4353418 10066329
-0.42462295 0.10993765 2.4345434 10197915
-0.37508085 0.10990235 2.4337618 10197915
-0.32557079 0.10986706 2.4329808 10197915
-0.27508298 0.1098311 2.4321842 10197915
-0.22462818 0.10979517 2.4313881 10197915
-0.17420638 0.10975924 2.4305925 10197915
-0.12482496 0.10972404 2.4298134 10197915
-0.075475372 0.10968891 2.4290349 10197915
-0.025151148 0.10965303 2.4282408 10197915
0.025140194 0.10961721 2.4274478 10197915
0.075398676 0.1095814 2.4266546 10197915
0.12562433 0.10954563 2.4258621 10197915
0.17581721 0.10950987 2.4250703 10197915
0.22497456 0.10947485 2.4242945 10197915
0.27410024 0.10943982 2.4235194 10197915
0.32419622 0.10940412 2.4227288 9605778
0.37425953 0.10936849 2.4219391 6447714
0.42429021 0.10933282 2.42115 6447714
0.45129454 0.10931357 2.4207234 6447714
0.44469312 -1.1086757 2.4972003 6447714
0.45792797 -1.107255 2.4909217 6447714
0.44485542 -1.0750879 2.4972222 6447714
0.45817629 -1.0749041 2.4908993 6447714
0.44489276 -1.0251396 2.4973519 6447714
0.45820162 -1.0249093 2.4910347 6447714
0.44496274 -0.97501302 2.4974658 6447714
0.45825085 -0.97503769 2.4911582 6447714
0.44490194 -0.92488194 2.4976432 6447714
0.45824632 -0.92503333 2.4913087 6447714
0.44556996 -0.87597996 2.4974697 6447714
0.45829082 -0.87502551 2.4914341 6447714
0.44592193 -0.82503778 2.497453 6447714
0.45828637 -0.82500893 2.4915848 6447714
0.44596207 -0.77500331 2.4975815 6447714
0.45835048 -0.77498752 2.4917014 6447714
0.4460333 -0.72475958 2.4976959 6447714
0.45841461 -0.7249614 2.491818 6447714
0.44601074 -0.67470968 2.4978549 6447714
0.45834631 -0.67505848 2.4919975 6447714
-1.8020934 -0.62281942 2.4645078 3544084
-1.7864641 -0.62252688 2.4570708 5386545
0.44603488 -0.62507147 2.4979889 6447714
0.45836642 -0.62514961 2.4921355 6447714
-1.8021731 -0.59629971 2.4646168 2039583
-1.7852885 -0.59376246 2.4565887 5131854
0.44609097 -0.57562459 2.4981086 6447714
0.45844543 -0.57497889 2.4922457 6447714
0.44700819 -0.52542019 2.4978211 6447714
0.45851445 -0.52480364 2.4923608 6447714
-1.8025714 -0.4636642 2.4651618 2039583
-1.7855216 -0.46385366 2.4570479 2039583
0.44706213 -0.47500411 2.4979444 6447714
0.45848069 -0.47500625 2.4925234 6447714
-1.8026882 -0.42488253 2.4653208 2039583
-1.7979612 -0.42501521 2.4630713 2039583
0.4471162 -0.42458332 2.4980669 6447714
0.45844674 -0.42520165 2.4926863 6447714
-1.8027892 -0.39120013 2.4654593 2039583
-1.7980955 -0.39084589 2.4632268 2039583
0.44711104 -0.374663 2.4982169 6447714
0.45851597 -0.37501025 2.4928019 6447714
0.44683829 -0.32662442 2.4984877 6447714
0.45824823 -0.32401043 2.4930799 6447714
0.44620547 -0.27538452 2.4989395 6447714
0.45762947 -0.27478707 2.4935181 6447714
0.44650128 -0.22791032 2.4989388 6447714
0.45765406 -0.22521345 2.4936526 6447714
0.44720885 -0.17494959 2.4987593 6447714
0.45764378 -0.17551669 2.4938047 6447714
0.44723356 -0.12423137 2.4988973 6447714
0.45773798 -0.12490571 2.4939094 6447714
0.44725773 -0.074542768 2.4990323 6447714
0.45772907 -0.074394479 2.4940617 6447714
0.44728187 -0.024848783 2.4991677 6447714
0.4577539 -0.024799362 2.4941967 6447714
0.44730607 0.02485057 2.4993024 6447714
0.45777857 0.024801139 2.4943316 6447714
0.44733027 0.074555285 2.4994373 6447714
0.45780328 0.074406974 2.4944658 6447714
-1.9526368 0.11102631 2.4586515 1191240
-1.9247924 0.11100647 2.4582126 1191753
-1.8753129 0.11097123 2.4574316 993348
-1.8341037 0.11094186 2.4567816 7830658
-1.6159052 0.11069549 2.4884112 1257808
-1.5820888 0.11073133 2.4647548 1059655
-1.5059642 0.11059586 2.4948974 4543332
-1.4722102 0.11061835 2.476409 9342865
-1.4322187 0.11062188 2.4634233 10000536
-1.3151979 0.11046007 2.4918344 1059398
-1.2943772 0.11044526 2.4914999 5134953
-1.2069924 0.11038306 2.490097 9408915
-1.1758085 0.11036086 2.4895961 10197915
-1.1259388 0.11032537 2.4887953 10197915
-1.075063 0.11028917 2.4879789 10197915
-1.0242206 0.11025298 2.4871624 10197915
-0.97444791 0.11021754 2.4863632 10000536
-0.93817466 0.11019173 2.485781 8292499
-0.77257568 0.11007387 2.4831219 10000536
-0.7250315 0.11004002 2.4823587 10000536
-0.67441839 0.110004 2.4815459 10000536
-0.62487048 0.10996873 2.4807503 10000536
-0.57535416 0.1099335 2.4799554 10000536
-0.52483922 0.10989754 2.4791443 10000536
-0.4743571 0.1098616 2.4783335 10000536
-0.42493725 0.10982645 2.4775403 10132122
-0.37554908 0.10979126 2.4767473 10197915
-0.32516468 0.10975541 2.4759383 10197915
-0.27481297 0.10971957 2.4751296 10197915
-0.22552085 0.1096845 2.4743385 10197915
-0.17523439 0.1096487 2.4735308 10197915
-0.12498055 0.10961294 2.4727242 10197915
-0.074759692 0.1095772 2.4719179 10197915
-0.024571354 0.10954148 2.4711123 10197915
0.024560904 0.10950651 2.4703228 10197915
0.074684292 0.10947082 2.4695184 10197915
0.12477524 0.10943517 2.468714 10197915
0.17483337 0.10939953 2.4679103 10197915
0.22485912 0.10936395 2.4671071 10197915
0.27485213 0.10932836 2.4663041 10197915
0.32481286 0.1092928 2.4655015 10066329
0.37474078 0.10925727 2.4647002 6447714
0.43131542 0.10785878 2.4743757 6447714
0.45750672 0.1049467 2.4908838 6447714
0.34164119 -1.1196686 2.5460842 6447714
0.37376541 -1.1161623 2.5308456 6447714
0.41869482 -1.1113662 2.5095329 6447714
0.34176996 -1.0750151 2.5461545 6447714
0.37533516 -1.0750232 2.5302229 6447714
0.41995177 -1.0749649 2.5090439 6447714
0.34178871 -1.0249645 2.546294 6447714
0.37527466 -1.0250449 2.5303984 6447714
0.41998857 -1.0249715 2.5091729 6447714
0.34181252 -0.97504401 2.5464296 6447714
0.3753016 -0.97494054 2.5305336 6447714
0.42000958 -0.97486758 2.50931 6447714
0.34179989 -0.92498404 2.5465829 6447714
0.37533483 -0.9249109 2.5306642 6447714
0.41999033 -0.92486203 2.5094686 6447714
0.34241426 -0.87577176 2.546437 6447714
0.37537876 -0.87499744 2.5307918 6447714
0.42071927 -0.87468034 2.5092709 6447714
0.34285069 -0.82495826 2.5463796 6447714
0.37537089 -0.82503802 2.530942 6447714
0.42104262 -0.82496631 2.5092628 6447714
0.3428334 -0.77496606 2.5465357 6447714
0.3753818 -0.77499169 2.5310855 6447714
0.42104235 -0.77501088 2.5094116 6447714
0.3428998 -0.72496903 2.5466514 6447714
0.37541822 -0.72494125 2.531215 6447714
0.42106915 -0.72504908 2.509546 6447714
0.34296629 -0.67496789 2.546767 6447714
0.3754575 -0.67496479 2.531343 6447714
0.42109174 -0.67503291 2.509681 6447714
0.34286556 -0.62495619 2.546962 6447714
0.37546819 -0.62498432 2.5314858 6447714
0.42112288 -0.62501138 2.5098147 6447714
0.34294379 -0.575095 2.5470717 6447714
0.37546521 -0.57495666 2.5316348 6447714
0.42119074 -0.57493949 2.5099313 6447714
0.34375352 -0.52589321 2.5468333 6447714
0.37553144 -0.5249235 2.5317507 6447714
0.42217317 -0.52500755 2.5096118 6447714
0.34397379 -0.47481331 2.5468783 6447714
0.37558189 -0.47496697 2.5318744 6447714
0.42211729 -0.47507969 2.5097828 6447714
0.34392926 -0.42471087 2.5470471 6447714
0.37546638 -0.42496431 2.5320764 6447714
0.42214626 -0.42514628 2.5099163 6447714
0.34407434 -0.37514976 2.5471251 6447714
0.37551701 -0.37491459 2.5322011 6447714
0.4221853 -0.37511292 2.5100482 6447714
0.34402993 -0.32503626 2.5472941 6447714
0.37559587 -0.32494038 2.53231 6447714
0.42220277 -0.32507467 2.5101869 6447714
0.34399289 -0.27474073 2.5474586 6513507
0.37548497 -0.27517501 2.5325096 6447714
0.4220863 -0.27487981 2.5103896 6447714
0.3441239 -0.22516522 2.5475435 6513507
0.37455463 -0.2249945 2.5331001 6447714
0.42172673 -0.22468469 2.5107098 6447714
0.34502915 -0.17538035 2.5472605 6447714
0.37455821 -0.17492446 2.5332463 6447714
0.42232355 -0.1748262 2.5105741 6447714
0.34509736 -0.12453091 2.547379 6447714
0.37473375 -0.12514633 2.5333087 6447714
0.42227274 -0.12482031 2.5107419 6447714
0.34511593 -0.074933559 2.5475154 6447714
0.37483007 -0.075364582 2.5334096 6447714
0.42229623 -0.074896134 2.5108807 6447714
0.34513465 -0.025330858 2.5476534 6447714
0.37468556 -0.025191398 2.5336258 6447714
0.42231902 -0.024966585 2.5110161 6447714
0.34515363 0.025332723 2.5477941 6447714
0.37470594 0.025193231 2.5337651 6447714
0.422342 0.024968395 2.5111537 6447714
0.34517226 0.07494621 2.5479314 6447714
0.37489143 0.075377382 2.5338252 6447714
0.42236483 0.074908838 2.5112896 6447714
-2.0130713 0.11084028 2.5480382 1125448
-1.9728546 0.11086439 2.5270298 1191496
-1.9255301 0.1108375 2.5236418 1848140
-1.8795359 0.11083264 2.5121365 6712952
-1.6577618 0.11058766 2.5422306 1324115
-1.6311529 0.11056874 2.5417957 1059399
-1.5194924 0.11048935 2.5399709 8488073
-1.4791217 0.11046065 2.5393109 10000536
-1.3517709 0.11037009 2.5372293 1125448
-1.3305669 0.11035503 2.5368829 2374225
-1.2172203 0.11027444 2.5350306 9869208
-1.1748909 0.11024433 2.5343382 10197915
-1.1251827 0.110209 2.5335262 10197915
-1.0744497 0.11017293 2.532697 10197915
-1.0248057 0.11013763 2.5318851 10197915
-0.97519356 0.11010236 2.5310745 10132122
-0.94670612 0.11008211 2.5306091 3825031
-0.80443203 0.10998095 2.5282834 10000536
-0.77495748 0.10995999 2.5278022 10000536
-0.72445339 0.10992408 2.5269759 10000536
-0.67503339 0.10988895 2.5261686 10000536
-0.62564516 0.10985383 2.5253615 10000536
-0.57523841 0.109818 2.5245378 10000536
-0.52486473 0.10978218 2.5237138 10000536
-0.47452378 0.10974637 2.5228908 10132122
-0.42421564 0.10971061 2.5220692 10197915
-0.37498739 0.1096756 2.5212638 10197915
-0.32579067 0.10964062 2.5204601 10197915
-0.27557945 0.10960492 2.5196397 10197915
-0.22540097 0.10956924 2.5188191 10197915
-0.1752551 0.10953359 2.5179999 10197915
-0.12514189 0.10949796 2.5171807 10197915
-0.075061254 0.10946235 2.516362 10197915
-0.025013186 0.10942677 2.5155439 10197915
0.025002353 0.10939121 2.5147262 10197915
0.0749854 0.10935568 2.5139096 10197915
0.12493598 0.10932014 2.5130932 10197915
0.17485411 0.10928466 2.5122769 10197915
0.22473986 0.1092492 2.5114615 10197915
0.27459323 0.10921376 2.5106468 10197915
0.33501068 0.10679425 2.5293126 9342606
0.3738769 0.10556525 2.5297019 6842472
0.42243752 0.10501063 2.5104988 6447714
0.23877825 -1.1555035 2.5948057 6447714
0.26405564 -1.152758 2.5828152 6447714
0.23971692 -1.1249814 2.5944498 6447714
0.27541596 -1.1249433 2.5775046 6447714
0.31636822 -1.1222508 2.5580738 6447714
0.23969784 -1.0749128 2.5946083 6447714
0.27553979 -1.075079 2.577595 6447714
0.31686932 -1.0749502 2.5579755 6447714
0.23941337 -1.0254261 2.5948863 6447714
0.27521598 -1.0248196 2.5778966 6447714
0.31690145 -1.0249487 2.5581069 6447714
0.2387041 -0.97502065 2.5953732 6447714
0.27455074 -0.97495508 2.5783582 6447714
0.31690878 -0.97487974 2.5582511 6447714
0.23873028 -0.92507404 2.5955088 6447714
0.27448565 -0.92501539 2.5785358 6447714
0.31688106 -0.92486656 2.5584118 6447714
0.23971333 -0.87516546 2.5951896 6447714
0.2745491 -0.87502623 2.5786536 6447714
0.31753448 -0.87461078 2.5582502 6447714
0.23977545 -0.82503945 2.5953074 6447714
0.27457142 -0.82503265 2.5787897 6447714
0.31793404 -0.82490122 2.5582066 6447714
0.23976888 -0.77490824 2.5954592 6447714
0.27460337 -0.77507401 2.5789211 6447714
0.3179681 -0.77495605 2.5583372 6447714
0.23978202 -0.72488666 2.5955997 6447714
0.27455243 -0.72502708 2.5790937 6447714
0.31798968 -0.72506249 2.558476 6447714
0.23983446 -0.67497998 2.5957215 6447714
0.27465427 -0.67497307 2.5791957 6447714
0.31804028 -0.67504603 2.558598 6447714
0.23988681 -0.6250695 2.5958431 6447714
0.27462417 -0.62499946 2.579355 6447714
0.3179633 -0.6250236 2.5587816 6447714
0.23978171 -0.57514977 2.5960395 6447714
0.27466634 -0.57497764 2.5794814 6447714
0.31809133 -0.57505673 2.5588689 6447714
0.24085318 -0.52504027 2.5956814 6447714
0.27459848 -0.5249511 2.5796623 6447714
0.3187806 -0.52475387 2.5586901 6447714
0.24097604 -0.4747982 2.5957706 6447714
0.27479738 -0.47500345 2.5797153 6447714
0.31912574 -0.4750089 2.5586729 6447714
0.24090153 -0.42481118 2.595953 6447714
0.27455512 -0.42500788 2.5799789 6447714
0.31905311 -0.42504287 2.558856 6447714
0.2408755 -0.37522277 2.5961111 6447714
0.27477813 -0.37492299 2.5800211 6447714
0.31919631 -0.37501416 2.558934 6447714
0.24088381 -0.32509279 2.5962541 6447714
0.27467942 -0.32495895 2.5802133 6447714
0.31897628 -0.32503906 2.5591865 6447714
0.24102348 -0.27469969 2.5963376 6447714
0.27482864 -0.27498889 2.5802882 6447714
0.31927967 -0.27505666 2.5591896 6447714
0.24103329 -0.22506766 2.5964794 6513507
0.27455539 -0.22497265 2.5805666 6513507
0.31904316 -0.22495547 2.559449 6513507
0.24199806 -0.17531626 2.5961678 6447714
0.27499002 -0.17486751 2.5805085 6447714
0.32023156 -0.17509228 2.559032 6447714
0.24193627 -0.12522286 2.5963464 6447714
0.27473873 -0.12509435 2.5807757 6447714
0.32020894 -0.12505727 2.55919 6447714
0.2420999 -0.074692495 2.5964165 6447714
0.27475378 -0.074846774 2.5809152 6447714
0.32014522 -0.075226806 2.5593667 6447714
0.24203768 -0.024741739 2.5965931 6447714
0.27476871 -0.024593702 2.5810575 6447714
0.32024381 -0.025397239 2.5594687 6447714
0.24205078 0.02474352 2.5967329 6447714
0.27478355 0.024595449 2.5811954 6447714
0.32026157 0.025399104 2.5596097 6447714
0.24212703 0.074549794 2.5968432 6447714
0.27479851 0.074859396 2.5813358 6447714
0.32019755 0.075239561 2.5597863 6447714
-2.0569494 0.11075054 2.5954115 1125448
-2.0242689 0.11072735 2.5948679 1191497
-1.9741834 0.11069176 2.5940342 927555
-1.9339199 0.11066317 2.593364 9014159
-1.6732608 0.11047804 2.5890255 1125963
-1.6461576 0.11045879 2.5885742 1125190
-1.5584126 0.11039647 2.5871139 6581367
-1.5248582 0.11037265 2.5865557 10000536
-1.4923979 0.11034959 2.5860155 10000536
-1.364857 0.11025899 2.5838923 993862
-1.3432604 0.11024367 2.583533 4543332
-1.2536993 0.11018007 2.5820422 9014415
-1.2245886 0.11015937 2.5815578 10197915
-1.1750154 0.11012417 2.5807328 10197915
-1.1254742 0.11008897 2.5799084 10197915
-1.0748886 0.11005305 2.5790663 10197915
-1.024336 0.11001717 2.5782249 10197915
-0.98026329 0.10998585 2.5774915 9146775
-0.81172979 0.10986616 2.5746863 10000536
-0.77528155 0.10984026 2.5740795 10000536
-0.72492439 0.10980451 2.5732415 10000536
-0.67459959 0.10976876 2.5724041 10000536
-0.62537748 0.10973381 2.5715847 10000536
-0.57511765 0.10969811 2.5707486 10132122
-0.52489048 0.10966244 2.5699122 10197915
-0.47469604 0.10962679 2.5690768 10197915
-0.42453405 0.10959115 2.5682416 10197915
-0.375471 0.10955631 2.567425 10197915
-0.32537371 0.10952074 2.5665915 10197915
-0.2753087 0.10948518 2.5657582 10197915
-0.22527641 0.10944965 2.5649254 10197915
-0.17527638 0.10941415 2.5640931 10197915
-0.12530901 0.10937864 2.5632617 10197915
-0.075373769 0.10934319 2.5624306 10197915
-0.025471166 0.10930774 2.5616 10197915
0.025459936 0.10927156 2.5607519 10197915
0.075297438 0.10923618 2.5599227 10197915
0.12510245 0.1092008 2.5590935 10197915
0.17487541 0.10916545 2.5582654 10197915
0.23454122 0.10652347 2.5804043 9276813
0.27491853 0.10563615 2.5766144 9013641
0.32034171 0.10490902 2.5589321 8684676
0.13647175 -1.1662384 2.6433375 6447714
0.17341366 -1.1625361 2.6258125 6447714
0.21284753 -1.1582804 2.6071064 6447714
0.13687971 -1.1248074 2.6432645 6447714
0.17511296 -1.1251485 2.6251154 6447714
0.21382509 -1.1250669 2.6067402 6447714
0.1369016 -1.0748295 2.6434023 6447714
0.17507093 -1.0750854 2.6252835 6447714
0.21385585 -1.0749861 2.606873 6447714
0.13688029 -1.0249305 2.6435599 6447714
0.17512017 -1.025063 2.6254077 6447714
0.21383882 -1.0249754 2.607029 6447714
0.13690943 -0.97511065 2.6436934 6447714
0.17511791 -0.97508323 2.6255569 6447714
0.21387291 -0.97511446 2.6071601 6447714
0.13700347 -0.92526877 2.6437945 6447714
0.17516294 -0.9250505 2.6256819 6447714
0.21391635 -0.92516971 2.6072869 6447714
0.13798042 -0.87503237 2.6434805 6447714
0.17510918 -0.87496507 2.6258559 6447714
0.21485762 -0.87496954 2.6069877 6447714
0.1380035 -0.82506537 2.6436167 6447714
0.1751506 -0.82501626 2.6259835 6447714
0.21493497 -0.82490075 2.6070983 6447714
0.13802664 -0.77509308 2.6437521 6447714
0.17515196 -0.7750141 2.6261296 6447714
0.2149467 -0.77496976 2.6072404 6447714
0.13799898 -0.72502273 2.6439123 6447714
0.17517363 -0.72500688 2.6262677 6447714
0.21495841 -0.72503406 2.6073821 6447714
0.13802601 -0.67494744 2.644048 6447714
0.1752151 -0.67504144 2.6263952 6447714
0.21496415 -0.67502165 2.6075273 6447714
0.13803741 -0.6248672 2.6441896 6447714
0.17520081 -0.62507123 2.6265495 6447714
0.2150175 -0.62493241 2.6076486 6447714
0.13808845 -0.57496333 2.6443136 6447714
0.17520604 -0.57509488 2.6266942 6447714
0.21502347 -0.57483721 2.607795 6447714
0.13906956 -0.52497965 2.6439941 6447714
0.17517568 -0.52506524 2.6268561 6447714
0.21603094 -0.52499515 2.6074631 6447714
0.13906847 -0.47491658 2.6441431 6447714
0.1752211 -0.47498348 2.6269825 6447714
0.216065 -0.47505951 2.6075931 6447714
0.13911 -0.42494819 2.6442709 6447714
0.1752466 -0.42489651 2.6271167 6447714
0.21609926 -0.42511886 2.6077251 6447714
0.13917741 -0.37507594 2.6443863 6447714
0.17526393 -0.37485147 2.6272578 6447714
0.2161752 -0.37510607 2.6078367 6447714
0.13921042 -0.32519823 2.6445177 6447714
0.17523384 -0.32484764 2.6274195 6447714
0.21599898 -0.32508692 2.6080678 6447714
0.13914125 -0.27501205 2.6446984 6447714
0.17527555 -0.27493304 2.6275458 6447714
0.21603325 -0.27512902 2.6081986 6447714
0.13914892 -0.22462377 2.6448429 6447714
0.17534141 -0.22510912 2.6276619 6447714
0.2161541 -0.22497733 2.6082895 6447714
0.14007676 -0.17462373 2.6445494 6447714
0.17528653 -0.17523183 2.6278348 6447714
0.21717685 -0.17490445 2.6079512 6447714
0.14033495 -0.12523842 2.6445723 6447714
0.17525201 -0.12520586 2.6279979 6447714
0.21731976 -0.12458125 2.6080315 6447714
0.14024194 -0.075602658 2.6447644 6447714
0.17526151 -0.075127505 2.6281419 6447714
0.2171742 -0.074558817 2.6082489 6447714
0.1402496 -0.02520211 2.6449082 6447714
0.17527108 -0.025043726 2.6282856 6447714
0.21718583 -0.024854142 2.6083899 6447714
0.14025727 0.025203962 2.6450541 6447714
0.17528056 0.025045531 2.6284289 6447714
0.21719772 0.024855921 2.6085303 6447714
0.14026499 0.07561557 2.6451993 6447714
0.17529015 0.075140238 2.6285717 6447714
0.21720937 0.074571379 2.6086709 6447714
-2.1013799 0.1106566 2.6445608 1191497
-2.0747323 0.11063772 2.6441092 1125704
-2.0247896 0.11060228 2.6432629 993862
-1.9770962 0.11056846 2.6424544 6515831
-1.7147516 0.11038233 2.638006 1257807
-1.6871299 0.11036274 2.637538 993606
-1.5734315 0.11028208 2.6356103 8685451
-1.5315257 0.11025236 2.6348999 10000536
-1.402643 0.11016092 2.6327147 1125448
-1.3806342 0.11014531 2.6323416 2374225
-1.2662836 0.11006419 2.6304028 9803415
-1.2256427 0.11003534 2.629714 10197915
-1.1751449 0.10999954 2.6288574 10197915
-1.1246799 0.10996372 2.6280017 10197915
-1.0742478 0.10992794 2.627147 10197915
-1.0249435 0.10989297 2.6263111 10197915
-0.98990107 0.10986812 2.6257167 8292757
-0.81930083 0.1097471 2.6228244 10000536
-0.77452636 0.10971532 2.6220655 10000536
-0.72432178 0.1096797 2.6212142 10000536
-0.67414975 0.10964412 2.6203637 10132122
-0.62401044 0.10960855 2.6195138 10197915
-0.57499224 0.10957377 2.6186824 10197915
-0.52600551 0.10953901 2.617852 10197915
-0.47596213 0.10950353 2.6170034 10197915
-0.42595124 0.10946804 2.6161556 10197915
-0.37597266 0.10943259 2.615308 10197915
-0.32602653 0.10939714 2.6144614 10197915
-0.27502802 0.10936097 2.6135969 10197915
-0.22406311 0.1093248 2.6127326 10197915
-0.17421523 0.10928945 2.6118877 10197915
-0.12439959 0.10925411 2.611043 10197915
-0.074616171 0.10921881 2.6101992 10197915
-0.024864905 0.10918349 2.6093552 10197915
0.024854202 0.10914822 2.6085122 10197915
0.074541189 0.10911299 2.6076701 10197915
0.13440143 0.10662033 2.6312439 9342606
0.17521328 0.10547616 2.6239617 8947848
0.21735811 0.10475034 2.607954 8618883
0.030195836 -1.2025785 2.6936767 6447714
0.033403993 -1.1749412 2.692235 6447714
0.073241837 -1.1729668 2.6733289 6447714
0.11087467 -1.1690143 2.6554794 6447714
0.033490572 -1.1249716 2.6923423 6447714
0.074184053 -1.1249253 2.6730261 6447714
0.11107113 -1.1250434 2.6555161 6447714
0.033450067 -1.0749943 2.6925085 6447714
0.074162394 -1.0750074 2.6731832 6447714
0.11112044 -1.0750947 2.6556392 6447714
0.033476483 -1.0249356 2.6926432 6447714
0.074301139 -1.0249854 2.673265 6447714
0.111187 -1.0250418 2.6557546 6447714
0.033453763 -0.97502762 2.692801 6447714
0.074119881 -0.97505623 2.6734977 6447714
0.11108945 -0.97508246 2.6559501 6447714
0.033476461 -0.92503572 2.6929379 6447714
0.074237809 -0.92512017 2.6735897 6447714
0.1112152 -0.92483991 2.656038 6447714
0.033640753 -0.87522238 2.6930075 6447714
0.074199431 -0.87503624 2.6737556 6447714
0.11225675 -0.87495559 2.6556907 6447714
0.034638453 -0.82499784 2.6926818 6447714
0.074296661 -0.82499266 2.673857 6447714
0.11224706 -0.82494116 2.6558423 6447714
0.034511052 -0.77500951 2.6928895 6447714
0.074123591 -0.77499384 2.6740861 6447714
0.11219782 -0.77491808 2.6560137 6447714
0.034641977 -0.72493458 2.6929741 6447714
0.07430058 -0.72503668 2.6741495 6447714
0.1122792 -0.72498369 2.6561222 6447714
0.034575883 -0.67502218 2.6931536 6447714
0.074203074 -0.67502528 2.6743405 6447714
0.11223378 -0.67504591 2.6562903 6447714
0.034615222 -0.6250183 2.6932826 6447714
0.074253939 -0.62501025 2.6744678 6447714
0.11223184 -0.62500709 2.6564395 6447714
0.034533758 -0.57492661 2.6934686 6447714
0.0741859 -0.57498842 2.6746471 6447714
0.11236008 -0.57487249 2.6565263 6447714
0.034649756 -0.52499622 2.6935611 6447714
0.074329503 -0.52496111 2.6747236 6447714
0.11330389 -0.52499223 2.6562259 6447714
0.035607427 -0.47503617 2.693254 6447714
0.074126683 -0.47502467 2.6749699 6447714
0.11329545 -0.47507456 2.6563764 6447714
0.035745479 -0.42494315 2.693336 6447714
0.074341476 -0.42503682 2.675015 6447714
0.11338917 -0.42506748 2.6564796 6447714
0.035735227 -0.37503096 2.6934879 6447714
0.074218884 -0.37499049 2.6752217 6447714
0.11346102 -0.37505674 2.6565931 6447714
