# .PCD v0.7 - Point Cloud Data file format
VERSION 0.7
FIELDS x y z rgb
SIZE 4 4 4 4
TYPE F F F U
COUNT 1 1 1 1
WIDTH 1154
HEIGHT 1
VIEWPOINT 0 0 0 1 0 0 0
POINTS 1154
DATA ascii
0.69767338 -0.22533348 2.6149662 2894892
0.70124358 -0.22426699 2.6406353 2894892
0.69759148 -0.1749447 2.6145725 2894892
0.70118767 -0.17502373 2.640425 2894892
0.6975596 -0.12456517 2.6145396 2894892
0.70113164 -0.12578839 2.6402142 2894892
0.69750327 -0.07473319 2.6143284 2894892
0.70107454 -0.075467013 2.6399989 2894892
0.69744688 -0.024909278 2.6141174 2894892
0.70101744 -0.025153851 2.6397839 2894892
0.69739091 0.024906611 2.6139071 2894892
0.70096076 0.025151135 2.6395707 2894892
-0.2588017 0.09979216 2.646992 2039583
-0.22478904 0.099784195 2.646781 8684676
-0.1743281 0.099772401 2.6464679 10000536
-0.12497561 0.099760868 2.6461618 10132122
-0.075634599 0.099749319 2.6458557 10197915
-0.025208883 0.09973754 2.6455433 10197915
0.02520491 0.099725731 2.6452301 10197915
0.075606793 0.099713959 2.6449177 10197915
0.1249015 0.099702425 2.6446121 10197915
0.17418471 0.099690907 2.6443064 10197915
0.22455141 0.099679127 2.6439939 10197915
0.27490616 0.099667355 2.6436813 10197915
0.32524902 0.099655576 2.6433697 10197915
0.37558004 0.099643812 2.6430569 10197915
0.42589909 0.099632047 2.6427445 10197915
0.47511283 0.099620529 2.6424394 10197915
0.52431518 0.09960904 2.6421349 10197915
0.57459921 0.099597275 2.6418226 10197915
0.62487125 0.099585526 2.641511 10197915
0.68993366 0.083000906 2.6228647 4144959
0.70090371 0.075447947 2.6393554 2894892
-2.0630262 0.10050363 2.6085331 10197915
-2.0250227 0.10049471 2.6083019 10197915
-1.9740002 0.10048275 2.6079915 10197915
-1.9479496 0.10047661 2.607832 10197915
-2.1178932 -0.62447649 2.6821179 2039583
-2.0755768 -0.62459064 2.676194 2039583
-2.0255117 -0.62426353 2.6691861 4144959
-1.9972595 -0.62649775 2.6652191 6447714
0.70532334 -0.60029447 2.6685014 2894892
-2.1183293 -0.57493484 2.6824696 2039583
-2.0755067 -0.57505089 2.6764743 2039583
-2.0249341 -0.57501245 2.6693959 4144959
-1.9964797 -0.57531261 2.6654105 6447714
0.70657039 -0.57490641 2.6775649 2894892
-2.1182337 -0.52500284 2.6827495 2039583
-2.0760467 -0.52475792 2.6768453 2039583
-2.0247114 -0.52522165 2.6696556 4210752
-1.9958297 -0.52238828 2.6656303 6447714
0.70643973 -0.52495241 2.6768208 2894892
-2.1184559 -0.47455648 2.6830766 2039583
-2.0744359 -0.47532582 2.6769099 2039583
-2.0243974 -0.47484246 2.6699078 4210752
-1.9957396 -0.47491255 2.6658969 6447714
0.70638239 -0.47500414 2.6766014 2894892
-2.1175203 -0.42494923 2.6832373 2039583
-2.0741472 -0.42489815 2.6771648 2039583
-2.024183 -0.42512959 2.6701696 4276545
-1.9959834 -0.42526427 2.6662216 6447714
0.70639831 -0.42506596 2.6769106 2894892
-2.1180401 -0.37481365 2.6836042 2039583
-2.0742018 -0.3750388 2.6774657 2039583
-2.0246646 -0.37505877 2.670532 4210752
-1.9962324 -0.37450013 2.6665552 6447714
0.70626807 -0.37514389 2.6761684 2894892
-2.118109 -0.32483137 2.6839066 7157302
-2.0745583 -0.32504922 2.6778092 5717322
-2.025167 -0.32491767 2.6708958 4403768
-1.9964762 -0.32482746 2.6668808 6505283
0.70624751 -0.32484668 2.6762154 2894892
-2.1185193 -0.27474838 2.6842585 6507339
-2.0748131 -0.27516067 2.678138 5268350
-2.0249143 -0.27517316 2.6711538 4014158
-1.9967201 -0.27514246 2.6672065 6507339
0.70619035 -0.27493185 2.6759987 2894892
-2.1186736 -0.22473848 2.6845737 6513507
-2.075068 -0.22525981 2.678467 5007493
-2.0254145 -0.22467551 2.6715198 3819607
-1.9969692 -0.22434081 2.6675398 6513507
0.70609725 -0.22539692 2.6755226 2894892
-2.1189878 -0.1746348 2.6849124 4210752
-2.0753763 -0.17528933 2.6788027 3757943
-2.0256624 -0.17489201 2.6718457 2899021
-1.9972136 -0.17463136 2.6678658 4934992
0.70607638 -0.17513137 2.6755674 2894892
-2.1192515 -0.12459543 2.6852429 3029575
-2.075526 -0.12536782 2.679117 2905730
-2.0256329 -0.12488031 2.6721365 2901342
-1.9972576 -0.12646264 2.6681545 4813726
0.70598209 -0.12487235 2.675086 2894892
-2.1195099 -0.074543692 2.6855721 2569798
-2.0759766 -0.075311415 2.6794739 2446208
-2.0249209 -0.075283252 2.672327 2770272
-1.9963107 -0.074209459 2.668329 3302294
0.70599854 -0.074987553 2.6753981 2894892
-2.1197717 -0.024479728 2.6859033 2241090
-2.0755033 -0.0250895 2.6797025 2051451
-2.0247495 -0.025745705 2.672595 2441565
-1.9954764 -0.025426596 2.6684985 2447758
0.70586824 -0.025125211 2.6746552 2894892
-2.1192694 0.024861939 2.6861227 4740451
-2.0741892 0.025023909 2.6798129 3035771
-2.0241833 0.025468795 2.6728158 3624293
-1.9957258 0.02543083 2.6688321 3431561
0.7058112 0.025122497 2.6744385 2894892
-2.1190367 0.074567243 2.6863821 10197915
-2.0742893 0.075273499 2.6801224 10197915
-2.0244308 0.075307146 2.6731436 10197915
-1.9959698 0.075194903 2.6691587 10197915
-0.26158881 0.099493146 2.698365 2039583
-0.22467908 0.099484526 2.6981318 9342606
-0.17435731 0.099472791 2.6978137 10000536
-0.12516528 0.099461317 2.6975024 10132122
-0.074867062 0.099449605 2.6971846 10197915
-0.024580626 0.099437885 2.6968668 10197915
0.02457685 0.099426411 2.6965561 10197915
0.074839771 0.099414714 2.696238 10197915
0.12509093 0.099402994 2.6959205 10197915
0.17533016 0.099391282 2.6956027 10197915
0.22555766 0.099379562 2.6952851 10197915
0.27465746 0.099368118 2.6949747 10197915
0.32486147 0.09935642 2.6946568 10197915
0.37505376 0.099344708 2.69434 10197915
0.42523408 0.099333018 2.6940224 10197915
0.47540271 0.099321336 2.6937053 10197915
0.524445 0.099309891 2.6933951 10197915
0.57459021 0.099298209 2.693078 10197915
0.62472367 0.099286512 2.6927612 10197915
0.67484522 0.099274829 2.6924441 7631988
0.70574069 0.076010138 2.6755004 2894892
-2.1069133 0.10022431 2.6584549 10197915
-2.0748191 0.10021681 2.6582556 10197915
-2.0250256 0.10020516 2.6579471 10197915
-1.9918364 0.10019741 2.6577413 10197915
0.7141214 -0.60094845 2.731746 2894892
0.71281314 -0.57520878 2.7224414 2894892
0.71324885 -0.52255309 2.7257776 2894892
0.71394747 -0.47485125 2.7309864 2894892
0.71393025 -0.42541251 2.7310534 2894892
0.71387249 -0.37559879 2.7308326 2894892
0.71381491 -0.32579297 2.7306123 2894892
0.71371865 -0.27561533 2.7301159 2894892
0.71369827 -0.22507925 2.7301655 2894892
0.71364039 -0.17492074 2.7299454 2894892
0.71358287 -0.12514731 2.7297251 2894892
0.71348661 -0.075011231 2.7292275 2894892
0.71346712 -0.024875931 2.7292824 2894892
0.71340984 0.024873264 2.7290635 2894892
0.03075912 0.099113666 2.7498684 10197915
0.075181358 0.099103339 2.7495823 10197915
0.12528788 0.099091701 2.749259 10197915
0.17538261 0.099080063 2.7489362 10197915
0.22546555 0.099068403 2.7486131 10197915
0.27553681 0.099056788 2.7482903 10197915
0.32559615 0.099045157 2.7479672 10197915
0.37564391 0.09903352 2.7476447 10197915
0.42567986 0.099021889 2.7473218 10197915
0.47570392 0.099010259 2.7469995 10197915
0.52571642 0.098998636 2.7466772 10197915
0.57571709 0.098987013 2.7463548 10197915
0.62570614 0.098975398 2.7460318 10197915
0.67568332 0.09896379 2.7457101 8684676
0.71285653 0.076642044 2.7302063 2894892
0.71802628 -0.60025626 2.7598195 2894892
0.71932268 -0.57476258 2.7692385 2894892
0.71957952 -0.52671647 2.7712717 2894892
0.72049445 -0.47478622 2.7780509 2894892
0.72046703 -0.42468297 2.7780485 2894892
0.72040921 -0.37516364 2.7778256 2894892
0.72035146 -0.32565233 2.7776022 2894892
0.72029239 -0.27499774 2.7773755 2894892
0.72020298 -0.22492424 2.7769272 2894892
0.72017556 -0.17486823 2.7769244 2894892
0.72014809 -0.1248083 2.7769217 2894892
0.72002846 -0.075347781 2.7762544 2894892
0.72000134 -0.025304042 2.7762525 2894892
0.71994233 0.025301283 2.7760258 2894892
-0.26448625 0.099182285 2.7517722 2171169
-0.22570519 0.099173263 2.7515221 10000536
-0.17552795 0.099161617 2.7511988 10000536
-0.1253625 0.09914995 2.7508752 10132122
-0.075208858 0.09913829 2.7505517 10197915
-0.025067 0.099126652 2.7502282 10197915
0.0056964979 0.099119484 2.7500296 10197915
0.71988475 0.074748501 2.7758029 2894892
0.72745705 -0.60092998 2.8276126 2894892
0.72738332 -0.5747444 2.8271837 2894892
0.72736698 -0.52472699 2.8272624 2894892
0.72726542 -0.47471255 2.8267257 2894892
0.72724992 -0.42510322 2.826808 2894892
0.72723341 -0.37509519 2.8268831 2894892
0.72708893 -0.32473558 2.8260391 2894892
0.72707331 -0.27513403 2.8261213 2894892
0.72697175 -0.22516291 2.8255868 2894892
0.72695565 -0.17520045 2.825664 2894892
0.72689706 -0.12524304 2.8254366 2894892
0.72683746 -0.07490363 2.8252034 2894892
0.72673631 -0.024974588 2.8246694 2894892
0.72667754 0.024971902 2.8244412 2894892
-0.26633734 0.098858744 2.8073316 3750201
-0.22444595 0.098849036 2.8070564 10132122
-0.17558277 0.098837718 2.8067353 10197915
-0.12556785 0.09882614 2.8064063 10197915
-0.075564533 0.098814555 2.8060765 10197915
-0.025573045 0.098802976 2.8057482 10197915
0.02556896 0.09879113 2.8054121 10197915
0.075536832 0.098779544 2.805083 10197915
0.12549293 0.098767988 2.8047545 10197915
0.17543739 0.098756403 2.804426 10197915
0.22537008 0.098744839 2.8040972 10197915
0.27529114 0.098733276 2.8037686 10197915
0.32520044 0.098721735 2.8034403 10197915
0.37509817 0.09871015 2.8031123 10197915
0.42498407 0.098698609 2.8027842 10197915
0.47485846 0.098687045 2.8024564 10197915
0.52472097 0.098675489 2.8021281 10197915
0.57457203 0.098663956 2.8018 10197915
0.62441117 0.098652408 2.8014722 10197915
0.67539746 0.098640606 2.8011365 9803157
0.7247299 0.077510111 2.821517 2894892
0.73589689 -0.60187989 2.8882811 2894892
0.73440343 -0.5752601 2.8776484 2894892
0.73437649 -0.5245536 2.8776512 2894892
0.73431683 -0.47444376 2.8774178 2894892
0.73425734 -0.42434192 2.8771842 2894892
0.73419774 -0.37424836 2.8769507 2894892
0.73413813 -0.32416284 2.8767173 2894892
0.73404449 -0.2746743 2.876236 2894892
0.73402053 -0.22521244 2.876256 2894892
0.73396093 -0.17515112 2.8760228 2894892
0.73390138 -0.12509789 2.8757899 2894892
0.73384219 -0.075052798 2.8755574 2894892
0.73378295 -0.025015811 2.8753257 2894892
0.73372352 0.02501311 2.8750927 2894892
-0.26945207 0.098522015 2.8651855 4539717
-0.2243221 0.098511584 2.8648822 10197915
-0.17445242 0.09850008 2.864548 10197915
-0.12459446 0.098488569 2.8642132 10197915
-0.074748144 0.098477058 2.8638783 10197915
-0.024913456 0.098465554 2.8635442 10197915
0.024909576 0.098454043 2.8632092 10197915
0.074720964 0.098442554 2.8628752 10197915
0.12452072 0.098431051 2.8625405 10197915
0.17430887 0.098419562 2.8622067 10197915
0.22408538 0.098408066 2.8618722 10197915
0.27503499 0.098396301 2.8615305 10197915
0.32597247 0.098384552 2.8611879 10197915
0.37571353 0.09837307 2.8608546 10197915
0.42544302 0.098361582 2.8605201 10197915
0.47516087 0.098350115 2.8601868 10197915
0.52486718 0.098338641 2.859853 10197915
0.57456177 0.09832716 2.8595188 10197915
0.62424481 0.098315701 2.8591859 10197915
0.67509896 0.098303959 2.8588445 10197915
0.72945094 0.079840571 2.8708673 3158064
0.74026501 -0.60115772 2.9196849 2894892
0.74019802 -0.57512331 2.9193037 2894892
0.74017352 -0.5248934 2.9193242 2894892
0.7401492 -0.47465846 2.9193447 2894892
0.74001807 -0.42505026 2.9185946 2894892
0.73999375 -0.37483162 2.9186149 2894892
0.73993427 -0.32523042 2.91838 2894892
0.7398749 -0.27563727 2.9181459 2894892
0.74114859 -0.22411695 2.9275026 2894892
0.7412377 -0.17469151 2.9283361 2894892
0.74117762 -0.12494132 2.928097 2894892
0.74111867 -0.075199112 2.9278662 2894892
0.74101061 -0.025073746 2.927283 2894892
0.74095047 0.025071027 2.9270449 2894892
-0.27269787 0.0981711 2.9254742 5131854
-0.22540541 0.098160222 2.9251497 10197915
-0.17569897 0.098148778 2.924809 10197915
-0.1247921 0.098137081 2.9244602 10197915
-0.075108983 0.098125651 2.9241195 10197915
-0.025437525 0.09811423 2.923779 10197915
0.025433484 0.098102525 2.9234302 10197915
0.075081624 0.098091096 2.9230902 10197915
0.12471808 0.098079681 2.9227498 10197915
0.17555331 0.098067984 2.922401 10197915
0.22516648 0.09805657 2.9220614 10197915
0.27476805 0.09804517 2.921721 10197915
0.32556748 0.098033473 2.9213729 10197915
0.37514573 0.098022066 2.9210334 10197915
0.42471242 0.098010674 2.9206936 10197915
0.47547612 0.097999007 2.9203455 10197915
0.52501953 0.0979876 2.9200058 10197915
0.57455134 0.097976208 2.9196661 10197915
0.62527931 0.09796454 2.9193184 10197915
0.67478788 0.097953141 2.9189792 10197915
0.73613435 0.079330519 2.9252608 3487029
0.74623334 -0.60140431 2.9625883 2894892
0.7508204 -0.60189736 2.9955618 2894892
0.74623835 -0.57499605 2.9627268 2894892
0.75078875 -0.57581192 2.9954352 2894892
0.74610376 -0.52462471 2.9619548 2894892
0.75072676 -0.52488869 2.9951885 2894892
0.74608058 -0.4748888 2.961982 2894892
0.75066495 -0.47397381 2.9949417 2894892
0.74605745 -0.42514741 2.962008 2894892
0.75060451 -0.42430902 2.9947004 2894892
0.74592268 -0.37482744 2.9612367 2894892
0.75054419 -0.37465212 2.9944596 2894892
0.74589956 -0.32510212 2.9612629 2894892
0.75048375 -0.32500327 2.9942193 2894892
0.74580252 -0.27538639 2.9607592 2894892
0.75042349 -0.27536231 2.9939783 2894892
0.74703115 -0.22717243 2.9697785 2894892
0.75036317 -0.22572939 2.9937375 2894892
0.74723095 -0.1748056 2.9714179 2894892
0.75030124 -0.17486399 2.9934909 2894892
0.74717128 -0.12555465 2.9711812 2894892
0.75023961 -0.12400687 2.9932446 2894892
0.74711025 -0.075080641 2.9709384 2894892
0.75017989 -0.074398324 2.9930062 2894892
0.74704915 -0.024614798 2.9706955 2894892
0.75011951 -0.024797671 2.9927654 2894892
0.74698961 0.024612183 2.9704585 2894892
0.75005925 0.024795016 2.9925249 2894892
-0.30086112 0.09781082 2.9885285 2039583
-0.27484441 0.097804829 2.9883456 5789784
-0.22529683 0.097793467 2.9879985 10197915
-0.17576075 0.097782113 2.9876513 10197915
-0.12499822 0.097770497 2.9872963 10197915
-0.074247703 0.097758852 2.9869409 10197915
-0.024746682 0.097747512 2.9865944 10197915
0.024742858 0.097736165 2.9862478 10197915
0.074220911 0.097724818 2.9859014 10197915
0.12492396 0.09771321 2.9855461 10197915
0.17561504 0.097701594 2.9851911 10197915
0.22505808 0.097690269 2.9848449 10197915
0.2744897 0.097678937 2.984499 10197915
0.32514513 0.097667322 2.984144 10197915
0.3757886 0.097655721 2.9837899 10197915
0.42518526 0.097644404 2.9834437 10197915
0.47457045 0.097633079 2.9830978 10197915
0.52517825 0.097621478 2.982744 10197915
0.57577431 0.097609885 2.982389 10197915
0.62512457 0.097598575 2.9820437 10197915
0.67446339 0.097587273 2.9816978 10197915
0.73804671 0.085672751 2.9788074 4342338
0.75001401 0.06198455 2.9923446 2894892
0.75552118 -0.60114819 3.029357 2894892
0.75548875 -0.57476842 3.0292277 2894892
0.75542748 -0.52452677 3.028981 2894892
0.75532615 -0.4749262 3.0284462 2894892
0.75530612 -0.42532843 3.0284948 2894892
0.75524473 -0.37511119 3.0282483 2894892
0.75518328 -0.32490209 3.0280023 2894892
0.75512183 -0.27470115 3.0277562 2894892
0.75506055 -0.22450836 3.0275102 2894892
0.75495923 -0.17495257 3.0269752 2894892
0.75493932 -0.12540632 3.0270245 2894892
0.75487852 -0.075237878 3.0267801 2894892
0.75481713 -0.025077473 3.0265336 2894892
0.7547558 0.025074761 3.0262885 2894892
0.29061544 0.097293004 3.0499203 10197915
0.32596725 0.097284935 3.0496676 10197915
0.37519813 0.097273692 3.0493152 10197915
0.42441756 0.097262464 3.0489628 10197915
0.47488722 0.097250953 3.0486019 10197915
0.52534497 0.09723942 3.0482409 10197915
0.57579076 0.097227909 3.0478797 10197915
0.624964 0.097216688 3.047528 10197915
0.67412573 0.097205453 3.0471761 10197915
0.7245363 0.097193941 3.0468154 7697781
0.75460982 0.07566455 3.0275533 2894892
0.76194966 -0.60140407 3.0755689 2894892
0.76195931 -0.57526439 3.0757394 2894892
0.7618553 -0.52488422 3.0751877 2894892
0.76175129 -0.47452697 3.0746367 2894892
0.76177365 -0.42480025 3.07499 2894892
0.76162863 -0.37511137 3.0741417 2894892
-0.30614534 -0.31691337 3.0781107 2039583
0.76160848 -0.32476369 3.0741913 2894892
0.76154715 -0.27507108 3.0739441 2894892
0.76148582 -0.22538657 3.0736966 2894892
0.76138192 -0.17507474 3.0731456 2894892
0.76136208 -0.12477285 3.0731969 2894892
0.76130116 -0.075112432 3.0729516 2894892
0.76123983 -0.025460038 3.0727036 2894892
0.761177 0.025457243 3.0724502 2894892
-0.30493996 0.097428948 3.0541821 2039583
-0.27581951 0.097422317 3.0539737 6579300
-0.22518381 0.097410768 3.0536115 10197915
-0.1745601 0.097399198 3.0532494 10197915
-0.1252135 0.09738794 3.0528965 10197915
-0.075878426 0.09737666 3.0525432 10197915
-0.025290141 0.097365126 3.052181 10197915
0.025286144 0.09735357 3.0518193 10197915
0.075850442 0.097342029 3.0514574 10197915
0.12513913 0.097330786 3.0511045 10197915
0.17441633 0.097319543 3.0507519 10197915
0.22494526 0.09730801 3.0503907 10197915
0.26536009 0.097298764 3.0501013 10197915
0.7611174 0.073820956 3.0722096 2894892
0.76857734 -0.60165799 3.1232128 2894892
0.76850116 -0.57510358 3.1227684 2894892
0.76852465 -0.5246101 3.1231334 2894892
0.76841944 -0.47475755 3.1225708 2894892
0.7683143 -0.42492804 3.1220088 2894892
0.76829541 -0.37509152 3.1220667 2894892
-0.30380023 -0.31262839 3.116637 2039583
-0.29773441 -0.31810677 3.1383417 2039583
0.76819038 -0.32525477 3.121505 2894892
0.76821375 -0.27481884 3.1218703 2894892
0.76810861 -0.22499828 3.1213081 2894892
0.76800358 -0.1752007 3.1207469 2894892
0.76798528 -0.12541287 3.1208067 2894892
0.76792252 -0.074983202 3.1205525 2894892
0.76785976 -0.024561659 3.1202972 2894892
0.7677989 0.024559058 3.1200492 2894892
-0.3079071 0.097029544 3.1227722 2039583
-0.27554348 0.097022183 3.1225352 7697781
-0.22506535 0.097010717 3.1221662 10197915
-0.17459908 0.096999228 3.1217966 10197915
-0.12543838 0.09698806 3.1214373 10197915
-0.074995749 0.096976593 3.1210682 10197915
-0.024564967 0.096965119 3.1206989 10197915
0.024561198 0.096953951 3.1203394 10197915
0.074968338 0.096942499 3.1199708 10197915
0.12536369 0.09693104 3.1196022 10197915
0.17445531 0.096919879 3.1192429 10197915
0.22482702 0.096908435 3.1188743 10197915
0.27518696 0.096896984 3.118506 10197915
0.32424411 0.096885823 3.1181474 10197915
0.37458044 0.096874386 3.1177793 10197915
0.42490503 0.096862935 3.1174104 10197915
0.47521752 0.096851505 3.1170421 10197915
0.5255183 0.096840076 3.1166744 10197915
0.57451785 0.09682893 3.1163161 10197915
0.62479508 0.096817501 3.1159482 10197915
0.67506063 0.096806079 3.1155801 10197915
0.72531402 0.09679465 3.1152122 8947848
0.76645356 0.076347604 3.1188478 2894892
0.77599186 -0.60140133 3.1765139 2894892
0.77537918 -0.57430011 3.1722147 2894892
0.7752704 -0.52497524 3.1716239 2894892
0.7752552 -0.47566354 3.1717086 2894892
0.77519256 -0.42569697 3.1714516 2894892
0.77512997 -0.37573865 3.1711953 2894892
-0.31063333 -0.30333582 3.1842945 2039583
-0.29261321 -0.31652847 3.1791408 2567474
0.77506715 -0.32578829 3.1709385 2894892
0.77500457 -0.27584609 3.170682 2894892
0.7748965 -0.22525162 3.1701024 2894892
0.77487737 -0.17467727 3.1701629 2894892
0.77481532 -0.12475953 3.1699076 2894892
0.77475262 -0.074849807 3.1696517 2894892
0.77468985 -0.024948139 3.169395 2894892
0.77462721 0.024945457 3.1691384 2894892
-0.3110106 0.096611768 3.1945138 2039583
-0.27393061 0.096603379 3.194236 8882055
-0.22494139 0.096592277 3.1938696 10197915
-0.17596351 0.096581206 3.1935027 10197915
-0.12567353 0.096569806 3.1931267 10197915
-0.075395443 0.096558429 3.1927507 10197915
-0.025129179 0.09654706 3.1923742 10197915
0.025125233 0.096535675 3.1919982 10197915
0.075367801 0.096524306 3.1916218 10197915
0.12559855 0.096512936 3.1912465 10197915
0.17581744 0.096501574 3.1908705 10197915
0.22602452 0.096490212 3.1904948 10197915
0.27621976 0.096478835 3.1901181 10197915
0.32508272 0.096467786 3.1897528 10197915
0.37393451 0.096456736 3.1893871 10197915
0.42409492 0.096445374 3.1890123 10197915
0.47424355 0.096434012 3.1886363 10197915
0.52438039 0.096422672 3.188261 10197915
0.57450533 0.096411332 3.187886 10197915
0.62461859 0.096399985 3.187511 10197915
0.67471999 0.096388645 3.1871359 10197915
0.72480971 0.096377298 3.1867616 10197915
0.77205801 0.078485809 3.1727126 3026478
0.78246862 -0.60220051 3.2230711 2894892
0.78243476 -0.57547045 3.2229316 2894892
0.78232288 -0.52535689 3.2223222 2894892
0.78230786 -0.47525698 3.2224088 2894892
0.78224361 -0.42449182 3.2221441 2894892
0.78218102 -0.37507072 3.2218862 2894892
-0.31295317 -0.30359134 3.2282054 2039583
-0.28656512 -0.31682023 3.225147 3622485
0.78211832 -0.3256574 3.221628 2894892
0.78205401 -0.27491695 3.2213635 2894892
0.78194219 -0.2248486 3.2207544 2894892
0.78192753 -0.17480099 3.2208414 2894892
0.78191298 -0.12474538 3.2209308 2894892
0.7817536 -0.075386591 3.2199774 2894892
0.78173852 -0.025346991 3.2200639 2894892
0.78167433 0.025344217 3.2197995 2894892
0.78161365 0.073359869 3.2195489 2894892
0.79036885 -0.60194492 3.279865 2894892
0.78971791 -0.57532054 3.2752895 2894892
0.78960454 -0.52575099 3.2746673 2894892
0.78964031 -0.47551057 3.2751198 2894892
0.78947604 -0.42528936 3.2741344 2894892
0.78951198 -0.37504315 3.2745872 2894892
-0.31542993 -0.30386421 3.2750862 1974047
-0.28190511 -0.31486657 3.2734134 3359828
0.78934777 -0.32486033 3.2736018 2894892
0.78933442 -0.27531442 3.2736981 2894892
0.78927022 -0.2251147 3.2734323 2894892
0.7892065 -0.17492323 3.2731678 2894892
0.78909349 -0.12542531 3.2725475 2894892
0.78912932 -0.0752353 3.2729998 2894892
0.78896511 -0.025093712 3.2720151 2894892
0.78890103 0.025090989 3.2717495 2894892
-0.31561556 0.096174642 3.2696397 2039583
-0.27495256 0.096165493 3.2693281 9671571
-0.22481169 0.096154198 3.2689445 10132122
-0.17468268 0.096142903 3.2685602 10197915
-0.12456536 0.096131593 3.2681761 10197915
-0.074459925 0.09612032 3.2677922 10197915
-0.024366133 0.09610904 3.2674088 10197915
0.024362423 0.096098036 3.2670355 10197915
0.074432895 0.09608677 3.2666516 10197915
0.12449171 0.096075475 3.2662683 10197915
0.17453866 0.09606421 3.2658849 10197915
0.22457398 0.09605293 3.2655013 10197915
0.2745975 0.096041657 3.2651184 10197915
0.32460931 0.096030407 3.2647355 10197915
0.37460926 0.096019126 3.2643521 10197915
0.42459768 0.096007846 3.2639689 10197915
0.4745743 0.095996603 3.2635865 10197915
0.52453923 0.095985346 3.2632036 10197915
0.57449228 0.095974095 3.262821 10197915
0.62443376 0.095962845 3.2624381 10197915
0.67436343 0.09595158 3.2620559 10197915
0.72563046 0.095940024 3.2616632 10197915
0.78333104 0.079480343 3.2689431 3552822
0.79663891 -0.60195214 3.3249385 2894892
0.79724169 -0.57517147 3.329376 2894892
0.79717773 -0.52547348 3.3291085 2894892
0.7971642 -0.47508797 3.3292084 2894892
0.79704762 -0.42471629 3.3285646 2894892
0.79693085 -0.37436974 3.3279226 2894892
-0.3178978 -0.3041361 3.3217988 1908771
-0.27504799 -0.31649697 3.3221171 3556950
0.7969175 -0.32400316 3.3280225 2894892
0.79685336 -0.27434579 3.327755 2894892
0.79678935 -0.22469634 3.3274875 2894892
0.79672593 -0.17505504 3.3272223 2894892
0.79660952 -0.12473984 3.32658 2894892
0.79659623 -0.074423335 3.3266802 2894892
0.79653203 -0.024806006 3.3264132 2894892
0.79646808 0.024803353 3.3261447 2894892
-0.31905475 0.095716335 3.3483791 3289650
-0.27463615 0.095706381 3.3480301 10000536
-0.22467607 0.095695175 3.3476381 10132122
-0.17472772 0.095683962 3.3472464 10197915
-0.12479104 0.095672764 3.3468544 10197915
-0.074866064 0.095661551 3.3464627 10197915
-0.024952758 0.095650382 3.3460715 10197915
0.024948869 0.095639184 3.3456793 10197915
0.07483881 0.095627993 3.3452883 10197915
0.1247171 0.095616817 3.3448973 10197915
0.1745837 0.095605627 3.3445058 10197915
0.22443864 0.095594436 3.344115 10197915
0.27428192 0.09558329 3.3437238 10197915
0.32411355 0.095572084 3.343333 10197915
0.37393352 0.095560908 3.3429422 10197915
0.42374188 0.095549747 3.3425512 10197915
0.47492158 0.095538273 3.3421497 10197915
0.52608919 0.0955268 3.3417482 10197915
0.57586181 0.095515639 3.3413579 10197915
0.62562299 0.095504478 3.3409677 10197915
0.67537272 0.095493317 3.3405771 10197915
0.72511047 0.095482163 3.3401868 10197915
0.7887556 0.080508478 3.3305261 4144959
0.805713 -0.60252517 3.3901675 2894892
0.80501813 -0.57500571 3.3852797 2894892
0.80489665 -0.52517533 3.3846004 2894892
0.80488825 -0.47535875 3.3847332 2894892
0.80482239 -0.42484277 3.3844564 2894892
0.80475652 -0.37433514 3.3841791 2894892
-0.32051364 -0.30442432 3.3713109 1777959
-0.27191409 -0.31375909 3.3727427 2834002
0.80463505 -0.32452106 3.3835011 2894892
0.80468404 -0.27546421 3.3840427 2894892
0.80456281 -0.22566615 3.3833654 2894892
0.8044979 -0.17519127 3.3830922 2894892
0.80437648 -0.12543316 3.3824136 2894892
0.80436814 -0.075673148 3.3825464 2894892
0.80430222 -0.025222547 3.3822701 2894892
0.80423659 0.025219802 3.3819931 2894892
0.80417448 0.072852299 3.3817322 2894892
0.81105113 -0.60225165 3.428544 2894892
0.81101561 -0.57523912 3.4283943 2894892
0.81095034 -0.5254848 3.428118 2894892
0.81088316 -0.47431728 3.4278336 2894892
0.81081778 -0.42457917 3.4275575 2894892
0.81075245 -0.37484914 3.4272814 2894892
-0.32313773 -0.30471337 3.4209812 1712682
-0.26382741 -0.31600755 3.4242933 3030866
0.81068718 -0.32512701 3.4270058 2894892
0.81062192 -0.2754131 3.4267302 2894892
0.81055504 -0.22428703 3.4264469 2894892
0.81049019 -0.17458928 3.4261727 2894892
0.81042498 -0.12489947 3.4258969 2894892
0.81035972 -0.075217582 3.4256213 2894892
0.81029457 -0.025543785 3.4253454 2894892
0.81022739 0.02554097 3.4250624 2894892
-0.32408553 0.095235541 3.4310091 4144959
-0.2757259 0.095224753 3.43062 10000536
-0.22453345 0.095213331 3.4302089 10066329
-0.17477471 0.095202237 3.4298091 10197915
-0.12502766 0.095191121 3.429409 10197915
-0.075292125 0.095180035 3.4290092 10197915
-0.025568284 0.095168933 3.4286098 10197915
0.025564201 0.095157526 3.4281983 10197915
0.075264633 0.095146447 3.427799 10197915
0.12495339 0.095135361 3.4273992 10197915
0.17463066 0.095124267 3.4270003 10197915
0.22429626 0.095113188 3.4266009 10197915
0.27536884 0.095101789 3.4261901 10197915
0.32501104 0.09509071 3.4257913 10197915
0.37464166 0.095079638 3.4253922 10197915
0.42567819 0.095068254 3.4249818 10197915
0.47528547 0.095057189 3.4245839 10197915
0.52488106 0.095046103 3.4241846 10197915
0.57588166 0.095034733 3.4237747 10197915
0.62545395 0.095023684 3.4233766 10197915
0.6750145 0.095012613 3.4229772 10197915
0.72456372 0.095001549 3.4225795 10197915
0.77410126 0.094990507 3.4221814 8158332
0.80912763 0.077123918 3.4241979 2894892
0.81652784 -0.6019755 3.4679146 2894892
0.81724477 -0.57476783 3.4731739 2894892
0.81711954 -0.52507764 3.4724677 2894892
0.81699437 -0.47541383 3.4717605 2894892
0.8170467 -0.42501962 3.472332 2894892
0.81686145 -0.37467113 3.4711947 2894892
-0.35138336 -0.30511063 3.4903784 2039583
-0.32515866 -0.30501586 3.4729176 1713198
-0.267232 -0.31056455 3.4709728 1979468
-0.24990705 -0.32068995 3.486824 3490901
0.81685483 -0.32501283 3.4713428 2894892
0.81672955 -0.27536479 3.4706366 2894892
0.8167823 -0.22503631 3.4712095 2894892
0.81659698 -0.17468739 3.470073 2894892
0.81659102 -0.12507772 3.4702215 2894892
0.81652451 -0.074753165 3.4699388 2894892
0.81645787 -0.024436748 3.4696558 2894892
0.81639344 0.024434172 3.4693813 2894892
0.81633067 0.071860343 3.4691138 2894892
0.82569015 -0.60315561 3.5337758 2894892
0.82565296 -0.57531404 3.5336165 2894892
0.82558638 -0.52549773 3.5333312 2894892
0.82545727 -0.47496375 3.5326002 2894892
0.82545125 -0.42443138 3.5327535 2894892
0.8253848 -0.37463957 3.5324686 2894892
-0.35352725 -0.30531898 3.526185 2039583
-0.32577929 -0.305327 3.5262778 1582129
-0.27612188 -0.30534142 3.5264437 1125448
-0.2452978 -0.3195802 3.5217133 3228243
0.82531822 -0.32485574 3.5321834 2894892
0.82525176 -0.27507997 3.531899 2894892
0.82518584 -0.22531234 3.5316167 2894892
0.82505673 -0.17482314 3.5308857 2894892
0.82505077 -0.12434405 3.531039 2894892
0.82498449 -0.074600555 3.5307553 2894892
0.82491779 -0.02486507 3.5304704 2894892
0.82485139 0.024862407 3.5301862 2894892
-0.35270795 0.094735608 3.5180135 2039583
-0.3249954 0.094729461 3.5177851 5395026
-0.27541256 0.094718464 3.5173767 10000536
-0.22584133 0.094707459 3.5169678 10066329
-0.17482416 0.094696134 3.5165474 10197915
-0.12381907 0.094684809 3.5161271 10197915
-0.074283004 0.094673812 3.5157185 10197915
-0.024758449 0.094662823 3.5153108 10197915
0.024754617 0.094651826 3.5149024 10197915
0.074256189 0.094640851 3.5144947 10197915
0.12520164 0.094629534 3.5140746 10197915
0.17613503 0.094618239 3.5136549 10197915
0.22560145 0.094607264 3.513247 10197915
0.27505639 0.094596289 3.5128396 10197915
0.32449988 0.094585299 3.5124323 10197915
0.37393191 0.094574332 3.5120246 10197915
0.42480579 0.09456306 3.5116055 10197915
0.47566757 0.094551757 3.5111856 10197915
0.52506465 0.09454079 3.5107791 10197915
0.57445002 0.094529837 3.5103719 10197915
0.62527609 0.094518565 3.509953 10197915
0.67609 0.094507277 3.5095341 10197915
0.7254405 0.094496325 3.5091274 10197915
0.77477962 0.09448538 3.5087211 9934743
0.82189679 0.076461658 3.5253935 2894892
0.83222687 -0.60228896 3.5807705 2894892
0.8321889 -0.57407725 3.5806072 2894892
0.83212286 -0.52508318 3.5803227 2894892
0.83205682 -0.47609699 3.5800393 2894892
0.83198893 -0.42563462 3.5797462 2894892
0.83192098 -0.37518033 3.5794539 2894892
-0.3557156 -0.30553165 3.5627346 2039583
-0.32620454 -0.3055402 3.5628338 1516339
-0.27603236 -0.30555472 3.5630038 1059399
-0.23903777 -0.31884497 3.5708418 2965586
0.83185285 -0.32473439 3.5791616 2894892
0.83178508 -0.27429667 3.5788698 2894892
0.83171779 -0.22386731 3.5785797 2894892
0.83165175 -0.17492883 3.5782962 2894892
0.83158582 -0.12599818 3.5780127 2894892
0.83151805 -0.075592898 3.5777199 2894892
0.83144999 -0.0251958 3.5774281 2894892
0.83138227 0.02519306 3.577136 2894892
0.74720764 0.09396024 3.5999889 10197915
0.77400446 0.093954355 3.5997639 10197915
0.82503045 0.082092375 3.5868776 3881787
0.83896244 -0.60290837 3.6291873 2894892
0.83899343 -0.5750742 3.629519 2894892
0.83878821 -0.52540427 3.6282372 2894892
0.83878863 -0.47501037 3.6284356 2894892
0.83878911 -0.42460409 3.6286345 2894892
0.83858395 -0.37499943 3.6273537 2894892
-0.35769454 -0.30587009 3.6208382 2039583
-0.32536128 -0.30586931 3.6192169 1583675
-0.27415749 -0.30457953 3.619482 1323083
-0.23380978 -0.31510285 3.6224794 2373966
0.83858436 -0.32460952 3.6275523 2894892
-0.27064598 -0.27515066 3.6292558 4151152
-0.23757033 -0.27490029 3.6283147 5009298
0.83851725 -0.27499336 3.6272621 2894892
-0.27099055 -0.22477971 3.6296003 5334909
-0.23738821 -0.22511388 3.6288509 5996454
0.83845025 -0.22538529 3.6269724 2894892
-0.27036795 -0.17521314 3.6298053 5072253
-0.23765928 -0.175534 3.6288054 5207971
0.83831316 -0.17503574 3.6261823 2894892
-0.27071238 -0.12482557 3.6301494 4874874
-0.23755112 -0.12479343 3.6292114 3959707
0.83831346 -0.12469675 3.6263809 2894892
-0.27073449 -0.075202145 3.6304431 4743289
-0.23756777 -0.075181924 3.6294646 3171222
0.83824623 -0.075112581 3.6260896 2894892
-0.26923597 -0.025569085 3.6305277 4546425
-0.2375844 -0.025563428 3.6297178 2711444
0.83817893 -0.025536474 3.6257982 2894892
-0.26925838 0.025571942 3.6308315 4480631
-0.23760162 0.025565878 3.6299789 2316173
0.83810973 0.025533661 3.6254988 2894892
-0.35737729 0.094204031 3.6093299 2039583
-0.3244561 0.094196782 3.6090519 6842472
-0.26974794 0.073983826 3.6292922 5926275
-0.23604959 0.075087294 3.627317 4220559
-0.17487608 0.094163761 3.6077874 10197915
-0.12404275 0.094152547 3.6073573 10197915
-0.074716039 0.094141655 3.60694 10197915
-0.025400875 0.094130777 3.6065235 10197915
0.025396841 0.094119571 3.6060936 10197915
0.074689001 0.094108686 3.6056771 10197915
0.12396964 0.094097808 3.6052601 10197915
0.17473179 0.094086625 3.6048312 10197915
0.22548185 0.094075397 3.6044023 10197915
0.27472776 0.094064556 3.6039853 10197915
0.32396215 0.094053678 3.603569 10197915
0.37467667 0.094042487 3.6031399 10197915
0.42537919 0.094031297 3.6027112 10197915
0.47606957 0.094020106 3.602283 10197915
0.52525759 0.094009258 3.601867 10197915
0.57443422 0.09399841 3.6014509 10197915
0.62508911 0.093987226 3.6010227 10197915
0.67573214 0.093976058 3.6005948 10197915
0.72338504 0.093965523 3.6001918 10197915
0.83804637 0.07209035 3.6252248 2894892
0.84586149 -0.60353363 3.6787806 2894892
0.8458218 -0.57454962 3.6786079 2894892
0.84575289 -0.52421474 3.678308 2894892
0.84568614 -0.47541302 3.6780176 2894892
0.84561723 -0.4250944 3.6777174 2894892
0.84554821 -0.37478387 3.677418 2894892
-0.36103866 -0.30619738 3.6770794 2039583
-0.32448885 -0.30620795 3.6772065 1716034
-0.29707515 -0.30621594 3.6773024 1586511
-0.22494519 -0.3176603 3.6687555 2636623
0.84547931 -0.32448161 3.6771183 2894892
-0.22498417 -0.27435842 3.6686392 2775433
0.84541094 -0.27418762 3.6768208 2894892
-0.22496037 -0.22496343 3.669003 3302806
0.84534436 -0.22542548 3.6765316 2894892
-0.22496863 -0.17480902 3.669137 3039636
0.84527552 -0.17514755 3.6762316 2894892
-0.22497684 -0.12465093 3.669271 2578574
0.84520668 -0.12487771 3.6759329 2894892
-0.224985 -0.074489176 3.669405 2513550
0.84513795 -0.074616142 3.6756339 2894892
-0.22499327 -0.024323801 3.6695395 2579855
0.84506917 -0.024362674 3.6753345 2894892
-0.22500128 0.024324942 3.6696694 2118793
0.84500241 0.024360113 3.6750448 2894892
-0.22500896 0.071456686 3.6697958 2510980
0.28663698 0.093501955 3.6998868 10197915
0.32492799 0.093493551 3.6995544 10197915
0.37546182 0.093482465 3.6991158 10197915
0.42598388 0.093471386 3.6986775 10197915
0.47496349 0.093460634 3.698252 10197915
0.52546173 0.093449548 3.6978137 10197915
0.5759483 0.093438491 3.6973753 10197915
0.62489331 0.093427747 3.6969504 10197915
0.67535609 0.093416683 3.6965125 10197915
0.72580707 0.093405604 3.6960745 10197915
0.77471781 0.09339489 3.6956501 10197915
0.83393359 0.082820699 3.6853244 4737096
0.8529712 -0.60263342 3.7298944 2894892
0.85293281 -0.57479334 3.7297261 2894892
0.85286427 -0.52530551 3.7294271 2894892
0.85272229 -0.47505972 3.7286012 2894892
0.85272563 -0.42481473 3.7288203 2894892
0.85265732 -0.37535089 3.7285213 2894892
0.85258901 -0.32589498 3.7282231 2894892
0.85244751 -0.27566296 3.7274003 2894892
0.85252267 -0.22470146 3.7281377 2894892
0.84997511 -0.16907299 3.7100408 2894892
0.85382396 -0.17773318 3.7376747 2894892
0.84991586 -0.12602764 3.7097819 2894892
0.85470909 -0.12409601 3.7442451 2894892
0.84984607 -0.075303182 3.7094777 2894892
0.85464025 -0.074451752 3.7439439 2894892
0.84977621 -0.024586977 3.7091727 2894892
0.85457146 -0.024815474 3.7436433 2894892
0.84970862 0.02458437 3.7088773 2894892
0.85450274 0.024812819 3.7433419 2894892
-0.36229616 0.093644321 3.7055204 2039583
-0.3254247 0.093636222 3.7052 8158332
-0.29777461 0.093630165 3.7049603 10066329
-0.21177648 0.093611293 3.7042134 10066329
-0.17493108 0.093603209 3.7038939 10132122
-0.12581325 0.09359245 3.7034676 10197915
-0.075172409 0.093581319 3.7030275 10197915
-0.024543479 0.093570225 3.7025883 10197915
0.024539715 0.093559451 3.7021618 10197915
0.075144865 0.093548343 3.7017229 10197915
0.12573814 0.093537249 3.7012837 10197915
0.17478675 0.093526483 3.7008576 10197915
0.22535625 0.093515404 3.7004194 10197915
0.26212701 0.093507327 3.7000997 10197915
0.84964508 0.07067547 3.7086005 2894892
0.85443842 0.071332179 3.7430594 2894892
0.86026138 -0.60327977 3.7822971 2894892
0.86022198 -0.57504851 3.782124 2894892
0.86015427 -0.52643353 3.781827 2894892
0.86008447 -0.47625834 3.7815192 2894892
0.86001462 -0.42609134 3.7812126 2894892
0.8599447 -0.37593246 3.7809048 2894892
0.85987502 -0.32578176 3.7805989 2894892
0.85980564 -0.27563933 3.7802939 2894892
0.85973597 -0.22550485 3.7799869 2894892
0.85966611 -0.17537849 3.7796803 2894892
0.85959631 -0.12526026 3.7793732 2894892
0.85952652 -0.075150207 3.7790663 2894892
0.85945678 -0.025048256 3.7787604 2894892
0.85938704 0.025045551 3.7784529 2894892
0.43291175 0.092879288 3.7998328 10197915
0.47536811 0.092870034 3.7994537 10197915
0.52567625 0.092859067 3.7990055 10197915
0.57597244 0.0928481 3.7985563 10197915
0.62625682 0.092837147 3.7981081 10197915
0.67495853 0.092826523 3.7976739 10197915
0.72364891 0.092815898 3.7972395 10197915
0.77389836 0.092804953 3.7967916 10197915
0.82413608 0.092794009 3.796344 8553090
0.85847884 0.076620296 3.7821431 2894892
0.86524391 -0.60424715 3.8181136 2894892
0.86520404 -0.5757485 3.8179379 2894892
0.86513311 -0.52509028 3.8176246 2894892
0.86506218 -0.47444028 3.8173115 2894892
0.86499125 -0.42379862 3.816998 2894892
0.86492246 -0.37474728 3.8166952 2894892
0.86485416 -0.3257041 3.8163936 2894892
0.86478364 -0.27508688 3.816082 2894892
0.86471272 -0.22447787 3.8157694 2894892
0.86464185 -0.17387713 3.8154569 2894892
0.86457324 -0.12486555 3.8151538 2894892
0.86450464 -0.075861812 3.8148508 2894892
0.86443377 -0.025285427 3.814539 2894892
0.86436307 0.025282666 3.8142264 2894892
-0.36748374 0.093053766 3.8069708 2039583
-0.32644585 0.093044825 3.8066046 9605778
-0.21442008 0.093020394 3.8056054 7371657
-0.17498875 0.093011804 3.8052542 10132122
-0.12610374 0.093001142 3.8048182 10197915
-0.075653493 0.092990138 3.8043675 10197915
-0.025215181 0.092979163 3.8039184 10197915
0.025211209 0.092968151 3.8034682 10197915
0.075625688 0.092957169 3.803019 10197915
0.12602824 0.092946194 3.8025696 10197915
0.1748444 0.09293554 3.802134 10197915
0.22364928 0.092924908 3.8016992 10197915
0.27401686 0.092913926 3.8012497 10197915
0.32437247 0.092902936 3.8008001 10197915
0.37471625 0.092891976 3.8003519 10197915
0.40774831 0.092884764 3.8000565 10197915
0.86429876 0.071102962 3.8139434 2894892
0.87290728 -0.60332286 3.8732066 2894892
0.87278408 -0.57520849 3.8724303 2894892
0.87288082 -0.52544039 3.8733184 2894892
0.87264341 -0.47566515 3.8718066 2894892
0.87265539 -0.42509502 3.8720891 2894892
0.87258518 -0.37533578 3.8717768 2894892
0.87251532 -0.32558489 3.8714674 2894892
0.87236065 -0.27502656 3.8705513 2894892
0.87245727 -0.2253173 3.8714395 2894892
0.87222028 -0.17557986 3.8699284 2894892
0.87223214 -0.12506416 3.8702111 2894892
0.87216204 -0.075353213 3.8698997 2894892
0.87209177 -0.025650341 3.8695879 2894892
0.87201941 0.025647501 3.8692667 2894892
0.87195373 0.072128922 3.8689749 2894892
0.88077182 -0.60400432 3.9297392 2894892
0.88072997 -0.57467258 3.9295528 2894892
0.8806603 -0.52579194 3.9292417 2894892
0.88058829 -0.47529015 3.9289203 2894892
0.88051623 -0.42479652 3.9285994 2894892
0.88044655 -0.37593958 3.9282877 2894892
0.88037539 -0.32546261 3.9279704 2894892
0.88030332 -0.27499342 3.9276493 2894892
0.88023144 -0.22453259 3.9273283 2894892
0.8801595 -0.17407994 3.9270074 2894892
0.88008994 -0.12526268 3.9266968 2894892
0.88001812 -0.0748263 3.9263763 2894892
0.87994617 -0.024398087 3.9260557 2894892
0.87987655 0.024395522 3.9257452 2894892
-0.37296343 0.092429973 3.9141331 3289650
-0.3307696 0.092420824 3.9137459 10066329
-0.2188343 0.092396595 3.9127197 5465208
-0.17504981 0.092387125 3.9123182 10066329
-0.1247894 0.092376225 3.9118574 10197915
-0.07454098 0.092365354 3.9113965 10197915
-0.024304269 0.092354484 3.9109359 10197915
0.024300581 0.092343949 3.9104896 10197915
0.074513875 0.092333078 3.9100296 10197915
0.12471551 0.092322208 3.9095693 10197915
0.17490517 0.092311345 3.9091094 10197915
0.22508316 0.092300482 3.9086492 10197915
0.27524921 0.092289604 3.9081891 10197915
0.32540357 0.092278749 3.9077294 10197915
0.37554601 0.092267901 3.9072695 10197915
0.42567676 0.092257038 3.9068098 10197915
0.47417915 0.09224654 3.9063652 10197915
0.52428657 0.092235684 3.9059057 10197915
0.57438225 0.092224851 3.9054463 10197915
0.62446618 0.092213996 3.9049869 10197915
0.67453849 0.092203163 3.9045281 10197915
0.72459865 0.092192315 3.9040687 10197915
0.77464741 0.092181474 3.9036102 10197915
0.8246842 0.092170641 3.9031515 10197915
0.8735652 0.078399025 3.9168236 3092271
0.88615012 -0.60337126 3.9684067 2894892
0.88610762 -0.57375085 3.9682162 2894892
0.88603681 -0.52438945 3.9678991 2894892
0.88596612 -0.47503594 3.967582 2894892
0.88589513 -0.4256902 3.9672647 2894892
0.88582224 -0.37470812 3.9669383 2894892
0.8857497 -0.3237344 3.9666133 2894892
0.88567883 -0.27441293 3.9662964 2894892
0.88560814 -0.22509928 3.9659796 2894892
0.88553745 -0.17579348 3.9656634 2894892
0.88546437 -0.1248525 3.9653358 2894892
0.88539141 -0.07391984 3.9650087 2894892
0.88532072 -0.024638196 3.9646921 2894892
0.88525009 0.024635576 3.964376 2894892
0.88518417 0.070617415 3.9640806 2894892
0.89443624 -0.60406721 4.0279703 2894892
0.89439517 -0.57567245 4.0277853 2894892
0.89432269 -0.52556998 4.0274587 2894892
0.89425009 -0.47547558 4.0271316 2894892
0.89408618 -0.4245711 4.0261507 2894892
0.89410311 -0.37365049 4.0264697 2894892
0.89403087 -0.32358083 4.0261445 2894892
0.89386314 -0.27433908 4.0251307 2894892
0.89388835 -0.22514223 4.0255027 2894892
0.89381588 -0.17509648 4.0251765 2894892
0.8937434 -0.1250589 4.0248504 2894892
0.8936711 -0.075029388 4.0245242 2894892
0.89359868 -0.025007993 4.0241981 2894892
0.89352614 0.025005294 4.0238719 2894892
-0.40381187 0.091775417 4.0277386 2039583
-0.37542048 0.091769323 4.0274715 4802889
-0.33534384 0.091760702 4.0270929 10066329
-0.22183545 0.091736317 4.0260224 6122365
-0.17511423 0.091726258 4.0255809 10066329
-0.12506707 0.0917155 4.0251088 10132122
-0.075031638 0.091704734 4.0246367 10197915
-0.025007939 0.091693997 4.0241656 10197915
0.025004033 0.091683239 4.0236931 10197915
0.075004287 0.091672495 4.0232215 10197915
0.1249928 0.091661759 4.0227499 10197915
0.1749696 0.091650993 4.0222788 10197915
0.22493471 0.091640256 4.0218072 10197915
0.27488804 0.091629505 4.0213356 10197915
0.3248297 0.091618776 4.0208645 10197915
0.37475976 0.091608047 4.0203938 10197915
0.42467797 0.091597311 4.0199223 10197915
0.47458455 0.091586597 4.0194516 10197915
0.52447945 0.091575854 4.018981 10197915
0.5743627 0.091565147 4.0185103 10197915
0.6242342 0.091554411 4.0180392 10197915
0.67409396 0.091543697 4.0175695 10197915
0.72394222 0.091532975 4.0170989 10197915
0.77377862 0.091522254 4.0166287 10197915
0.82360351 0.091511562 4.0161591 10197915
0.88539344 0.077920817 4.0203571 4013373
0.90294623 -0.60478759 4.0891428 2894892
0.90290165 -0.57426608 4.0889406 2894892
0.90282971 -0.52509826 4.0886149 2894892
0.90275782 -0.47593835 4.0882897 2894892
0.90268356 -0.42509145 4.0879536 2894892
0.90260983 -0.37425318 4.0876198 2894892
0.90253812 -0.3251172 4.0872946 2894892
0.90246648 -0.27598915 4.0869699 2894892
0.90239209 -0.2251751 4.0866332 2894892
0.90231782 -0.17436947 4.0862975 2894892
0.90224606 -0.12526526 4.0859723 2894892
0.90217429 -0.07616891 4.0856471 2894892
0.90210015 -0.025387777 4.0853109 2894892
0.902026 0.025384998 4.0849752 2894892
0.90195918 0.07107348 4.0846725 2894892
0.90877205 -0.60413665 4.1310272 2894892
0.90872926 -0.57501549 4.1308327 2894892
0.90865612 -0.52534395 4.1305003 2894892
-0.16887625 -0.45452565 4.1287637 6513507
-0.12468782 -0.45431507 4.1226172 6513507
-0.073230483 -0.45487162 4.1154561 6513507
-0.025540877 -0.45449719 4.1088238 6513507
0.0085221771 -0.45393863 4.109962 6513507
0.9085831 -0.47568038 4.1301684 2894892
-0.16744588 -0.42558676 4.1287336 6513507
-0.12469297 -0.42529732 4.1227884 6513507
-0.075033531 -0.42458495 4.1158853 6513507
-0.025962055 -0.42453328 4.1090589 6513507
0.0085224556 -0.42500767 4.1101093 6513507
0.90851015 -0.42602491 4.1298375 2894892
-0.1676441 -0.37462559 4.1290627 6513507
-0.12498019 -0.37441015 4.1231279 6513507
-0.075038835 -0.37516177 4.1161761 6513507
-0.025117865 -0.37523785 4.1092305 6513507
0.0085229352 -0.37565038 4.1103625 6513507
0.90843612 -0.37466612 4.1295004 2894892
-0.16765602 -0.32504061 4.1293554 6513507
-0.12442107 -0.32492793 4.1233411 6513507
-0.075044148 -0.32573166 4.1164675 6513507
-0.02554561 -0.32518709 4.1095839 6513507
0.0084304512 -0.3249236 4.1103454 6513507
0.90836298 -0.32502666 4.1291685 2894892
-0.22240722 -0.25496736 4.1373835 5266020
-0.16945383 -0.27394375 4.1299052 6513507
-0.12471979 -0.27505043 4.1236744 6513507
-0.075049594 -0.27458954 4.1167679 6513507
-0.025547475 -0.27413058 4.1098847 6513507
0.0085239112 -0.27419716 4.1108828 6513507
0.90829003 -0.2753953 4.1288366 2894892
-0.22457638 -0.22456862 4.1378622 4937829
-0.17456782 -0.22419128 4.1309075 6513507
-0.12501878 -0.22516428 4.1240101 6513507
-0.075054951 -0.22514534 4.1170592 6513507
-0.02554928 -0.22476885 4.1101747 6447714
0.0086213006 -0.22447556 4.111424 6513507
0.90821463 -0.2240608 4.1284933 2894892
-0.22459243 -0.17486744 4.1381574 4806244
-0.17458017 -0.17457341 4.1312008 6513507
-0.12445922 -0.17566366 4.1242223 6513507
-0.075060256 -0.1756939 4.1173511 6513507
-0.025551083 -0.17540012 4.110465 6513507
0.0084318873 -0.17510399 4.1111131 6513507
0.90814155 -0.17444561 4.1281619 2894892
-0.22460841 -0.12515897 4.1384511 4674659
-0.17459248 -0.12494859 4.131494 6513507
-0.12474663 -0.12473893 4.1245604 6513507
-0.075065739 -0.12452999 4.1176515 6513507
-0.025552936 -0.12432162 4.1107645 6513507
0.0085253585 -0.12434845 4.1116486 6513507
0.9080686 -0.12483842 4.12783 2894892
-0.22462434 -0.075443581 4.1387453 4674915
-0.17460501 -0.07531672 4.1317878 6513507
-0.12475543 -0.075190343 4.1248536 6513507
-0.075071037 -0.075064354 4.1179428 6513507
-0.025554752 -0.074938834 4.1110559 6513507
0.0085258372 -0.074954271 4.1119013 6513507
0.9079957 -0.075239122 4.1274981 2894892
-0.22464027 -0.025720999 4.13904 4543330
-0.17461734 -0.025677765 4.132081 6513507
-0.12476428 -0.025634671 4.1251464 6513507
-0.075076364 -0.025591722 4.1182337 6513507
-0.025556559 -0.025548903 4.1113458 6513507
0.0085263131 -0.025553975 4.1121545 6513507
0.90792274 -0.025647888 4.1271667 2894892
-0.22465675 0.025723524 4.1393447 4477537
-0.17463014 0.025680274 4.1323857 6513507
-0.12477345 0.025637178 4.1254478 6513507
-0.075081848 0.025594216 4.1185355 6513507
-0.025558416 0.025551392 4.1116457 6513507
0.0085268095 0.025556138 4.1124163 6513507
0.90784729 0.025645051 4.1268234 2894892
-0.40898311 0.091076054 4.1478772 2039583
-0.37458497 0.09106873 4.1475439 6842472
-0.3401916 0.091061376 4.1472092 10197915
-0.22467162 0.072029971 4.1396174 4674659
-0.17464168 0.071908869 4.1326575 6974058
-0.12478168 0.071788155 4.12572 6974058
-0.075086787 0.071667835 4.1188059 6974058
-0.025560109 0.07154794 4.1119161 6908265
0.012213704 0.074335083 4.1170678 7368816
0.075524047 0.090972699 4.1431704 10197915
0.12528686 0.090962067 4.1426868 10197915
0.17503822 0.090951458 4.1422033 10197915
0.22477783 0.090940841 4.1417203 10197915
0.27450594 0.090930246 4.1412368 10197915
0.3242223 0.090919636 4.1407537 10197915
0.37564096 0.090908669 4.140254 10197915
0.42533383 0.090898059 4.1397715 10197915
0.4750151 0.090887465 4.1392884 10197915
0.52468485 0.090876877 4.1388063 10197915
0.57434285 0.09086629 4.1383238 10197915
0.62570119 0.090855308 4.1378245 10197915
0.67533588 0.090844728 4.1373429 10197915
0.72495872 0.090834141 4.1368604 10197915
0.77457029 0.090823546 4.1363783 10197915
0.82417005 0.090812959 4.1358962 10197915
0.87546813 0.090802036 4.1353979 7960953
0.90731561 0.074515007 4.1277432 2894892
0.9147194 -0.60347277 4.1737828 2894892
0.91467589 -0.57405025 4.173584 2894892
0.91460425 -0.52559507 4.1732569 2894892
0.021089209 -0.45520639 4.171504 6513507
0.91452974 -0.47541752 4.1729174 2894892
0.020731598 -0.42488286 4.1690531 3684408
0.91445577 -0.42524818 4.1725793 2894892
0.020732606 -0.37481263 4.1692553 3158064
0.91438198 -0.37508711 4.1722431 2894892
0.020671824 -0.32559863 4.1690097 3223857
0.91430765 -0.32493386 4.1719046 2894892
-0.41053069 -0.2535623 4.1635613 2039583
-0.37638071 -0.2548171 4.158803 4605510
-0.34247756 -0.25470632 4.154088 6513507
0.02079637 -0.2755231 4.1700997 3092271
0.91423345 -0.27478889 4.1715651 2894892
-0.41054785 -0.22424793 4.1637359 2039583
-0.37550545 -0.22559236 4.1588516 4737096
-0.34249187 -0.22545862 4.1542611 6513507
0.020673815 -0.22544448 4.1694126 3223857
0.91415924 -0.22465193 4.171227 2894892
-0.41057724 -0.17423575 4.1640344 2039583
-0.3758525 -0.17549519 4.1591959 4671303
-0.34251633 -0.17556041 4.1545587 6513507
0.020798381 -0.175338 4.1705027 3092271
0.91408503 -0.1745232 4.1708879 2894892
-0.41060653 -0.12421652 4.1643314 2039583
-0.37546614 -0.12556146 4.1594334 4671303
-0.34254074 -0.12565504 4.1548543 6513507
0.020675821 -0.12527105 4.1698165 3223857
0.91401082 -0.12440255 4.1705489 2894892
-0.41063592 -0.074189998 4.1646295 2039583
-0.3759841 -0.075437471 4.1598015 4605510
