# .PCD v0.7 - Point Cloud Data file format
VERSION 0.7
FIELDS x y z rgb
SIZE 4 4 4 4
TYPE F F F U
COUNT 1 1 1 1
WIDTH 1183
HEIGHT 1
VIEWPOINT 0 0 0 1 0 0 0
POINTS 1183
DATA ascii
-1.425323 -1.6143216 3.63958 11711154
-1.5661442 -1.5752128 3.6489615 11711154
-1.5253978 -1.575153 3.6461604 11711154
-1.4763244 -1.5748808 3.642782 11711154
-1.4245975 -1.5750924 3.6396072 11711154
-1.5647478 -1.5254997 3.6490018 2763306
-1.5261066 -1.5248702 3.646342 2960685
-1.4756401 -1.525161 3.642868 3552822
-1.4253285 -1.5248373 3.6397619 3947580
-1.5641917 -1.4758114 3.6491015 2039583
-1.5254229 -1.475101 3.6464343 2039583
-1.476292 -1.4748291 3.6430531 2039583
-1.42466 -1.4751472 3.6398699 2039583
-1.5630713 -1.42527 3.6491613 2039583
-1.526016 -1.4248143 3.6466134 2039583
-1.4758906 -1.4250941 3.6431656 2039583
-1.4251513 -1.4249815 3.6399951 2039583
-1.5619516 -1.3748684 3.6492229 2039583
-1.5257446 -1.3750248 3.6467311 2039583
-1.4761811 -1.3750486 3.6433215 2039583
-1.4253308 -1.3749026 3.6401641 2039583
-1.5610164 -1.3257593 3.6492958 2039583
-1.5259744 -1.3250253 3.6468868 2039583
-1.4764733 -1.3249992 3.6434782 2039583
-1.4249718 -1.3252008 3.6402373 2039583
-1.5602783 -1.2745292 3.6493859 2039583
-1.5262015 -1.2750213 3.6470389 2039583
-1.4760714 -1.2752535 3.6435895 2039583
-1.425499 -1.2748375 3.6404169 2039583
-1.5588956 -1.2249304 3.6494257 2039583
-1.5259304 -1.2252208 3.6471574 2039583
-1.4767045 -1.2248062 3.6437724 2039583
-1.4249108 -1.2250423 3.6405067 2039583
-1.5582802 -1.1761434 3.6495192 2039583
-1.5265248 -1.174911 3.6473367 2039583
-1.4746463 -1.1749184 3.643765 2039583
-1.4240516 -1.1749966 3.6405611 2039583
-1.557344 -1.1249157 3.649596 2039583
-1.525842 -1.1251197 3.6474268 2039583
-1.4749166 -1.1246774 3.6439242 2039583
-1.4237465 -1.1250898 3.6406984 2039583
-1.5560805 -1.0758904 3.6496439 2039583
-1.5265486 -1.0747973 3.6476142 2039583
-1.474974 -1.0749011 3.6440625 2039583
-1.4230186 -1.0750276 3.6411939 2039583
-1.5554588 -1.0273242 3.6497338 2039583
-1.526042 -1.0249923 3.6477165 2039583
-1.4750311 -1.0251206 3.644206 2039583
-1.4229398 -1.0248678 3.6414776 2039583
-1.5544089 -0.97528571 3.649806 2039583
-1.5263892 -0.97477096 3.6478775 2039583
-1.4753253 -0.97506136 3.6443624 2039583
-1.4223535 -0.97514367 3.6415746 2039583
-1.553255 -0.92775261 3.6498575 2039583
-1.5255504 -0.92455995 3.6479607 2039583
-1.4741019 -0.9256615 3.6444159 2039583
-1.4227879 -0.92474961 3.6416712 2039583
-1.5529609 -0.88459784 3.6499567 2039583
-1.5249515 -0.87506896 3.6480536 2039583
-1.4740003 -0.87477291 3.6445491 2039583
-1.4226816 -0.87499326 3.6418407 2039583
-1.5250113 -0.82522643 3.6481977 2039583
-1.4733512 -0.82501012 3.6446381 2039583
-1.4228781 -0.82522726 3.6419017 2039583
-1.5238025 -0.77559143 3.6482496 2039583
-1.4737647 -0.77462989 3.6448119 2039583
-1.4229287 -0.77509594 3.6420791 2039583
-1.5233159 -0.72552913 3.6483541 2039583
-1.4738216 -0.7248283 3.6449502 2039583
-1.4228168 -0.72534943 3.6421204 2039583
-1.5218519 -0.67534566 3.6483917 2039583
-1.4738787 -0.6750226 3.645093 2039583
-1.4229394 -0.67450082 3.6422753 2039583
-1.5210745 -0.62496507 3.6484759 2039583
-1.4739363 -0.62521291 3.6452312 2039583
-1.4229057 -0.62463516 3.6424136 2039583
-1.5197792 -0.57536811 3.6485257 2039583
-1.4739933 -0.57539928 3.6453717 2039583
-1.4231043 -0.57485831 3.642478 2039583
-1.5191401 -0.52451795 3.6486192 2039583
-1.4743782 -0.5250932 3.6455369 2039583
-1.4229945 -0.52507335 3.6426384 2039583
-1.5178522 -0.47486049 3.64867 2039583
-1.4737878 -0.47530538 3.6456366 2039583
-1.4231941 -0.47529194 3.6427083 2039583
-1.5171828 -0.42527398 3.6487594 2039583
-1.4741663 -0.42442572 3.6458025 2039583
-1.4233186 -0.42522243 3.6428759 2039583
-1.516205 -0.37489346 3.6488326 2039583
-1.4742229 -0.37459689 3.6459424 2039583
-1.4230592 -0.37545681 3.6429288 2039583
-1.5150025 -0.32538018 3.648886 2039583
-1.4742804 -0.32476357 3.6460831 2039583
-1.4232545 -0.32449576 3.6430783 2039583
-1.5143117 -0.27567062 3.6489754 2039583
-1.4743375 -0.27492672 3.6462288 2039583
-1.4232997 -0.27469793 3.6431906 2039583
-1.5132674 -0.22525124 3.6490414 2039583
-1.4743948 -0.22508615 3.6463666 2039583
-1.4233441 -0.2248971 3.6433051 2039583
-1.5120902 -0.17581616 3.6490972 2039583
-1.4744519 -0.17524159 3.6465077 2039583
-1.4233887 -0.17509319 3.6434216 2039583
-1.5114114 -0.12617302 3.6491871 2039583
-1.4745083 -0.12539318 3.6466503 2039583
-1.4234337 -0.12528606 3.6435349 2039583
-1.5103303 -0.075591929 3.6492527 2039583
-1.4745661 -0.075540975 3.6467917 2039583
-1.4234829 -0.075476103 3.6436586 2039583
-1.5092429 -0.026443375 3.6493123 2039583
-1.4746232 -0.025684791 3.6469319 2039583
-1.4235325 -0.025662657 3.6437874 2039583
-1.5084909 0.024767185 3.6494021 5263440
-1.474682 0.02568616 3.6470773 5460819
-1.4235845 0.025663886 3.6439192 5460819
-1.5073948 0.075596675 3.6494679 10197915
-1.4747386 0.075550102 3.6472201 10197915
-1.4236343 0.075484365 3.6440446 10197915
-2.8578618 0.1089989 3.6041002 10197915
-2.8242359 0.10896886 3.6031072 10197915
-2.7753558 0.1089252 3.6016631 10197915
-2.7356691 0.10888974 3.6004913 10197915
-1.5074285 0.10432554 3.6495481 10197915
-1.4747716 0.10426128 3.6473014 10197915
-1.4236633 0.10417033 3.6441202 10197915
-1.3019547 0.10736211 3.6499786 10197915
-1.2744466 0.10733758 3.6491446 10197915
-1.2240448 0.10729267 3.6476178 3552822
-1.1752124 0.1072493 3.646143 2039583
-1.1248937 0.10720445 3.6446187 2039583
-1.0746166 0.10715963 3.6430943 2039583
-1.024382 0.10711487 3.641573 2039583
-0.97418922 0.10707014 3.6400526 2039583
-0.9255572 0.10702679 3.6385787 2039583
-0.87544727 0.10698214 3.6370602 2039583
-0.82537848 0.10693753 3.6355436 2171169
-0.77535194 0.10689294 3.6340275 2894892
-0.72536653 0.10684837 3.6325133 2894892
-0.69660491 0.10682277 3.6316426 2894892
-2.3051858 -1.6522539 3.6996076 2039583
-2.2787795 -1.6522083 3.6977901 2039583
-2.2252419 -1.6513286 3.6941087 2039583
-2.1901376 -1.6502501 3.6916959 2039583
-1.3990394 -1.651184 3.69607 11711154
-2.3043425 -1.6263744 3.6996212 2039583
-2.2745085 -1.6248127 3.6975725 2039583
-2.2253799 -1.6252459 3.6941903 2039583
-2.1738842 -1.6247652 3.6906474 2039583
-2.1249785 -1.6252545 3.6872807 2039583
-2.0756226 -1.6238668 3.6838889 2039583
-2.0251186 -1.6235584 3.6804144 2631720
-1.9742014 -1.6223152 3.6769128 2960685
-1.9254795 -1.6220365 3.6735601 8553090
-1.8763157 -1.6208652 3.6701808 11711154
-1.8262889 -1.6204631 3.666738 11711154
-1.7756464 -1.6193254 3.6632562 11711154
-1.7258378 -1.6189246 3.6598296 11711154
-1.6753567 -1.6177917 3.6563609 11711154
-1.6257693 -1.6173908 3.6529469 11711154
-1.591399 -1.616173 3.6505859 11711154
-1.4011254 -1.6200335 3.6653988 11711154
-1.3993349 -1.6241466 3.6914699 11711154
-2.3036528 -1.5761521 3.6997118 2039583
-2.2749174 -1.5748225 3.6977377 2039583
-2.2255173 -1.5750883 3.6943378 2039583
-2.1743279 -1.5749322 3.6908162 2039583
-2.124969 -1.5750107 3.6874187 2039583
-2.0757027 -1.5750883 3.6840286 2039583
-2.0247097 -1.5748409 3.6805208 2631720
-1.974274 -1.5751506 3.677047 2960685
-1.9236519 -1.5747364 3.6735647 6645093
-1.8751036 -1.5753381 3.6702225 9079434
-1.8257153 -1.5749668 3.6668246 9474192
-1.7759979 -1.5749787 3.663403 10066329
-1.7252321 -1.5750277 3.6599081 10461087
-1.6757423 -1.5749462 3.6565027 11119017
-1.6251266 -1.5750897 3.6530197 11579568
-1.5910794 -1.5744421 3.6506791 11711154
-1.4011836 -1.575123 3.6640384 11513775
-1.399302 -1.5751711 3.6913834 9737364
-2.3022106 -1.5250996 3.6997533 2039583
-2.2753563 -1.5252341 3.6979043 2039583
-2.2252209 -1.5247478 3.6944561 2039583
-2.1747906 -1.5251902 3.6909842 2039583
-2.1249602 -1.5247627 3.687556 2039583
-2.0760667 -1.5251548 3.6841912 2039583
-2.0250189 -1.5248611 3.6806791 2631720
-1.9744389 -1.5250311 3.6771965 2960685
-1.9237794 -1.5250188 3.6737101 2302755
-1.8747919 -1.5250432 3.6703391 2039583
-1.8262393 -1.5250698 3.6669989 2039583
-1.7754962 -1.524972 3.6635067 2039583
-1.7258693 -1.5250338 3.6600912 2039583
-1.6751554 -1.5250354 3.6566017 2039583
-1.6258441 -1.5249031 3.6532073 2039583
-1.5895823 -1.5245464 3.6507137 2039583
-1.4011167 -1.52502 3.6644397 2368548
-1.3992779 -1.5251632 3.691159 2039583
-2.301667 -1.4787529 3.6998441 2039583
-2.2747474 -1.4747616 3.6980021 2039583
-2.2257874 -1.475237 3.6946311 2039583
-2.1741161 -1.4748107 3.6910765 2039583
-2.125484 -1.4752039 3.6877282 2039583
-2.0755703 -1.474862 3.6842957 2039583
-2.0254235 -1.4750632 3.6808443 2631720
-1.9743359 -1.4748223 3.6773281 2960685
-1.9240183 -1.4750351 3.6738656 2302755
-1.8749517 -1.4750202 3.6704886 2039583
-1.8259761 -1.4750042 3.6671178 2039583
-1.7760822 -1.4750224 3.6636851 2039583
-1.7253665 -1.4750696 3.6601937 2039583
-1.6759008 -1.4749852 3.6567912 2039583
-1.6251621 -1.4750397 3.6532989 2039583
-1.5888597 -1.4738146 3.6508021 2039583
-1.4011168 -1.474866 3.6638641 2039583
-1.3992254 -1.4746921 3.6913455 2039583
-2.3007877 -1.4255379 3.6999297 2039583
-2.2751832 -1.4248599 3.6981702 2039583
-2.2254906 -1.4248899 3.6947501 2039583
-2.1745818 -1.4252504 3.6912451 2039583
-2.1248722 -1.4248683 3.6878252 2039583
-2.0762784 -1.4251941 3.6844804 2039583
-2.024843 -1.4248184 3.680943 2631720
-1.974862 -1.4250637 3.6775012 2960685
-1.9237579 -1.4248745 3.6739845 2368548
-1.8750248 -1.4248941 3.6706314 2039583
-1.8262106 -1.4251094 3.6672716 2039583
-1.7756877 -1.4250054 3.663795 2039583
-1.7260032 -1.4250662 3.6603758 2039583
-1.6752549 -1.425071 3.6568828 2039583
-1.6259675 -1.4249351 3.6534925 2039583
-1.5881469 -1.4247935 3.6508889 2039583
-1.4010497 -1.4247553 3.6642659 2039583
-1.3992022 -1.4251984 3.6911201 2039583
-2.2756217 -1.3752592 3.6983364 2039583
-2.2256274 -1.374716 3.6948977 2039583
-2.1748972 -1.3751179 3.6914055 2039583
-2.1252997 -1.3751018 3.6879916 2039583
-2.0756981 -1.3748981 3.6845794 2039583
-2.025548 -1.3751931 3.6811285 2565927
-1.9742194 -1.3748655 3.6775959 2960685
-1.9243606 -1.3750619 3.6741643 2368548
-1.8750985 -1.374765 3.6707749 2039583
-1.8262818 -1.3750261 3.6674139 2039583
-1.7760756 -1.3751479 3.6639588 2039583
-1.7255009 -1.3750962 3.6604786 2039583
-1.676048 -1.3750091 3.6570756 2039583
-1.6252854 -1.3750652 3.6535816 2039583
-1.5867319 -1.3747363 3.6509278 2039583
-1.4010451 -1.3749241 3.6637695 2039583
-1.3991783 -1.3752029 3.6908948 2039583
-2.2742572 -1.3251957 3.6983805 2039583
-2.2261009 -1.3252909 3.6950665 2039583
-2.1745114 -1.3247194 3.6915176 2039583
-2.1256096 -1.3250294 3.6881518 2039583
-2.0761068 -1.3250415 3.6847444 2039583
-2.0250504 -1.3249385 3.6812327 2631720
-1.97495 -1.3251867 3.6777833 2960685
-1.9237176 -1.3249075 3.674258 2368548
-1.8753958 -1.324927 3.6709318 2039583
-1.826353 -1.3249388 3.6675568 2039583
-1.7759666 -1.3251143 3.664089 2039583
-1.7261381 -1.325083 3.6606603 2039583
-1.6753671 -1.3250895 3.6571658 2039583
-1.6260028 -1.3248603 3.65377 2039583
-1.5859889 -1.3243834 3.6510162 2039583
-1.4010001 -1.3251084 3.6638482 2039583
-1.3991253 -1.3247278 3.6910825 2039583
-2.2738481 -1.2748244 3.6984909 2039583
-2.2256083 -1.2748451 3.6951714 2039583
-2.1750085 -1.2753363 3.6916881 2039583
-2.1240437 -1.274345 3.6881835 2039583
-2.0753663 -1.2754347 3.6848307 2039583
-2.025413 -1.2750322 3.6813943 2565927
-1.974452 -1.2749777 3.677887 2960685
-1.9244863 -1.2751743 3.6744475 2368548
-1.8734672 -1.2747513 3.6709378 2039583
-1.8249488 -1.274907 3.6675982 2039583
-1.7761221 -1.2751615 3.6642375 2039583
-1.7256349 -1.2751071 3.6607625 2039583
-1.6761758 -1.2749238 3.657361 2039583
-1.6254981 -1.2749773 3.6538727 2039583
-1.5852135 -1.2751279 3.6510994 2039583
-1.4009669 -1.2749873 3.6637619 2039583
-1.3991019 -1.2752471 3.6908557 2039583
-2.2726674 -1.2255503 3.6985462 2039583
-2.2259803 -1.224746 3.6953359 2039583
-2.1747561 -1.2249256 3.6918094 2039583
-2.1240492 -1.2253759 3.6883197 2039583
-2.0743926 -1.2247672 3.6849029 2039583
-2.0257215 -1.2250261 3.6815541 2565927
-1.9748127 -1.2251124 3.6780491 2960685
-1.9239033 -1.2250113 3.6745465 2368548
-1.8741229 -1.2250624 3.6711206 2039583
-1.8249213 -1.2247162 3.6677349 2039583
-1.776191 -1.2251136 3.664381 2039583
-1.7262725 -1.225085 3.6609447 2039583
-1.6754941 -1.2249978 3.6574519 2039583
-1.6259359 -1.2247739 3.6540425 2039583
-1.5838057 -1.2250957 3.6511412 2039583
-1.4010006 -1.2262878 3.6627133 2039583
-1.3991616 -1.2236991 3.6894035 2039583
-2.27022 -1.1751002 3.6985164 2039583
-2.2250633 -1.1755993 3.6954076 2039583
-2.1750057 -1.174684 3.6919651 2039583
-2.1239522 -1.1750035 3.6884515 2039583
-2.0749302 -1.1753312 3.685077 2039583
-2.025332 -1.1747577 3.6816659 2565927
-1.9748892 -1.1748743 3.6781926 2960685
-1.9243033 -1.1752839 3.6747108 2368548
-1.8734313 -1.1749479 3.6712105 2039583
-1.8252169 -1.1749117 3.667892 2039583
-1.7762605 -1.1750619 3.6645231 2039583
-1.7257694 -1.1751024 3.6610489 2039583
-1.6762875 -1.1749183 3.6576436 2039583
-1.6258219 -1.1748704 3.6541705 2039583
-1.5831037 -1.1747918 3.6512296 2039583
-1.4011321 -1.1751933 3.6602178 2039583
-1.3992696 -1.1747154 3.6872768 2039583
-2.2693138 -1.1246953 3.6985927 2039583
-2.2242758 -1.1248931 3.6954937 2039583
-2.1754251 -1.125291 3.6921299 2039583
-2.1241231 -1.1247133 3.6886015 2039583
-2.0746775 -1.1250091 3.6851969 2039583
-2.0259831 -1.1252073 3.6818469 2565927
-1.9749665 -1.1246309 3.6783364 2960685
-1.9243779 -1.1250889 3.6748538 2368548
-1.8741775 -1.1251544 3.6713979 2039583
-1.8248296 -1.12483 3.6680038 2039583
-1.7763294 -1.1250063 3.6646664 2039583
-1.726353 -1.1251683 3.6612248 2039583
-1.6756414 -1.124984 3.6577358 2039583
-1.625976 -1.1248579 3.6543193 2039583
-1.5824409 -1.1251827 3.6513221 2039583
-1.4010988 -1.1251254 3.6601295 2039583
-1.3992399 -1.1246617 3.6871355 2039583
-2.268014 -1.0758966 3.6986377 2039583
-2.2246432 -1.0748084 3.6956563 2039583
-2.1748462 -1.0748829 3.692229 2039583
-2.1245694 -1.0752662 3.6887684 2039583
-2.0749214 -1.0748653 3.685353 2039583
-2.0254021 -1.0749396 3.6819451 2565927
-1.9754262 -1.0751308 3.6785045 2960685
-1.9244531 -1.0748903 3.6749976 2368548
-1.8736767 -1.0750259 3.6715028 2039583
-1.8254747 -1.0750029 3.6681859 2039583
-1.7763978 -1.0749465 3.6648092 2039583
-1.7259566 -1.0751743 3.6613367 2039583
-1.6763868 -1.0748971 3.6579258 2039583
-1.6260396 -1.0749396 3.6544616 2039583
-1.5807976 -1.0751041 3.6513472 2039583
-1.4009126 -1.0767249 3.6622818 2039583
-1.3991995 -1.0749867 3.6871538 2039583
-2.2673547 -1.0256463 3.6987324 2039583
-2.2250543 -1.0253284 3.6958206 2039583
-2.1752584 -1.0249094 3.692395 2039583
-2.1239288 -1.0249047 3.6888633 2039583
-2.0753458 -1.0251158 3.6855187 2039583
-2.0258071 -1.0251049 3.6821108 2565927
-1.9747363 -1.0249119 3.6785958 2960685
-1.9246925 -1.0248706 3.6751521 2368548
-1.874032 -1.0252388 3.6716652 2039583
-1.8232551 -1.0249505 3.6681705 2039583
-1.7748965 -1.0248525 3.6648424 2039583
-1.7264216 -1.0252364 3.6615057 2039583
-1.6758 -1.0249548 3.6580226 2039583
-1.6261026 -1.0250174 3.6546021 2039583
-1.5805483 -1.0245372 3.6514678 2039583
-1.4008107 -1.0249298 3.6631742 2039583
-1.3991699 -1.0249379 3.6870139 2039583
-2.2663777 -0.97458744 3.6988046 2039583
-2.2244959 -0.97486895 3.6959217 2039583
-2.1757302 -0.97521466 3.6925642 2039583
-2.1243706 -0.97506887 3.6890302 2039583
-2.0747337 -0.97479886 3.6856153 2039583
-2.025974 -0.9748947 3.6822605 2565927
-1.9751955 -0.97540337 3.6787636 2960685
-1.9244311 -0.97467804 3.6752729 2368548
-1.8741049 -0.97508001 3.6718082 2039583
-1.8240629 -0.97509354 3.6683638 2039583
-1.7749659 -0.97478688 3.6649857 2039583
-1.7261556 -0.97523004 3.6616249 2039583
-1.6764224 -0.97476912 3.6582043 2039583
-1.6261654 -0.97509098 3.6547465 2039583
-1.5790243 -0.97511244 3.6515012 2039583
-1.4007583 -0.97481632 3.6633589 2039583
-1.3991401 -0.97489357 3.6868737 2039583
-2.2651877 -0.92593139 3.6988571 2039583
-2.2249022 -0.9248718 3.6960876 2039583
-2.1750424 -0.92480105 3.6926568 2039583
-2.1247377 -0.92504007 3.6891935 2039583
-2.0751629 -0.92534697 3.6857805 2039583
-2.0258732 -0.92459619 3.6823926 2565927
-1.9752729 -0.92514527 3.6789072 2960685
-1.9250557 -0.92510974 3.6754518 2434341
-1.8741779 -0.9249171 3.6719511 2039583
-1.8234189 -0.92500818 3.6684575 2039583
-1.7750349 -0.92471677 3.6651287 2039583
-1.7264768 -0.92529017 3.6617858 2039583
-1.6760252 -0.92481178 3.6583149 2039583
-1.6262288 -0.92516112 3.6548872 2039583
-1.578341 -0.92463237 3.6515899 2039583
-1.4007441 -0.92522997 3.6629977 2039583
-1.3991103 -0.9248423 3.6867344 2039583
-2.2645156 -0.87557495 3.6989493 2039583
-2.2253144 -0.8753792 3.6962514 2039583
-2.1755126 -0.87509924 3.6928263 2039583
-2.1242423 -0.87466264 3.6892986 2039583
-2.0752428 -0.87499082 3.6859255 2039583
-2.0263355 -0.87531805 3.6825602 2500134
-1.9753503 -0.87488323 3.6790514 2960685
-1.9243771 -0.874928 3.6755438 2368548
-1.8742514 -0.87475014 3.6720943 2039583
-1.8238438 -0.87544328 3.6686234 2039583
-1.7747941 -0.87439471 3.665251 2039583
-1.7261014 -0.87550211 3.6618969 2039583
-1.6764877 -0.87471884 3.6584852 2039583
-1.6262915 -0.87522739 3.6550288 2039583
-1.5770056 -0.87456638 3.6516373 2039583
-1.4007015 -0.87562883 3.6630476 2039583
-1.3990588 -0.87479717 3.6869068 2039583
-2.2634418 -0.82446253 3.6990156 2039583
-2.2247553 -0.82490969 3.6963537 2039583
-2.1758826 -0.82501423 3.6929893 2039583
-2.1246178 -0.82538944 3.6894603 2039583
-2.0753248 -0.82463092 3.68607 2039583
-2.0258372 -0.82503009 3.6826634 2565927
-1.975656 -0.82489234 3.6792102 2960685
-1.9248269 -0.82535905 3.6757116 2434341
-1.8743246 -0.82457924 3.6722374 2039583
-1.8239151 -0.82531953 3.6687663 2039583
-1.7737663 -0.82472354 3.6653171 2039583
-1.724951 -0.82530457 3.6619558 2039583
-1.6762209 -0.82474887 3.6586032 2039583
-1.6263545 -0.82528991 3.6551695 2039583
-1.5765014 -0.82460487 3.6517401 2039583
-1.400668 -0.82552963 3.6629615 2039583
-1.3990401 -0.82514697 3.6866095 2039583
-2.2623634 -0.7759937 3.6990752 2039583
-2.2251618 -0.77490044 3.6965182 2039583
-2.1753879 -0.77458233 3.693094 2039583
-2.1247013 -0.77497911 3.6896045 2039583
-2.0749753 -0.77498996 3.686182 2039583
-2.0255306 -0.7754575 3.6827793 2565927
-1.9752656 -0.77464396 3.6793213 2960685
-1.9249018 -0.77513707 3.6758549 2434341
-1.8747523 -0.77495795 3.6724036 2039583
-1.8239863 -0.77519196 3.6689095 2039583
-1.7735018 -0.77465826 3.665436 2039583
-1.7250183 -0.77527076 3.6620984 2039583
-1.6765431 -0.77465409 3.6587641 2039583
-1.626418 -0.77534837 3.6553121 2039583
-1.5761814 -0.77455157 3.6518588 2039583
-1.5499786 -0.7742331 3.6500549 2039583
-1.4006344 -0.77543306 3.6628733 2039583
-1.3990104 -0.7751047 3.6864717 2039583
-2.2616768 -0.72548604 3.6991675 2039583
-2.2255731 -0.72539532 3.6966834 2039583
-2.1757658 -0.72525394 3.6932557 2039583
-2.1247845 -0.72456533 3.689749 2039583
-2.0736129 -0.72503579 3.6862264 2039583
-2.0246944 -0.72473818 3.6828609 2565927
-1.9756725 -0.72549772 3.6794856 2960685
-1.9249775 -0.72491086 3.6759973 2434341
-1.8741088 -0.72481245 3.6724973 2039583
-1.8240576 -0.72506094 3.6690526 2039583
-1.7740947 -0.72492969 3.6656146 2039583
-1.7241795 -0.72483641 3.6621795 2039583
-1.6755738 -0.72504652 3.658834 2039583
-1.6264813 -0.72540277 3.6554558 2039583
-1.5749784 -0.72469974 3.6519108 2039583
-1.5469433 -0.70769262 3.6500294 2039583
-1.4006011 -0.72533858 3.6627855 2039583
-1.3989736 -0.72506338 3.6864345 2039583
-2.2605059 -0.67432004 3.6992283 2039583
-2.2250149 -0.67491603 3.696784 2039583
-2.1758513 -0.674788 3.6934009 2039583
-2.1248651 -0.67567503 3.6898899 2039583
-2.0739784 -0.67503405 3.686389 2039583
-2.0247743 -0.6744144 3.6830053 2565927
-1.9755692 -0.67522854 3.6796162 2960685
-1.9250522 -0.67468065 3.6761413 2434341
-1.8745416 -0.67556375 3.6726635 2039583
-1.8241284 -0.6749261 3.6691964 2039583
-1.7734503 -0.67487532 3.6657081 2039583
-1.7235851 -0.67517012 3.6622751 2039583
-1.6745403 -0.67419887 3.6589031 2039583
-1.6254644 -0.67535222 3.6555219 2039583
-1.5743803 -0.67515028 3.6520085 2039583
-1.5469835 -0.67444229 3.6501236 2039583
-1.4005678 -0.67524666 3.6626987 2039583
-1.3989365 -0.67503411 3.6863999 2039583
-2.2595448 -0.62612468 3.6992948 2039583
-2.225421 -0.62489337 3.69695 2039583
-2.175936 -0.62431824 3.6935458 2039583
-2.1249485 -0.62525362 3.6900342 2039583
-2.0741477 -0.62475121 3.6865399 2039583
-2.0248501 -0.62561196 3.6831448 2565927
-1.9757339 -0.62503767 3.6797662 2960685
-1.9251282 -0.62444645 3.676285 2434341
-1.8746146 -0.62537718 3.672806 2039583
-1.8242 -0.62478667 3.6693392 2039583
-1.7742097 -0.62522489 3.6658976 2039583
-1.7236521 -0.62512594 3.6624184 2039583
-1.6735215 -0.62453723 3.6589704 2039583
-1.6234826 -0.6254636 3.6555233 2039583
-1.5735407 -0.62487561 3.6520875 2039583
-1.5455848 -0.62312967 3.6501694 2039583
-1.4005345 -0.62515712 3.6626117 2039583
-1.3988996 -0.62500507 3.6863632 2039583
-2.2588377 -0.57537931 3.6993861 2039583
-2.2257941 -0.57548046 3.6971116 2039583
-2.1760204 -0.57537401 3.6936858 2039583
-2.1250317 -0.57482749 3.6901793 2039583
-2.0740476 -0.57438219 3.6866713 2039583
-2.0249293 -0.57528013 3.6832886 2565927
-1.975811 -0.57475245 3.6799104 2960685
-1.925439 -0.57543403 3.6764417 2434341
-1.8746878 -0.57518721 3.6729498 2039583
-1.8242705 -0.57464385 3.6694818 2039583
-1.7736233 -0.57516152 3.6659944 2039583
-1.7237195 -0.57507735 3.6625612 2039583
-1.6735866 -0.57453585 3.6591127 2039583
-1.6236377 -0.57541013 3.6556726 2039583
-1.573602 -0.57496852 3.65223 2039583
-1.5448109 -0.57226992 3.6502564 2039583
-1.4005009 -0.57506996 3.6625242 2039583
-1.3988737 -0.57535237 3.6861711 2039583
-2.2575698 -0.52416068 3.6994395 2039583
-2.2238886 -0.52482218 3.6971197 2039583
-2.1747084 -0.52506113 3.6937349 2039583
-2.1254783 -0.52533466 3.6903458 2039583
-2.074219 -0.52542716 3.6868179 2039583
-2.0250082 -0.52494466 3.6834328 2500134
-1.975889 -0.52446324 3.6800539 2960685
-1.9250475 -0.52521539 3.6765535 2434341
-1.874761 -0.524993 3.6730931 2039583
-1.8245046 -0.52467847 3.6696351 2039583
-1.7740155 -0.52552032 3.6661596 2039583
-1.7237858 -0.52502495 3.6627018 2039583
-1.6736521 -0.52453101 3.6592543 2039583
-1.6235234 -0.52546066 3.655802 2039583
-1.573663 -0.52505732 3.6523721 2039583
-1.5440482 -0.52476442 3.6503351 2039583
-1.4005444 -0.52755052 3.6613457 2039583
-1.3989477 -0.5237841 3.6845067 2039583
-2.2567391 -0.47643963 3.6995144 2039583
-2.2240837 -0.47483772 3.6972713 2039583
-2.1745951 -0.47440064 3.693866 2039583
-2.1248379 -0.47493756 3.6904411 2039583
-2.0743012 -0.47504145 3.6869626 2039583
-2.0250878 -0.47460505 3.6835766 2500134
-1.9759637 -0.47569388 3.6801934 2960685
-1.9253515 -0.47524384 3.6767118 2434341
-1.8748344 -0.47479448 3.6732364 2039583
-1.8242416 -0.47454491 3.669755 2039583
-1.7740855 -0.47541696 3.666301 2039583
-1.7238532 -0.47496897 3.6628458 2039583
-1.6737164 -0.4745217 3.6593974 2039583
-1.6238419 -0.47539121 3.655961 2039583
-1.5737243 -0.47514245 3.6525147 2039583
-1.5427022 -0.47418201 3.6503816 2039583
-1.4006588 -0.47521606 3.6590865 2039583
-1.3990308 -0.47479188 3.6827359 2039583
-2.2559981 -0.42525497 3.699604 2039583
-2.2241681 -0.42583847 3.6974115 2039583
-2.1746778 -0.42544618 3.6940072 2039583
-2.1252794 -0.42505491 3.6906087 2039583
-2.0743816 -0.42465156 3.6871078 2039583
-2.0251667 -0.42426172 3.6837208 2500134
-1.9760408 -0.42539671 3.680337 2960685
-1.9254254 -0.42499417 3.6768556 2434341
-1.8749079 -0.42459252 3.6733801 2039583
-1.8247197 -0.42541379 3.6699238 2039583
-1.7741542 -0.42530984 3.6664438 2039583
-1.7239205 -0.42490894 3.6629887 2039583
-1.6737816 -0.42450878 3.6595385 2039583
-1.6235732 -0.42544284 3.6560807 2039583
-1.5737849 -0.42522353 3.6526544 2039583
-1.5419805 -0.42362049 3.6504722 2039583
-1.4006394 -0.42520294 3.6587956 2039583
-1.399009 -0.42503932 3.6824822 2039583
-2.2546329 -0.37398389 3.699651 2039583
-2.2242556 -0.37530386 3.6975582 2039583
-2.1747625 -0.37495857 3.6941524 2039583
-2.1254501 -0.37470409 3.6907594 2039583
-2.0744607 -0.37578508 3.6872473 2039583
-2.0252433 -0.3754403 3.6838605 2500134
-1.976118 -0.37509567 3.680481 2960685
-1.9255016 -0.37474063 3.6769993 2434341
-1.8749801 -0.37438652 3.6735239 2039583
-1.8243254 -0.37527978 3.6700346 2039583
-1.7742227 -0.3751986 3.6665883 2039583
-1.7239877 -0.37484509 3.6631305 2039583
-1.6738466 -0.37449181 3.6596811 2039583
-1.6240879 -0.37526 3.6562538 2039583
-1.5738462 -0.37530085 3.652796 2039583
-1.5411127 -0.37506935 3.6505456 2039583
-1.4005922 -0.3751477 3.6589127 2039583
-1.3989645 -0.3749924 3.6825609 2039583
-2.2539761 -0.32742029 3.6997349 2039583
-2.2243428 -0.32476565 3.6977026 2039583
-2.174849 -0.32446653 3.6942971 2039583
-2.1253531 -0.32426849 3.690892 2039583
-2.0745413 -0.3253876 3.6873915 2039583
-2.0253246 -0.32508874 3.6840053 2500134
-1.9761952 -0.32479042 3.6806247 2960685
-1.9257399 -0.32466462 3.6771531 2500134
-1.875052 -0.32569814 3.6736636 2039583
-1.8246243 -0.32539043 3.6701927 2039583
-1.7742919 -0.32508337 3.6667304 2039583
-1.7240548 -0.32477716 3.6632743 2039583
-1.6739119 -0.32447121 3.6598237 2039583
-1.6235819 -0.32531688 3.6563568 2039583
-1.5739074 -0.32537413 3.6529381 2039583
-1.5398518 -0.3245241 3.6505978 2039583
-1.4005728 -0.32514501 3.6586213 2039583
-1.3989364 -0.32494321 3.68239 2039583
-2.2531521 -0.27664378 3.6998179 2039583
-2.2244277 -0.27575493 3.6978433 2039583
-2.174931 -0.2755008 3.6944373 2039583
-2.1255269 -0.27524745 3.6910381 2039583
-2.0746233 -0.27498612 3.687537 2039583
-2.0240045 -0.27455842 3.6840537 2500134
-1.9748979 -0.27465105 3.6806736 2960685
-1.92548 -0.27442163 3.6772747 2434341
-1.8751249 -0.27548432 3.6738055 2039583
-1.8246952 -0.27522424 3.6703358 2039583
-1.7743624 -0.27496451 3.6668725 2039583
-1.7241219 -0.27470517 3.6634161 2039583
-1.6739773 -0.27444661 3.6599648 2039583
-1.6242546 -0.27521113 3.6565435 2039583
-1.5739685 -0.27544385 3.6530797 2039583
-1.5391358 -0.27443972 3.6506858 2039583
-1.4005252 -0.27508891 3.6587374 2039583
-1.3989207 -0.27520853 3.6820545 2039583
-2.251694 -0.22532251 3.6998591 2039583
-2.224515 -0.22520863 3.6979885 2039583
-2.1750166 -0.22500117 3.6945834 2039583
-2.1256108 -0.22479424 3.6911831 2039583
-2.0747044 -0.22458085 3.6876812 2039583
-2.0241873 -0.22549602 3.684202 2500134
-1.9747633 -0.22568673 3.6807997 2960685
-1.9257256 -0.22547986 3.6774256 2500134
-1.8751979 -0.22526667 3.6739492 2039583
-1.8247664 -0.22505391 3.6704795 2039583
-1.77443 -0.22484152 3.6670151 2039583
-1.7241888 -0.22462958 3.663559 2039583
-1.6740417 -0.22441801 3.660109 2039583
-1.6236663 -0.22526616 3.6566386 2039583
-1.5740302 -0.22550938 3.6532228 2039583
-1.5381771 -0.22535703 3.6507564 2039583
-1.4005059 -0.22509649 3.6584468 2039583
-1.3988531 -0.22515476 3.6824641 2039583
-2.2517583 -0.18854067 3.6999648 2039583
-2.2246022 -0.1746584 3.6981337 2039583
-2.1751025 -0.17449751 3.6947281 2039583
-2.1256936 -0.174337 3.6913283 2039583
-2.0747864 -0.17417149 3.6878252 2039583
-2.0236902 -0.17516707 3.6843064 2500134
-1.9748412 -0.1753715 3.680943 2960685
-1.9258006 -0.17521076 3.6775699 2500134
-1.8752713 -0.17504512 3.674093 2039583
-1.8248377 -0.17487974 3.6706219 2039583
-1.7744989 -0.17471465 3.6671581 2039583
-1.7242562 -0.17454998 3.6637008 2039583
-1.6741073 -0.17438562 3.6602502 2039583
-1.6244092 -0.17514767 3.6568289 2039583
-1.5740904 -0.17557113 3.6533635 2039583
-1.5369415 -0.17497656 3.6508088 2039583
-1.4004583 -0.17503965 3.6585634 2039583
-1.3988537 -0.17482668 3.6818819 2039583
-2.2246878 -0.12563626 3.6982751 2039583
-2.1751847 -0.12552051 3.6948693 2039583
-2.1257744 -0.12540501 3.6914685 2039583
-2.0748649 -0.12528601 3.6879654 2039583
-2.0240521 -0.12516719 3.6844692 2500134
-1.9749184 -0.12505235 3.6810873 2960685
-1.9258759 -0.12493777 3.6777134 2500134
-1.8753444 -0.1248196 3.6742365 2039583
-1.8249087 -0.12470163 3.6707659 2039583
-1.774568 -0.12458396 3.6673012 2039583
-1.7243233 -0.1244666 3.6638441 2039583
-1.6741725 -0.12434935 3.6603928 2039583
-1.6237624 -0.12519944 3.6569219 2039583
-1.5741518 -0.12562893 3.6535063 2039583
-1.5362424 -0.12489584 3.6509001 2039583
-1.4004393 -0.12505758 3.6582723 2039583
-1.3988035 -0.12508495 3.6820393 2039583
-2.2231762 -0.075075924 3.6983106 2039583
-2.1752706 -0.075008973 3.6950138 2039583
-2.1258581 -0.074939951 3.6916137 2039583
-2.0749459 -0.07486891 3.6881101 2039583
-2.0241308 -0.074797891 3.684613 2500134
-1.9749953 -0.074729286 3.6812308 2960685
-1.9259514 -0.074660733 3.6778567 2500134
-1.8754178 -0.074590176 3.6743793 2039583
-1.82498 -0.074519694 3.6709094 2039583
-1.7746366 -0.074449383 3.6674445 2039583
-1.7243901 -0.074379146 3.6639864 2039583
-1.6742378 -0.074309111 3.6605356 2039583
-1.6245568 -0.074974105 3.6571147 2039583
-1.5742127 -0.075683005 3.6536496 2039583
-1.5352409 -0.075627469 3.6509666 2039583
-1.4003917 -0.074999951 3.6583889 2039583
-1.3987701 -0.074744128 3.6819515 2039583
-2.2224903 -0.024937954 3.6984017 2039583
-2.1753561 -0.024493609 3.6951592 2039583
-2.1259415 -0.024471071 3.6917586 2039583
-2.0750275 -0.024447843 3.6882541 2039583
-2.0242105 -0.024424655 3.6847575 2500134
-1.9750727 -0.024402248 3.681376 2960685
-1.9260257 -0.024379874 3.6780007 2500134
-1.8754909 -0.024356823 3.6745231 2039583
-1.8250515 -0.024333812 3.6710522 2039583
-1.7747076 -0.024310851 3.6675868 2039583
-1.7244573 -0.024287933 3.6641293 2039583
-1.6743026 -0.024265053 3.6606784 2039583
-1.623862 -0.025022361 3.6572046 2039583
-1.5742742 -0.025733093 3.6537902 2039583
-1.5340819 -0.025239939 3.6510262 2039583
-1.4003721 -0.025028219 3.6580977 2039583
-1.3987365 -0.024405722 3.6818626 2039583
-2.2217493 0.024515968 3.6984875 2039583
-2.1754384 0.024494855 3.6952996 2039583
-2.1260221 0.024472298 3.6918988 2039583
-2.0751066 0.024449067 3.6883943 2039583
-2.0242889 0.024425898 3.6848969 2500134
-1.9751472 0.024403483 3.6815147 2960685
-1.9260997 0.024381096 3.6781399 3881787
-1.8755621 0.024358053 3.6746624 5197647
-1.8251202 0.024335036 3.6711907 5197647
-1.7747724 0.024312072 3.6677263 5197647
-1.7245228 0.024289154 3.6642687 5197647
-1.674366 0.024266267 3.660815 5197647
-1.6239295 0.024928685 3.6573467 5329233
-1.5743372 0.025734469 3.6539361 5460819
-1.5333157 0.026233038 3.6511149 5592405
-1.400339 0.025027424 3.6580112 5329233
-1.3987038 0.024404963 3.6817772 5197647
-2.2203383 0.074970253 3.6985281 5263440
-2.1746547 0.07543426 3.6953862 5329233
-2.1252873 0.074528977 3.6919861 5131854
-2.0751874 0.074877948 3.6885393 5263440
-2.0243661 0.074806981 3.6850414 5592405
-1.9752247 0.074738249 3.6816585 6316128
-1.9261737 0.074669741 3.6782842 8224125
-1.8756355 0.074599154 3.6748054 10197915
-1.8251913 0.074528664 3.6713336 10197915
-1.7748426 0.074458301 3.6678686 10197915
-1.7245896 0.074388131 3.6644094 10197915
-1.6744307 0.074318081 3.6609581 10197915
-1.6247392 0.074888892 3.6575408 10197915
-1.5743984 0.075692184 3.6540792 10197915
-1.5323068 0.0756322 3.6511805 10197915
-1.4002917 0.074994408 3.6581273 10197915
-1.3986704 0.074738577 3.6816895 10197915
-2.9208755 0.10880487 3.6990278 10197915
-2.8737934 0.10876291 3.6976013 10197915
-2.8236117 0.10871819 3.6960809 10197915
-2.775038 0.1086749 3.6946092 10197915
-2.7265031 0.10863165 3.6931388 10197915
-2.6764429 0.10858703 3.6916218 10197915
-2.6264234 0.10854246 3.6901071 10197915
-2.5764453 0.10849791 3.6885922 10197915
-2.5265079 0.10845339 3.6870787 10197915
-2.4750533 0.10840756 3.6855204 10197915
-2.4236417 0.10836174 3.6839623 10197915
-2.3738296 0.10831733 3.6824532 10197915
-2.3240585 0.108273 3.6809461 10197915
-2.274328 0.10822865 3.6794384 10197915
-2.2219453 0.10571513 3.6907301 10197915
-2.174315 0.10545058 3.6890888 10197915
-2.124846 0.10543118 3.6860723 10197915
-2.0754273 0.10529349 3.6835566 10197915
-2.0250366 0.10521307 3.6807244 10197915
-1.9752634 0.10525473 3.6776319 10197915
-1.9255661 0.10505586 3.6751888 10197915
-1.8754045 0.10497581 3.6723709 10197915
-1.8253202 0.10489596 3.6695578 10197915
-1.7753124 0.10481625 3.6667497 10197915
-1.7248789 0.10479749 3.6639075 10197915
-1.674448 0.10465271 3.6609955 10197915
-1.6244048 0.10455567 3.6575992 10197915
-1.5744334 0.10445737 3.6541593 10197915
-1.532341 0.10437453 3.6512628 10197915
-1.4002799 0.103051 3.6579764 10197915
-1.3839967 0.10605348 3.6631045 10197915
-1.3264194 0.10738388 3.6507192 10197915
-2.5673175 -1.6571281 3.7174172 2039583
-2.5253146 -1.6558414 3.7145307 2039583
-2.4769886 -1.6553169 3.7112072 2039583
-2.42541 -1.6543149 3.7076616 2039583
-2.3782177 -1.6537318 3.7045457 2039583
-2.3308206 -1.6530409 3.70137 2039583
-1.3966643 -1.6589067 3.7306767 11711154
-2.5675921 -1.6252342 3.7175236 2039583
-2.5253756 -1.6251023 3.7146194 2039583
-2.4752107 -1.6248515 3.7111688 2039583
-2.4254653 -1.6251664 3.7077453 2039583
-2.3753877 -1.6247027 3.7044501 2039583
-2.3298392 -1.6249881 3.7013795 2039583
-1.3969597 -1.6238734 3.7259767 11711154
-2.5672669 -1.5744966 3.7176409 2039583
-2.5258024 -1.575393 3.7147863 2039583
-2.4752963 -1.5746554 3.7113135 2039583
-2.4259233 -1.5753437 3.7079139 2039583
-2.3758409 -1.5746821 3.704617 2039583
-2.3294175 -1.5750115 3.7014875 2039583
-1.3969269 -1.57444 3.7258892 6842472
-2.5675828 -1.5248374 3.7178001 2039583
-2.5253379 -1.524788 3.7148938 2039583
-2.4755669 -1.5253152 3.711467 2039583
-2.4252918 -1.5247375 3.7080097 2039583
-2.3761051 -1.5254304 3.7047691 2039583
-2.3276148 -1.5246319 3.7015035 2039583
-1.3968943 -1.5250093 3.725801 2039583
-2.5676799 -1.4756066 3.7179427 2039583
-2.5255773 -1.4745657 3.7150478 2039583
-2.4760454 -1.4752917 3.7116382 2039583
-2.4246216 -1.4744371 3.7081029 2039583
-2.3749976 -1.4754045 3.7048392 2039583
-2.3270104 -1.47484 3.7015986 2039583
-1.3968819 -1.4751366 3.725409 2039583
-2.5679905 -1.4252399 3.7181022 2039583
-2.5257683 -1.4252638 3.7151971 2039583
-2.475374 -1.4246299 3.7117319 2039583
-2.4244761 -1.42536 3.7082281 2039583
-2.374347 -1.4246131 3.7049377 2039583
-2.3267465 -1.4251835 3.7017171 2039583
-1.3968321 -1.4250556 3.7255619 2039583
-2.5676646 -1.374488 3.7182205 2039583
-2.5248275 -1.3751708 3.7152705 2039583
-2.4744577 -1.3749322 3.7118063 2039583
-2.4242632 -1.3749194 3.7083528 2039583
-2.3746099 -1.3753375 3.7050912 2039583
-2.3245482 -1.3746775 3.701705 2039583
-1.3967944 -1.3751911 3.7255349 2039583
-2.5679805 -1.3248125 3.718379 2039583
-2.5239677 -1.3246219 3.7153509 2039583
-2.4744334 -1.3254861 3.7119408 2039583
-2.4242494 -1.3245643 3.7084904 2039583
-2.3750217 -1.3252333 3.7052565 2039583
-2.3250046 -1.3250664 3.7018735 2039583
-2.2977881 -1.3121457 3.7000358 2039583
-1.396757 -1.3253266 3.725508 2039583
-2.5680799 -1.275566 3.7185214 2039583
-2.5244491 -1.2745374 3.7155216 2039583
-2.4745777 -1.2750936 3.7120891 2039583
-2.4245172 -1.2752512 3.7086442 2039583
-2.374469 -1.2746538 3.7053607 2039583
-2.3254826 -1.2752579 3.7020435 2039583
-2.2978537 -1.2753931 3.7001417 2039583
-1.3967401 -1.275026 3.7251761 2039583
-2.5683928 -1.225183 3.7186816 2039583
-2.5245469 -1.2253268 3.7156641 2039583
-2.4742951 -1.22451 3.7122095 2039583
-2.4250011 -1.2253493 3.7088149 2039583
-2.374887 -1.2250531 3.7055249 2039583
-2.3247969 -1.2247227 3.702136 2039583
-2.2963922 -1.2240767 3.7001822 2039583
-1.3966944 -1.22495 3.7252688 2039583
-2.567095 -1.1749685 3.7187304 2039583
-2.5250311 -1.1754247 3.7158349 2039583
-2.474628 -1.175024 3.7123685 2039583
-2.4243162 -1.17472 3.7089074 2039583
-2.37533 -1.1753439 3.7056897 2039583
-2.3252761 -1.1749066 3.702306 2039583
-2.2955754 -1.1717845 3.7002699 2039583
-1.3966655 -1.1753156 3.7251174 2039583
-2.5667641 -1.1246915 3.7188461 2039583
-2.5243595 -1.1246977 3.7159293 2039583
-2.4749632 -1.1255337 3.7125275 2039583
-2.4248013 -1.1248107 3.7090786 2039583
-2.3747251 -1.1247571 3.7057922 2039583
-2.3257041 -1.1253754 3.7024717 2039583
-2.2949197 -1.1252309 3.7003534 2039583
-1.3966278 -1.1250213 3.7250924 2039583
-2.5668616 -1.0754311 3.7189889 2039583
-2.5248423 -1.0745959 3.7161005 2039583
-2.4745913 -1.0748404 3.7126424 2039583
-2.4249873 -1.07558 3.7092264 2039583
-2.3751626 -1.0747323 3.7059543 2039583
-2.3251259 -1.0748259 3.7025714 2039583
-2.2935553 -1.0739583 3.7004013 2039583
-1.3966024 -1.07473 3.7248781 2039583
-2.5672064 -1.0253786 3.719151 2039583
-2.5249395 -1.0253705 3.7162428 2039583
-2.4749188 -1.0244204 3.7128031 2039583
-2.424989 -1.0250095 3.7093661 2039583
-2.3752468 -1.0256385 3.7060852 2039583
-2.3255484 -1.0247121 3.7027388 2039583
-2.292815 -1.0227762 3.700491 2039583
-1.3965572 -1.0248839 3.7249742 2039583
-2.5668166 -0.97460866 3.7192638 2039583
-2.525429 -0.97535461 3.7164135 2039583
-2.4750142 -0.97523689 3.7129452 2039583
-2.4249914 -0.97443521 3.7095056 2039583
-2.3753397 -0.97500879 3.7062311 2039583
-2.3257303 -0.9755615 3.7028866 2039583
-2.2919843 -0.97505152 3.7005665 2039583
-1.3965322 -0.97503603 3.7247622 2039583
-2.5671616 -0.92454803 3.7194247 2039583
-2.5247467 -0.92461526 3.7165067 2039583
-2.4754639 -0.92541778 3.7131135 2039583
-2.4251778 -0.92519295 3.7096546 2039583
-2.3754334 -0.92437559 3.7063766 2039583
-2.3256409 -0.92498165 3.7030191 2039583
-2.2908614 -0.9248296 3.7006261 2039583
-1.3965076 -0.92519522 3.7245522 2039583
-2.5672626 -0.87527239 3.719569 2039583
-2.5252354 -0.87459224 3.7166789 2039583
-2.4748573 -0.87472123 3.7132111 2039583
-2.425657 -0.87535787 3.7098248 2039583
-2.3755243 -0.87527263 3.7065184 2039583
-2.3258202 -0.87448204 3.7031708 2039583
-2.2899082 -0.87408876 3.700701 2039583
-1.3964616 -0.87491333 3.7246468 2039583
-2.5674508 -0.82583153 3.719717 2039583
-2.525332 -0.825351 3.7168207 2039583
-2.4753032 -0.82458711 3.7133801 2039583
-2.4249845 -0.82470542 3.7099178 2039583
-2.3757572 -0.82506114 3.7066715 2039583
-2.3257182 -0.8255862 3.7032993 2039583
-2.2890503 -0.82485491 3.7007782 2039583
-1.3964281 -0.82485396 3.7245586 2039583
-2.5673769 -0.77502233 3.7198527 2039583
-2.5258169 -0.775415 3.7169919 2039583
-2.4753988 -0.77538759 3.7135227 2039583
-2.4254613 -0.77467078 3.7100892 2039583
-2.3737226 -0.7746529 3.7066779 2039583
-2.3245604 -0.77499324 3.7033582 2039583
-2.2878985 -0.77521163 3.700835 2039583
-1.3964118 -0.77501452 3.724226 2039583
-2.5675645 -0.72434193 3.7200046 2039583
-2.5251462 -0.7246623 3.7170858 2039583
-2.4758441 -0.72524434 3.713691 2039583
-2.4255543 -0.72551316 3.7102308 2039583
-2.3741994 -0.72485125 3.7068453 2039583
-2.3243153 -0.72440857 3.7034812 2039583
-2.287215 -0.72465754 3.7009273 2039583
-1.3963575 -0.72496557 3.7244434 2039583
-2.5676625 -0.67505085 3.7201476 2039583
-2.5256288 -0.67452645 3.7172573 2039583
-2.4752386 -0.67453504 3.7137892 2039583
-2.4258161 -0.67499924 3.7103882 2039583
-2.37429 -0.67573464 3.7069879 2039583
-2.3245764 -0.67512327 3.703635 2039583
-2.2861149 -0.67464101 3.7009897 2039583
-1.3963245 -0.67491186 3.7243547 2039583
-2.5675423 -0.62548739 3.7202754 2039583
-2.5255337 -0.62543762 3.7173855 2039583
-2.4756887 -0.62469113 3.7139573 2039583
-2.4255712 -0.62431371 3.7105105 2039583
-2.3743832 -0.62507892 3.7071331 2039583
-2.325031 -0.62531245 3.7038031 2039583
-2.2850676 -0.62504327 3.7010546 2039583
-1.3962954 -0.62486207 3.7242031 2039583
-2.5662446 -0.57489979 3.7203262 2039583
-2.5243812 -0.57577801 3.7174425 2039583
-2.4751546 -0.57509464 3.7140582 2039583
-2.4252584 -0.57530689 3.7106242 2039583
-2.3744767 -0.57441962 3.7072792 2039583
-2.3243968 -0.57473707 3.7038991 2039583
-2.2843869 -0.57463038 3.7011476 2039583
-1.3962749 -0.57503879 3.7239316 2039583
-2.566345 -0.52405828 3.720474 2039583
-2.5241396 -0.52499366 3.7175663 2039583
-2.4746003 -0.52516806 3.7141583 2039583
-2.4243209 -0.52575535 3.7106962 2039583
-2.374567 -0.52529144 3.7074215 2039583
-2.3248479 -0.52481622 3.7040677 2039583
-2.2831802 -0.52441001 3.7012014 2039583
-1.3962247 -0.5249927 3.724087 2039583
-2.5664442 -0.47475311 3.7206154 2039583
-2.5244055 -0.47438404 3.7177243 2039583
-2.4740252 -0.47444287 3.7142575 2039583
-2.4244165 -0.47504333 3.7108424 2039583
-2.3750215 -0.4751811 3.7075889 2039583
-2.3249366 -0.47572869 3.7042089 2039583
-2.2822356 -0.4748573 3.7012722 2039583
-1.396204 -0.47494939 3.7238154 2039583
-2.5665426 -0.42544442 3.7207587 2039583
-2.5245028 -0.42511377 3.7178662 2039583
-2.4744623 -0.4247202 3.7144244 2039583
-2.4245124 -0.42432725 3.7109895 2039583
-2.3743861 -0.42454773 3.7076874 2039583
-2.3250287 -0.42510334 3.704355 2039583
-2.2815537 -0.42453694 3.7013645 2039583
-1.3961709 -0.4249121 3.7237279 2039583
-2.5668049 -0.37583864 3.7209136 2039583
-2.5245996 -0.37583953 3.7180092 2039583
-2.474555 -0.37549156 3.7145665 2039583
-2.4246047 -0.37514415 3.7111311 2039583
-2.3748453 -0.3748132 3.7078555 2039583
-2.3251202 -0.3744742 3.7045 2039583
-2.2802444 -0.37416205 3.7014139 2039583
-1.3961291 -0.37487346 3.7237592 2039583
-2.5665858 -0.32500687 3.7210383 2039583
-2.5246992 -0.32502168 3.7181563 2039583
-2.4748204 -0.32490399 3.7147245 2039583
-2.4246976 -0.32595748 3.7112727 2039583
-2.3749363 -0.32566977 3.7079961 2039583
-2.3252079 -0.32537517 3.7046421 2039583
-2.2794039 -0.32465327 3.7014921 2039583
-1.3961003 -0.3250573 3.7236099 2039583
-2.5668435 -0.27441296 3.7211945 2039583
-2.5247991 -0.27419966 3.718303 2039583
-2.474576 -0.27414754 3.7148478 2039583
-2.4247928 -0.27522969 3.7114193 2039583
-2.3750293 -0.27498659 3.7081428 2039583
-2.3252995 -0.27473766 3.7047884 2039583
-2.279027 -0.2753683 3.7016017 2039583
-1.3960835 -0.27502474 3.723279 2039583
-2.5669422 -0.22508885 3.7213373 2039583
-2.5248952 -0.22491385 3.7184455 2039583
-2.4748461 -0.22470567 3.7150025 2039583
-2.4248886 -0.22449778 3.7115653 2039583
-2.3751233 -0.22429959 3.7082894 2039583
-2.3253922 -0.22409672 3.7049346 2039583
-2.2769873 -0.22493771 3.7016003 2039583
-1.3960166 -0.22499743 3.72368 2039583
-2.56704 -0.17576104 3.7214806 2039583
-2.5249929 -0.17562443 3.7185881 2039583
-2.4749401 -0.17546172 3.7151442 2039583
-2.4249814 -0.17529942 3.7117074 2039583
-2.3752139 -0.17514469 3.7084303 2039583
-2.3254807 -0.1749862 3.7050755 2039583
-2.2764714 -0.17443927 3.7017047 2039583
-1.3959877 -0.17518586 3.7235296 2039583
-2.5671418 -0.12488776 3.7216291 2039583
-2.5250914 -0.12479068 3.7187345 2039583
-2.4750381 -0.12467512 3.7152913 2039583
-2.4250741 -0.1260974 3.7118495 2039583
-2.3753045 -0.12598605 3.7085726 2039583
-2.3255701 -0.12587208 3.7052171 2039583
-2.2758818 -0.12575589 3.7017977 2039583
-1.3959628 -0.12494066 3.7233157 2039583
-2.5657346 -0.074152052 3.7216721 2039583
-2.5251901 -0.073952898 3.7188821 2039583
-2.4751368 -0.073884413 3.7154377 2039583
-2.4251695 -0.075353749 3.7119951 2039583
-2.3753982 -0.075287223 3.7087193 2039583
-2.3248818 -0.074797988 3.7053103 2039583
-2.2752416 -0.075567126 3.7018924 2039583
-2.2487569 -0.075111687 3.7000706 2039583
-1.39595 -0.074491411 3.7229235 2039583
-2.5657229 -0.024670245 3.7218068 2039583
-2.52529 -0.024651797 3.7190247 2039583
-2.4752309 -0.024628971 3.7155802 2039583
-2.4252656 -0.024606168 3.7121422 2039583
-2.3754919 -0.02458445 3.7088652 2039583
-2.3241491 -0.024561478 3.7053986 2039583
-2.2744594 -0.024538811 3.7019789 2039583
-2.247786 -0.020439083 3.7001543 2039583
-1.3958961 -0.024679327 3.7231386 2039583
-2.5658216 0.02467151 3.7219481 2039583
-2.5253835 0.024653066 3.7191668 2039583
-2.4753251 0.024630221 3.7157228 2039583
-2.425359 0.024607431 3.7122836 2039583
-2.3755825 0.024585715 3.7090061 2039583
-2.3242376 0.024562731 3.7055397 2039583
-2.2745464 0.024540065 3.7021205 2039583
-2.2473316 0.024527645 3.7002478 2039583
-1.3958632 0.02467856 3.7230518 5197647
-2.5659196 0.07401704 3.7220922 4802889
-2.5254829 0.073961698 3.7193096 4802889
-2.475421 0.073893197 3.7158647 4802889
-2.4252231 0.075069569 3.712414 5066061
-2.3756719 0.075296246 3.7091463 5131854
-2.3243291 0.075226031 3.7056859 5263440
-2.2746363 0.075156599 3.702265 5263440
-2.2458849 0.075606972 3.7002881 5329233
-1.395851 0.07448592 3.7226589 10197915
-2.5659781 0.10331759 3.722177 10197915
-2.5255392 0.10324034 3.7193947 10197915
-2.475477 0.10314471 3.7159493 10197915
-2.4272654 0.10417119 3.7126341 10197915
-2.3757215 0.10449472 3.709223 10197915
-2.3243818 0.10439743 3.7057698 10197915
-2.2746866 0.10430108 3.7023494 10197915
-2.2458708 0.10424519 3.7003663 10197915
-1.3860428 0.10517685 3.7349813 10197915
-1.325846 0.10712325 3.7474191 10197915
-1.2756351 0.10707872 3.7458615 6579300
-1.2254653 0.10703417 3.7443027 2039583
-1.1753367 0.1069896 3.7427435 2039583
-1.1252496 0.10694508 3.7411854 2039583
-1.0752046 0.10690058 3.7396295 2039583
-1.0252011 0.10685612 3.7380743 2039583
-0.97523892 0.1068117 3.7365203 2039583
-0.92531848 0.10676733 3.7349677 2039583
-0.87543947 0.10672297 3.7334166 2039583
-0.82560182 0.10667866 3.7318666 2500134
-0.77580553 0.10663441 3.7303178 2894892
-0.73071277 0.10659429 3.728915 2894892
-1.3934426 -1.6693788 3.7776034 11711154
-1.3935912 -1.6241336 3.77493 11579568
-1.3935313 -1.5749646 3.7752357 3026478
-1.3934978 -1.5251025 3.7751448 2039583
-1.3934649 -1.4750191 3.7750552 2039583
-1.393432 -1.4249388 3.7749653 2039583
-1.3933982 -1.3748605 3.7748749 2039583
-1.393365 -1.3247845 3.7747848 2039583
-1.3933319 -1.2747109 3.7746959 2039583
-1.393312 -1.2248623 3.7744112 2039583
-1.3932657 -1.1750205 3.7745156 2039583
-1.3932325 -1.1249541 3.7744257 2039583
-1.3931997 -1.0748901 3.7743356 2039583
-1.3931749 -1.0250543 3.7741182 2039583
-1.3931333 -0.97521782 3.7741573 2039583
-1.3931131 -0.92493987 3.7738771 2039583
-1.3930662 -0.87466228 3.7739758 2039583
-1.3930331 -0.82460988 3.7738862 2039583
-1.3930134 -0.77478135 3.773602 2039583
-1.392967 -0.72496259 3.7737062 2039583
-1.3929336 -0.67491764 3.7736166 2039583
-1.3929054 -0.6251002 3.7734637 2039583
-1.3928677 -0.57528245 3.7734375 2039583
-1.3928344 -0.52524453 3.7733481 2039583
-1.3928101 -0.47498658 3.7731309 2039583
-1.3927685 -0.42473111 3.7731671 2039583
-1.3927442 -0.37492394 3.772949 2039583
-1.3927019 -0.32512063 3.7729888 2039583
-1.3926952 -0.27509728 3.7725163 2039583
-1.3926356 -0.22507632 3.7728083 2039583
-1.3926027 -0.17505524 3.7727187 2039583
-1.3925692 -0.12503648 3.7726288 2039583
-1.3925359 -0.075020149 3.7725389 2039583
-1.3925028 -0.025006188 3.7724481 2039583
-1.3924696 0.025005387 3.7723594 5263440
-1.3924366 0.075014606 3.772269 10197915
-3.0082743 0.108619 3.7997437 10197915
-2.9743929 0.10858888 3.7986898 10197915
-2.9244087 0.10854444 3.7971354 10197915
-2.8744664 0.10850003 3.7955821 10197915
-2.8245645 0.10845566 3.79403 10197915
-2.7747035 0.10841133 3.792479 10197915
-2.7248833 0.10836706 3.7909296 10197915
-2.6751039 0.10832279 3.7893813 10197915
-2.6381953 0.10828998 3.7882335 10197915
-1.3924177 0.1031438 3.7722182 10197915
-1.3903006 -1.705013 3.8236639 11711154
-1.3906152 -1.6738036 3.8187344 11711154
-1.3905826 -1.624722 3.8186457 9276813
-1.3905504 -1.575642 3.818557 2039583
-1.390517 -1.5249822 3.8184655 2039583
-1.3904963 -1.4746346 3.8181882 2039583
-1.3904569 -1.4249363 3.8181891 2039583
-1.3904116 -1.3752363 3.8182852 2039583
-1.3903719 -1.3252162 3.8182852 2039583
-1.3903641 -1.2752035 3.8178244 2039583
-1.3903248 -1.2251924 3.8178275 2039583
-1.3902854 -1.1751804 3.8178287 2039583
-1.3902519 -1.1248558 3.8177369 2039583
-1.3902253 -1.074849 3.8175526 2039583
-1.3901925 -1.0251648 3.8174644 2039583
-1.3901526 -0.97484893 3.8174648 2039583
-1.3901068 -0.92484605 3.8175611 2039583
-1.3900995 -0.87517536 3.8170981 2039583
-1.3898406 -0.82405913 3.8202674 2039583
-1.3897756 -0.77482188 3.8206506 2039583
-1.3897346 -0.72494245 3.8206785 2039583
-1.3897064 -0.67480046 3.820509 2039583
-1.3896821 -0.62492996 3.8203022 2039583
-1.3896246 -0.57506084 3.8205621 2039583
-1.3896104 -0.52518857 3.820199 2039583
-1.3895615 -0.47506031 3.8203385 2039583
-1.389549 -0.42493591 3.8199391 2039583
-1.3895001 -0.37480855 3.82008 2039583
-1.3894806 -0.32494676 3.8197954 2039583
-1.38945 -0.27509403 3.8196661 2039583
-1.389403 -0.22471283 3.8197672 2039583
-1.3893491 -0.17458647 3.8199878 2039583
-1.3893454 -0.12527546 3.8194695 2039583
-1.3893179 -0.075699054 3.8193026 2039583
-1.3892714 -0.025317444 3.8194053 2039583
-1.3892379 0.025316633 3.819313 5329233
-1.3892181 0.075693399 3.8190289 10197915
-3.0195727 0.10862905 3.8000951 10197915
-1.3890885 0.10409927 3.8205798 10197915
-1.3220177 0.10684572 3.8492839 8882055
-1.2752768 0.10680427 3.8477907 2039583
