# .PCD v0.7 - Point Cloud Data file format
VERSION 0.7
FIELDS x y z rgb
SIZE 4 4 4 4
TYPE F F F U
COUNT 1 1 1 1
WIDTH 208
HEIGHT 1
VIEWPOINT 0 0 0 1 0 0 0
POINTS 208
DATA ascii
-0.35263962 0.11590489 0.44649878 10197915
-0.31957433 0.11591208 0.4274461 10197915
-0.27499712 0.11589549 0.42322361 10197915
-0.2250008 0.11587434 0.423132 10197915
-0.17499752 0.11585136 0.42305273 10197915
-0.12499944 0.11582968 0.4229756 10197915
-0.075014837 0.11580683 0.42354813 10197915
-0.024998898 0.11578143 0.42408594 10197915
0.024996869 0.11576174 0.42400178 10197915
0.074990809 0.11573708 0.42392755 10197915
0.12500146 0.11571416 0.42383787 10197915
0.17501029 0.11569196 0.42375124 10197915
0.22500476 0.11566749 0.42367005 10197915
0.27500534 0.1156468 0.42358881 10197915
0.31959477 0.11562157 0.42763817 10197915
0.35254455 0.11558476 0.44653642 10197915
-0.36574188 0.11587323 0.47946915 9211020
-0.32505405 0.11586218 0.47318697 10132122
-0.27500933 0.11583921 0.47311026 10197915
-0.22490311 0.1158158 0.47369233 10197915
-0.17499702 0.11579343 0.47373551 10197915
-0.1249999 0.11577082 0.47362879 10197915
-0.075206421 0.11574726 0.4738698 10197915
-0.025004184 0.11572395 0.47424832 10197915
0.025003955 0.11570236 0.47416177 10197915
0.075004801 0.11567951 0.47405875 10197915
0.12499908 0.11565666 0.47397959 10197915
0.17499876 0.11563442 0.47387558 10197915
0.22501078 0.1156117 0.47378951 10197915
0.27501592 0.11558841 0.47369152 10197915
0.32500756 0.11556559 0.47361842 10197915
0.36575213 0.1155408 0.47961673 10197915
-0.40596202 -0.21594551 0.51820624 2894892
-0.37501168 -0.21644337 0.52053511 2894892
-0.32494494 -0.2172924 0.5242961 2894892
-0.27479944 -0.21813756 0.52806515 2894892
-0.22477089 -0.21896791 0.53182602 2894892
-0.17488134 -0.21981052 0.53557372 2894892
-0.12494508 -0.2206502 0.53932625 2960685
-0.074977204 -0.22149199 0.54308289 2960685
-0.024982853 -0.22233112 0.54683721 2960685
0.0085605551 -0.22305126 0.54935837 2960685
-0.40600038 -0.17499003 0.51824653 2894892
-0.37518302 -0.17496035 0.52056342 2894892
-0.32511431 -0.17503975 0.52432376 2894892
-0.27500623 -0.17501424 0.52809131 2894892
-0.22496299 -0.17498764 0.53185529 2894892
-0.17507413 -0.17499889 0.53560185 2894892
-0.12513928 -0.17500742 0.53935528 2894892
-0.07516057 -0.17499182 0.5431152 2960685
-0.025148509 -0.17499995 0.54687262 2960685
0.008238731 -0.17516571 0.54938209 2960685
-0.40604547 -0.12500513 0.51829052 2894892
-0.37507343 -0.12500289 0.52062172 2894892
-0.32499176 -0.12499748 0.52438331 2894892
-0.27503702 -0.12500899 0.52813691 2894892
-0.22498074 -0.12498716 0.53190351 2894892
-0.17509952 -0.12501617 0.53565127 2894892
-0.12514584 -0.12499151 0.53940314 2894892
-0.075155079 -0.1250035 0.54316384 2894892
-0.02515886 -0.1249878 0.54692191 2960685
0.007877836 -0.12520948 0.54940325 2960685
-0.40604389 -0.074862815 0.51834249 2894892
-0.3751139 -0.075032234 0.52066767 2894892
-0.32506379 -0.074994221 0.52442795 2894892
-0.27504972 -0.074987225 0.52818519 2894892
-0.22499162 -0.074990906 0.53195047 2894892
-0.1750799 -0.075024709 0.53570271 2894892
-0.12516804 -0.075005777 0.53945124 2894892
-0.075194202 -0.074994288 0.5432086 2894892
-0.025134766 -0.074974686 0.54697359 2894892
0.0075829863 -0.075249195 0.54943055 2894892
-0.40591085 -0.024926996 0.51839936 2894892
-0.3749184 -0.025017321 0.52073038 2894892
-0.32502857 -0.024987357 0.52448142 2894892
-0.2750861 -0.024988091 0.5282321 2894892
-0.22504914 -0.024997149 0.53199327 2894892
-0.17514089 -0.025009139 0.53574872 2894892
-0.12514591 -0.025023023 0.53950286 2894892
-0.075143799 -0.024982076 0.54326075 2894892
-0.025170155 -0.024987437 0.54702026 2894892
0.0072304104 -0.025219863 0.54945296 2894892
-0.40594387 0.024915569 0.51844692 2894892
-0.37495646 0.025015198 0.52077496 2894892
-0.32505807 0.024990488 0.52452856 2894892
-0.2751075 0.024985585 0.52828032 2894892
-0.22507319 0.02499456 0.53204006 2894892
-0.17515811 0.025006453 0.53579593 2894892
-0.12516162 0.025020102 0.53955168 2894892
-0.075150162 0.024985049 0.54330832 2894892
-0.025169551 0.024984436 0.54706931 2894892
0.006928484 0.024840644 0.54947937 2894892
-0.40598065 0.074967511 0.51849294 2894892
-0.37502304 0.075003408 0.5208177 2894892
-0.3251543 0.074993283 0.524571 2894892
-0.27512765 0.074991614 0.52832925 2894892
-0.22504841 0.074983537 0.53209078 2894892
-0.17513083 0.075018652 0.5358454 2894892
-0.12519768 0.075007029 0.5395993 2894892
-0.075218976 0.074990943 0.54335278 2894892
-0.025146419 0.074977152 0.54711843 2894892
0.0065796585 0.07486818 0.54950279 2894892
-0.40581781 0.1087625 0.51799506 2894892
-0.37482041 0.10976367 0.51830041 2894892
-0.32490245 0.11002459 0.52113914 3223857
-0.27496359 0.11025476 0.52388293 3947580
-0.22496907 0.11037159 0.52696937 4539717
-0.17496982 0.11058744 0.52962303 5131854
-0.1249963 0.11075065 0.53216594 5723991
-0.074967816 0.11095437 0.53455281 6250335
-0.024968792 0.11110239 0.53695655 6710886
0.02037303 0.11370688 0.53015411 8750469
0.075012997 0.11562239 0.52361107 10197915
0.12500356 0.11560018 0.52352262 10197915
0.17500056 0.11557747 0.52340764 10197915
0.22523187 0.11555453 0.52380228 10197915
0.27499565 0.11553115 0.52417183 10197915
0.32502177 0.11550822 0.52405554 10197915
0.3749795 0.11548609 0.52405429 10197915
0.41236451 0.11545771 0.53399676 10197915
0.14536573 -0.25015739 0.55961519 2960685
0.1800527 -0.25076795 0.56222194 2960685
0.22726092 -0.25157133 0.56576949 2960685
0.27650651 -0.25239435 0.56946969 2960685
0.3261579 -0.25323188 0.5732013 2960685
0.37583941 -0.2540693 0.57693458 2894892
0.4255113 -0.25489891 0.58066756 2894892
0.45708317 -0.25543272 0.58304 2894892
0.033525903 -0.22323452 0.55123544 2960685
0.075020768 -0.22401108 0.55435538 2960685
0.1249679 -0.2248103 0.55810738 2960685
0.17481118 -0.22500108 0.5618512 2960685
0.22496121 -0.22500667 0.5656231 2960685
0.27505437 -0.22500451 0.56938773 2960685
0.32505536 -0.22499195 0.57314503 2894892
0.37500027 -0.22500007 0.57690042 2894892
0.42481983 -0.22500083 0.58064634 2894892
0.45701078 -0.22501014 0.58306438 2894892
0.033148509 -0.17492527 0.55125415 2960685
0.074863575 -0.17500086 0.55438972 2960685
0.12485577 -0.17499571 0.5581488 2960685
0.17482348 -0.17499761 0.56190193 2960685
0.22498661 -0.1750039 0.56567335 2960685
0.27509734 -0.17500898 0.56944072 2894892
0.3251057 -0.17499332 0.57319725 2894892
0.37502861 -0.17499891 0.57695001 2894892
0.42485616 -0.17500617 0.58069837 2894892
0.45708603 -0.17499737 0.58311957 2894892
0.032790557 -0.12492634 0.55127561 2960685
0.074884936 -0.12498931 0.55444437 2960685
0.12487764 -0.12501262 0.55819976 2960685
0.17483115 -0.12497905 0.56195152 2894892
0.22498888 -0.12501261 0.56572163 2894892
0.27510241 -0.1249929 0.56948996 2894892
0.32490847 -0.12502573 0.57323354 2894892
0.37483189 -0.1249912 0.57698458 2894892
0.42488909 -0.12498233 0.58074969 2894892
0.45709363 -0.12500212 0.58316827 2894892
0.032545954 -0.07491345 0.55130738 2894892
0.074875839 -0.075013302 0.5544883 2894892
0.12486435 -0.074996218 0.55824834 2894892
0.17488326 -0.074969068 0.56200564 2894892
0.22503717 -0.075025715 0.56577432 2894892
0.27510017 -0.075002991 0.56953847 2894892
0.32490543 -0.074970081 0.57328272 2894892
0.37487906 -0.075025871 0.57703757 2894892
0.42491248 -0.0750065 0.58079898 2894892
0.45716622 -0.074979708 0.58322388 2894892
0.03212126 -0.024917144 0.55132514 2894892
0.074909262 -0.025026599 0.55453765 2894892
0.12492768 -0.024979794 0.55830139 2894892
0.17485003 -0.024988348 0.56205374 2894892
0.22479409 -0.025033994 0.5658052 2894892
0.27494839 -0.024993472 0.56957626 2894892
0.32493514 -0.024973236 0.57333541 2894892
0.37484792 -0.02501007 0.57708383 2894892
0.42499742 -0.025026282 0.58085388 2894892
0.45717698 -0.024967019 0.58327341 2894892
0.031820022 0.025065232 0.55135238 2894892
0.074910805 0.025023045 0.55458927 2894892
0.12493907 0.024982681 0.55835021 2894892
0.1748675 0.024986897 0.56210482 2894892
0.22479258 0.025013862 0.56585473 2894892
0.27494469 0.025015179 0.56962496 2894892
0.32496661 0.024971539 0.5733875 2894892
0.37488014 0.025005886 0.57713735 2894892
0.42503449 0.025029324 0.5809052 2894892
0.4572207 0.024944 0.58332598 2894892
0.031537864 0.075055905 0.55138034 2894892
0.074899405 0.075017251 0.55463666 2894892
0.12489335 0.074995391 0.55839396 2894892
0.17492566 0.074974447 0.56215811 2894892
0.22486183 0.075030819 0.56591022 2894892
0.27467218 0.07499598 0.56965315 2894892
0.32474354 0.07497973 0.57341832 2894892
0.37497681 0.075015709 0.57719451 2894892
0.42501935 0.075015038 0.58095306 2894892
0.45728526 0.074974872 0.58337981 2894892
0.031387106 0.1080102 0.55136985 4934475
0.075113654 0.10832907 0.55449098 5592405
0.12512487 0.10868885 0.55789965 6316128
0.17509717 0.10897214 0.56115448 6974058
0.22487189 0.1092151 0.56443799 7566195
0.27493912 0.10937345 0.56767577 8026746
0.32497409 0.1096376 0.57062209 8553090
0.37510902 0.10988496 0.57343441 9013641
0.42477944 0.10998661 0.57656056 9474192
0.45701349 0.10856094 0.58275437 9605778
