# .PCD v0.7 - Point Cloud Data file format
VERSION 0.7
FIELDS x y z rgb
SIZE 4 4 4 4
TYPE F F F U
COUNT 1 1 1 1
WIDTH 1165
HEIGHT 1
VIEWPOINT 0 0 0 1 0 0 0
POINTS 1165
DATA ascii
-1.0748283 0.085205726 2.4779258 926787
-1.025461 0.08511287 2.4752257 1058628
-0.97515392 0.085018277 2.4724739 860223
-0.92495847 0.084923856 2.4697282 860481
-0.87487435 0.084829666 2.4669898 926530
-0.8249014 0.084735692 2.4642565 860737
-0.77503896 0.084641911 2.461529 992322
-0.72528666 0.084548347 2.4588079 2767699
-0.67182785 0.084226944 2.4726219 5661039
-0.62493187 0.084078588 2.4746146 8028294
-0.57752746 0.083934993 2.4761493 9935000
-0.52429765 0.083597906 2.4911964 10197915
-0.47422698 0.083504379 2.4884093 10197915
-0.42426822 0.08341106 2.4856286 10197915
-0.37442103 0.083317958 2.4828537 10197915
-0.32468501 0.083225042 2.4800854 10197915
-0.27505979 0.083132349 2.4773233 10197915
-0.22554493 0.083039857 2.4745665 10197915
-0.17511246 0.082945652 2.4717598 10197915
-0.12479347 0.082851678 2.4689591 10197915
-0.074589185 0.08275789 2.4661644 10197915
-0.024497651 0.082664348 2.4633758 10197915
0.025479982 0.08257097 2.4605942 10197915
0.075345635 0.08247783 2.4578187 10197915
0.12768155 0.082143568 2.4728329 10197915
0.17476459 0.081994317 2.4748604 5332589
0.22068366 0.081769042 2.4828768 861763
0.27449203 0.081523433 2.4908807 992836
0.32468563 0.081430338 2.4880364 1125448
0.37476552 0.081337474 2.4851987 1191497
0.42473048 0.081244797 2.482367 1191753
0.47559831 0.081150457 2.4794848 1059399
0.52533478 0.081058212 2.4766662 795201
0.57495749 0.080966175 2.4738548 794945
0.62547719 0.080872476 2.4709918 795201
0.67487353 0.080780871 2.4681928 728894
0.72415751 0.080689453 2.4654 727865
0.77433276 0.08059641 2.4625566 795200
0.82439238 0.080503561 2.4597199 861506
0.87433678 0.080410935 2.4568894 994375
0.92659986 0.080049597 2.4739654 928069
0.97406727 0.079922765 2.4742162 993349
1.025707 0.079536587 2.4932961 927299
1.0660322 0.079462364 2.4909692 927043
-1.4723514 0.085368767 2.5439677 2039583
-1.4244854 0.085279353 2.5413034 2039583
-1.3745505 0.085186101 2.5385239 2039583
-1.3247242 0.085093014 2.5357506 1319733
-1.2750065 0.08500015 2.5329828 862018
-1.2253975 0.084907494 2.5302219 861762
-1.1748222 0.084813021 2.5274065 730434
-1.1243582 0.084718756 2.5245974 861507
-1.0750769 0.084626712 2.5218546 927299
-1.0248352 0.084532849 2.519058 992835
-0.97470385 0.084439218 2.5162673 794430
-0.92468435 0.084345788 2.5134828 926786
-0.87477458 0.084252559 2.5107048 926530
-0.82497597 0.084159546 2.5079329 992323
-0.77082372 0.083890729 2.5176275 926016
-0.7253952 0.083682038 2.5244851 992579
-0.67914051 0.0834544 2.5326157 992836
-0.624461 0.083190672 2.5418222 1059142
-0.57539064 0.083099663 2.5390413 2965847
-0.52536482 0.083006889 2.5362065 8225415
-0.47544974 0.082914323 2.5333784 10197915
-0.42564666 0.082821935 2.5305557 10197915
-0.37489784 0.082727812 2.5276799 10197915
-0.32426438 0.082633905 2.5248106 10197915
-0.27479661 0.082542159 2.5220075 10197915
-0.22543931 0.082450621 2.5192106 10197915
-0.17514437 0.08235734 2.5163605 10197915
-0.1249631 0.082264282 2.5135167 10197915
-0.074895091 0.082171418 2.5106797 10197915
-0.024939999 0.08207877 2.507849 10197915
0.027984986 0.081893899 2.5114217 10197915
0.074787326 0.081596933 2.5246956 10197915
0.12042161 0.081340037 2.5351648 10197915
0.17484057 0.081102967 2.5423985 6187381
0.22514091 0.081010357 2.5394957 927300
0.27532655 0.080917969 2.5365994 992836
0.32539782 0.080825798 2.5337098 1125447
0.37535509 0.080733843 2.530827 1191497
0.42519894 0.080642074 2.5279508 1191497
0.4749296 0.080550529 2.5250804 1125704
0.5245474 0.080459185 2.5222175 795201
0.57508266 0.080366142 2.5193014 860738
0.62550181 0.080273345 2.5163915 795201
0.67477894 0.080182619 2.5135477 794943
0.72496748 0.08009024 2.5106516 728123
0.7750414 0.079998054 2.5077622 794685
0.82499939 0.079906084 2.504879 795458
0.87605512 0.079523772 2.5237873 993862
0.92154384 0.079214059 2.538291 1060167
0.97553641 0.079012513 2.5429175 927813
1.0249326 0.078922287 2.5400133 1059142
1.0752413 0.078830384 2.5370557 926787
-1.5120287 0.084836796 2.5921178 2039583
-1.4754121 0.084768884 2.5900428 2039583
-1.4244636 0.084674403 2.5871558 2039583
-1.3747319 0.084582157 2.5843375 1908772
-1.3251092 0.084490128 2.5815258 861505
-1.2744949 0.084396251 2.5786576 795970
-1.2250891 0.084304623 2.5758579 861762
-1.1757913 0.084213182 2.5730641 861764
-1.1255081 0.084119931 2.5702152 795457
-1.0753361 0.084026881 2.5673716 927299
-1.0252745 0.083934024 2.5645347 926786
-0.97532403 0.083841398 2.5617044 860223
-0.92548347 0.083748959 2.5588803 927043
-0.87575275 0.083656728 2.5560617 926530
-0.82120496 0.083373539 2.5667646 860737
-0.77896333 0.083092839 2.5797069 926787
-0.72550166 0.082760409 2.5943556 1058628
-0.67530543 0.082667992 2.5914588 1058885
-0.62522125 0.082575791 2.5885684 1125191
-0.57524878 0.082483813 2.5856843 1125191
-0.52538741 0.082392022 2.5828068 1125191
-0.47563687 0.082300425 2.5799363 5201002
-0.42491937 0.082207054 2.5770094 9540244
-0.37431592 0.082113899 2.5740891 10197915
-0.32490057 0.082022928 2.5712373 10197915
-0.27559447 0.081932165 2.5683918 10197915
-0.22532958 0.081839629 2.5654914 10197915
-0.17517729 0.081747301 2.562597 10197915
-0.1251388 0.081655182 2.5597093 10197915
-0.075212166 0.081563279 2.556828 10197915
-0.02539859 0.081471585 2.5539539 10197915
0.024093982 0.081057802 2.5755553 10197915
0.07527484 0.080656983 2.5958421 10197915
0.12567668 0.080564916 2.5928795 10197915
0.17489445 0.080475017 2.5899861 6844795
0.22506845 0.080383368 2.5870359 927556
0.27512911 0.080291912 2.5840933 992836
0.32507518 0.08020068 2.581157 1125191
0.37490866 0.080109663 2.5782275 1191497
0.42462838 0.080018833 2.5753043 1125961
0.47529009 0.07992629 2.5723259 1191753
0.52478331 0.079835892 2.5694165 860994
0.57416397 0.079745688 2.5665135 861251
0.62448078 0.079653777 2.5635557 795201
0.67468148 0.079562068 2.5606043 794944
0.72476691 0.079470582 2.5576599 728636
0.77473718 0.079379298 2.5547223 728379
0.82909036 0.079104945 2.5647972 795457
0.87229049 0.078633592 2.591995 795715
0.92437887 0.078465141 2.594487 1060168
0.9748354 0.07837373 2.5914643 928070
1.0251745 0.07828252 2.5884485 1059398
1.0753963 0.078191526 2.5854399 992579
1.110903 0.078127138 2.5833106 992837
-1.5509708 0.084279992 2.6419911 2039583
-1.5249333 0.084232062 2.6404891 2039583
-1.4751953 0.084140509 2.637619 2039583
-1.4255652 0.08404915 2.6347549 2039583
-1.3749191 0.083955921 2.6318321 1253941
-1.3243845 0.083862893 2.628916 862019
-1.2750813 0.08377213 2.6260707 862019
-1.2247683 0.08367952 2.6231675 928069
-1.1745658 0.083587095 2.6202703 927556
-1.1244746 0.083494879 2.6173797 729664
-1.0744932 0.08340285 2.6144953 927299
-1.0246223 0.083311051 2.6116171 794944
-0.97486055 0.083219454 2.6087453 860994
-0.92520887 0.083128043 2.6058803 993092
-0.87456626 0.083034806 2.602958 926786
-0.82790303 0.08254762 2.6306829 926272
-0.7749719 0.082210086 2.6458268 992836
-0.72483712 0.082118504 2.6428792 1058628
-0.6748147 0.082027137 2.6399391 1124934
-0.62490267 0.081935957 2.6370046 1059141
-0.57510215 0.081845 2.6340771 992836
-0.52430898 0.081752218 2.6310916 993349
-0.47473076 0.081661656 2.6281762 1058629
-0.42526299 0.081571281 2.625268 1848140
-0.37480864 0.081479125 2.6223018 6779001
-0.3244682 0.08138717 2.6193426 10000793
-0.27424127 0.081295416 2.61639 10197915
-0.22412738 0.081203885 2.6134436 10197915
-0.17412625 0.081112564 2.6105039 10197915
-0.12423748 0.081021421 2.6075711 10197915
-0.074460693 0.080930494 2.604645 10197915
-0.023808084 0.080810711 2.6037338 10197915
0.02338431 0.080149978 2.6444979 10197915
0.075614482 0.080002986 2.6453366 10197915
0.12588386 0.07991191 2.6423249 10197915
0.17603891 0.079821035 2.6393206 7239295
0.22608 0.079730369 2.6363223 927813
0.27600756 0.079639912 2.6333311 927300
0.32582191 0.079549648 2.6303473 1124935
0.37552357 0.0794596 2.6273692 1191497
0.42511275 0.079369746 2.6243985 1191497
0.47458985 0.079280093 2.621434 1191753
0.52502698 0.079188712 2.6184123 993092
0.57534873 0.079097539 2.6153979 861251
0.62448734 0.07900852 2.6124539 795201
0.67457962 0.078917757 2.609453 794944
0.7245577 0.078827202 2.6064587 728380
0.77442044 0.078736864 2.6034713 793914
0.82193786 0.078510366 2.6112661 861250
0.87433141 0.077889435 2.6479988 729921
0.92481357 0.077798732 2.6449153 994118
0.9751792 0.077708259 2.6418393 993862
1.0254248 0.077617846 2.6387656 993605
1.0755564 0.077527739 2.6357024 1059398
1.1213205 0.077445522 2.6329074 926530
-1.5660248 0.083655059 2.692332 2039583
-1.5244889 0.08357919 2.6898897 2039583
-1.4749718 0.083488747 2.6869788 2039583
-1.4255627 0.083398491 2.6840744 1842981
-1.3751144 0.083306342 2.6811087 861506
-1.3247777 0.083214395 2.6781495 927555
-1.2745517 0.083122648 2.6751966 993605
-1.2244365 0.083031103 2.6722505 993861
-1.1744316 0.082939774 2.6693106 927043
-1.1245364 0.082848623 2.6663773 861507
-1.0747508 0.082757682 2.6634505 861250
-1.0250745 0.082666934 2.6605303 794431
-0.97550684 0.082576394 2.6576164 993349
-0.92492545 0.082483992 2.6546423 926529
-0.87445623 0.082391813 2.6516755 794686
-0.82170278 0.081702918 2.6934781 1058372
-0.7752369 0.081544608 2.696311 1058628
-0.7252807 0.081454106 2.6933184 1124422
-0.67543542 0.081363782 2.6903319 1058884
-0.62570041 0.081273668 2.6873524 927556
-0.57494938 0.08118172 2.6843121 993349
-0.5243122 0.081089966 2.681278 993092
-0.4749113 0.081000462 2.6783185 927043
-0.4256193 0.080911152 2.6753652 927300
-0.37531972 0.080820009 2.6723521 1059397
-0.32513255 0.080729082 2.6693449 2966103
-0.27505895 0.080638357 2.6663456 7896709
-0.22509703 0.080547825 2.6633523 10197915
-0.17524789 0.080457509 2.6603653 10197915
-0.12440607 0.080365382 2.65732 10197915
-0.074781559 0.080275483 2.6543467 10197915
-0.026367493 0.080187768 2.6514466 10197915
0.035782706 0.07939586 2.6992128 10197915
0.074851654 0.079325683 2.6968269 10197915
0.12498686 0.079235606 2.6937647 10197915
0.17500749 0.079145744 2.6907098 8028295
0.22491564 0.079056099 2.6876619 927812
0.27471 0.078966625 2.6846201 927300
0.325495 0.0788754 2.681519 1124934
0.37506297 0.078786351 2.6784918 1191497
0.42451835 0.078697503 2.6754708 1191497
0.47495791 0.078606881 2.6723905 1257546
0.52528149 0.078516491 2.6693168 1059399
0.5754894 0.078426294 2.6662505 861251
0.62558216 0.078336298 2.6631908 860737
0.67556018 0.078246519 2.6601391 729408
0.72542375 0.078156941 2.657093 662844
0.77517313 0.078067571 2.6540549 794171
0.82049888 0.077986144 2.6512864 794943
0.89022952 0.077168182 2.6995215 664129
0.92416978 0.077107683 2.6974053 862020
0.97444218 0.077018149 2.6942732 994118
1.024598 0.076928847 2.691149 993605
1.074638 0.076839745 2.6880322 1059654
1.124562 0.076750867 2.6849227 927043
1.1570635 0.076692998 2.682898 861250
-1.606403 0.083050564 2.7461061 2039583
-1.5745962 0.082992934 2.7442007 2039583
-1.5252005 0.08290343 2.7412412 2039583
-1.4747391 0.082812004 2.7382181 2039583
-1.4243882 0.082720771 2.7352018 1122616
-1.3753153 0.082631871 2.7322621 862019
-1.325184 0.082541034 2.7292583 993348
-1.275162 0.082450405 2.7262616 928069
-1.2252501 0.082359962 2.7232714 928069
-1.1742908 0.082267642 2.7202187 860994
-1.124599 0.082177602 2.7172413 926787
-1.0750171 0.082087763 2.7142708 860993
-1.0243932 0.081996053 2.7112379 794944
-0.97502935 0.081906594 2.708281 1058885
-0.92577368 0.081817351 2.7053301 794173
-0.87548292 0.081726246 2.7023165 794430
-0.84353369 0.081668347 2.7004025 1058116
-0.77203673 0.080847099 2.7485504 1058885
-0.72458613 0.08076185 2.745652 1058885
-0.67492795 0.080672652 2.7426195 1124677
-0.62422806 0.080581561 2.7395232 1058886
-0.5747906 0.08049275 2.7365038 1059142
-0.52546263 0.08040414 2.7334909 927299
-0.47509956 0.08031366 2.7304151 927043
-0.42484954 0.080223389 2.7273455 1059398
-0.37471247 0.080133304 2.7242837 1059397
-0.3246879 0.080043443 2.7212286 1058884
-0.27477533 0.079953775 2.7181802 1059397
-0.22497448 0.079864308 2.7151384 3886174
-0.17528497 0.079775043 2.7121038 8619916
-0.1257064 0.079685979 2.7090759 10197915
-0.075115874 0.079595096 2.7059863 10197915
-0.024639733 0.079504415 2.7029033 10197915
0.011187806 0.079440042 2.7007148 10197915
0.089982532 0.078593016 2.7493658 10197915
0.12518859 0.078530334 2.7471726 10197915
0.17506769 0.07844153 2.7440665 8817294
0.22483414 0.078352928 2.7409661 927812
0.27448821 0.078264505 2.7378733 927043
0.3251546 0.078174286 2.7347176 1059399
0.37570527 0.078084283 2.7315695 1191496
0.42501965 0.077996485 2.7284973 1191753
0.47533986 0.077906892 2.7253633 1257546
0.52554542 0.077817507 2.7222364 1191496
0.57452363 0.077730291 2.7191856 861251
0.62450117 0.077641316 2.7160723 861251
0.6754716 0.077550553 2.7128978 794944
0.72521925 0.077461988 2.7097991 729150
0.77485251 0.077373616 2.7067075 728379
0.82547224 0.077283494 2.7035551 794685
0.86610562 0.077211142 2.7010243 795714
0.97701854 0.076294288 2.7486207 928325
1.0248477 0.076209918 2.7455819 928069
1.0747901 0.076121829 2.742408 1059398
1.1246165 0.07603395 2.7392418 1059398
1.1688125 0.075955994 2.736433 794944
-1.6075269 0.082348041 2.7995777 2039583
-1.5751007 0.082289793 2.7975976 2039583
-1.5247443 0.082199335 2.794522 2039583
-1.4744982 0.082109079 2.7914531 1580842
-1.4243625 0.082019001 2.7883914 861762
-1.3743367 0.081929132 2.785336 861762
-1.3244202 0.081839457 2.7822874 927812
-1.2746131 0.081749976 2.7792451 928325
-1.2249148 0.081660695 2.7762098 795714
-1.1753248 0.081571594 2.773181 860994
-1.1258429 0.081482708 2.7701592 860993
-1.0752951 0.081391901 2.7670717 860481
-1.0248587 0.081301294 2.7639914 1058629
-0.9757039 0.08121299 2.7609892 860737
-0.92548996 0.081122778 2.7579224 794173
-0.87538648 0.081032768 2.7548623 926273
-0.82539481 0.080942951 2.7518091 993093
-0.79753578 0.080892913 2.7501078 1058884
-0.71207267 0.080021083 2.7993226 1124421
-0.67557555 0.079956107 2.7970493 1124678
-0.62504411 0.079866134 2.7939019 1059142
-0.57462549 0.079776362 2.7907617 1124934
-0.52548897 0.079688869 2.7877011 794944
-0.47529456 0.079599492 2.7845745 993092
-0.42521173 0.079510316 2.7814553 1059654
-0.37524197 0.079421349 2.7783422 1058884
-0.32538295 0.079332583 2.7752368 1058884
-0.27563611 0.07924401 2.7721386 1059397
-0.22484683 0.079153575 2.768975 993348
-0.17417333 0.079063348 2.7658188 1058884
-0.12476255 0.078975372 2.7627411 4674918
-0.075462453 0.078887589 2.7596705 9211794
-0.025128739 0.078797974 2.7565355 10197915
0.025090748 0.078708559 2.7534075 10197915
0.064959832 0.078637585 2.7509241 10197915
0.18437307 0.077692516 2.7989938 9277330
0.22474931 0.077621303 2.7964284 927812
0.27540711 0.077531926 2.7932088 927043
0.32480142 0.077444814 2.7900701 1124934
0.374084 0.077357881 2.7869384 1191240
0.42439878 0.077269137 2.783741 1191753
0.47459811 0.077180594 2.780551 1257546
0.52468276 0.077092245 2.7773685 1323338
0.57465273 0.077004105 2.774193 927044
0.62450856 0.076916166 2.7710249 927044
0.67425066 0.076828428 2.767864 795201
0.72500563 0.076738909 2.7646389 794944
0.77564317 0.076649569 2.761421 662586
0.82504046 0.076562367 2.7582791 728378
0.87432629 0.076475434 2.7551463 861506
0.92461628 0.076386712 2.7519507 795714
0.95251 0.076337524 2.7501783 796741
1.0806075 0.0753645 2.798666 993861
1.1258038 0.075285554 2.7957342 1059911
1.1754121 0.075198919 2.7925169 861507
1.2058014 0.075145826 2.7905459 663359
-1.6303774 0.082389109 2.8009737 2039583
-1.5132743 0.081447624 2.8492265 2039583
-1.4754649 0.081380308 2.8468714 926526
-1.4243342 0.081289276 2.8436866 927555
-1.3745301 0.0812006 2.8405848 861762
-1.3248357 0.081112102 2.8374891 928325
-1.2752486 0.08102382 2.8344007 928325
-1.2257702 0.080935717 2.8313186 860481
-1.1751963 0.080845676 2.8281686 860737
-1.1247343 0.08075583 2.8250256 795457
-1.0743846 0.080666177 2.8218899 860737
-1.0241466 0.080576725 2.8187602 1058884
-0.97401971 0.080487475 2.8156378 860480
-0.9240039 0.080398433 2.8125229 860480
-0.87409854 0.08030957 2.8094149 1058372
-0.82430339 0.080220908 2.806313 993092
-0.77461815 0.08013244 2.8032184 1058885
-0.73683298 0.080065183 2.8008649 1058886
-0.60912824 0.079092152 2.8494179 1125190
-0.57445365 0.079030991 2.8472147 993862
-0.52432466 0.07894256 2.8440289 794174
-0.47430751 0.078854337 2.8408506 1059142
-0.42440215 0.078766309 2.8376789 1059141
-0.37460807 0.078678474 2.8345149 1059141
-0.32492492 0.078590848 2.8313577 1124934
-0.2753523 0.0785034 2.8282075 1059654
-0.22471403 0.078414083 2.8249898 993348
-0.17418991 0.078324966 2.8217793 1058884
-0.12495197 0.078238115 2.81865 794687
-0.074655123 0.078149393 2.8154542 1124164
-0.024471346 0.078060873 2.8122649 5069418
0.024435315 0.077974603 2.8091571 9343123
0.074394122 0.077886492 2.8059826 10197915
0.12539846 0.077796526 2.8027415 10197915
0.16011089 0.077735312 2.8005359 10197915
0.29396722 0.076738499 2.8496895 860994
0.32443315 0.076685287 2.8477135 1124934
0.37473318 0.076597437 2.8444512 1125448
0.42491895 0.076509781 2.8411961 1191753
0.47498921 0.076422334 2.8379488 1257290
0.52494591 0.07633508 2.8347087 1389387
0.57478786 0.07624802 2.831476 993093
0.62567174 0.076159164 2.8281755 927301
0.67528534 0.076072507 2.8249576 860994
0.72478414 0.075985953 2.8217437 795201
0.7753191 0.075897686 2.8184662 728380
0.825737 0.075809643 2.815196 662585
0.87489629 0.075723775 2.8120079 860735
0.92394376 0.075638115 2.8088267 795714
0.97401738 0.07555066 2.8055789 862276
1.0239754 0.075463407 2.8023386 993862
1.0545789 0.075409949 2.800354 927813
1.1983801 0.074382216 2.8498774 993349
1.2178966 0.074348487 2.8485854 794945
-1.6651549 0.08171805 2.8586862 2039583
-1.62464 0.081645906 2.856163 2039583
-1.5743986 0.081556454 2.8530335 2039583
-1.5377033 0.081491128 2.8507478 2039583
-1.4032184 0.080492832 2.8998799 927044
-1.3759698 0.080444768 2.8981478 928069
-1.325268 0.080355324 2.8949258 993862
-1.2746776 0.080266096 2.8917115 861251
-1.22543 0.080179222 2.8885818 795201
-1.1750622 0.080090381 2.885381 860993
-1.1248047 0.080001734 2.8821871 795201
-1.0746593 0.079913273 2.8790004 860994
-1.024624 0.079825021 2.8758206 1058372
-0.97469991 0.079736955 2.8726485 860994
-0.9248848 0.079649106 2.869483 926787
-0.8751803 0.079561427 2.8663244 927300
-0.82437652 0.079471812 2.8630962 1058629
-0.77489203 0.079384536 2.8599517 1124678
-0.72551697 0.079297446 2.8568139 1124934
-0.67504954 0.079208419 2.8536069 1190727
-0.63427484 0.079136498 2.8510156 1059398
-0.46478096 0.078063689 2.8989007 1125704
-0.42477059 0.07799381 2.8963056 1125191
-0.37515774 0.07790716 2.8930881 1125190
-0.32444844 0.07781858 2.8897989 1059398
-0.27505714 0.077732332 2.8865955 993861
-0.22577617 0.077646263 2.8833995 927556
-0.17540576 0.077558279 2.8801324 927042
-0.12514937 0.077470511 2.8768728 860480
-0.075006619 0.077382937 2.8736207 860737
-0.024977097 0.077295557 2.8703759 860993
0.024939563 0.07720837 2.8671384 1322311
0.07474374 0.077121384 2.8639083 5069931
0.12443584 0.077034593 2.8606851 9343123
0.17519489 0.076945931 2.857393 10066329
0.22583815 0.076857492 2.8541081 927812
0.26932335 0.076781534 2.8512881 993092
0.44569084 0.075683363 2.8997295 1192011
0.47420874 0.075634055 2.897841 1191754
0.52403414 0.075547941 2.8945408 1323595
0.57492775 0.075459942 2.8911693 1125191
0.62570333 0.075372115 2.8878038 927301
0.67518437 0.075286575 2.884527 861251
0.72455317 0.075201236 2.8812573 795458
0.77498132 0.075114064 2.8779175 728894
0.8252936 0.075027116 2.8745856 662330
0.87548834 0.074940354 2.8712618 728635
0.92556834 0.074853793 2.8679454 927556
0.97553176 0.074767418 2.8646362 795971
1.0253808 0.07468126 2.861335 994375
1.0751144 0.074595302 2.858041 928069
1.1247343 0.074509524 2.8547549 1059654
1.17309 0.074425951 2.8515527 1059655
-0.65716082 -1.3062794 2.9352927 2039583
-0.62297285 -1.3048242 2.9273822 2039583
-0.57339317 -1.3078276 2.940254 2039583
-0.54232454 -1.3093997 2.9483232 2039583
-0.65603644 -1.277126 2.932719 2039583
-0.62576276 -1.2749218 2.9270306 2039583
-0.57486159 -1.2750885 2.9402823 2039583
-0.54338413 -1.2754406 2.9484715 2039583
-0.6522094 -1.2257656 2.9207599 2039583
-0.62587214 -1.2249568 2.9276273 2039583
-0.57515186 -1.2249495 2.9408321 2039583
-0.54470503 -1.2257791 2.9487498 2039583
-0.65125883 -1.1741536 2.9216535 2039583
-0.62482899 -1.1750555 2.9285233 2039583
-0.57510227 -1.1749594 2.9414711 2039583
-0.54593217 -1.1756231 2.9490581 2039583
-0.65133208 -1.1246972 2.9222536 2039583
-0.62497169 -1.1249702 2.9291127 2039583
-0.57531786 -1.1250567 2.9420395 2039583
-0.54723316 -1.1262903 2.9493368 2039583
-0.65143609 -1.0746607 2.9228528 2039583
-0.6251722 -1.0750308 2.9296858 2039583
-0.575468 -1.0750248 2.9426265 2039583
-0.54836071 -1.0780723 2.9496467 2039583
-0.65171689 -1.0247252 2.9237206 2039583
-0.62511891 -1.0249528 2.9303272 2039583
-0.57543856 -1.0249709 2.9432614 2039583
-0.54873574 -1.046142 2.9499488 2039583
-0.65246511 -0.97505015 2.9273305 2039583
-0.62504572 -0.97474802 2.9309733 2039583
-0.57638693 -0.97540706 2.943634 2039583
-0.65350002 -0.9248842 2.9318399 2039583
-0.62437159 -0.92503279 2.931772 2039583
-0.57666385 -0.92520326 2.9441917 2039583
-0.65427876 -0.87629396 2.9355936 2039583
-0.62439913 -0.87491161 2.9323928 2039583
-0.57795352 -0.87524033 2.9444799 2039583
-0.65097523 -0.82553762 2.926091 2039583
-0.62456346 -0.82499385 2.9329748 2039583
-0.57926559 -0.82525259 2.9447651 2039583
-0.65110892 -0.7747823 2.9266915 2039583
-0.62465668 -0.77505767 2.9335756 2039583
-0.58035815 -0.77525192 2.9451058 2039583
-0.6512394 -0.72521549 2.927278 2039583
-0.62486446 -0.72492981 2.9341488 2039583
-0.58175915 -0.72538841 2.9453654 2039583
-0.65136993 -0.67562854 2.9278646 3753552
-0.62488908 -0.67500901 2.9347672 3819087
-0.58293205 -0.67531472 2.9456873 3818570
-0.65150368 -0.62481183 2.9284658 4148828
-0.62502778 -0.62500858 2.9353561 4280668
-0.58430111 -0.62545174 2.945955 4543581
-0.65196925 -0.57425892 2.9305592 3951450
-0.62535584 -0.57498896 2.9358981 4083035
-0.58546305 -0.57537121 2.946279 4280412
-0.65362513 -0.52459258 2.9380012 3622488
-0.62509501 -0.52500463 2.9365907 3688280
-0.58676749 -0.52551138 2.946563 3885657
-0.65539503 -0.4747532 2.9459574 3360088
-0.62567729 -0.47505629 2.9370651 3491417
-0.58795601 -0.47549564 2.9468806 3623002
-0.62538946 -0.42497331 2.9377661 3031382
-0.58927023 -0.42549318 2.9471638 3096918
-0.62574881 -0.37504131 2.9382975 2702932
-0.59050983 -0.37559891 2.9474654 2768468
-0.65003246 -0.31104338 2.9327762 1979727
-0.62541014 -0.32523188 2.9390106 2177104
-0.59176326 -0.32563746 2.9477646 2177104
-0.65012807 -0.27463275 2.933207 1716812
-0.62456 -0.27495414 2.9398587 1848655
-0.59300363 -0.27578026 2.948066 1914191
-0.65025854 -0.22485487 2.9337962 1783376
-0.6251151 -0.22507651 2.9403386 1783632
-0.59425086 -0.22586019 2.9483654 1849168
-0.65038919 -0.17505725 2.9343853 1718096
-0.62476426 -0.17503524 2.9410572 1718096
-0.59554458 -0.17610592 2.948652 1783632
-0.65107524 -0.12533657 2.9374807 1586510
-0.62541586 -0.12512468 2.9415116 1586510
-0.59678102 -0.1263677 2.9489522 1586511
-0.65281391 -0.074421465 2.9453251 1257034
-0.62499052 -0.075035706 2.9422503 1257034
-0.59799635 -0.077116676 2.9492519 1257034
-0.65378284 -0.046436835 2.9496965 1256521
-0.62557787 -0.024987739 2.9427235 1125448
-0.59911042 -0.030374374 2.9495475 1125705
-0.62518561 0.024695203 2.9434471 1191497
-1.707674 0.08102984 2.9192266 2039583
-1.6750429 0.080972284 2.9171529 2039583
-1.6249254 0.080883883 2.9139683 2039583
-1.5749171 0.080795683 2.9107902 2039583
-1.5250176 0.080707654 2.9076195 1318961
-1.4752271 0.080619842 2.9044554 927811
-1.4280252 0.080536574 2.9014559 927042
-1.2501922 0.079435475 2.949842 926530
-1.2250775 0.079391606 2.9482124 860736
-1.1761762 0.079306193 2.9450409 860737
-1.1261297 0.079218782 2.9417949 794944
-1.0749471 0.079129398 2.9384754 993093
-1.0238789 0.079040185 2.935163 992579
-0.97416753 0.07895337 2.9319389 926787
-0.92456532 0.078866743 2.9287219 926530
-0.87507164 0.078780301 2.9255118 992836
-0.82568645 0.078694046 2.9223087 1124422
-0.77517927 0.078605831 2.9190328 1124934
-0.72478414 0.07851781 2.9157643 1125447
-0.67450267 0.078429997 2.912503 1125191
-0.62513381 0.065026686 2.9412773 1191497
-0.57549477 0.078257069 2.9060817 993349
-0.52554667 0.078169838 2.9028423 794687
-0.49028 0.078108229 2.9005544 993862
-0.30671388 0.076983891 2.9495578 861763
-0.27475008 0.076928645 2.9474411 860736
-0.22443095 0.07684166 2.9441085 794943
-0.17544904 0.076756999 2.9408646 794943
-0.12535493 0.076670416 2.937547 860480
-0.075372845 0.076584019 2.934237 860480
-0.025504161 0.076497808 2.9309344 860736
0.025465028 0.07640972 2.9275594 861763
0.075108007 0.076323904 2.9242711 1059140
0.12463871 0.076238289 2.9209912 1190469
0.17526285 0.076150797 2.9176388 4872552
0.22577095 0.076063499 2.914294 1453641
0.27496529 0.075978465 2.9110358 927556
0.32404888 0.075893611 2.9077849 1124678
0.37421659 0.075806901 2.9044623 1125191
0.42069954 0.075726546 2.9013839 1257290
0.63778669 0.074530758 2.949194 927814
0.67508107 0.074466988 2.9466701 927044
0.72551239 0.07438077 2.9432585 860995
0.77582705 0.074294738 2.9398546 794944
0.82602549 0.074208915 2.9364581 662587
0.87610805 0.074123301 2.9330702 662071
0.92607534 0.074037865 2.9296899 993604
0.97592747 0.073952638 2.9263175 795715
1.025665 0.073867597 2.9229524 928326
1.0752882 0.073782764 2.9195955 994118
1.1247976 0.073698118 2.9162459 993861
1.1741934 0.073613659 2.912904 1125703
1.2246479 0.073527403 2.9094908 993092
1.2562732 0.073473319 2.907351 728895
-0.51715797 -1.3110214 2.9548554 2039583
-0.47957152 -1.3131909 2.964612 2039583
-0.66137141 -1.2542826 2.9508405 2039583
-0.51900268 -1.2748845 2.9548271 2039583
-0.4802638 -1.275002 2.9649117 2039583
-0.66248423 -1.2245425 2.9558058 2039583
-0.52011967 -1.2248596 2.9551625 2039583
-0.48044962 -1.2251053 2.9654887 2039583
-0.66433209 -1.1751562 2.9640505 2039583
-0.52156401 -1.1748813 2.9554131 2039583
-0.48039088 -1.1750426 2.9661298 2039583
-0.66619039 -1.125492 2.9723413 2039583
-0.52265197 -1.1248257 2.955754 2039583
-0.48061711 -1.124964 2.9666963 2039583
-0.66805911 -1.0755509 2.9806793 2039583
-0.52407539 -1.0747639 2.956012 2039583
-0.47979221 -1.0746777 2.9675429 2039583
-0.66993839 -1.025327 2.9890635 2039583
-0.52514887 -1.0248024 2.9563587 2039583
-0.47963637 -1.0249547 2.9682064 2039583
-0.67165178 -0.97953594 2.9967086 2039583
-0.55123538 -0.97046703 2.9502451 2039583
-0.52554053 -0.97498345 2.9568777 2039583
-0.47965941 -0.97507173 2.9688241 2039583
-0.55238372 -0.92314833 2.9505384 2039583
-0.52563065 -0.92500317 2.9574773 2039583
-0.4797948 -0.92497021 2.9694164 2039583
-0.65878487 -0.85312021 2.9502068 2039583
-0.55361539 -0.87390906 2.950834 2039583
-0.5257743 -0.87494576 2.9580681 2039583
-0.47984427 -0.87491387 2.9700296 2039583
-0.65980774 -0.82505298 2.9547875 2039583
-0.55483776 -0.82403147 2.9511404 2039583
-0.52510387 -0.82473195 2.9588742 2039583
-0.47937316 -0.82528162 2.970772 2039583
-0.6616475 -0.77456999 2.9630265 2039583
-0.55609071 -0.7742548 2.951437 2039583
-0.5248006 -0.7750169 2.9595735 2039583
-0.47873712 -0.77492189 2.9715686 2039583
-0.41825774 -0.76164061 2.9856851 2039583
-0.37951043 -0.76185566 2.9948151 2039583
-0.66345447 -0.72498775 2.9711185 2105633
-0.55732238 -0.72424537 2.9517419 2039583
-0.52481049 -0.72494984 2.9602005 2039583
-0.47903213 -0.72502738 2.9721155 2039583
-0.41827378 -0.72504866 2.9861763 2039583
-0.38027972 -0.72532469 2.9950707 2039583
-0.66527134 -0.67513365 2.9792547 4149084
-0.55863214 -0.67440999 2.9520249 3884363
-0.5250724 -0.67502552 2.960758 3620934
-0.47914261 -0.67504263 2.9727135 3291969
-0.41794837 -0.67531526 2.9868934 2830905
-0.38138095 -0.67546797 2.9954066 2567476
-0.66709822 -0.62500596 2.9874363 4083035
-0.55986708 -0.62433195 2.9523306 4674909
-0.52496517 -0.62497544 2.961411 4609117
-0.47902083 -0.62503564 2.9733713 4346204
-0.41694579 -0.62503588 2.9867551 3951450
-0.38251024 -0.62570077 2.995733 3622744
-0.66893512 -0.57460207 2.9956617 3885658
-0.56112599 -0.57433152 2.9526286 4346205
-0.52539498 -0.57501113 2.96192 4346205
-0.47934306 -0.57487345 2.9739144 4214620
-0.41728172 -0.57475704 2.9873061 3754586
-0.38377962 -0.57559693 2.9960282 3425624
-0.66990095 -0.54810077 2.9999874 3819610
-0.56231046 -0.52435291 2.9529452 3951449
-0.52511966 -0.52502924 2.9626169 4017243
-0.47822243 -0.52508795 2.9748292 3754073
-0.41717058 -0.52487755 2.9880688 3359831
-0.38513422 -0.52529001 2.9963012 3228246
-0.56299973 -0.47382057 2.9533989 3623002
-0.52483243 -0.47523898 2.9633152 3557465
-0.47806445 -0.4751288 2.9754975 3491674
-0.41716984 -0.47530836 2.9888232 3294296
-0.38644862 -0.47495303 2.996587 3096918
-0.65717459 -0.4246431 2.9539561 2834261
-0.56358176 -0.42455661 2.9538646 3097174
-0.52451754 -0.42511645 2.9640265 3097174
-0.47862715 -0.424752 2.9759805 2965846
-0.4173162 -0.42514029 2.9895635 2834518
-0.38754225 -0.42494488 2.9969263 2702932
-0.65896374 -0.37426019 2.9619989 2637396
-0.56514639 -0.37446392 2.9540832 2768469
-0.52414173 -0.37512985 2.9647481 2702932
-0.47846353 -0.37488866 2.9766476 2637140
-0.41764411 -0.37463096 2.9902282 2505811
-0.38876522 -0.37524861 2.997227 2440019
-0.66071987 -0.32481256 2.9698925 2045776
-0.56602359 -0.32467282 2.9544787 2177105
-0.52483779 -0.32484969 2.9652011 2242897
-0.47834885 -0.32527709 2.9772992 2111568
-0.41758493 -0.32465422 2.9910157 2111312
-0.38998976 -0.32550976 2.9975281 2045776
-0.66248542 -0.27509853 2.9778275 1716813
-0.56768 -0.27454922 2.9546747 1914447
-0.524647 -0.27523345 2.9658697 1914447
-0.47886372 -0.27477509 2.9777954 1848654
-0.41768759 -0.27515551 2.9917443 1717070
-0.39121687 -0.27571541 2.9978299 1651277
-0.66426027 -0.22512028 2.985806 1783376
-0.56872344 -0.22489209 2.9550233 1849168
-0.52465147 -0.225015 2.9664969 1783632
-0.47875401 -0.22457585 2.9784529 1717840
-0.41667145 -0.22581759 2.9919527 1453899
-0.39241007 -0.22542423 2.9981456 1520205
-0.66604471 -0.17487133 2.9938269 1717840
-0.57002705 -0.17472354 2.9553127 1718096
-0.52496529 -0.17466922 2.9670486 1717840
-0.47884902 -0.17525321 2.9790463 1652304
-0.41634691 -0.17532244 2.9925256 1322570
-0.3938497 -0.17466719 2.9984038 1322827
-0.6671809 -0.14287794 2.9989343 1586767
-0.57128078 -0.12456953 2.9556148 1586510
-0.52496403 -0.12540492 2.9676609 1520462
-0.47868553 -0.12528116 2.9797142 1389389
-0.41683212 -0.12454271 2.9930332 1389133
-0.39498648 -0.12452466 2.9987338 1389132
-0.57252979 -0.074371904 2.9559171 1257034
-0.52507073 -0.075011849 2.9682646 1257034
-0.47930366 -0.074710235 2.9801872 1257034
-0.41671556 -0.074414134 2.9936891 1191498
-0.39626229 -0.074933775 2.9990211 1257033
-0.65462834 -0.022016363 2.9535115 1059656
-0.57378167 -0.024195643 2.956219 1059912
-0.52517724 -0.024598517 2.9688685 1059912
-0.47871023 -0.024391962 2.9809697 1059912
-0.41680035 -0.024809152 2.9942973 1059913
-0.3974489 -0.025916174 2.9993219 1125705
-0.6562404 0.024542922 2.9607844 1191497
-0.60010457 0.037888635 2.9501429 1323595
-0.57446218 0.024498902 2.9566493 1125704
-0.52528149 0.024605019 2.9694574 1191240
-0.47804806 0.024706941 2.9817576 1191497
-0.41690031 0.024816971 2.995013 1191497
-0.39858523 0.022099024 2.9996245 1191497
-1.7507514 0.080309696 2.9823062 2039583
-1.7250818 0.080264896 2.9806423 2039583
-1.6750996 0.08017759 2.9774005 2039583
-1.6252247 0.080090493 2.9741659 2039583
-1.5754594 0.080003567 2.9709377 1777445
-1.5245295 0.079914615 2.9676349 861762
-1.4749814 0.079828076 2.9644213 861763
-1.425541 0.079741731 2.9612145 861764
-1.374944 0.07965336 2.9579332 993861
-1.3244587 0.079565182 2.9546587 862533
-1.2753426 0.079479396 2.951473 795201
-1.0599668 0.07828591 2.9994431 993092
-1.0256419 0.078226581 2.99717 926530
-0.97487956 0.078138828 2.9938083 860737
-0.92423093 0.078051284 2.990454 926787
-0.87495726 0.077966116 2.9871907 1058886
-0.82579184 0.077881142 2.9839346 1124934
-0.77547652 0.07779415 2.9806025 1125191
-0.72527349 0.077707388 2.9772775 1191240
-0.67050713 0.071754158 2.9711385 1256776
-0.60034776 0.064595088 2.9504139 1191753
-0.57455319 0.063705422 2.9571192 1125447
-0.52537733 0.063914649 2.9694376 1125447
-0.47793034 0.064256504 2.9803438 1125961
-0.41796157 0.064960591 2.991003 1191497
-0.37857124 0.073365018 2.961695 1125447
-0.33133855 0.077026457 2.9511883 1125191
-0.1068716 0.075803988 2.9995754 860479
-0.074511528 0.07574866 2.9973865 860223
-0.024812391 0.075663686 2.9940238 728380
0.024775352 0.075578913 2.9906693 795457
0.074252091 0.075494319 2.9873221 1059140
0.12485049 0.075407803 2.9838989 993347
0.17533399 0.075321503 2.9804835 1058883
0.22447447 0.075237498 2.977159 927555
0.27472934 0.075151563 2.9737592 993349
0.3248705 0.075065836 2.9703672 1124677
0.37489647 0.074980296 2.9669824 1124935
0.42480952 0.074894965 2.9636056 1257546
0.47460774 0.07480976 2.9602342 1257546
0.52550405 0.07472273 2.9567897 1323851
0.57507503 0.074637972 2.9534364 1191497
0.61248356 0.074574016 2.9509056 861764
0.84630561 0.073321633 2.9996996 662586
0.87553614 0.073272251 2.9976788 727866
0.92538929 0.073187992 2.9942317 794942
0.9751271 0.073103935 2.9907925 927813
1.0247514 0.073020056 2.9873614 927556
1.0742614 0.072936393 2.9839385 1060167
1.1248618 0.072850883 2.9804397 993861
1.1753439 0.072765552 2.9769492 1059911
1.2257074 0.072680444 2.9734671 1125447
1.2699802 0.072605625 2.9704063 926787
-0.67676812 -1.3223675 3.008414 2039583
-0.67860007 -1.2747051 3.0165579 2039583
-0.6805318 -1.2244438 3.0251451 2039583
-0.68242943 -1.1750735 3.0335808 2039583
-0.68433768 -1.1254271 3.0420632 2039583
-0.68570691 -1.0898045 3.0481498 2039583
-0.6725778 -0.95478654 3.0008399 2039583
-0.6736843 -0.92521441 3.0057771 2039583
-0.67555076 -0.87533188 3.0141044 2039583
-0.67742759 -0.82517225 3.0224788 2039583
-0.67931491 -0.77473325 3.030899 2039583
-0.44633695 -0.76191407 3.026706 2039583
-0.35548055 -0.76186723 3.0010853 2039583
-0.32544264 -0.76183105 3.008925 2039583
-0.27525821 -0.76213646 3.0220153 2039583
-0.22506957 -0.76229233 3.03511 2039583
-0.18333492 -0.76253289 3.0459967 2039583
-0.68116742 -0.72522432 3.0391643 2764597
-0.446776 -0.72536337 3.0292354 2039583
-0.35606697 -0.72404462 3.0014052 2039583
-0.32536185 -0.72484034 3.0094085 2039583
-0.27545667 -0.72499555 3.0224273 2039583
-0.22506727 -0.72515422 3.0355775 2039583
-0.18433784 -0.72508317 3.0462024 2039583
-0.68284768 -0.68031538 3.0466614 4149084
-0.45012525 -0.66699082 3.0434263 4148827
-0.44504279 -0.67722976 3.023706 3291971
-0.35750881 -0.67339462 3.0016618 2567477
-0.3254216 -0.67492747 3.0100164 2370096
-0.27551219 -0.67504573 3.0230374 2237995
-0.22511855 -0.67510599 3.0361881 2106151
-0.18560913 -0.67510784 3.0464954 2040099
-0.45045084 -0.6258328 3.0456271 4083035
-0.44189364 -0.62466198 3.0128508 4083035
-0.35865986 -0.62343925 3.0019853 3425879
-0.32551023 -0.62499464 3.0106165 3294295
-0.27557084 -0.62501299 3.0236466 2965332
-0.22516987 -0.62503779 3.0367978 2702418
-0.1869812 -0.62543964 3.0467577 2505554
-0.45084602 -0.57586682 3.0482996 3754586
-0.44221234 -0.57460773 3.0152326 3820379
-0.35986826 -0.57392532 3.0022864 3294295
-0.32558742 -0.57504165 3.0112183 3162710
-0.27562329 -0.57496035 3.024256 2900052
-0.22522119 -0.57500893 3.0374088 2636882
-0.18814567 -0.5755046 3.0470769 2505554
-0.67078215 -0.52392197 3.0039334 3491160
-0.45107353 -0.54710037 3.0498378 3556696
-0.44259644 -0.5250963 3.0178514 3425623
-0.36107823 -0.52437586 3.0025904 3228246
-0.32567593 -0.52500957 3.0118194 2965332
-0.27567893 -0.52494913 3.0248661 2702675
-0.22529015 -0.52502012 3.0380135 2505554
-0.18937147 -0.52519715 3.0473847 2242383
-0.67255068 -0.47539026 3.0118542 3294039
-0.44291627 -0.47488418 3.0202396 3294553
-0.3622891 -0.47479871 3.0028932 3031381
-0.32579929 -0.47489849 3.012413 2834260
-0.27547601 -0.47478047 3.0255463 2637140
-0.22515038 -0.47526786 3.0386715 2440275
-0.1905825 -0.47491616 3.0476959 2308690
-0.67437327 -0.4253822 3.0200155 2768468
-0.44337606 -0.42457658 3.0231674 2834518
-0.36245981 -0.42497355 3.0034704 2637139
-0.32485062 -0.42487159 3.0132852 2505554
-0.27456352 -0.42497733 3.0264046 2374226
-0.22430439 -0.42525142 3.0395157 2177361
-0.19179206 -0.42465729 3.0480082 2177361
-0.67620575 -0.37510008 3.0282218 2571604
-0.4437623 -0.37480408 3.0258005 2505811
-0.36340523 -0.37542704 3.0038416 2374483
-0.32468933 -0.37465796 3.0139534 2111312
-0.27462456 -0.37502059 3.0270131 1980240
-0.2242336 -0.37527052 3.040159 1914704
-0.19298714 -0.37569273 3.0483081 1848912
-0.67804819 -0.32454625 3.0364728 1979727
-0.44414908 -0.32494491 3.0284381 2045776
-0.36462754 -0.32522002 3.0041494 1980240
-0.32469726 -0.3247138 3.0145757 1848398
-0.27470344 -0.32516295 3.0276141 1848655
-0.22422013 -0.32501793 3.0407898 1848655
-0.19413064 -0.32696956 3.0486174 1716813
-0.67985529 -0.27495813 3.0445652 1717069
-0.4445366 -0.2749989 3.03108 1782862
-0.36599773 -0.2748141 3.0044215 1651533
-0.32476246 -0.27481294 3.0151813 1651534
-0.27481732 -0.2753464 3.0282063 1717070
-0.22426553 -0.27468315 3.0414076 1717326
-0.19532616 -0.27697083 3.0489297 1519435
-0.68089843 -0.24633594 3.049237 1915218
-0.4422861 -0.2238332 3.0236375 1652304
-0.36738825 -0.2244079 3.0046887 1520205
-0.32482788 -0.22489208 3.0157876 1388363
-0.27498469 -0.22563156 3.0287867 1322570
-0.22425222 -0.22438885 3.0420384 1454155
-0.19650459 -0.22730677 3.0492425 1454155
-0.44246933 -0.17463353 3.0254791 1652303
-0.36849314 -0.17429167 3.0050249 1322570
-0.32489315 -0.17495096 3.0163927 1190472
-0.27483937 -0.17570795 3.029449 1124679
-0.2241035 -0.17457232 3.0426998 1256521
-0.19763087 -0.1786799 3.0495548 1322570
-0.6680581 -0.11817921 3.0028768 1586254
-0.44154879 -0.12732644 3.023046 1389389
-0.36971501 -0.12443668 3.0053282 1323340
-0.32495844 -0.12498994 3.0170012 1388876
-0.27489489 -0.12553084 3.0300584 1323083
-0.22471514 -0.1253954 3.0431523 1323340
-0.19837356 -0.13772415 3.0498726 1258060
-0.66959846 -0.074804537 3.0098007 1257034
-0.44037238 -0.075059094 3.0197473 1191498
-0.37099394 -0.074644879 3.0056167 1191241
-0.32502395 -0.075008698 3.0176067 1191241
-0.27495044 -0.075333335 3.0306699 1191241
-0.22498664 -0.075977176 3.0436995 1323083
-0.67136735 -0.024993388 3.0177517 1125448
-0.44075546 -0.025039043 3.0223737 1125448
-0.37221563 -0.024787121 3.0059211 1125704
-0.32508916 -0.025007384 3.0182147 993607
-0.27500603 -0.025115635 3.0312815 1191241
-0.22627042 -0.025558142 3.0439932 1191240
-0.67314565 0.025081644 3.0257449 1191497
-0.44113922 0.025068101 3.0250056 1191496
-0.37343696 0.025069335 3.0062232 1191753
-0.32515457 0.025014069 3.0188224 1191240
-0.27506143 0.025122387 3.0318933 1059142
-0.22749281 0.02488062 3.0443048 993349
-1.770779 0.079514548 3.0465176 2039583
-1.7248838 0.079435229 3.043478 2039583
-1.6738483 0.079347014 3.0400982 2039583
-1.6242307 0.079261243 3.0368123 2039583
-1.5747204 0.079175681 3.0335333 992061
-1.5253166 0.079090267 3.0302618 928324
-1.4747241 0.079002827 3.0269108 861763
-1.4242423 0.078915574 3.0235679 928069
-1.3751626 0.078830734 3.0203173 994118
-1.3249013 0.07874386 3.016989 861251
-1.2747496 0.078657165 3.0136673 860994
-1.2247093 0.078570671 3.0103536 860737
-1.1747779 0.078484356 3.0070465 926530
-1.1249572 0.078398243 3.003747 860994
-1.0841566 0.078327715 3.001045 1190470
-0.85035342 0.077075124 3.0498748 1125447
-0.82461596 0.077031106 3.0481331 1125191
-0.77450472 0.076945424 3.0447431 1190984
-0.72450382 0.076859944 3.0413604 1191496
-0.68089354 0.069795072 3.0351033 1191240
-0.45589951 0.076400712 3.0231881 1257290
-0.44201401 0.065433323 3.0258579 1257289
-0.37444794 0.063675739 3.0064423 1191497
-0.32515448 0.063781582 3.0188022 1125190
-0.27504471 0.0639681 3.0304911 794688
-0.22786625 0.06442862 3.0406723 728895
-0.17424539 0.075919166 3.0041337 860481
-0.13180128 0.075846612 3.0012619 860737
0.133892 0.074525744 3.0489614 993347
0.17415054 0.074457705 3.0461783 993347
0.22437429 0.07437285 3.042706 927555
0.27448362 0.074288145 3.0392408 993862
0.32447889 0.074203625 3.0357831 1058885
0.37436029 0.074119255 3.032331 1124934
0.42412883 0.074035138 3.0288901 1257546
0.47502398 0.073949128 3.0253713 1257803
0.52580196 0.073863313 3.0218606 1389387
0.5752275 0.073779777 3.0184426 1257546
0.6245414 0.073696442 3.0150332 927557
0.67497224 0.073611207 3.0115464 993093
0.72528732 0.073526166 3.0080674 861507
0.77548563 0.073441327 3.0045962 795458
0.82190949 0.073362872 3.0013866 728637
1.0941511 0.072016895 3.0496998 994631
1.1249291 0.071965493 3.0475233 1059911
1.1753186 0.071881369 3.0439613 1059654
1.2243655 0.071799487 3.0404937 1191496
1.2745221 0.071715757 3.036948 1124678
1.3087131 0.071658671 3.0345304 860738
-0.69398957 -1.3625088 3.073647 2039583
-0.69544017 -1.3257896 3.0800717 2039583
-0.69741446 -1.2758081 3.0888166 2039583
-0.69916314 -1.2315459 3.096561 2039583
-0.68666905 -1.0647756 3.0524266 2039583
-0.68818647 -1.0252966 3.0591717 2039583
-0.69012713 -0.97480786 3.0677981 2039583
-0.69203198 -0.92524683 3.0762668 2039583
-0.69394749 -0.87540925 3.0847814 2039583
-0.69587368 -0.82529724 3.0933435 2039583
-0.69710034 -0.7933839 3.0987966 2039583
-0.45836091 -0.7617256 3.072803 2039583
-0.15853614 -0.76184386 3.0524762 2039583
-0.12429468 -0.76244003 3.0614047 2039583
-0.075126968 -0.762694 3.0742309 2039583
-0.025618311 -0.76296979 3.0871456 2039583
0.011411002 -0.7626707 3.0968127 2039583
-0.45842192 -0.72530842 3.0738807 2039583
-0.15967762 -0.72506696 3.0526376 2039583
-0.12443767 -0.72487926 3.0618355 2039583
-0.075199127 -0.72499704 3.074682 2039583
-0.025487078 -0.72503245 3.0876546 2039583
0.010921623 -0.72582281 3.0971444 2039583
-0.68380499 -0.65473336 3.0509324 4148828
-0.4588992 -0.67558157 3.0768609 3951190
-0.16076644 -0.67515874 3.0529776 2039842
-0.12432009 -0.67497504 3.0624888 1974047
-0.075276047 -0.6750524 3.0752857 2039583
-0.025769429 -0.67495871 3.0882053 2039583
0.0097958529 -0.67579824 3.0974753 2039583
-0.68490285 -0.62538987 3.0558314 4017499
-0.45930591 -0.62514669 3.0795879 4083035
-0.1620449 -0.62465185 3.0532744 2374482
-0.12420165 -0.6250484 3.063144 2111568
-0.074999847 -0.6250208 3.0759828 1979980
-0.025386525 -0.6249975 3.0889292 1848136
0.0085578272 -0.62585729 3.0977755 1650244
-0.68678612 -0.57505983 3.0642338 3754073
-0.45971352 -0.57462251 3.0823209 3754330
-0.16308567 -0.57456654 3.0536287 2374225
-0.12438551 -0.57503849 3.0637207 2111568
-0.075265326 -0.57503593 3.0765378 1914446
-0.025727263 -0.57501328 3.0894654 1848910
0.0073647243 -0.57595378 3.098088 1717581
-0.6886797 -0.52445447 3.0726819 3491160
-0.45737812 -0.52385837 3.0745442 3557208
-0.16444139 -0.52494538 3.053894 2045518
-0.12468591 -0.52513695 3.0642653 1913933
-0.075401403 -0.5249657 3.077127 1782605
-0.025543772 -0.5249455 3.0901375 1651276
0.0061935093 -0.52585196 3.0984085 1519691
-0.6905371 -0.4748126 3.0809696 3096918
-0.45712313 -0.47639006 3.0746655 3229016
-0.16586521 -0.47527826 3.0541415 2177361
-0.12430646 -0.47502086 3.0649893 2045776
-0.074914575 -0.47486728 3.0778794 1914447
-0.025554329 -0.47498435 3.0907567 1717326
0.0049856505 -0.47584143 3.0987167 1585740
-0.69240463 -0.42490226 3.0893013 2702932
-0.45490846 -0.42511156 3.0673635 2768725
-0.16691127 -0.42502373 3.0544963 2111569
-0.12424362 -0.42488462 3.0656314 2046033
-0.075531423 -0.42523271 3.0783381 1980497
-0.025838835 -0.42488062 3.0913095 1651533
0.003806192 -0.42538112 3.0990386 1388362
-0.69409388 -0.37975562 3.0968382 2571604
-0.45538107 -0.37523192 3.0703299 2506067
-0.16813205 -0.37439108 3.0548098 1848655
-0.12467241 -0.37518108 3.0661399 1783119
-0.075244509 -0.37502822 3.0790398 1717583
-0.025300469 -0.37487084 3.0920739 1717582
0.0025681823 -0.37493342 3.0993454 1586254
-0.45578375 -0.32463869 3.0730453 1979983
-0.16908662 -0.32438669 3.0551846 1651020
-0.12460902 -0.3251335 3.0667818 1585484
-0.074970186 -0.32486722 3.0797374 1519948
-0.025902454 -0.32499018 3.0925395 1519948
0.0012841417 -0.32488707 3.0996351 1454411
-0.45610663 -0.27458307 3.0754421 1782862
-0.17077714 -0.27502701 3.0553596 1322056
-0.12435906 -0.27467814 3.0674753 1322056
-0.075560421 -0.27517933 3.0802045 1256264
-0.025294973 -0.27499825 3.0933211 1256264
0.001284281 -0.29795319 3.0999713 1256520
-0.68180871 -0.22135833 3.053313 1717840
-0.45665213 -0.2250964 3.0786786 1718096
-0.17172912 -0.22501335 3.0557361 1454411
-0.12471262 -0.22517146 3.0680025 1520204
-0.075290114 -0.22464244 3.0809042 1519948
-0.026978638 -0.2252609 3.093504 1454411
-0.68349874 -0.17498466 3.0608819 1717840
-0.45689514 -0.17550471 3.0807602 1652303
-0.17294806 -0.17439279 3.0560486 1323083
-0.12457027 -0.17543975 3.06866 1388619
-0.075305164 -0.17489864 3.081522 1388619
-0.027552299 -0.17528048 3.0939777 1454668
-0.68533516 -0.12459502 3.0691056 1586254
-0.45737156 -0.1251972 3.0837505 1389389
-0.44866395 -0.11374487 3.0506358 1389132
-0.17384233 -0.12426663 3.056442 1454925
-0.1245957 -0.1246129 3.069288 1323340
-0.075320244 -0.12513475 3.0821402 1389132
-0.029325407 -0.12539114 3.0941379 1389132
-0.68713504 -0.075204857 3.0771658 1191498
-0.45784891 -0.074787609 3.0867479 1191754
-0.44895959 -0.075876795 3.0526462 1191754
-0.2009192 -0.061918318 3.0501552 1323339
-0.17505428 -0.075236574 3.0567374 1389132
-0.12462057 -0.075036779 3.069901 1388875
-0.075335354 -0.075351015 3.0827572 1323082
-0.030021366 -0.075334653 3.0945818 1257290
-0.68894458 -0.025552329 3.0852695 1125449
-0.4565393 -0.029096343 3.0827861 1125705
-0.44935435 -0.02531204 3.0553308 1125448
-0.20172337 -0.020960933 3.050456 1191240
-0.17478076 -0.025332287 3.0574312 1322825
-0.12464548 -0.025440674 3.070513 1257032
-0.075350463 -0.025547242 3.0833743 1125191
-0.031735383 -0.025415929 3.094759 1059399
-0.69076353 0.024360152 3.0934155 1191241
-0.45560259 0.025527719 3.0804603 1191497
-0.44974995 0.025341731 3.0580201 1125961
-0.20285533 0.027805939 3.0507698 993093
-0.17481638 0.025339168 3.0580561 1059398
-0.12467089 0.025447598 3.071142 1059398
-0.075365938 0.02555423 3.0840096 1058885
-0.032865159 0.024498992 3.0950866 993349
-1.5712922 0.078307696 3.0986478 994117
-1.5248137 0.078228228 3.0955031 861763
-1.4744571 0.078142144 3.0920966 862020
-1.4242109 0.078056231 3.0886974 1059654
-1.3740752 0.077970512 3.0853055 993606
-1.3240494 0.07788498 3.0819211 861251
-1.274133 0.077799641 3.0785446 926274
-1.224326 0.077714466 3.0751741 860737
-1.174628 0.077629514 3.0718122 992323
-1.1250386 0.077544734 3.0684574 927044
-1.0755575 0.077460147 3.0651097 992835
-1.0248867 0.077373505 3.0616817 926273
-0.9743281 0.077287063 3.0582614 926530
-0.92517513 0.07720302 3.0549362 1058886
-0.87612873 0.077119172 3.0516176 1190727
-0.69193441 0.056485448 3.0986588 1257290
-0.45606062 0.067572057 3.0772071 1257289
-0.44997764 0.054504406 3.0595684 1192010
-0.20350529 0.06320072 3.0510418 860481
-0.17484319 0.063355684 3.0585229 860993
-0.12467075 0.063613951 3.0710864 794688
-0.075327761 0.063841559 3.0823615 794431
-0.031899285 0.063726224 3.0909317 794430
0.025320342 0.074709229 3.056468 794944
0.075883776 0.074623786 3.0529723 993347
0.10995298 0.074566208 3.0506167 993604
0.39162874 0.073189743 3.0993669 1124935
0.42468914 0.073134549 3.0970294 1257546
0.47419173 0.073051907 3.0935302 1323595
0.52484787 0.072967336 3.0899482 1389387
0.57538688 0.072882965 3.0863755 1323595
0.62580925 0.072798781 3.0828106 993606
0.67611516 0.072714791 3.0792542 993349
0.72505218 0.072633088 3.075794 927300
0.77387851 0.072551563 3.0723422 861251
0.82384366 0.072468162 3.06881 794944
0.87493831 0.072382845 3.0651975 728379
0.92591381 0.072297744 3.0615935 728377
0.97553015 0.072214916 3.0580857 993861
1.0250328 0.072132267 3.0545864 861251
1.0694902 0.072058052 3.0514431 994119
-0.71202242 -1.4032178 3.141984 2039583
-0.7130034 -1.3790717 3.1463122 2039583
-0.70020682 -1.205126 3.1011829 2039583
-0.69996929 -1.2111396 3.1001313 2039583
-0.70139736 -1.1749886 3.1064558 2039583
-0.70335788 -1.1253608 3.1151392 2039583
-0.70532954 -1.0754528 3.1238716 2039583
-0.70731199 -1.0252662 3.1326525 2039583
-0.70930594 -0.97479439 3.1414828 2039583
-0.7107715 -0.93769431 3.1479738 2039583
-0.69809479 -0.76751208 3.1032171 2039583
