# .PCD v0.7 - Point Cloud Data file format
VERSION 0.7
FIELDS x y z rgb
SIZE 4 4 4 4
TYPE F F F U
COUNT 1 1 1 1
WIDTH 1155
HEIGHT 1
VIEWPOINT 0 0 0 1 0 0 0
POINTS 1155
DATA ascii
-0.024896633 0.11365853 1.5676731 10197915
0.024904516 0.1136855 1.5680459 10197915
0.074942276 0.1137127 1.5684203 10197915
0.12500764 0.11373983 1.568795 10197915
0.17509328 0.11376701 1.5691701 10197915
0.22498755 0.11379386 1.5696952 10197915
0.27490705 0.11382121 1.5699172 10197915
0.32506427 0.11384844 1.5702927 10066329
0.37503195 0.11387555 1.5706666 10000536
0.4252373 0.1139028 1.5710429 10000536
0.47525224 0.1139297 1.5715696 10000536
0.52367902 0.11395468 1.5727441 3750201
0.55259222 0.11394334 1.5897924 2894892
-0.75397009 -0.56841356 1.603461 9605778
-0.72649616 -0.56842613 1.6282165 9605778
-0.75401092 -0.5251084 1.603515 6447714
-0.72650695 -0.52500069 1.6282932 6447714
-0.75403488 -0.47501057 1.6035988 6447714
-0.72655398 -0.47499362 1.6283609 6447714
-0.75407493 -0.4249078 1.6036676 6447714
-0.72660983 -0.42499602 1.6284167 6447714
-0.75409877 -0.37502423 1.6037521 6447714
-0.72660053 -0.37499323 1.6285266 6447714
-0.75414747 -0.3250595 1.6038136 6447714
-0.7266646 -0.32498649 1.6285745 6447714
-0.75418228 -0.27501795 1.6038878 6447714
-0.72667855 -0.27498856 1.6286685 6447714
-0.75419205 -0.22497059 1.6039841 6447714
-0.7267226 -0.22499958 1.6287353 6447714
-0.75427103 -0.17506932 1.6040184 6447714
-0.72676784 -0.17499244 1.6287986 6447714
-0.75427842 -0.12493832 1.6041176 6447714
-0.72680765 -0.12503003 1.6288669 6447714
-0.75451487 -0.07446222 1.6040106 6447714
-0.72741878 -0.074973755 1.6284245 6447714
-0.75481391 -0.025249042 1.603845 6447714
-0.72725093 -0.024979508 1.6286775 6447714
-0.7548489 0.025250595 1.6039196 6447714
-0.72728348 0.024981041 1.6287534 6447714
-0.75488299 0.075090393 1.6039931 6447714
-0.72751755 0.074984513 1.6286501 6513507
-0.7549051 0.10632549 1.6040392 10132122
-0.72648025 0.10717885 1.6283222 10132122
-0.67484349 0.11320362 1.6264068 10197915
-0.62478709 0.11323056 1.626923 10197915
-0.57471764 0.11325791 1.6271867 10197915
-0.52495253 0.11328491 1.6275712 10197915
-0.47350222 0.11332558 1.6200155 10197915
-0.42502275 0.11335388 1.6191497 10197915
-0.37525344 0.11338113 1.6193683 10197915
-0.32523569 0.11340825 1.6197557 10197915
-0.27497452 0.11343554 1.6201453 10197915
-0.22490947 0.1134624 1.6206994 10197915
-0.17504558 0.11348971 1.6209193 10197915
-0.12493368 0.11351717 1.6211379 10197915
-0.07502465 0.1135437 1.6218609 10197915
-0.025088714 0.11357106 1.6220807 10197915
0.025096701 0.11359815 1.6224681 10197915
0.074853748 0.11362512 1.6228489 10197915
0.12486285 0.11365227 1.6232409 10197915
0.17511673 0.11367925 1.6237972 10197915
0.22517027 0.11370666 1.6240178 10197915
0.27502641 0.11373371 1.6243992 10132122
0.3249023 0.11376075 1.6247901 10000536
0.3750321 0.11378769 1.6253462 10000536
0.42495322 0.11381532 1.6253942 10000536
0.47490516 0.11384188 1.6261202 10000536
0.52487725 0.11386953 1.6261684 6250335
0.55947506 0.11388001 1.6316012 2894892
-0.70112163 -0.56842184 1.6510773 9605778
-0.67501521 -0.56845939 1.6745983 9539985
-0.64818257 -0.56865579 1.6987743 9539985
-0.70114082 -0.52489167 1.6511517 6447714
-0.67507929 -0.52502805 1.6746337 6447714
-0.64820886 -0.5250423 1.6988434 6447714
-0.70119089 -0.47498137 1.6512111 6447714
-0.6750775 -0.47502616 1.6747395 6447714
-0.64822894 -0.47485709 1.6989301 6447714
-0.70120519 -0.42505905 1.6513035 6447714
-0.67511564 -0.42502043 1.674811 6447714
-0.64827842 -0.42490786 1.6989908 6447714
-0.70125568 -0.37514073 1.6513633 6447714
-0.67514962 -0.37502328 1.6748844 6447714
-0.64865983 -0.37706009 1.6987479 6447714
-0.70127887 -0.324983 1.6514479 6447714
-0.67517865 -0.32502171 1.6749648 6447714
-0.64885223 -0.32512978 1.6986841 6447714
-0.70131135 -0.27505091 1.6515241 6447714
-0.6752283 -0.2750161 1.6750246 6447714
-0.64888209 -0.27517661 1.6987621 6447714
-0.7013436 -0.22511415 1.6515996 6447714
-0.67522037 -0.22500528 1.6751369 6447714
-0.64891207 -0.22521877 1.6988406 6447714
-0.70137584 -0.17517287 1.6516759 6447714
-0.67531651 -0.17498998 1.6751558 6447714
-0.64894199 -0.1752564 1.6989189 6447714
-0.70147753 -0.12443769 1.6516912 6447714
-0.6752435 -0.12498432 1.675329 6447714
-0.6489718 -0.12528943 1.698997 6447714
-0.70193493 -0.075256117 1.6513824 6447714
-0.67548025 -0.074988611 1.6752187 6447714
-0.64900178 -0.075317815 1.6990753 6447714
-0.70196742 -0.025314443 1.6514587 6447714
-0.67525738 -0.024989244 1.675526 6447714
-0.64903152 -0.025341615 1.6991535 6447714
-0.70200026 0.025316024 1.6515363 6447714
-0.67528677 0.024990764 1.6756036 6447714
-0.64906204 0.025343193 1.6992333 6447714
-0.70203245 0.075266942 1.6516123 6447714
-0.67556816 0.074985072 1.6754565 6513507
-0.64909202 0.075328663 1.6993115 6447714
-0.70205289 0.10674504 1.6516597 10197915
-0.67467993 0.10726366 1.6744444 10132122
-0.62841547 0.11218215 1.6789569 10197915
-0.57492191 0.11317907 1.6761724 10197915
-0.52505368 0.11320669 1.6762004 10197915
-0.47516352 0.11323313 1.6769731 10197915
-0.42501467 0.1132606 1.677192 10197915
-0.37507719 0.11328766 1.6775877 10197915
-0.32511139 0.11331473 1.6779938 10197915
-0.27512607 0.11334183 1.6783895 10197915
-0.22511235 0.1133689 1.6787956 10197915
-0.17507929 0.11339602 1.6791922 10197915
-0.12773006 0.11342748 1.6759853 10197915
-0.075065821 0.1134664 1.6699384 10197915
-0.024913095 0.11349335 1.6704748 10197915
0.024920978 0.11352026 1.6708713 10197915
0.075121619 0.11354768 1.6711352 10197915
0.1253491 0.11357469 1.6716722 10197915
0.17490599 0.11360177 1.6719273 10197915
0.22448629 0.11362842 1.6724632 10197915
0.27478537 0.11365589 1.6727277 10066329
0.32510594 0.11368295 1.6732657 10000536
0.37510675 0.11371006 1.6736646 10000536
0.42478076 0.11373728 1.6739213 10000536
0.47448096 0.11376402 1.674459 10000536
0.52489871 0.11379157 1.6747246 8421504
0.56751603 0.11381279 1.6762191 2894892
-0.6237911 -0.56845587 1.7207502 9539985
-0.59597111 -0.56848985 1.7458174 9474192
-0.62381661 -0.52497327 1.7208235 6447714
-0.59600884 -0.52502471 1.745875 6447714
-0.62382638 -0.47499219 1.7209194 6447714
-0.59602463 -0.47495708 1.7459658 6447714
-0.62384963 -0.4250221 1.7209944 6447714
-0.59604579 -0.4249779 1.7460515 6447714
-0.62432897 -0.37492225 1.7206761 6447714
-0.59609526 -0.37499124 1.7461121 6447714
-0.62444192 -0.3249951 1.7206826 6447714
-0.59608883 -0.32500178 1.7462234 6447714
-0.62421167 -0.27483904 1.720986 6447714
-0.59586328 -0.27595228 1.7465304 6447714
-0.62396443 -0.22499619 1.7213188 6447714
-0.59562093 -0.22497001 1.7468559 6447714
-0.62401789 -0.17499116 1.7213819 6447714
-0.59562075 -0.17504004 1.7469614 6447714
-0.62399137 -0.12499659 1.7215011 6447714
-0.59610814 -0.12572744 1.7466258 6447714
-0.62419236 -0.074983023 1.7214273 6447714
-0.59623039 -0.075131007 1.7466222 6447714
-0.62399131 -0.02496483 1.7217227 6447714
-0.59628457 -0.025208905 1.7466788 6447714
-0.62401837 0.024966365 1.7217915 6447714
-0.59631211 0.025210464 1.7467601 6447714
-0.62427366 0.074977919 1.7216734 6513507
-0.59631294 0.07514181 1.7468643 6447714
-0.62351197 0.10691527 1.7217761 10132122
-0.58457667 0.11017419 1.7361422 10197915
-0.5251621 0.11312325 1.7281073 10197915
-0.47480136 0.11315029 1.7286742 10197915
-0.42477116 0.11317737 1.7290883 10197915
-0.37507969 0.11320452 1.7293441 10197915
-0.32535893 0.11323121 1.7299105 10197915
-0.27490276 0.11325876 1.7301772 10197915
-0.22477549 0.11328591 1.7305874 10197915
-0.17499053 0.11331261 1.7311542 10197915
-0.12231006 0.11335105 1.7254204 10197915
-0.074872985 0.11338438 1.7210532 10197915
-0.024966208 0.11341078 1.7218668 10197915
0.024974132 0.11343774 1.7222763 10197915
0.074928515 0.11346544 1.7222841 10197915
0.12491463 0.11349186 1.723098 10197915
0.17492045 0.11351962 1.7231058 10197915
0.22495046 0.11354607 1.7239207 10132122
0.27500802 0.11357379 1.7239286 10000536
0.32508191 0.11360028 1.7247438 10000536
0.37494919 0.1136276 1.7249491 10000536
0.42507365 0.11365478 1.7253672 10000536
0.47522619 0.11368195 1.7257745 10000536
0.52492094 0.11370854 1.7263891 9934743
0.57396984 0.11373443 1.7272073 3750201
0.60394591 0.11372479 1.7435609 2894892
-0.57076389 -0.56846243 1.7685317 9474192
-0.54252785 -0.56849629 1.7939698 9474192
-0.57076722 -0.52501655 1.768618 6447714
-0.5425725 -0.52491516 1.7940217 6447714
-0.57081568 -0.47501653 1.7686799 6447714
-0.54258418 -0.47495407 1.7941152 6447714
-0.57083011 -0.42501169 1.7687709 6447714
-0.5428865 -0.42560291 1.7939463 6447714
-0.5708698 -0.37500206 1.7688396 6447714
-0.54322612 -0.37500992 1.7937474 6447714
-0.57088596 -0.32500696 1.768931 6447714
-0.54325402 -0.32489645 1.7938275 6447714
-0.57091385 -0.27500829 1.7690102 6447714
-0.54327941 -0.27491474 1.7939106 6447714
-0.57091737 -0.22498444 1.7691144 6447714
-0.54327601 -0.22499579 1.7940183 6447714
-0.5709886 -0.17497641 1.7691545 6447714
-0.54336751 -0.17507385 1.7940414 6447714
-0.57147729 -0.12494043 1.7688191 6447714
-0.54334497 -0.12487456 1.7941668 6447714
-0.57164299 -0.074977838 1.7687765 6447714
-0.54337013 -0.075076781 1.7942498 6447714
-0.5715338 -0.02491728 1.7689797 6447714
-0.54339498 -0.0252744 1.794332 6447714
-0.57156128 0.024918808 1.7690601 6447714
-0.54342026 0.025275951 1.7944156 6447714
-0.57173812 0.074969515 1.7690065 6513507
-0.54344529 0.075087562 1.7944976 6447714
-0.5712021 0.10704788 1.7686808 10132122
-0.5358972 0.10905847 1.7853888 10197915
-0.47471756 0.11308025 1.7723136 10197915
-0.42488396 0.11310722 1.7727315 10197915
-0.37539878 0.11313372 1.7733189 10197915
-0.32515147 0.11316118 1.7735821 10197915
-0.2748864 0.11318811 1.7741711 10197915
-0.22495885 0.11321515 1.7745949 10197915
-0.17500752 0.11324216 1.7750183 10197915
-0.12503524 0.11326975 1.7751118 10197915
-0.075042471 0.11329624 1.7758665 10197915
-0.025019472 0.11332333 1.7762909 10197915
0.025027422 0.11335035 1.7767143 10197915
0.074726023 0.11337747 1.7769674 10197915
0.12445141 0.11340411 1.7775571 10197915
0.17493601 0.1134317 1.7778221 10197915
0.22544496 0.11345874 1.7784137 10132122
0.27524173 0.11348598 1.7786682 10000536
0.32505935 0.11351268 1.7792586 10000536
0.3752737 0.11353987 1.7796845 10000536
0.42513865 0.11356711 1.7799397 10000536
0.47503066 0.11359385 1.7805314 10000536
0.5249446 0.11362114 1.7807859 10000536
0.57488239 0.11364788 1.7813778 6184542
0.61114079 0.11366437 1.7836316 2894892
-0.51768404 -0.56850147 1.8163536 9474192
-0.48978016 -0.56846124 1.8414936 9408399
-0.51774746 -0.52502912 1.8163869 6447714
-0.48980421 -0.52499622 1.8415641 6447714
-0.51774162 -0.47500864 1.8164992 6447714
-0.49017113 -0.47542244 1.8413379 6447714
-0.51806307 -0.42479783 1.8163133 6447714
-0.49046499 -0.42501986 1.8411812 6447714
-0.51840234 -0.37503207 1.8161119 6447714
-0.49050036 -0.37499896 1.8412535 6447714
-0.51842964 -0.32504982 1.8161933 6447714
-0.49051777 -0.32497343 1.8413434 6447714
-0.51845837 -0.27503744 1.8162754 6447714
-0.49051559 -0.27494279 1.8414497 6447714
-0.51844549 -0.22502159 1.8163902 6447714
-0.49058327 -0.22500998 1.8414947 6447714
-0.5185197 -0.17497587 1.8164277 6447714
-0.49054292 -0.17502174 1.8416369 6447714
-0.51847821 -0.12497488 1.8165718 6447714
-0.49057326 -0.12497644 1.8417133 6447714
-0.51860714 -0.074872307 1.8165616 6447714
-0.49068153 -0.075186051 1.8417225 6447714
-0.51852798 -0.024862126 1.8167378 6447714
-0.49063337 -0.025180949 1.8418696 6447714
-0.51855212 0.024863634 1.8168206 6447714
-0.49065641 0.025182508 1.8419555 6447714
-0.51867843 0.074883014 1.8168132 6513507
-0.49074975 0.075196832 1.8419782 6513507
-0.51819545 0.1070399 1.8163422 10197915
-0.48527682 0.1087094 1.8342025 10197915
-0.42537776 0.1130329 1.8188077 10197915
-0.37535864 0.11305965 1.8194194 10197915
-0.32531023 0.11308701 1.8196785 10197915
-0.2752448 0.1131138 1.8202908 10197915
-0.22514682 0.11314119 1.8205498 10197915
-0.17503488 0.113168 1.8211627 10197915
-0.12526856 0.11319492 1.8215959 10197915
-0.075102091 0.11322232 1.8218559 10197915
-0.024914911 0.11324918 1.8224692 10197915
0.024922799 0.11327608 1.822902 10197915
0.07515794 0.11330345 1.8231616 10197915
0.12542048 0.11333035 1.8237756 10197915
0.17494898 0.11335744 1.8240243 10197915
0.22450109 0.11338394 1.8246382 10197915
0.27483529 0.11341144 1.8248993 10132122
0.32519034 0.11343841 1.8255147 10000536
0.37519485 0.11346544 1.8259495 10000536
0.42484006 0.11349263 1.8261995 10000536
0.47451246 0.11351927 1.8268158 10000536
0.52496523 0.11354685 1.8270777 10000536
0.57544231 0.11357386 1.8276942 8224125
0.61933947 0.11359564 1.8292884 2894892
-0.46488026 -0.56853807 1.8639284 9408399
-0.43739837 -0.56852043 1.8886917 9408399
-0.46488023 -0.52499372 1.8640212 6447714
-0.43742019 -0.52492994 1.8887632 6447714
-0.46527785 -0.47471178 1.8637688 6447714
-0.43742102 -0.47495428 1.8888658 6447714
-0.46555194 -0.42498028 1.8636265 6447714
-0.43744323 -0.42501551 1.8889523 6447714
-0.46560031 -0.3749986 1.8636887 6447714
-0.43749559 -0.37503088 1.8890094 6447714
-0.46559685 -0.32498017 1.8637967 6447714
-0.43750715 -0.32504192 1.8891039 6447714
-0.46562597 -0.27498913 1.8638755 6447714
-0.43751204 -0.2750068 1.8892057 6447714
-0.46568623 -0.22499277 1.8639268 6447714
-0.43753669 -0.22492614 1.8892895 6447714
-0.46562546 -0.17502278 1.8640864 6447714
-0.43755057 -0.17492302 1.889383 6447714
-0.46568552 -0.12504902 1.8641381 6447714
-0.43812358 -0.12528174 1.8889689 6447714
-0.4656716 -0.074914575 1.8642553 6447714
-0.43822184 -0.075127974 1.8889883 6447714
-0.46578199 -0.024903385 1.8642628 6447714
-0.43824172 -0.025043678 1.8890758 6447714
-0.46580324 0.024904937 1.8643475 6447714
-0.4382621 0.025045209 1.8891629 6447714
-0.46574545 0.074894384 1.8645042 6513507
-0.43828237 0.07513883 1.8892503 6513507
-0.46545208 0.10698697 1.8639408 10197915
-0.43419892 0.10847258 1.8824724 10197915
-0.37531644 0.11298163 1.867981 10197915
-0.32509205 0.1130088 1.8684298 10197915
-0.27484372 0.11303594 1.8688787 10197915
-0.22496723 0.11306319 1.8691326 10197915
-0.17466907 0.11309037 1.8695819 10197915
-0.12473824 0.11311705 1.8702201 10197915
-0.074781664 0.11314436 1.8704742 10197915
-0.024804771 0.11317106 1.8711129 10197915
0.024812598 0.11319785 1.8715559 10197915
0.074837111 0.11322516 1.87181 10197915
0.12488887 0.11325189 1.8724495 10197915
0.17496288 0.11327925 1.8727046 10197915
0.22506082 0.11330602 1.8733444 10197915
0.27518439 0.11333342 1.8735999 10197915
0.32532853 0.11336021 1.8742403 10132122
0.37511206 0.11338715 1.8746852 10000536
0.42530397 0.11341458 1.8749415 10000536
0.47552377 0.11344145 1.8755832 10000536
0.52498615 0.11346853 1.8758268 10066329
0.57447237 0.11349493 1.8764675 10000536
0.62476307 0.11352243 1.8767246 3487029
0.65449029 0.11351805 1.8897071 2894892
-0.41249961 -0.56856263 1.9111239 9408399
-0.3849465 -0.56860298 1.9359486 9342606
-0.41251117 -0.52503759 1.9112054 6447714
-0.38499081 -0.52505893 1.936002 6447714
-0.41255 -0.47509357 1.9112759 6447714
-0.38503149 -0.47502494 1.9360707 6447714
-0.41253585 -0.4250614 1.9113938 6447714
-0.38499382 -0.42502284 1.9362094 6447714
-0.41259918 -0.3750253 1.9114418 6447714
-0.38506702 -0.37501556 1.9362489 6447714
-0.41260684 -0.32498333 1.9115398 6447714
-0.38504514 -0.32500476 1.9363757 6447714
-0.41258851 -0.27497974 1.9116622 6447714
-0.38506979 -0.27502429 1.9364548 6447714
-0.4126631 -0.22505447 1.9117006 6447714
-0.38512823 -0.22496779 1.93651 6447714
-0.41262853 -0.17504106 1.9118361 6447714
-0.38507581 -0.174979 1.9366609 6447714
-0.41325691 -0.12472092 1.9113764 6447714
-0.38512242 -0.12498475 1.9367241 6447714
-0.41325822 -0.07502722 1.9114811 6447714
-0.38520977 -0.074843332 1.9367509 6447714
-0.41343433 -0.025106655 1.9114273 6447714
-0.38513282 -0.02487562 1.936924 6447714
-0.41346079 0.025068879 1.9115077 6447714
-0.38515049 0.02487714 1.9370174 6447714
-0.41330805 0.074998118 1.9117502 6513507
-0.38587588 0.074739315 1.9364685 6513507
-0.41333875 0.10684784 1.9111077 10197915
-0.38271362 0.10801587 1.9318621 10197915
-0.3252582 0.11292641 1.9196661 10197915
-0.27482766 0.11295396 1.9199201 10197915
-0.22516426 0.11298046 1.9205849 10197915
-0.17547877 0.11300763 1.9208322 10197915
-0.12497436 0.11303456 1.9215046 10197915
-0.074840784 0.11306164 1.921965 10197915
-0.025087606 0.11308882 1.9222126 10197915
0.025095617 0.11311592 1.9226733 10197915
0.074896209 0.11314243 1.9233385 10197915
0.12472961 0.11316969 1.9235862 10197915
0.17497754 0.11319613 1.9244668 10197915
0.22524938 0.11322396 1.924509 10197915
0.27515429 0.11325058 1.9251771 10197915
0.32507396 0.11327787 1.9254258 10197915
0.37502462 0.11330451 1.9260938 10132122
0.42499354 0.11333181 1.9263427 10000536
0.47499013 0.11335851 1.9270111 10066329
0.52500856 0.11338584 1.9272609 10197915
0.57505083 0.11341256 1.92793 10132122
0.62511891 0.11343993 1.9281802 5789784
0.66205496 0.11345499 1.9315623 2894892
-0.36020929 -0.56858808 1.9582379 9342606
-0.33201489 -0.56859159 1.9836415 9342606
-0.36021411 -0.52497441 1.9583248 6447714
-0.3320269 -0.52496201 1.983721 6447714
-0.36024395 -0.47492626 1.9584032 6447714
-0.33266446 -0.47504461 1.9832524 6447714
-0.36023489 -0.42499056 1.9585174 6447714
-0.33278134 -0.42501977 1.9832517 6447714
-0.3602787 -0.37499249 1.9585822 6447714
-0.33276829 -0.37501481 1.9833695 6447714
-0.36028573 -0.32493046 1.9586822 6447714
-0.33278012 -0.32497358 1.983464 6447714
-0.36029747 -0.27492234 1.9587755 6447714
-0.33282542 -0.27499279 1.9835287 6447714
-0.36033034 -0.22496878 1.9588518 6447714
-0.33283716 -0.22500688 1.9836223 6447714
-0.36029831 -0.17500868 1.9589857 6447714
-0.33285099 -0.17505036 1.9837148 6447714
-0.36035195 -0.12510285 1.9590434 6447714
-0.33285776 -0.12505554 1.983815 6447714
-0.36042073 -0.075253792 1.9590849 6447714
-0.33277676 -0.074923776 1.9839934 6447714
-0.36037233 -0.025162123 1.9592351 6447714
-0.33296815 -0.024924776 1.9839267 6447714
-0.36038896 0.025163673 1.9593256 6447714
-0.3329834 0.024926284 1.9840176 6447714
-0.36111206 0.075350896 1.9587802 6513507
-0.3328228 0.07493449 1.9842676 6513507
-0.36087623 0.10677993 1.9588538 10197915
-0.33078939 0.10770404 1.9812558 10197915
-0.27521464 0.11286684 1.9740379 10197915
-0.22496802 0.11289357 1.9747409 10197915
-0.17469898 0.11292108 1.9749868 10197915
-0.12522396 0.11294741 1.9756817 10197915
-0.075313278 0.11297435 1.9761528 10197915
-0.02497619 0.11300186 1.9763991 10197915
0.024984134 0.11302884 1.9768704 10197915
0.074964471 0.11305495 1.977798 10197915
0.12496089 0.11308264 1.9778128 10197915
0.17499277 0.11310965 1.978285 10197915
0.22504848 0.11313667 1.9787573 10197915
0.27511683 0.11316296 1.9796873 10197915
0.32521641 0.11319072 1.9797021 10197915
0.37493211 0.11321717 1.9804007 10197915
0.42466554 0.11324439 1.9806408 10197915
0.47484073 0.11327148 1.9811153 10197915
0.5250324 0.11329783 1.982047 10197915
0.57524753 0.11332565 1.9820626 10197915
0.6250838 0.11335219 1.982762 8487297
0.67109674 0.11337481 1.9845673 2894892
-0.30672041 -0.56856668 2.0064304 9276813
-0.27934572 -0.56864125 2.0310936 9276813
-0.30673271 -0.5249936 2.0065112 6447714
-0.27936617 -0.52502686 2.0311713 6447714
-0.30741993 -0.47479019 2.0059967 6447714
-0.27939698 -0.47504073 2.0312474 6447714
-0.30751175 -0.42492899 2.0060196 6447714
-0.27941373 -0.42504951 2.0313342 6447714
-0.3075017 -0.37491521 2.0061347 6447714
-0.27937132 -0.37502384 2.0314779 6447714
-0.30751824 -0.32497999 2.0062239 6447714
-0.2794601 -0.32502374 2.0315063 6447714
-0.30753493 -0.27504018 2.0063148 6447714
-0.27988327 -0.27523306 2.0312297 6447714
-0.30756602 -0.22493029 2.0063918 6447714
-0.28020817 -0.2250074 2.0310407 6447714
-0.3075996 -0.17473377 2.0064678 6447714
-0.28020787 -0.17502691 2.0311446 6447714
-0.30757514 -0.12469608 2.0065944 6447714
-0.28019851 -0.12501231 2.0312614 6447714
-0.30758932 -0.074821025 2.0066881 6447714
-0.28027502 -0.07514786 2.0312991 6447714
-0.30760339 -0.024941364 2.0067794 6447714
-0.28025773 -0.02515609 2.031419 6447714
-0.30761766 0.024942884 2.0068724 6447714
-0.28027073 0.025157653 2.0315127 6447714
-0.30763173 0.074831724 2.0069642 6513507
-0.28031376 0.075158685 2.0315795 6513507
-0.30764079 0.10643017 2.0070233 10197915
-0.27846989 0.1073541 2.030694 10197915
-0.22518583 0.11280178 2.0317833 10197915
-0.1751328 0.11282837 2.0325191 10197915
-0.12506999 0.11285576 2.0327556 10197915
-0.074971057 0.11288238 2.0334921 10197915
-0.024858309 0.11290982 2.0337288 10197915
0.024866179 0.11293662 2.0342116 10197915
0.075026736 0.11296317 2.0349469 10197915
0.12349866 0.11300868 2.0233388 10197915
0.1750048 0.11304077 2.021152 10197915
0.22446084 0.11306743 2.0216286 10197915
0.27477893 0.11309458 2.022114 10197915
0.32512125 0.11312173 2.0225995 10197915
0.37548769 0.11314889 2.0230851 10197915
0.42503822 0.11317561 2.0235627 10197915
0.47461274 0.11320245 2.0240424 10197915
0.52505118 0.11322966 2.0245295 10197915
0.57551378 0.11325689 2.0250158 10197915
0.62515897 0.11328366 2.0254946 10197915
0.67482769 0.11331045 2.0259738 3223857
0.70345998 0.11332589 2.0262496 2894892
-0.25438014 -0.56865895 2.0535889 9276813
-0.22724801 -0.5686208 2.0780351 9211020
-0.25439036 -0.52494991 2.0536716 6447714
-0.22732897 -0.52496612 2.078053 6447714
-0.25439173 -0.47494408 2.0537755 6447714
-0.22725657 -0.47499657 2.0782247 6447714
-0.25444514 -0.42493522 2.0538335 6447714
-0.22730537 -0.42499354 2.0782869 6447714
-0.25440457 -0.37508801 2.0539744 6447714
-0.22732431 -0.37498638 2.0783744 6447714
-0.25443736 -0.32506928 2.0540504 6447714
-0.22732233 -0.32500258 2.0784812 6447714
-0.25499597 -0.27398607 2.0536542 6447714
-0.22736287 -0.27501541 2.0785491 6447714
-0.25518623 -0.22502242 2.0535862 6447714
-0.22732201 -0.22499457 2.0786922 6447714
-0.25527585 -0.17484315 2.0536108 6447714
-0.2273331 -0.17499667 2.0787878 6447714
-0.25524881 -0.12507328 2.0537403 6447714
-0.22744095 -0.12505259 2.0787952 6447714
-0.25526053 -0.074877188 2.0538356 6447714
-0.22741902 -0.075019948 2.0789211 6447714
-0.2552723 -0.024676457 2.05393 6447714
-0.22731037 -0.024979133 2.079124 6447714
-0.25528404 0.024677951 2.0540237 6447714
-0.22732075 0.024980661 2.0792193 6447714
-0.25529578 0.074887924 2.0541191 6513507
-0.22742981 0.075002067 2.0792272 6513507
-0.2553032 0.10637774 2.0541782 10197915
-0.22706756 0.10681487 2.0786166 10197915
-0.17472793 0.11275613 2.0776217 10197915
-0.12483515 0.11278301 2.0781169 10197915
-0.074918561 0.1128099 2.0786126 10197915
-0.02497815 0.11283681 2.0791082 10197915
0.024986094 0.11286373 2.0796044 10197915
0.07497412 0.11289058 2.0800991 10197915
0.12613091 0.1129412 2.0662348 10197915
0.17501748 0.1129693 2.0656302 10197915
0.22513673 0.11299591 2.0663817 10197915
0.27485436 0.11302267 2.0668716 10197915
0.32501712 0.11305016 2.0671084 10197915
0.37521234 0.11307678 2.0678606 10197915
0.42500111 0.11310363 2.0683515 10197915
0.47523195 0.1131312 2.0685902 10197915
0.52507037 0.11315808 2.0690734 10197915
0.57449758 0.11318433 2.0698271 10197915
0.62481004 0.11321186 2.070065 10197915
0.67514271 0.11323856 2.0708191 5263440
0.71193194 0.11325272 2.0746994 2894892
-0.20194139 -0.56878442 2.1008358 9276813
-0.17518581 -0.56869799 2.1249418 9211020
-0.14866941 -0.56886077 2.148833 9211020
-0.20193096 -0.52484691 2.1009376 6447714
-0.17517036 -0.52504337 2.1250496 6447714
-0.1486754 -0.52526021 2.1489198 6447714
-0.20192623 -0.47481647 2.1010473 6447714
-0.17520961 -0.47502559 2.125119 6447714
-0.14868222 -0.47542676 2.1490188 6447714
-0.2019636 -0.42523089 2.1011183 6447714
-0.17522736 -0.42500389 2.1252096 6447714
-0.14868906 -0.42558888 2.1491172 6447714
-0.20195882 -0.37519106 2.1012275 6447714
-0.17522074 -0.37503392 2.125319 6447714
-0.14869587 -0.37574625 2.1492162 6447714
-0.20196824 -0.32471645 2.1013253 6447714
-0.17523794 -0.32505965 2.1254075 6447714
-0.14870284 -0.32500902 2.1493165 6447714
-0.20197746 -0.27510753 2.1014214 6447714
-0.17524739 -0.27502352 2.1255059 6447714
-0.14870979 -0.27426699 2.1494172 6447714
-0.20198673 -0.22549392 2.1015177 6447714
-0.17520225 -0.22501133 2.1256518 6447714
-0.14871661 -0.22441055 2.1495161 6447714
-0.20199615 -0.17500533 2.1016154 6447714
-0.17524137 -0.17505209 2.1257219 6447714
-0.14872348 -0.17454951 2.1496148 6447714
-0.20200557 -0.12451202 2.1017134 6447714
-0.1752788 -0.12497407 2.1257932 6447714
-0.14873032 -0.12468392 2.149714 6447714
-0.20201476 -0.074884705 2.1018095 6447714
-0.17516571 -0.074889921 2.1259999 6447714
-0.14873716 -0.074813709 2.1498127 6447714
-0.20202401 -0.025252841 2.1019061 6447714
-0.17537969 -0.024949344 2.1259117 6447714
-0.14874399 -0.024938922 2.1499116 6447714
-0.20203339 0.025254402 2.1020038 6447714
-0.17538753 0.024950877 2.1260104 6447714
-0.14874877 0.0097978516 2.1499803 6447714
-0.20204267 0.074895427 2.1020999 6447714
-0.17519008 0.074900538 2.1262951 6513507
-0.20242794 0.10691947 2.1018202 10197915
-0.17470047 0.10703649 2.1247523 10197915
-0.12503372 0.11270677 2.12551 10197915
-0.074859045 0.11273377 2.1260197 10197915
-0.025108369 0.11276101 2.1262422 10197915
0.025116399 0.11278801 2.1267519 10197915
0.0749145 0.11281434 2.1275399 10197915
0.12474734 0.11284158 2.1277623 10197915
0.17503534 0.11286775 2.128839 10197915
0.22534721 0.11289583 2.1287839 10197915
0.27525178 0.11292219 2.1295736 10197915
0.32516879 0.11294951 2.1297975 10197915
0.37511867 0.112976 2.1305881 10197915
0.42508551 0.11300331 2.1308119 10197915
0.47508097 0.11302985 2.1316037 10197915
0.52509773 0.1130573 2.1318285 10197915
0.57513839 0.11308374 2.1326206 10197915
0.6252051 0.11311118 2.1328449 10197915
0.67365581 0.11313885 2.1323762 8618883
0.71948689 0.11318748 2.1179044 2894892
-0.12412607 -0.56867826 2.170949 9145227
-0.095571183 -0.5686059 2.1966755 9145227
-0.12410889 -0.52494985 2.1710556 6447714
-0.095545091 -0.52494466 2.1967909 6447714
-0.12414903 -0.47495666 2.171124 6447714
-0.096322291 -0.47550133 2.1961946 6447714
-0.1241433 -0.42499095 2.1712344 6447714
-0.096467167 -0.4251318 2.1961699 6447714
-0.12414262 -0.3749567 2.1713405 6447714
-0.096423894 -0.37510255 2.1963148 6447714
-0.12411192 -0.3249492 2.1714728 6447714
-0.096476071 -0.32507864 2.1963727 6447714
-0.12419078 -0.27496985 2.1715074 6447714
-0.096432813 -0.27503806 2.196517 6447714
-0.12410795 -0.22498533 2.1716866 6447714
-0.096484974 -0.22500691 2.1965754 6447714
-0.12421571 -0.17506139 2.1716955 6447714
-0.096465364 -0.17473246 2.1966989 6447714
-0.12408839 -0.12506743 2.1719143 6447714
-0.096469827 -0.12468465 2.1968 6447714
-0.12430762 -0.075199887 2.171824 6447714
-0.096474282 -0.074632101 2.196902 6447714
-0.1241003 -0.025196496 2.1721146 6447714
-0.09647873 -0.024575002 2.1970034 6447714
-0.12462899 0.025400544 2.1717443 6447714
-0.096483096 0.024576481 2.197103 6447714
-0.1251844 0.075166106 2.1713498 6513507
-0.096487567 0.07464277 2.1972039 6579300
-0.12411451 0.10663414 2.1718156 10197915
-0.085843228 0.10952409 2.1865263 10197915
-0.025239583 0.11268122 2.1759012 10197915
0.025247697 0.1127084 2.1764257 10197915
0.074856997 0.11273503 2.1769404 10197915
0.12448989 0.11276168 2.1774542 10197915
0.17504932 0.11278886 2.1779797 10197915
0.22472964 0.11281559 2.1784956 10197915
0.27443364 0.11284237 2.1790125 10197915
0.32506543 0.11286961 2.1795385 10197915
0.37481689 0.11289638 2.1800556 10197915
0.42459208 0.11292315 2.1805727 10197915
0.47529653 0.11295044 2.1811001 10197915
0.52511925 0.11297726 2.181618 10197915
0.57496583 0.1130041 2.1821358 10197915
0.62483591 0.11303093 2.1826537 10197915
0.67745781 0.11306594 2.1790302 9276813
0.72490674 0.11311208 2.1667054 3092271
0.75551641 0.11310124 2.1840117 2894892
-0.070790686 -0.56869131 2.219002 9145227
-0.043549608 -0.56890881 2.2435455 9145227
-0.070789665 -0.52506578 2.2190938 6447714
-0.043698791 -0.52501321 2.2435036 6447714
-0.07158903 -0.47493571 2.2184811 6447714
-0.043710552 -0.47510985 2.2435975 6447714
-0.071710728 -0.42496681 2.2184761 6447714
-0.043683376 -0.42506906 2.2437279 6447714
-0.071651429 -0.37497008 2.2186341 6447714
-0.043665968 -0.37502325 2.2438483 6447714
-0.071722813 -0.32496822 2.2186751 6447714
-0.043687403 -0.32497272 2.2439363 6447714
-0.071675666 -0.27500114 2.2188222 6447714
-0.043679688 -0.27491772 2.2440479 6447714
-0.071704872 -0.22502789 2.2189021 6447714
-0.043691415 -0.22499113 2.2441418 6447714
-0.071709372 -0.17497543 2.2190049 6447714
-0.043722734 -0.17519523 2.2442191 6447714
-0.071658559 -0.124954 2.2191553 6447714
-0.043724649 -0.12539339 2.2443218 6447714
-0.071833864 -0.07481771 2.2191031 6447714
-0.043697473 -0.075317591 2.2444515 6447714
-0.071653858 -0.024825191 2.219368 6447714
-0.043699492 -0.025106909 2.2445557 6447714
-0.071657099 0.024826705 2.2194703 6447714
-0.043701515 0.025108458 2.2446597 6447714
-0.071843743 0.074828394 2.219408 6513507
-0.043703549 0.075328492 2.2447643 6579300
-0.070964687 0.10693981 2.2187872 10197915
-0.033135582 0.10971404 2.2351816 10197915
0.024927739 0.11262465 2.2284327 10197915
0.075254798 0.11265219 2.2286453 10197915
0.1256108 0.11267864 2.229501 10197915
0.17506389 0.11270579 2.2296929 10197915
0.22454058 0.11273184 2.2305536 10197915
0.27496839 0.11275948 2.2307677 10197915
0.32541573 0.11278608 2.2316267 10197915
0.37230828 0.11281626 2.2290413 10197915
0.42486206 0.11286806 2.2149479 10197915
0.47452617 0.11289478 2.2154725 10197915
0.52513438 0.11292202 2.2160068 10197915
0.57576662 0.11294923 2.2165408 10197915
0.62550211 0.11297598 2.2170663 10197915
0.67526132 0.11300276 2.217591 10197915
0.72504401 0.11302952 2.2181168 4868682
0.76193458 0.11304936 2.2185061 2894892
-0.018670276 -0.56864101 2.2659633 9079434
0.009499561 -0.56871015 2.2913432 9079434
-0.018769402 -0.52500135 2.2659645 6447714
0.0095049441 -0.52496922 2.2914405 6447714
-0.018801777 -0.47498727 2.2660413 6447714
0.0095016966 -0.47496212 2.2915432 6447714
-0.018773265 -0.42501539 2.2661719 6447714
0.0094769439 -0.42495203 2.2916262 6447714
-0.018735224 -0.37499255 2.2663114 6447714
0.0095061315 -0.37502989 2.2917562 6447714
-0.018801348 -0.32501185 2.2663565 6447714
0.0094850343 -0.32510278 2.2918429 6447714
-0.018754335 -0.27502599 2.266505 6447714
0.0095287943 -0.27498457 2.2919877 6447714
-0.018818619 -0.22498959 2.2665527 6447714
0.009496538 -0.22495362 2.292064 6447714
-0.018797845 -0.17494641 2.2666767 6447714
0.0094319377 -0.17501684 2.2921109 6447714
-0.018759578 -0.12485427 2.2668159 6447714
0.0087920437 -0.12579685 2.2916386 6447714
-0.01871343 -0.075083703 2.266963 6447714
0.008553667 -0.074998759 2.2915308 6447714
-0.018849565 -0.025174033 2.2669449 6447714
0.0085540591 -0.024684157 2.2916365 6447714
-0.01885044 0.025175592 2.2670503 6447714
0.0085544549 0.024685657 2.2917416 6447714
-0.018716002 0.075094484 2.2672782 6513507
0.0085548488 0.075009525 2.2918484 6579300
-0.018394295 0.10628048 2.2676256 10197915
0.01376609 0.10835779 2.2889163 10197915
0.074728526 0.11256418 2.2832365 10197915
0.12489183 0.11259101 2.2837806 10197915
0.17507941 0.11261797 2.2843275 10197915
0.22529088 0.11264496 2.2848749 10197915
0.27457842 0.11267145 2.2854121 10197915
0.32483771 0.11269844 2.2859597 10197915
0.37941757 0.11274161 2.2779374 10197915
0.42480978 0.11278157 2.2687352 10197915
0.47473812 0.11280843 2.2692752 10197915
0.52515775 0.11283615 2.2694759 10197915
0.57513624 0.112863 2.2700162 10197915
0.6251235 0.11288877 2.2712483 10197915
0.67514431 0.11291677 2.2710972 10197915
0.7251941 0.11294368 2.2716382 7434609
0.77196127 0.11296365 2.2753439 2894892
0.7800194 -0.61858243 2.3359194 2894892
0.80742735 -0.61850297 2.3424721 2894892
0.034516733 -0.56869596 2.3138838 9079434
0.062013123 -0.5688113 2.3386586 9013641
0.78005642 -0.57490069 2.3359389 2894892
0.80743629 -0.57518882 2.3425715 2894892
0.034533281 -0.5248614 2.3139906 6447714
0.062028717 -0.52515173 2.3387637 6447714
0.78000975 -0.52492923 2.3360393 2894892
0.80752563 -0.52508003 2.3427577 2894892
0.03449278 -0.47491282 2.3140604 6447714
0.062009215 -0.47503215 2.3388519 6447714
0.78004193 -0.47495446 2.3361173 2894892
0.80756956 -0.47480232 2.3429029 2894892
0.034520242 -0.42502028 2.3141899 6447714
0.061979689 -0.42498884 2.3389306 6447714
0.78233695 -0.42391348 2.3317649 2894892
0.80381095 -0.42598644 2.3181243 2894892
0.034519553 -0.37500373 2.3142934 6447714
0.06203739 -0.37502232 2.339087 6447714
0.78306681 -0.37501124 2.3305488 2894892
0.80255169 -0.37497082 2.3089209 2894892
0.034476694 -0.324983 2.3143609 6447714
0.062030543 -0.32488838 2.3391864 6447714
0.7830584 -0.32496268 2.3306036 2894892
0.8025642 -0.32523477 2.3089569 2894892
0.034550615 -0.27507663 2.314533 6447714
0.062010624 -0.27491108 2.3392742 6447714
0.78310794 -0.27495214 2.3306 2894892
0.80257648 -0.27549735 2.3089921 2894892
0.034533512 -0.22510487 2.3146231 6447714
0.062039282 -0.22501278 2.3394053 6447714
0.78305709 -0.22494069 2.3307071 2894892
0.802571 -0.22543292 2.3090472 2894892
0.034516569 -0.17500976 2.3147113 6447714
0.062087137 -0.17494451 2.3395538 6447714
0.78305537 -0.1749257 2.3307564 2894892
0.8026185 -0.17474836 2.3090444 2894892
0.033684328 -0.12457789 2.3140686 6447714
0.062051766 -0.12503479 2.3396268 6447714
0.78312087 -0.1250259 2.3307326 2894892
0.80261379 -0.12436215 2.3090994 2894892
0.033589285 -0.074778326 2.3140888 6447714
0.061951131 -0.075288422 2.3396406 6447714
0.78315842 -0.075166032 2.3307428 2894892
0.80262607 -0.074618429 2.3091357 2894892
0.033590823 -0.024927124 2.3141944 6447714
0.062057275 -0.025203386 2.3398421 6447714
0.78307909 -0.025106981 2.3308802 2894892
0.80263859 -0.024873147 2.309171 2894892
0.033592373 0.024928667 2.3143008 6447714
0.062060159 0.025204943 2.339951 6447714
0.78309119 0.02510749 2.3309135 2894892
0.80265105 0.024873652 2.3092062 2894892
0.033593897 0.074789025 2.3144071 6513507
0.061959732 0.075299211 2.3399661 6513507
0.78319484 0.07516966 2.3308501 2894892
0.80266333 0.07462199 2.309242 2894892
0.033591233 0.10642459 2.3142934 10197915
0.065527909 0.10782099 2.3352466 10197915
0.12503473 0.11253039 2.3215685 10197915
0.17509001 0.11255725 2.3221231 10197915
0.22516932 0.11258414 2.3226779 10197915
0.27527243 0.11261106 2.3232329 10197915
0.32539958 0.11263796 2.3237879 10197915
0.37555063 0.11266489 2.3243434 10197915
0.42572573 0.11269184 2.3248999 10197915
0.47495914 0.11271828 2.3254447 10197915
0.52421647 0.11274488 2.3259938 10197915
0.57446277 0.11277186 2.3265505 10197915
0.62473303 0.11279885 2.3271074 10197915
0.67502755 0.11282584 2.3276644 10197915
0.72534591 0.11285288 2.3282218 10000536
0.78188628 0.10712255 2.3304532 2894892
0.80267107 0.10619378 2.3092647 2894892
0.73474193 -0.61864382 2.383939 7763574
0.75734967 -0.61859143 2.3588481 6381921
0.81872869 -0.61891937 2.352654 2894892
0.087051809 -0.56872672 2.3612163 9013641
0.11469605 -0.56883025 2.3861246 9013641
0.73482722 -0.57499874 2.3838882 2894892
0.75738013 -0.57497847 2.3588574 2894892
0.8187753 -0.57509166 2.3527877 2894892
0.087087624 -0.52502805 2.3613415 6447714
0.11465396 -0.52507371 2.3861785 6447714
0.73478073 -0.52503186 2.3839886 2894892
0.75735629 -0.52496958 2.3589337 2894892
0.81885678 -0.52492297 2.352967 2894892
0.087079562 -0.47508395 2.3614388 6447714
0.11470888 -0.47503018 2.3863344 6447714
0.73481423 -0.47501552 2.3840029 2894892
0.75740385 -0.47504792 2.3589301 2894892
0.81885415 -0.47524774 2.3530693 2894892
0.08704108 -0.42498285 2.3615108 6447714
0.1146706 -0.42498469 2.3864048 6447714
0.73481762 -0.42499688 2.3840482 2894892
0.75742066 -0.42503563 2.3589611 2894892
0.81862724 -0.44781774 2.3529229 2894892
0.087111861 -0.37495381 2.361681 6447714
0.11469892 -0.37500301 2.3865359 6447714
0.73487741 -0.37497726 2.3840299 2894892
0.75740695 -0.37501979 2.359026 2894892
0.08704868 -0.32507092 2.3617289 6447714
0.11466086 -0.32494771 2.3866065 6447714
0.73483026 -0.32500479 2.3841324 2894892
0.75741339 -0.32500663 2.3590677 2894892
0.087095857 -0.2750313 2.3618755 6447714
0.11473575 -0.2749576 2.3867795 6447714
0.7349028 -0.27503154 2.3841038 2894892
0.75748152 -0.27498826 2.3590422 2894892
0.087093115 -0.22498801 2.3619776 6447714
0.1146622 -0.22503218 2.3868172 6447714
0.73486513 -0.22505562 2.384192 2894892
0.75740612 -0.22496915 2.359174 2894892
0.087134399 -0.17509027 2.3621211 6447714
0.11470582 -0.17510514 2.3869631 6447714
0.73492283 -0.17502928 2.3841777 2894892
0.75748956 -0.17512846 2.3591316 2894892
0.087010592 -0.12496607 2.3621135 6447714
0.11484489 -0.12509781 2.3871927 6447714
0.73478508 -0.12500095 2.3843794 2894892
0.75749058 -0.12501855 2.3591802 2894892
0.087234735 -0.075051047 2.3624196 6447714
0.11460971 -0.074743651 2.3870869 6447714
0.73500818 -0.074729554 2.3841827 2894892
0.75745064 -0.075168781 2.359273 2894892
0.087018616 -0.025151581 2.3623323 6447714
0.11475361 -0.024725797 2.3873222 6447714
0.73488826 -0.024695287 2.3843646 2894892
0.75751388 -0.025326565 2.3592536 2894892
0.087022647 0.025153143 2.3624415 6447714
0.11475886 0.024727304 2.3874307 6447714
0.73501325 0.024526088 2.3842754 2894892
0.75752598 0.025327099 2.3592894 2894892
0.087246813 0.075061813 2.3627496 6513507
0.11462545 0.074754357 2.3874161 6513507
0.7357679 0.074741393 2.3834882 2894892
0.75748616 0.075172417 2.3593826 2894892
0.086810552 0.10675774 2.3618395 10197915
0.11752994 0.10775095 2.3819494 10197915
0.17510103 0.11249448 2.3611898 10197915
0.22504359 0.11252128 2.3617527 10197915
0.27500981 0.11254808 2.3623157 10197915
0.32499993 0.11257492 2.3628783 10197915
0.3750138 0.11260176 2.3634422 10197915
0.42505166 0.11262862 2.3640056 10197915
0.47511321 0.11265549 2.3645697 10197915
0.52519935 0.1126825 2.3651366 10197915
0.57530904 0.11270941 2.3657012 10197915
0.62445921 0.11273577 2.366255 10197915
0.67461622 0.1127627 2.3668203 10197915
0.73338854 0.10744219 2.3812773 9803157
0.75751954 0.10654333 2.3593771 6776679
0.68816835 -0.61861116 2.4356301 7697781
0.71017367 -0.61863214 2.4112072 7763574
0.13971628 -0.56879008 2.408668 9013641
0.16737992 -0.56881434 2.433593 8947848
0.68815273 -0.57497692 2.4356923 2894892
0.71027124 -0.57491946 2.4111419 2894892
0.13968444 -0.5250048 2.4087322 6447714
0.16736139 -0.52491605 2.4336681 6447714
0.68820065 -0.52497339 2.4356875 2894892
0.71023118 -0.52490413 2.4112368 2894892
0.13972856 -0.47503081 2.4088769 6447714
0.16735247 -0.47490394 2.4337654 6447714
0.68821156 -0.4750323 2.4357233 2894892
0.71024251 -0.47496471 2.411274 2894892
0.13973074 -0.4250522 2.4089844 6447714
0.16744426 -0.42494974 2.4339538 6447714
0.68821216 -0.42502466 2.4357746 2894892
0.71028614 -0.4250232 2.4112735 2894892
0.13974145 -0.37506917 2.4090981 6447714
0.16732438 -0.37499174 2.4339511 6447714
0.68827128 -0.37501642 2.4357579 2894892
0.71026403 -0.3750807 2.4113488 2894892
0.13973525 -0.32508102 2.409199 6447714
0.16745985 -0.32502928 2.4341788 6447714
0.68821239 -0.32494426 2.4358709 2894892
0.71031731 -0.32513636 2.4113381 2894892
0.1397334 -0.27498931 2.409302 6447714
0.1673864 -0.27499744 2.4342177 6447714
0.68822271 -0.27486825 2.4359107 2894892
0.71030515 -0.27511385 2.4114032 2894892
0.13973148 -0.22489335 2.4094057 6447714
0.16739883 -0.22509003 2.4343326 6447714
0.68830132 -0.22498274 2.4358706 2894892
0.71032006 -0.22501329 2.4114349 2894892
0.13972954 -0.17479324 2.4095094 6447714
0.16749117 -0.17511211 2.4345212 6447714
0.6882056 -0.17496817 2.4360287 2894892
0.71033549 -0.17491151 2.4114664 2894892
0.13977371 -0.12478621 2.4096546 6447714
0.16746671 -0.12506656 2.4346046 6447714
0.68822557 -0.12495016 2.4360564 2894892
0.71031946 -0.12488364 2.4115338 2894892
0.13978009 -0.074875064 2.4097664 6447714
0.16731009 -0.075275652 2.4345691 6447714
0.68838853 -0.075255208 2.4359226 2894892
0.71033007 -0.074931316 2.4115705 2894892
0.13978663 -0.024959382 2.4098759 6447714
0.16748171 -0.025217809 2.4348302 6447714
0.68827605 -0.025231078 2.4360986 2894892
0.71034116 -0.024977438 2.4116077 2894892
0.13979298 0.024960916 2.4099863 6447714
0.16748953 0.025219383 2.4349427 6447714
0.6882869 0.025231607 2.4361355 2894892
0.71047986 0.025230356 2.411504 2894892
0.13979948 0.074885808 2.4100993 6513507
0.16733323 0.075286485 2.434906 6513507
0.68842041 0.075258836 2.4360371 2894892
0.71111351 0.074909054 2.4108508 2894892
0.13972722 0.10677981 2.4088838 10197915
0.17067066 0.10797569 2.429749 10197915
0.22484922 0.1124241 2.4222395 10197915
0.27509636 0.11244971 2.4236577 10197915
0.32537895 0.11247665 2.4242387 10197915
0.37518388 0.11250404 2.4243875 10197915
0.42500103 0.11253007 2.4253907 10197915
0.4753556 0.11255708 2.4259722 10197915
0.52522588 0.11258453 2.4261224 10197915
0.57512033 0.11261058 2.4271259 10197915
0.62504101 0.11263803 2.4272747 10197915
0.68326163 0.10818233 2.4326484 9934743
0.71118778 0.10671719 2.4102509 9737364
0.6402896 -0.61871946 2.4887698 7697781
0.66330218 -0.61872935 2.463228 7697781
0.19231701 -0.56879044 2.4560606 8947848
0.21992396 -0.56884879 2.4809346 8947848
0.64031047 -0.57510382 2.4887884 2894892
0.66330433 -0.5749855 2.4632685 2894892
0.19233772 -0.52491379 2.4561718 6447714
0.21995007 -0.5250724 2.4810505 6447714
0.6403147 -0.52498627 2.4888356 2894892
0.66337222 -0.52505296 2.4632425 2894892
0.19229534 -0.47492784 2.4562395 6447714
0.21999645 -0.47507128 2.4811974 6447714
0.64028418 -0.47494653 2.4889183 2894892
0.663324 -0.47499037 2.463346 2894892
0.19238092 -0.42508718 2.4564216 6447714
0.22001378 -0.42500818 2.4813178 6447714
0.64031947 -0.42506224 2.4889278 2894892
0.66333741 -0.42492926 2.4633813 2894892
0.1922752 -0.37509334 2.4564314 6447714
0.21998128 -0.37494114 2.4813955 6447714
0.64037496 -0.37494072 2.4889171 2894892
0.66341752 -0.37499127 2.4633417 2894892
0.19242372 -0.32494995 2.4566708 6447714
0.22004159 -0.32492533 2.481554 6447714
0.64032936 -0.32489491 2.4890146 2894892
0.66332126 -0.32505202 2.4634986 2894892
0.19230495 -0.27509612 2.4566684 6447714
0.21994264 -0.27496299 2.4815693 6447714
0.64037478 -0.27500585 2.4890163 2894892
0.66338807 -0.27505025 2.4634733 2894892
0.19237819 -0.22494234 2.4568398 6447714
0.22005406 -0.22505236 2.4817748 6447714
0.64043021 -0.22503844 2.4890039 2894892
0.66343808 -0.22504196 2.4634669 2894892
0.19238703 -0.17507628 2.456953 6447714
0.2199841 -0.17502286 2.481818 6447714
0.64030731 -0.17514607 2.4891872 2894892
0.66331154 -0.17503628 2.4636559 2894892
0.19239578 -0.12520558 2.4570665 6447714
0.22019784 -0.1249891 2.4821167 6447714
0.6403234 -0.12509221 2.4892213 2894892
0.66351908 -0.12503104 2.4634762 2894892
0.19244368 -0.075180471 2.4572134 6447714
0.2199239 -0.074727118 2.481976 6447714
0.6404897 -0.074731439 2.4890866 2894892
0.66327244 -0.075011209 2.4637992 2894892
0.19237575 -0.025309365 2.4572585 6447714
0.22011568 -0.024680641 2.4822524 6447714
0.64039373 -0.024750242 2.4892409 2894892
0.66353863 -0.025014099 2.4635532 2894892
0.19238476 0.025310939 2.4573729 6447714
0.22012562 0.024682133 2.4823658 6447714
0.63982385 0.024318533 2.4899228 2894892
0.66276813 0.024993284 2.4644575 2894892
0.19247033 0.075191274 2.4575551 6513507
0.2199541 0.07473778 2.4823184 6579300
0.64050716 0.074728392 2.4892147 2894892
0.66250646 0.075011633 2.4647977 2894892
0.19243695 0.10588761 2.4575894 10197915
0.22179736 0.10683356 2.4830036 10197915
0.27519858 0.11234652 2.4878876 10197915
0.32578143 0.11237364 2.4884875 10197915
0.37535575 0.1124002 2.4890759 10197915
0.42495349 0.11242676 2.4896643 10197915
0.47457469 0.11245336 2.4902527 10197915
0.52421945 0.11247995 2.4908421 10197915
0.57492274 0.11250713 2.4914439 10197915
0.63601315 0.10761555 2.4899092 9934743
0.66264874 0.10619273 2.4646714 10000536
0.59361744 -0.61888409 2.5405684 7697781
0.61511779 -0.61874104 2.5167067 7697781
0.24470884 -0.56858557 2.5032663 8882055
0.27232793 -0.56888354 2.5281496 8882055
0.59364295 -0.57521349 2.5405838 2894892
0.61518329 -0.57495856 2.5166767 2894892
0.24476539 -0.52478892 2.5034096 6447714
0.27231783 -0.52502036 2.5282333 6447714
0.59363019 -0.52509362 2.540648 2894892
0.61514163 -0.52497756 2.516773 2894892
0.24477667 -0.4750284 2.5035241 6447714
0.27232143 -0.47497478 2.528343 6447714
0.59366149 -0.47497204 2.540663 2894892
0.61519086 -0.47499526 2.5167685 2894892
0.24478787 -0.42526314 2.5036397 6447714
0.27232835 -0.42492545 2.5284548 6447714
0.59370613 -0.42498133 2.5406635 2894892
0.61518705 -0.42501205 2.5168216 2894892
0.24479914 -0.37549362 2.5037534 6447714
0.2723847 -0.37497693 2.5286117 6447714
0.59360939 -0.37499097 2.5408196 2894892
0.6151948 -0.37502602 2.5168624 2894892
0.24484561 -0.32545578 2.503902 6447714
0.27239513 -0.32496968 2.528723 6447714
0.59365374 -0.32499576 2.5408192 2894892
0.61517358 -0.32498136 2.5169382 2894892
0.24483348 -0.27516028 2.5039964 6447714
0.27240017 -0.27495852 2.5288353 6447714
0.59372026 -0.27513388 2.5407951 2894892
0.61522126 -0.27493465 2.5169311 2894892
0.24482137 -0.2248614 2.5040913 6447714
0.2723881 -0.2249966 2.5289278 6447714
0.59372026 -0.22513811 2.540844 2894892
0.61529148 -0.22488715 2.5169051 2894892
0.24480934 -0.17455924 2.5041864 6447714
0.2724815 -0.17497526 2.5291183 6447714
0.59369892 -0.17474349 2.5409176 2894892
0.61525559 -0.17495441 2.5169928 2894892
0.24485578 -0.12450165 2.5043333 6447714
0.27240872 -0.12505502 2.5291562 6447714
0.59363699 -0.12473536 2.5410376 2894892
0.61524409 -0.12507826 2.5170531 2894892
0.24486704 -0.074704356 2.5044487 6447714
0.27234986 -0.075239107 2.5292091 6447714
0.59378827 -0.075276412 2.5409172 2894892
0.61522138 -0.075082749 2.5171292 2894892
0.24487825 -0.024902457 2.5045631 6447714
0.27251905 -0.025150083 2.5294676 6447714
0.5937264 -0.025265219 2.5410354 2894892
0.61523032 -0.025027927 2.5171697 2894892
0.24488948 0.024903996 2.504679 6447714
0.27253151 0.025151642 2.5295851 6447714
0.59373552 0.025265755 2.541075 2894892
0.61548787 0.025306463 2.5169315 2894892
0.24490075 0.074715033 2.5047934 6513507
0.27236024 0.075197712 2.5295348 6579300
0.59381592 0.075280018 2.5410357 2960685
0.61606634 0.075059347 2.5163412 2894892
0.24490781 0.10584906 2.5048659 10197915
0.27373931 0.10673925 2.5298727 10197915
0.32535985 0.11230127 2.5333693 10197915
0.3747766 0.11232773 2.5339661 10197915
0.4242169 0.11235419 2.5345633 10197915
0.47473302 0.11238124 2.5351737 10197915
0.5252735 0.11240831 2.535784 10197915
0.58722419 0.10811987 2.5396504 10066329
0.61607212 0.10633501 2.5163648 10132122
0.29807228 -0.56866181 2.5513458 8882055
0.3254824 -0.56893647 2.576041 8882055
0.29810947 -0.52481085 2.5514719 6447714
0.32555977 -0.52499819 2.5762048 6447714
0.29807284 -0.47516558 2.5515432 6447714
0.32552975 -0.47495908 2.5762825 6447714
0.29811183 -0.42496705 2.5516846 6447714
0.32553527 -0.42501822 2.5763907 6447714
0.29815072 -0.37476239 2.5518253 6447714
0.3255012 -0.37502128 2.5764673 6447714
0.29811412 -0.32510608 2.5518968 6447714
0.3256489 -0.32501891 2.576705 6447714
0.29815298 -0.27489224 2.5520382 6447714
0.3256292 -0.27496344 2.5767941 6447714
0.29816669 -0.2252105 2.5521541 6447714
0.32552215 -0.2249018 2.5768023 6447714
0.29818031 -0.17552412 2.5522709 6447714
0.325663 -0.17498763 2.577033 6447714
0.29819432 -0.12477595 2.5523911 6447714
0.32558671 -0.12512074 2.5770702 6447714
0.29820794 -0.075080439 2.5525079 6447714
0.32585379 -0.074940674 2.5774164 6447714
0.29822159 -0.02538033 2.5526247 6447714
0.32552251 -0.024869652 2.5772245 6447714
0.29823557 0.025381915 2.5527446 6447714
0.32553741 0.024871189 2.5773425 6447714
0.29824927 0.075091198 2.5528615 6513507
0.3249386 0.074805431 2.5769069 6579300
0.35000631 0.078616917 2.5995018 6513507
0.29825768 0.10576499 2.5529335 10197915
0.32506442 0.10675509 2.5762434 10197915
0.37002689 0.11086489 2.5844595 10197915
0.42452461 0.11227955 2.5811245 10197915
0.47489706 0.1123065 2.581744 10197915
0.52529365 0.11233346 2.5823641 10197915
0.57249534 0.11235874 2.5829453 10197915
0.37574083 -0.56889504 2.621325 8816262
0.40472069 -0.56923932 2.6474342 8816262
0.37574863 -0.52493262 2.6214235 6447714
0.40473709 -0.52538854 2.647542 6447714
0.37579578 -0.47494328 2.6215723 6447714
0.4046399 -0.47593462 2.6475582 6447714
0.37577522 -0.42500338 2.6216574 6447714
0.40350223 -0.42433453 2.6466422 6447714
0.37582538 -0.37495059 2.6218095 6447714
0.40352058 -0.37501037 2.6467626 6447714
0.37588295 -0.32494605 2.6219668 6447714
