# .PCD v0.7 - Point Cloud Data file format
VERSION 0.7
FIELDS x y z rgb
SIZE 4 4 4 4
TYPE F F F U
COUNT 1 1 1 1
WIDTH 1151
HEIGHT 1
VIEWPOINT 0 0 0 1 0 0 0
POINTS 1151
DATA ascii
-0.54302645 -0.52526557 1.3895844 6447714
-0.55971676 -0.47500721 1.3646622 6447714
-0.54349548 -0.4749755 1.3896753 6447714
-0.55997854 -0.42485675 1.3650702 6447714
-0.54368442 -0.42500949 1.3901918 6447714
-0.56036872 -0.37484381 1.3652769 6447714
-0.54409909 -0.37551102 1.3903544 6447714
-0.56034982 -0.32495153 1.3661149 6447714
-0.54408193 -0.32506382 1.3911971 6447714
-0.56087542 -0.27498499 1.3661126 6447714
-0.54450458 -0.27545062 1.391349 6447714
-0.56107771 -0.22500578 1.3666096 6447714
-0.54483789 -0.22504319 1.3916496 6447714
-0.56135064 -0.17480844 1.367002 6447714
-0.54492772 -0.1758111 1.392309 6447714
-0.5614835 -0.12500705 1.3676023 6447714
-0.54522783 -0.12502228 1.3926679 6447714
-0.56197846 -0.074900515 1.367651 6447714
-0.54551262 -0.075243227 1.3930337 6447714
-0.56217438 -0.024951659 1.3681573 6447714
-0.54593974 -0.025116421 1.3931865 6447714
-0.56231487 0.025187023 1.3687502 6447714
-0.54581732 0.024838023 1.3941845 6447714
-0.56257689 0.074737653 1.3689786 6447714
-0.54001975 0.080748796 1.388359 6447714
-0.47478172 0.098938271 1.3724358 6447714
-0.42482808 0.099090964 1.3745471 6447714
-0.37500536 0.09924233 1.3767388 6447714
-0.32662588 0.099416777 1.3763075 6513507
-0.27494973 0.099621095 1.3741801 6513507
-0.22500972 0.099775985 1.3760788 6513507
-0.17558376 0.099852942 1.3850518 8026746
-0.12649089 0.099926509 1.3942231 10197915
-0.20472699 0.10012614 1.3501811 9671571
-0.17469543 0.10014568 1.3581576 10000536
-0.12442709 0.10022239 1.3674265 10197915
-0.074796058 0.10030881 1.3755827 10197915
-0.024967277 0.10045961 1.3778279 10197915
0.023683647 0.10066527 1.3745944 10197915
0.075018212 0.10083955 1.3751514 10197915
0.12617068 0.10105833 1.371516 10197915
0.1750062 0.10121785 1.3726267 10197915
0.22495997 0.10137214 1.3745877 10197915
0.27506414 0.10152446 1.376784 10197915
0.32423887 0.10168761 1.377666 10197915
0.37517482 0.1019033 1.3742458 10197915
0.42661631 0.10209954 1.3727976 10197915
0.47476411 0.10228157 1.3715942 10197915
0.52498949 0.10243486 1.3737373 10197915
0.5589729 0.1024747 1.3811198 10197915
-0.51943934 -0.6009267 1.4247296 6447714
-0.51989609 -0.57500118 1.4244446 6447714
-0.52019817 -0.5250631 1.4247874 6447714
-0.52104139 -0.4750213 1.4242969 6447714
-0.52121347 -0.42500579 1.4248415 6447714
-0.52208656 -0.37496901 1.4243048 6447714
-0.52236289 -0.32499793 1.4246879 6447714
-0.52302086 -0.27498826 1.4244821 6447714
-0.52349544 -0.22499481 1.4245586 6447714
-0.5239616 -0.17497952 1.4246501 6447714
-0.52462155 -0.12499566 1.4244421 6447714
-0.52492875 -0.074960351 1.4247779 6447714
-0.52575457 -0.025029533 1.4243121 6447714
-0.52594364 0.025027927 1.4248317 6447714
-0.52636236 0.075052753 1.4239904 6447714
-0.47529954 0.098400094 1.4222358 6447714
-0.42528057 0.098552018 1.424435 6447714
-0.37511006 0.09870448 1.426636 6447714
-0.32326296 0.098902352 1.4251622 6447714
-0.2749922 0.099086292 1.4238157 6513507
-0.22505544 0.099240541 1.4257789 6513507
-0.17663895 0.099436469 1.4233713 6513507
-0.12516139 0.099622674 1.4228657 8618883
-0.075544558 0.099771187 1.4252522 10197915
-0.025249952 0.099845976 1.4347074 10197915
0.025136082 0.099920407 1.4442265 10197915
0.050897527 0.099998675 1.4453578 10197915
-0.051463388 0.10000274 1.4116057 10197915
-0.02460224 0.10008106 1.4130908 10197915
0.026375776 0.10022999 1.4158856 10197915
0.075087436 0.10031288 1.4240738 10197915
0.12484608 0.10046159 1.4264904 10197915
0.17407075 0.1006772 1.4225183 10197915
0.22508985 0.1008459 1.4234893 10197915
0.27504417 0.10099818 1.4256361 10197915
0.32647154 0.10117518 1.4259712 10197915
0.37517533 0.10138088 1.4227489 10197915
0.42502809 0.10153385 1.4247992 10197915
0.47488579 0.1016865 1.4268839 10197915
0.52489793 0.10191403 1.4220643 10197915
0.56797767 0.10202996 1.4253465 10197915
-0.50171083 -0.6009711 1.4520651 6447714
-0.48548847 -0.60113448 1.4770761 6447714
-0.50180095 -0.57490921 1.4523475 6447714
-0.4858349 -0.57500178 1.4769655 6447714
-0.50183582 -0.52285802 1.4531364 6447714
-0.48578137 -0.52519423 1.4778532 6447714
-0.50217611 -0.47487393 1.4533885 6447714
-0.48618677 -0.47500569 1.4780401 6447714
-0.50235033 -0.42495096 1.4539278 6447714
-0.48637369 -0.42500249 1.478561 6447714
-0.50290042 -0.37466475 1.4538935 6447714
-0.48680505 -0.37517616 1.4787034 6447714
-0.50299138 -0.32426354 1.4545685 6447714
-0.48702541 -0.32516181 1.4791743 6447714
-0.50316465 -0.27435005 1.4551092 6447714
-0.48702201 -0.27515432 1.4799883 6447714
-0.50347883 -0.22503841 1.4554242 6447714
-0.4874751 -0.22499768 1.4801012 6447714
-0.50379485 -0.17439616 1.4557555 6447714
-0.48766223 -0.17501719 1.480621 6447714
-0.50425208 -0.12509266 1.4558485 6447714
-0.48822802 -0.12508097 1.4805573 6447714
-0.50406241 -0.074661136 1.4569573 6447714
-0.48802817 -0.075110421 1.4816744 6447714
-0.50461817 -0.024948964 1.4569043 6447714
-0.48841664 -0.025222495 1.4818822 6447714
-0.5047965 0.024910366 1.4574368 6447714
-0.48878413 0.02500282 1.4821277 6447714
-0.50523186 0.074605256 1.4574558 6447714
-0.48748103 0.076129287 1.4811262 6447714
-0.42532331 0.098059662 1.4701352 6447714
-0.37534997 0.098210737 1.4724007 6447714
-0.32521877 0.098362252 1.4746714 6447714
-0.27493614 0.098514244 1.4769502 6447714
-0.22490124 0.098664142 1.4793452 6513507
-0.17353785 0.09888567 1.4755225 6513507
-0.12658627 0.09907642 1.473121 6513507
-0.074914984 0.099289723 1.4701619 8355711
-0.02500787 0.099438138 1.4726536 10132122
0.024853813 0.09959051 1.4747612 10197915
0.075067557 0.099742562 1.4770166 10197915
0.12402576 0.09981747 1.4860243 10197915
0.17131373 0.099894553 1.4942827 10197915
0.20802149 0.099974193 1.4988551 10197915
0.12797278 0.1000695 1.4639133 10197915
0.17777838 0.10022556 1.4656608 10197915
0.22486392 0.10032851 1.4714524 10197915
0.27474824 0.1005163 1.4702843 10197915
0.32519192 0.1006666 1.4727728 10197915
0.37517828 0.10081825 1.4749914 10197915
0.42489728 0.10097042 1.4770709 10197915
0.47517177 0.10112702 1.4789245 10197915
0.52495515 0.10135623 1.4738718 10197915
0.57344037 0.10151935 1.47454 10197915
0.60451883 0.10156033 1.4808646 10197915
-0.46051547 -0.60131842 1.5155803 6447714
-0.44410232 -0.60139978 1.540887 6447714
-0.46052018 -0.57481843 1.5160018 6447714
-0.44411609 -0.57573026 1.5412817 6447714
-0.46059948 -0.52495337 1.5166874 6447714
-0.44448531 -0.52500975 1.5415319 6447714
-0.46117455 -0.47500035 1.5166086 6447714
-0.44464529 -0.47504985 1.5420953 6447714
-0.46136081 -0.42501032 1.5171297 6447714
-0.44518995 -0.42532533 1.5420597 6447714
-0.461779 -0.37478241 1.5172989 6447714
-0.44541338 -0.37506232 1.5425289 6447714
-0.46195292 -0.32477167 1.5178409 6447714
-0.44558108 -0.32622233 1.5430604 6447714
-0.46197233 -0.27480265 1.5186179 6447714
-0.44573537 -0.27498946 1.5436515 6447714
-0.46244809 -0.22498363 1.5186894 6447714
-0.4458994 -0.22504629 1.5442071 6447714
-0.4626267 -0.17499495 1.5192235 6447714
-0.4464753 -0.17517702 1.5441263 6447714
-0.46318257 -0.12492999 1.5191773 6447714
-0.44667462 -0.124865 1.5446328 6447714
-0.46335343 -0.074982427 1.5197235 6447714
-0.44702509 -0.07571467 1.544888 6447714
-0.46336827 -0.024801068 1.5205132 6447714
-0.44698992 -0.024973769 1.5457636 6447714
-0.46372718 0.024987914 1.5207639 6447714
-0.44717026 0.024780484 1.5462911 6447714
-0.46381351 0.074454062 1.5209072 6447714
-0.43881989 0.083104759 1.5353861 6447714
-0.37497979 0.097684696 1.5213648 6447714
-0.32485512 0.09783835 1.5234309 6447714
-0.27498731 0.097985193 1.5260483 6447714
-0.22518089 0.098136507 1.5282372 6447714
-0.17500785 0.098288886 1.5304474 6513507
-0.124956 0.098524354 1.5249043 6513507
-0.075067371 0.098767236 1.5186265 6513507
-0.024986958 0.098919563 1.520806 7895160
0.025037725 0.099070236 1.5231225 10066329
0.075000294 0.09922085 1.5254369 10197915
0.12490682 0.099371128 1.5277491 10197915
0.17496186 0.099520475 1.5302074 10197915
0.22355622 0.099683493 1.5309176 10197915
0.2710101 0.099869646 1.5291023 10197915
0.31704092 0.099949792 1.5366675 10197915
0.24179997 0.10007632 1.5003861 10197915
0.2789847 0.10013045 1.507486 10197915
0.32753429 0.10021068 1.5158651 10197915
0.37514853 0.10030437 1.5226928 10197915
0.42498928 0.10045473 1.5249797 10197915
0.47519612 0.10060477 1.5274196 10197915
0.52512443 0.10075697 1.5295643 10197915
0.57641256 0.10094222 1.5290837 10197915
0.61174315 0.10113779 1.5224484 10197915
-0.42184249 -0.60153013 1.5752088 6447714
-0.42232767 -0.57483423 1.5748929 6447714
-0.42324135 -0.52500945 1.5742893 6447714
-0.42343107 -0.47498399 1.5748065 6447714
-0.42416334 -0.42507246 1.5744857 6447714
0.64124906 -0.42476428 1.5941108 2894892
0.65324014 -0.42465681 1.5863345 2894892
-0.42465797 -0.3750031 1.5745323 6447714
0.64148533 -0.37522382 1.5943775 2894892
0.6529178 -0.37512901 1.5869644 2894892
-0.42499089 -0.32484141 1.5748317 6447714
0.64206666 -0.32499164 1.5944276 2894892
0.6530084 -0.32485974 1.5873321 2894892
-0.42582929 -0.27508596 1.5743448 6447714
0.64191437 -0.27558589 1.5949463 2894892
0.6527732 -0.27403116 1.5879167 2894892
-0.4260383 -0.22499514 1.5748326 6447714
0.64231592 -0.22501291 1.5951152 2894892
0.65245521 -0.22615497 1.5885293 2894892
-0.42677841 -0.17511006 1.574499 6447714
0.64251477 -0.17517567 1.5954095 2894892
0.65238208 -0.17510901 1.58901 2894892
-0.42727876 -0.12501998 1.5745376 6447714
0.64314014 -0.12512669 1.5954291 2894892
0.65251976 -0.12510404 1.5893461 2894892
-0.42764014 -0.074864499 1.5747914 6447714
0.64332914 -0.075447783 1.5957285 2894892
0.6525141 -0.076235272 1.5897647 2894892
-0.4284358 -0.025120776 1.5743704 6447714
0.64391524 -0.025121324 1.5957754 2894892
0.65227544 -0.025035979 1.5903538 2894892
-0.42868742 0.02505457 1.5747944 6447714
0.64408958 0.024974393 1.5960881 2894892
0.65241307 0.025043022 1.5906899 2894892
-0.42875934 0.074637242 1.5740651 6447714
-0.37501946 0.097124316 1.5733836 6447714
-0.32489172 0.097274095 1.5758048 6447714
-0.27504507 0.097423121 1.5782192 6447714
-0.22545825 0.097574882 1.5802968 6447714
-0.17508925 0.097816832 1.5742513 6513507
-0.12263296 0.098037183 1.5708954 6513507
-0.075008534 0.098214447 1.5699638 6513507
-0.024965703 0.098364376 1.5723603 6513507
0.025016379 0.098514117 1.5747545 7368816
0.074930966 0.098662026 1.5772995 9803157
0.12499456 0.098815374 1.5793852 10197915
0.17241217 0.098995589 1.5781085 10197915
0.22666402 0.099243209 1.5728072 10197915
0.27496517 0.099452265 1.5691434 10197915
0.32529393 0.099604949 1.5713779 10197915
0.37452614 0.099745892 1.5743413 10197915
0.42484602 0.099807627 1.5850166 10197915
0.47194043 0.099878982 1.5937457 10197915
0.51043421 0.09996812 1.5980198 10197915
0.64468443 0.075047307 1.5961283 3684408
0.65248561 0.075720727 1.5910734 3881787
0.39745402 0.10000871 1.5574126 10197915
0.42490974 0.10009128 1.5586987 10197915
0.47654837 0.10016068 1.5690913 10197915
0.52727807 0.10024074 1.5781999 10197915
0.57465833 0.10044485 1.5746939 10197915
0.62330598 0.10064968 1.5708572 10197915
0.65082359 0.10058182 1.5868127 10197915
-0.40279451 -0.60169208 1.6045767 6447714
-0.38648078 -0.6017952 1.6297296 6447714
-0.40291548 -0.57499462 1.6048223 6447714
-0.38684899 -0.57497901 1.6295955 6447714
-0.40350452 -0.52481854 1.6047266 6447714
-0.38744223 -0.52503055 1.6294898 6447714
-0.40367976 -0.47502729 1.6052616 6447714
-0.38762906 -0.47499365 1.6300118 6447714
0.57184762 -0.45015293 1.6389097 2894892
-0.40387532 -0.42350015 1.6057943 6447714
-0.38774782 -0.42542496 1.6306305 6447714
0.57786959 -0.42500883 1.6352177 2894892
0.61638135 -0.42489609 1.6102391 2894892
-0.40397289 -0.37498465 1.6064283 6447714
-0.38791105 -0.37500498 1.6311952 6447714
0.57826269 -0.3751426 1.6353862 2894892
0.61663896 -0.37490553 1.6104965 2894892
-0.40412226 -0.32496604 1.6070076 6447714
-0.38803527 -0.3250024 1.6318125 6447714
0.57849711 -0.32510561 1.6356593 2894892
0.6170308 -0.32486099 1.6106671 2894892
-0.40469319 -0.27469617 1.6069405 6447714
-0.38853961 -0.27523077 1.6318398 6447714
0.57841611 -0.27515993 1.6361359 2894892
0.61687136 -0.27486777 1.6111957 2894892
-0.4049072 -0.2250201 1.6074151 6447714
-0.38881904 -0.22499968 1.6322221 6447714
0.57892257 -0.22501792 1.6362326 2894892
0.61744142 -0.22499318 1.6112494 2894892
-0.40521279 -0.17449838 1.6077626 6447714
-0.38901323 -0.17509803 1.6327305 6447714
0.57922924 -0.17511664 1.6364594 2894892
0.61768186 -0.17497914 1.6115175 2894892
-0.40568992 -0.12498704 1.6078274 6447714
-0.3895992 -0.12497532 1.6326383 6447714
0.57966769 -0.12493693 1.6366005 2894892
0.61826116 -0.12502709 1.6115663 2894892
-0.40544203 -0.074497163 1.6090262 6447714
-0.38945058 -0.07528881 1.6336718 6447714
0.57998925 -0.075175926 1.6368134 2894892
0.61834103 -0.074880213 1.6119404 2894892
-0.40591878 -0.024758326 1.6090956 6447714
-0.38959941 -0.025357755 1.6342509 6447714
0.58044589 -0.025091257 1.6369425 2894892
0.61911774 -0.024976991 1.6118604 2894892
-0.40613621 0.0249852 1.6095673 6447714
-0.38998982 0.025055623 1.6344638 6447714
0.58064216 0.025015177 1.6372415 2894892
0.61928916 0.025018452 1.6121739 2894892
-0.40633401 0.073911339 1.6099837 6447714
-0.38800058 0.076104157 1.633884 6447714
-0.32492599 0.09677536 1.622099 6447714
-0.27494469 0.096921273 1.6248461 6447714
-0.22420809 0.097082816 1.6263891 6447714
-0.17495121 0.097323574 1.620097 6447714
-0.12480456 0.097472884 1.6225828 6513507
-0.074948028 0.097621381 1.6250495 6513507
-0.025167415 0.097769551 1.6275215 6513507
0.023278944 0.0979302 1.6284022 6513507
0.074977823 0.098170534 1.6229442 6974058
0.12526317 0.098319069 1.6255479 9803157
0.1775987 0.098540939 1.6220096 10197915
0.22497602 0.09871684 1.621127 10197915
0.27486235 0.098867521 1.6234001 10197915
0.32512307 0.099017426 1.6258668 10197915
0.37531245 0.099167258 1.6283213 10197915
0.42284364 0.099344119 1.6273974 10197915
0.47495991 0.099564783 1.6238972 10197915
0.52485633 0.099713825 1.6263281 10197915
0.58085006 0.075881466 1.6368281 4144959
0.61974996 0.074938394 1.6122994 3815994
0.57961315 0.10013249 1.6053125 10197915
0.61757541 0.10023496 1.6058621 10197915
-0.36181715 -0.60195804 1.6677572 6447714
-0.34569681 -0.60204053 1.6926124 6447714
-0.36170781 -0.57477635 1.6683656 6447714
-0.34540951 -0.57557398 1.6934829 6447714
-0.36215463 -0.52494603 1.6684821 6447714
-0.34576315 -0.52558768 1.6937475 6447714
-0.36233106 -0.47500214 1.6690178 6447714
-0.34603152 -0.47506511 1.6941515 6447714
0.48878703 -0.45065194 1.6927798 11711154
0.52337629 -0.45037448 1.6703471 5263440
-0.36261663 -0.42478612 1.6693916 6447714
-0.34616128 -0.42527726 1.6947572 6447714
0.48893344 -0.42521447 1.6929014 7303023
0.52523929 -0.42513868 1.6693488 4079166
0.55248725 -0.42354864 1.6516931 2894892
-0.36311492 -0.37500069 1.6694295 6447714
-0.34680998 -0.37512279 1.6945688 6447714
0.48958263 -0.37499267 1.692906 6447714
0.52509803 -0.37500903 1.669871 3684408
0.55266917 -0.37381151 1.6519972 2894892
-0.36323282 -0.3249889 1.6700565 6447714
-0.3469286 -0.32504445 1.6951956 6447714
0.48961723 -0.32499194 1.6933084 6447714
0.52518302 -0.3249937 1.6702368 3684408
0.55306411 -0.32500988 1.652156 2894892
-0.36374623 -0.27480075 1.6700765 6447714
-0.3472524 -0.27603105 1.6954892 6447714
0.49037102 -0.27502739 1.6932435 6447714
0.52530754 -0.27498949 1.670583 3684408
0.55338842 -0.27406651 1.6523781 2894892
-0.36401665 -0.22502212 1.6704645 6447714
-0.34770611 -0.22492719 1.695616 6447714
0.49041763 -0.22506239 1.6936386 6447714
0.52539957 -0.2249963 1.6709484 3684408
0.55386889 -0.22504176 1.6524832 2894892
-0.3640413 -0.1747283 1.6712402 6447714
-0.34771144 -0.17627013 1.6963965 6447714
0.4909676 -0.17559588 1.6937019 6447714
0.52539927 -0.17488842 1.6713748 3684408
0.55412585 -0.17429306 1.6527466 2894892
-0.36428645 -0.12500443 1.6716685 6447714
-0.34776917 -0.12677637 1.6971084 6447714
0.49064732 -0.12494511 1.6943394 6447714
0.52507859 -0.12504622 1.6720026 3750201
0.55467129 -0.12505391 1.6528119 2894892
-0.364461 -0.07499478 1.6722095 6447714
-0.34809694 -0.075243913 1.697437 6447714
0.49116433 -0.075463124 1.694424 6447714
0.52524543 -0.075000212 1.6723236 3750201
0.55484897 -0.074531414 1.6531255 2894892
-0.36478451 -0.024777764 1.6725234 6447714
-0.34823224 -0.025553897 1.6980327 6447714
0.49144611 -0.025274007 1.6946671 6447714
0.52520269 -0.024947518 1.6727769 3750201
0.55547273 -0.025039455 1.6531411 2894892
-0.36515531 0.024998002 1.6727554 6447714
-0.3488853 0.025323894 1.6978489 6447714
0.49186799 0.024812412 1.69482 6447714
0.52531266 0.024954522 1.6731263 3750201
0.55567449 0.02530368 1.6534386 2894892
-0.36525074 0.073428832 1.6731523 6447714
-0.33380663 0.087761492 1.6812842 6447714
-0.27484238 0.096393518 1.673879 6447714
-0.22502333 0.096538886 1.6766235 6447714
-0.17729241 0.096712172 1.6760958 6447714
-0.12532972 0.096944019 1.6715111 6447714
-0.075239778 0.097093843 1.6739308 6513507
-0.024999605 0.097241156 1.6766344 6513507
0.027204895 0.097431533 1.6759796 6513507
0.075029232 0.097646855 1.6715839 6513507
0.12485092 0.097792543 1.6743007 6908265
0.17505351 0.0979454 1.6764768 9276813
0.22329277 0.0981116 1.6767718 10197915
0.27531251 0.098349042 1.6716852 10197915
0.32532176 0.09849596 1.6743484 10197915
0.37513366 0.098643802 1.6768616 10197915
0.42736322 0.098858573 1.6739509 10197915
0.48888761 0.079267882 1.6904817 8421504
0.52500314 0.075291388 1.6732351 5197647
0.5557428 0.075298674 1.6538155 4013373
-0.32490584 -0.60217738 1.7246685 6447714
-0.32511216 -0.57501656 1.7247896 6447714
-0.3256779 -0.52486473 1.7247291 6447714
-0.32642612 -0.4750497 1.7243817 6447714
0.42426053 -0.45093918 1.7346299 6447714
0.46292862 -0.45067695 1.7095513 7500402
-0.32660589 -0.42493311 1.7249154 6447714
0.42558867 -0.42516553 1.7339883 6447714
0.46391299 -0.42483106 1.7091329 6447714
-0.3273854 -0.37512133 1.7245201 6447714
0.42604691 -0.37500039 1.734117 6447714
0.46451536 -0.37499121 1.7091649 6447714
-0.32789475 -0.32501841 1.7245449 6447714
0.42625234 -0.32509479 1.7344079 6447714
0.46460596 -0.32499218 1.7095308 6447714
-0.32827777 -0.2747944 1.7247669 6447714
0.42684931 -0.27496403 1.7344458 6447714
0.46533602 -0.27501741 1.7094823 6447714
-0.32892966 -0.22520646 1.7245657 6447714
0.42691261 -0.22499512 1.7348286 6447714
0.46536338 -0.22503583 1.7098895 6447714
-0.32942006 -0.17500402 1.7246205 6447714
0.42764825 -0.17501272 1.7347767 6447714
0.46604773 -0.17487481 1.7098709 6447714
-0.32987577 -0.12480762 1.7247312 6447714
0.42766511 -0.12502153 1.7351904 6447714
0.46613121 -0.12496976 1.7102402 6447714
-0.33062512 -0.075193368 1.7243781 6447714
0.42839649 -0.075237073 1.7351378 6447714
0.46681732 -0.074622311 1.7102239 6447714
-0.330791 -0.024986627 1.7249352 6447714
0.42794713 -0.025236117 1.7358545 6447714
0.46644691 -0.024697442 1.7108881 6447714
-0.33145639 0.02498655 1.7247193 6447714
0.42831692 0.024975961 1.7360413 6447714
0.46679184 0.025026066 1.711086 6447714
-0.33153027 0.073837079 1.7241511 6447714
-0.2753236 0.095827743 1.7262527 6447714
-0.22524731 0.095976658 1.7287527 6447714
-0.17243971 0.096184216 1.7266985 6447714
-0.12494051 0.096384831 1.7235574 6447714
-0.075072981 0.09653607 1.725775 6447714
-0.027475284 0.096733384 1.722971 6513507
0.024955889 0.096942507 1.7206507 6513507
0.074968904 0.097089969 1.7232679 6513507
0.12476698 0.097238421 1.7257192 6513507
0.17472835 0.097384028 1.7284876 6513507
0.22714069 0.097586766 1.7267574 8947848
0.27483222 0.097796932 1.7227938 10197915
0.3252902 0.09794151 1.7258205 10197915
0.37319282 0.098118573 1.7249997 10197915
0.42843047 0.075490154 1.7353016 7631988
0.4671745 0.074389152 1.7111882 7763574
-0.304212 -0.60229379 1.756575 6447714
-0.28777924 -0.60244685 1.7819108 6447714
-0.30424911 -0.57502609 1.7569592 6447714
-0.28794181 -0.57502818 1.7821035 6447714
-0.30437449 -0.52490282 1.7575775 6447714
-0.28856516 -0.52518809 1.7819514 6447714
-0.30502522 -0.47477186 1.7573847 6447714
-0.2887474 -0.47498733 1.7824807 6447714
0.33662692 -0.45138451 1.7914661 6447714
0.37450296 -0.45117077 1.7669007 6447714
-0.30515423 -0.42500713 1.7579913 6447714
-0.28884542 -0.42500299 1.7831393 6447714
0.33693522 -0.42501274 1.7914907 6447714
0.37543184 -0.42499575 1.7665201 6447714
0.40094647 -0.41182184 1.750084 6447714
-0.30539972 -0.37452084 1.7584296 6447714
-0.28955561 -0.37501416 1.7828521 6447714
0.33744916 -0.37531686 1.7915769 6447714
0.37551114 -0.37499076 1.7668929 6447714
0.40100899 -0.37490264 1.750357 6447714
-0.30595374 -0.32496989 1.7583774 6447714
-0.28962594 -0.32498765 1.7835531 6447714
0.33774045 -0.32501939 1.7918162 6447714
0.37559843 -0.32496381 1.7672626 6447714
0.40134022 -0.32132134 1.7505971 6447714
-0.3060796 -0.27502379 1.7589918 6447714
-0.28986463 -0.27520597 1.7839915 6447714
0.33806649 -0.2753143 1.7920287 6447714
0.37567759 -0.2749725 1.7676346 6447714
0.40180981 -0.27488351 1.7506869 6447714
-0.30645019 -0.22445157 1.7592393 6447714
-0.29045269 -0.2249745 1.7838973 6447714
0.33854982 -0.22500542 1.7921416 6447714
0.37543854 -0.22515611 1.7682123 6447714
0.40154648 -0.22220029 1.7513053 6447714
-0.30686334 -0.17500019 1.7594026 6447714
-0.29056451 -0.17499991 1.7845334 6447714
0.33873221 -0.17508511 1.7924473 6447714
0.37520531 -0.17502128 1.7687904 6447714
0.40197897 -0.17486754 1.7514267 6447714
-0.30643886 -0.12471605 1.7608702 6447714
-0.29031458 -0.12557778 1.7857201 6447714
0.33930269 -0.12488552 1.7925032 6447714
0.37526786 -0.1250632 1.7691748 6447714
0.40206385 -0.12482788 1.7517967 6447714
-0.30694026 -0.074339911 1.7609134 6447714
-0.29080358 -0.075168923 1.7857819 6447714
0.33931983 -0.075422145 1.792913 6447714
0.37525848 -0.074855201 1.7696074 6447714
0.40269172 -0.07400573 1.7518213 6447714
-0.30718383 -0.024808368 1.7613398 6447714
-0.29084545 -0.025163116 1.7865263 6447714
0.33935294 -0.025531979 1.7933149 6447714
0.37470579 -0.024936471 1.7703911 6447714
0.40286523 -0.024679257 1.752128 6447714
-0.30729422 0.024820259 1.761972 6447714
-0.29125503 0.024732124 1.7867012 6447714
0.3395696 0.025265265 1.793606 6447714
0.37478471 0.02494345 1.7707628 6447714
0.40334934 0.025750998 1.752242 6447714
-0.30791867 0.073063493 1.7616466 6447714
-0.2892715 0.07580512 1.7845181 6447714
-0.22478494 0.095498808 1.7732654 6447714
-0.17509539 0.095644236 1.7759657 6447714
-0.12489387 0.095792919 1.7785282 6447714
-0.074898489 0.095939301 1.7812394 6447714
-0.022882996 0.096178532 1.7759876 6447714
0.025016757 0.096351154 1.7755771 6447714
0.073863611 0.096598305 1.7685549 6513507
0.12536605 0.096767887 1.7696024 6513507
0.17511307 0.096915625 1.7721039 6513507
0.22501107 0.097060211 1.7749484 6513507
0.27506095 0.097208828 1.7774655 8618883
0.33801419 0.076346345 1.7919753 7105644
0.37505862 0.074287623 1.7707964 7105644
0.40367302 0.073934503 1.7524086 7303023
0.24626699 -0.65196651 1.8483719 11711154
0.27430305 -0.65167761 1.8301898 11711154
0.3215816 -0.65151852 1.8174598 11711154
-0.2630201 -0.60260123 1.8200858 6447714
-0.246952 -0.60261023 1.8448615 6447714
0.24658227 -0.62505877 1.8483958 11711154
0.27519381 -0.62496728 1.8298388 11711154
0.32161093 -0.62502927 1.8178209 11711154
-0.26319098 -0.57503104 1.8202686 6447714
-0.2469312 -0.57490385 1.8453419 6447714
0.24727795 -0.57552195 1.8483657 9474192
0.27524436 -0.57499325 1.8302304 10921638
0.32152987 -0.57517034 1.8183451 11711154
-0.26384217 -0.52489859 1.820075 6447714
-0.2472204 -0.52625304 1.8456831 6447714
0.24737233 -0.5248965 1.848734 6447714
0.27529576 -0.52501899 1.8306214 6513507
0.32089105 -0.52498227 1.8181577 7697781
-0.26397318 -0.47501832 1.8206811 6447714
-0.24775989 -0.47503948 1.8456805 6447714
0.24777514 -0.47766292 1.8488744 6447714
0.27476141 -0.47508952 1.8313923 6447714
0.31861809 -0.47684929 1.8169996 6447714
-0.26410392 -0.42498025 1.8212886 6447714
-0.24783042 -0.42510778 1.8463796 6447714
0.24819611 -0.42515025 1.8490469 6447714
0.27472165 -0.42500943 1.831843 6447714
0.31159991 -0.42501825 1.807924 6447714
-0.2648119 -0.37498114 1.8210073 6447714
-0.24819219 -0.37699857 1.8466005 6447714
0.24834353 -0.37729746 1.849358 6447714
0.27482724 -0.37500101 1.8321989 6447714
0.31210148 -0.37473887 1.8080254 6447714
-0.26489002 -0.32501185 1.8216947 6447714
-0.24864987 -0.32515731 1.846734 6447714
0.24900629 -0.32485658 1.8493731 6447714
0.27480254 -0.32497117 1.8326401 6447714
0.31238243 -0.32504666 1.8082646 6447714
-0.26475906 -0.27462113 1.8227134 6447714
-0.24841534 -0.27734718 1.8478695 6447714
0.24905857 -0.27511305 1.8497616 6447714
0.27488288 -0.27500373 1.8330115 6447714
0.3126834 -0.2746771 1.808497 6447714
-0.26509193 -0.22503234 1.8230016 6447714
-0.24841857 -0.22932264 1.8486413 6447714
0.24908753 -0.24755467 1.8499765 6447714
0.27498883 -0.22505826 1.8333676 6447714
0.31319693 -0.22496977 1.8085861 6447714
-0.26519826 -0.17497709 1.8236475 6447714
-0.24892099 -0.175392 1.8487393 6447714
0.27499962 -0.1750073 1.8337862 6447714
0.31336448 -0.17492342 1.8089024 6447714
-0.26548859 -0.1247462 1.8240136 6447714
-0.24901214 -0.12488759 1.8494163 6447714
0.27545467 -0.12511204 1.8339149 6447714
0.31394997 -0.12507921 1.8089457 6447714
-0.26605985 -0.074985214 1.8239381 6447714
-0.24907428 -0.09043292 1.8498782 6447714
0.27588549 -0.075051524 1.8340605 6447714
0.31409156 -0.074850105 1.8092819 6447714
-0.26603937 -0.024975516 1.8247782 6447714
0.27595744 -0.025200168 1.8344365 6447714
0.31468418 -0.024602942 1.8093237 6447714
-0.26645753 0.025211755 1.8249452 6447714
0.27656743 0.02508083 1.8344687 6447714
0.31486878 0.02477604 1.8096232 6447714
-0.26723117 0.073016211 1.8238462 6447714
-0.22504133 0.094997339 1.8197416 6447714
-0.17517737 0.095140584 1.8227015 6447714
-0.12514855 0.095288128 1.8253118 6447714
-0.074980043 0.095432244 1.8282888 6447714
-0.025027191 0.09557765 1.8310744 6447714
0.025078129 0.09572351 1.8338693 6447714
0.075756013 0.095993526 1.8253253 6447714
0.12485952 0.096271299 1.8155426 6513507
0.17514224 0.096419938 1.8181341 6513507
0.22520246 0.096566111 1.8208838 6513507
0.2765494 0.074451141 1.8340313 6447714
0.31523338 0.073742807 1.8097779 6513507
0.1834579 -0.65221244 1.8891087 11711154
0.22156124 -0.65202987 1.864396 11711154
0.34896132 -0.65190578 1.8512433 11711154
0.36535898 -0.65167397 1.8765317 11711154
-0.22756751 -0.60280043 1.8747481 6447714
0.18325992 -0.62506211 1.889468 11053224
0.22177352 -0.6249463 1.864488 11711154
0.34907588 -0.62526524 1.8518511 11711154
0.36522076 -0.62538683 1.8767434 11711154
-0.2276181 -0.57504719 1.8751193 6447714
0.18359023 -0.57532245 1.8896759 6447714
0.22238858 -0.57492995 1.8645139 8026746
0.34892851 -0.57161021 1.8524923 11711154
0.36461985 -0.57503128 1.8766325 11711154
-0.22863433 -0.52479893 1.8743658 6447714
0.18397878 -0.52505273 1.8898512 6447714
0.22251332 -0.52499831 1.864858 6447714
0.34842649 -0.52493775 1.8524733 7368816
0.36488092 -0.52499849 1.8778446 6974058
-0.22908323 -0.47501147 1.8744786 6447714
0.1841193 -0.47513741 1.8901827 6447714
0.22295056 -0.47479817 1.8649988 6447714
0.34857506 -0.48412243 1.853363 6447714
0.36356169 -0.48788598 1.8764111 6447714
-0.22914714 -0.42499956 1.8751894 6447714
0.18481484 -0.42497271 1.8901579 6447714
0.2233396 -0.42499709 1.8651704 6447714
-0.23022279 -0.37472421 1.8743458 6447714
0.18485855 -0.37493551 1.8905554 6447714
0.22353968 -0.37489268 1.8654661 6447714
-0.23065498 -0.32498258 1.8744842 6447714
0.18540242 -0.32524338 1.890624 6447714
0.22413017 -0.32500815 1.8655074 6447714
-0.23072232 -0.27500853 1.8751888 6447714
0.18563659 -0.27500379 1.8908987 6447714
0.22415653 -0.27501273 1.8659148 6447714
-0.23185 -0.22472037 1.8742633 6447714
0.18590069 -0.2252436 1.8911496 6447714
0.22490312 -0.22492386 1.8658538 6447714
-0.23218897 -0.17498042 1.8745458 6447714
0.18646918 -0.17498116 1.8912088 6447714
0.22493535 -0.17497462 1.8662572 6447714
-0.2323088 -0.12504478 1.8751694 6447714
0.18657704 -0.12516992 1.8915614 6447714
0.22502936 -0.12498984 1.8666221 6447714
0.25063843 -0.11343852 1.8501099 6447714
-0.23342502 -0.074758068 1.8742619 6447714
0.1871739 -0.075391948 1.8915973 6447714
0.22508149 -0.074871816 1.8670132 6447714
0.25067896 -0.075126193 1.8504088 6447714
-0.23375307 -0.024976047 1.8745606 6447714
0.1873107 -0.025080916 1.8919357 6447714
0.22516809 -0.024890466 1.8673832 6447714
0.25098193 -0.021813285 1.8506649 6447714
-0.23382333 0.024956932 1.8752629 6447714
0.18770804 0.024703214 1.8921009 6447714
0.22520007 0.024875129 1.8677839 6447714
0.25148985 0.02530325 1.8507365 6447714
-0.25065079 0.079718262 1.8502014 6447714
-0.23363703 0.073658541 1.8742368 6447714
-0.17487001 0.094612911 1.8717918 6447714
-0.12504102 0.094755068 1.8748401 6447714
-0.07505738 0.094901823 1.8775076 6447714
-0.02492488 0.095044836 1.8805739 6447714
0.0249754 0.09518934 1.8834327 6447714
0.073294379 0.095350049 1.8842667 6447714
0.12471629 0.095751457 1.8637636 6447714
0.1865091 0.075692885 1.8891536 6447714
0.22505653 0.073576555 1.8679236 6447714
0.25154108 0.073622584 1.8511136 6447714
0.094297543 -0.65274233 1.9469346 8618883
0.1249355 -0.65241891 1.9270653 11711154
0.15849684 -0.65232599 1.9052974 11711154
0.39018527 -0.65185767 1.9148098 11711154
0.40684083 -0.65206766 1.9404889 11711154
-0.20555846 -0.60302752 1.9086807 6447714
-0.18971583 -0.6031211 1.9331076 6447714
0.09507329 -0.62535024 1.9466637 6447714
0.12533414 -0.62500852 1.9270381 7829367
0.15865588 -0.62505394 1.9054255 9737364
0.39009118 -0.62434113 1.9151102 11711154
0.40614003 -0.62601078 1.9398302 11711154
-0.20564657 -0.57487541 1.9090009 6447714
-0.18983231 -0.5751003 1.9333816 6447714
0.095179774 -0.57485586 1.947024 6447714
0.12537837 -0.5750283 1.9274352 6447714
0.15913118 -0.57444781 1.9055482 6447714
0.38952982 -0.57503432 1.9150428 11579568
0.40594909 -0.57508653 1.9403603 11184810
-0.2063971 -0.52487487 1.9086525 6447714
-0.18991919 -0.5250966 1.934057 6447714
0.095517844 -0.52612519 1.9472184 6447714
0.12537956 -0.52500129 1.9278576 6447714
0.15947492 -0.52503294 1.9057447 6447714
0.38983506 -0.5250206 1.9163221 6447714
0.4061988 -0.52508831 1.941554 6447714
-0.20643423 -0.47487912 1.9094037 6447714
-0.1902037 -0.47549292 1.9344214 6447714
0.096002571 -0.4751797 1.9473367 6447714
0.12539133 -0.47497854 1.9282776 6447714
0.15960772 -0.47483906 1.9060843 6447714
0.38830271 -0.49385354 1.9144647 6447714
0.40462342 -0.49782845 1.9395661 6447714
-0.20654233 -0.42502245 1.9100447 6447714
-0.19076513 -0.42503023 1.9343721 6447714
0.0960228 -0.42525044 1.9477472 6447714
0.12546659 -0.4249827 1.928653 6447714
0.16030423 -0.42507792 1.9060558 6447714
-0.20728451 -0.37509161 1.9097092 6447714
-0.19078387 -0.37502131 1.9351524 6447714
0.096763358 -0.37558153 1.9476893 6447714
0.12544158 -0.37498945 1.929093 6447714
0.16034169 -0.37504452 1.9064561 6447714
-0.20738134 -0.32504916 1.9103696 6447714
-0.19109584 -0.32541642 1.9354755 6447714
0.096846052 -0.32524398 1.948063 6447714
0.12550795 -0.32499987 1.9294739 6447714
0.16090746 -0.32457918 1.9065186 6447714
-0.20741385 -0.27497089 1.91113 6447714
-0.19163419 -0.27502787 1.9354601 6447714
0.097188748 -0.27701151 1.9482508 6447714
0.12554345 -0.27498865 1.929877 6447714
0.16114902 -0.2750172 1.9067822 6447714
-0.20779906 -0.22446303 1.9113519 6447714
-0.19134727 -0.22555561 1.9367023 6447714
0.097669385 -0.22520502 1.9483778 6447714
0.12553582 -0.2249811 1.9303055 6447714
0.16140638 -0.22469069 1.9070417 6447714
-0.20758386 -0.17496912 1.912485 6447714
-0.19123048 -0.17542221 1.9376938 6447714
0.097706921 -0.17545854 1.9487762 6447714
0.1256125 -0.17495176 1.9306808 6447714
0.16203913 -0.1750838 1.9070528 6447714
-0.20770764 -0.12490019 1.913106 6447714
-0.19185619 -0.12492879 1.9375457 6447714
0.098492898 -0.12513381 1.9486941 6447714
0.12553553 -0.12495024 1.9311556 6447714
0.16198824 -0.12486012 1.9075128 6447714
-0.20834915 -0.075036325 1.9129223 6447714
-0.19193792 -0.074825279 1.9382319 6447714
0.098513715 -0.075095788 1.9491054 6447714
0.12535803 -0.075008921 1.9316955 6447714
0.16227813 -0.074530289 1.9077513 6447714
-0.20853727 -0.025065122 1.9134417 6447714
-0.19207455 -0.025211237 1.9388237 6447714
0.098828189 -0.02930643 1.9492903 6447714
0.12482294 -0.024817683 1.9324683 6447714
0.16207434 -0.025252568 1.9083018 6447714
-0.20861632 0.025016401 1.9141301 6447714
-0.19273955 0.024898918 1.9386095 6447714
0.099337518 0.025037164 1.9494215 6447714
0.12484907 0.024824604 1.9328723 6447714
0.16251294 0.025574572 1.9084496 6447714
-0.20921367 0.072537504 1.9137532 6447714
-0.18942234 0.075768195 1.9363785 6447714
-0.12492525 0.094196744 1.9267199 6447714
-0.074744843 0.094341137 1.9296736 6447714
-0.024816891 0.094482504 1.9328252 6447714
0.022375748 0.094636738 1.9338913 6447714
0.087237567 0.085522011 1.9333919 6447714
0.12489989 0.073576629 1.9320099 6447714
0.16283248 0.073396862 1.9084829 6447714
0.076771379 -0.65271258 1.958302 6447714
0.43021315 -0.65231675 1.9765244 11711154
-0.16491339 -0.60319424 1.9713504 6447714
-0.14811032 -0.60347813 1.9972553 6447714
0.077790551 -0.62487078 1.9578781 6447714
0.42888007 -0.6247471 1.9749143 11711154
-0.16501087 -0.57497203 1.9716568 6447714
-0.14838594 -0.57755214 1.9972495 6447714
0.077888913 -0.57504165 1.9582374 6447714
0.42769 -0.57494146 1.9738867 10658466
-0.16507436 -0.52496797 1.9723674 6447714
-0.14895025 -0.52500856 1.9972302 6447714
0.078258015 -0.52456039 1.9584262 6447714
0.4269897 -0.52821028 1.9735627 6447714
-0.16540045 -0.4746516 1.9726818 6447714
-0.14899209 -0.47511929 1.9979731 6447714
0.078707643 -0.4749108 1.9585569 6447714
-0.165906 -0.42497808 1.9727045 6447714
-0.14915697 -0.42836645 1.9984758 6447714
0.078739464 -0.42497939 1.9589607 6447714
-0.16599788 -0.37498838 1.9733714 6447714
-0.14984335 -0.37502071 1.9982809 6447714
0.07948564 -0.37493271 1.9589008 6447714
-0.16625671 -0.32475033 1.9737846 6447714
-0.14989814 -0.32463983 1.9990116 6447714
0.078915536 -0.3247585 1.9596971 6447714
-0.166803 -0.27500474 1.9737482 6447714
-0.14994851 -0.27835631 1.9996831 6447714
0.079173423 -0.27468851 1.9599555 6447714
-0.16685535 -0.22498366 1.9744772 6447714
0.079619274 -0.2250592 1.9600868 6447714
-0.16714059 -0.17482238 1.9748496 6447714
0.079571433 -0.17499453 1.9605424 6447714
-0.16768824 -0.12506416 1.9748092 6447714
0.080363072 -0.12499683 1.9604554 6447714
-0.16845356 -0.075064361 1.974438 6447714
0.080525622 -0.075202607 1.9607716 6447714
-0.16874135 -0.024877641 1.9748077 6447714
0.080850907 -0.024896113 1.9609879 6447714
-0.16940631 0.025009343 1.9745907 6447714
0.081214987 0.025188152 1.9611775 6447714
-0.16963165 0.072370924 1.9744444 6447714
-0.12479768 0.093601711 1.9820006 6447714
-0.077372804 0.09375751 1.9829985 6447714
-0.025343146 0.094039045 1.9738225 6447714
0.028903738 0.094249368 1.9719883 6447714
0.080466382 0.073783644 1.961417 6447714
0.4484795 -0.65278476 2.0046828 11711154
0.4639172 -0.65245032 2.0284925 11711154
-0.12987231 -0.60342824 2.0253782 6447714
0.44833502 -0.62544858 2.0049024 11711154
0.46384987 -0.62473255 2.0288367 11711154
-0.13042828 -0.57469511 2.024986 6447714
0.44637635 -0.57497478 2.0026987 10263708
0.46297616 -0.57508522 2.0282936 9868950
-0.13133648 -0.52528405 2.024385 6447714
0.44657427 -0.53334767 2.0036778 6447714
0.46205977 -0.53677136 2.0275006 6447714
-0.13169995 -0.47499377 2.0246389 6447714
-0.13196868 -0.42476243 2.0250375 6447714
-0.13284005 -0.37526864 2.0244942 6447714
-0.13336617 -0.3249864 2.0244968 6447714
-0.13348827 -0.27486593 2.0251193 6447714
-0.15001684 -0.21549328 2.0005941 6447714
-0.13390277 -0.22547202 2.02528 6447714
-0.15006097 -0.17493136 2.001183 6447714
-0.13427623 -0.17500444 2.0255206 6447714
-0.15011594 -0.12440399 2.0019159 6447714
-0.13430107 -0.12499474 2.0262942 6447714
-0.15091296 -0.074626006 2.0014927 6447714
-0.13438429 -0.075115278 2.0269711 6447714
-0.1509673 -0.024883304 2.002214 6447714
-0.13508996 -0.025221743 2.0266922 6447714
-0.15102167 0.024895262 2.0029356 6447714
-0.13521478 0.025111651 2.0273139 6447714
-0.15169279 0.072734982 2.0026753 6447714
-0.13459867 0.072612584 2.0278368 6447714
-0.071820006 0.093345627 2.0230532 6447714
-0.025060406 0.093576565 2.0168555 6447714
0.025111472 0.093719579 2.0199385 6447714
0.056960426 0.093810357 2.0218947 6447714
0.48941731 -0.65267426 2.0678091 11711154
0.50538766 -0.65275085 2.0924337 11711154
-0.10672153 -0.60368598 2.0610709 6447714
-0.090912826 -0.60376614 2.0854459 6447714
0.48823518 -0.62558389 2.0664246 11711154
0.50453937 -0.62362891 2.0915971 11711154
-0.1067552 -0.57505661 2.0614822 6447714
-0.090729244 -0.57505459 2.0861936 6447714
0.48814029 -0.57494044 2.0670981 9211020
0.50448263 -0.57491446 2.092298 8816262
-0.10731921 -0.52441144 2.0614328 6447714
-0.090787545 -0.52496016 2.0869138 6447714
0.48721293 -0.5429365 2.066186 6447714
0.50397772 -0.54701728 2.0919707 6447714
-0.10761984 -0.47508374 2.0617673 6447714
-0.091486871 -0.47517726 2.0866425 6447714
-0.10766978 -0.42501399 2.0625007 6447714
-0.091681086 -0.42491123 2.0871577 6447714
-0.1080349 -0.37448704 2.0627558 6447714
-0.091675334 -0.37489519 2.0879753 6447714
-0.1085189 -0.32505196 2.0628102 6447714
-0.092129521 -0.32561633 2.0880721 6447714
-0.10856324 -0.27496552 2.0635509 6447714
-0.092555217 -0.27501145 2.0882344 6447714
-0.10876606 -0.22460996 2.064054 6447714
-0.092588671 -0.22501163 2.0889914 6447714
-0.10945322 -0.17492075 2.0637984 6447714
-0.092781842 -0.17554887 2.0894935 6447714
-0.10945264 -0.12494633 2.0646079 6447714
-0.093510903 -0.12528791 2.0891833 6447714
-0.10957732 -0.07479763 2.0652273 6447714
-0.093502447 -0.075328648 2.0900047 6447714
-0.11027535 -0.024685388 2.0649612 6447714
-0.093536429 -0.025117673 2.090765 6447714
-0.11036516 0.02481862 2.0656245 6447714
-0.094288111 0.024787063 2.0904138 6447714
-0.1104133 0.071828827 2.0659411 6447714
-0.089410655 0.076687701 2.0864375 6447714
-0.024948396 0.092928387 2.077075 6447714
0.024999011 0.093069769 2.0802352 6447714
0.057799909 0.093162581 2.0823104 6447714
0.52616531 -0.65296447 2.1244683 11711154
-0.065732382 -0.60393232 2.1242697 6447714
0.52588212 -0.62559706 2.1244757 11711154
-0.066015698 -0.57501411 2.1243017 6447714
0.52474624 -0.57725823 2.1235058 8553090
-0.066018149 -0.52504075 2.1251054 6447714
0.51251572 -0.54914349 2.1051016 6447714
-0.066773742 -0.47488537 2.1247525 6447714
-0.067593068 -0.42524481 2.1242936 6447714
-0.067798287 -0.37504601 2.1247883 6447714
-0.068215542 -0.32469258 2.1249621 6447714
-0.068980411 -0.27529848 2.1245818 6447714
-0.069512762 -0.22499821 2.1245742 6447714
-0.069750972 -0.1747638 2.1250179 6447714
-0.070439287 -0.12490969 2.124764 6447714
-0.071202807 -0.074895166 2.1243963 6447714
-0.071379788 -0.024977019 2.1249318 6447714
-0.072156556 0.025076363 2.1245453 6447714
-0.072267905 0.071487047 2.124547 6447714
-0.024638699 0.092418209 2.1245444 6447714
0.024688039 0.092557006 2.1277354 6447714
0.058238827 0.092651442 2.1299062 6447714
0.54666054 -0.65295351 2.1560714 11711154
0.56321311 -0.65314287 2.1815922 11711154
-0.033058181 -0.60407841 2.174649 6447714
0.54593956 -0.62230772 2.1554561 11711154
0.56172025 -0.62510568 2.179744 11711154
-0.033352491 -0.57504088 2.1746652 6447714
0.54557532 -0.58227324 2.1555426 8421504
0.56105566 -0.58577561 2.1793556 8289918
-0.03402267 -0.52527744 2.1744378 6447714
-0.034217294 -0.474998 2.1749511 6447714
-0.050778374 -0.41958866 2.1503124 6447714
-0.034226313 -0.42499393 2.1757472 6447714
-0.050795071 -0.37427801 2.1510198 6447714
-0.034505285 -0.37524104 2.1761212 6447714
-0.050813433 -0.32449132 2.1517971 6447714
-0.035182904 -0.32500216 2.1758897 6447714
-0.051318254 -0.27031109 2.1518955 6447714
-0.035157982 -0.27504364 2.1767383 6447714
-0.051709943 -0.22467172 2.1520295 6447714
-0.035178538 -0.22505015 2.1775136 6447714
-0.051728632 -0.17480743 2.1528075 6447714
-0.035866786 -0.17534162 2.1772568 6447714
-0.051747341 -0.1249072 2.1535861 6447714
-0.036081433 -0.12506749 2.1777394 6447714
-0.052625306 -0.074924752 2.1530418 6447714
-0.036124185 -0.07519085 2.1784804 6447714
-0.052644353 -0.024982955 2.1538205 6447714
-0.036398012 -0.025517516 2.178863 6447714
-0.052663404 0.024995012 2.1546001 6447714
-0.037021797 0.025157271 2.1787212 6447714
-0.053206343 0.072906263 2.1545072 6447714
-0.035213023 0.073402569 2.1784222 6447714
0.024818305 0.092022203 2.1774385 6447714
0.06005992 0.092109516 2.1808224 6447714
0.58937633 -0.65326697 2.2219331 11711154
0.60492831 -0.65357625 2.2459083 11711154
-0.0084090726 -0.60425746 2.2126539 6447714
0.007642597 -0.60437649 2.2374029 6447714
0.58621573 -0.62518752 2.2175138 11711154
0.60341167 -0.62444776 2.2440412 11711154
-0.0082372408 -0.57494056 2.2133942 6447714
0.0074284188 -0.57495868 2.2375491 6447714
0.58470041 -0.59152734 2.2157218 7829367
0.6030544 -0.59590083 2.243952 6710886
-0.0089476332 -0.52441156 2.2131159 6447714
0.0074096527 -0.52497679 2.2383306 6447714
-0.0091949208 -0.474942 2.2135363 6447714
0.007433821 -0.47495779 2.2391741 6447714
-0.0091781402 -0.4250254 2.2143691 6447714
0.0068474454 -0.4257578 2.2390678 6447714
-0.0094499197 -0.37465242 2.2147655 6447714
0.0065037007 -0.37493601 2.2393601 6447714
-0.010105049 -0.32503366 2.2145572 6447714
0.0065060644 -0.32495585 2.2401714 6447714
-0.010054484 -0.27492341 2.2154477 6447714
0.0064785895 -0.27506813 2.2409389 6447714
-0.010112754 -0.22494251 2.2161658 6447714
0.0055585098 -0.22507434 2.2403276 6447714
-0.010843111 -0.17455797 2.2158539 6447714
0.0055488674 -0.17532854 2.2411177 6447714
-0.010983002 -0.12495249 2.2164431 6447714
0.0055798809 -0.12538956 2.2419746 6447714
-0.011092021 -0.074787103 2.2170858 6447714
0.0051742294 -0.07637734 2.2421417 6447714
-0.011317716 -0.024360184 2.2175548 6447714
0.0046492657 -0.025078809 2.242162 6447714
-0.011909948 0.024805235 2.2174361 6447714
0.004650957 0.025090959 2.2429767 6447714
-0.011913855 0.070759319 2.2181275 6447714
0.0086525967 0.074747927 2.2409909 6447714
0.061039969 0.091558091 2.2323339 6447714
0.62419182 -0.65345472 2.2756138 11711154
0.03123668 -0.60442662 2.2737827 6447714
0.6235947 -0.6264748 2.2751298 11513775
0.031094251 -0.57501453 2.274039 6447714
0.61247295 -0.59862268 2.2584314 6447714
0.031123109 -0.52505177 2.2748921 6447714
0.030952631 -0.47518879 2.2754374 6447714
0.029574037 -0.42462403 2.2741296 6447714
0.02919329 -0.37495661 2.2743461 6447714
0.029242052 -0.32496867 2.2752292 6447714
0.028709669 -0.27538586 2.275212 6447714
0.027336968 -0.22503613 2.2739089 6447714
0.02729135 -0.17494954 2.2746494 6447714
0.027343353 -0.1249916 2.2755389 6447714
0.026152987 -0.074869774 2.2745135 6447714
0.025350064 -0.02505401 2.2740819 6447714
0.025354777 0.025010778 2.2748997 6447714
0.025874222 0.071353517 2.2754061 6447714
0.062034447 0.091169953 2.268703 6447714
0.64589649 -0.65389252 2.3090746 11711154
0.6611228 -0.65362066 2.3325577 11711154
0.048607711 -0.60521358 2.3005548 6447714
0.063708082 -0.60473818 2.3238461 6447714
0.64565754 -0.63139844 2.3090708 11711154
0.6604048 -0.63495886 2.3317523 11711154
0.04861844 -0.57484007 2.3010631 6447714
0.063566148 -0.57501948 2.3241081 6447714
0.048636235 -0.52450693 2.3019049 6447714
0.063539557 -0.5250051 2.3248773 6447714
0.048392061 -0.47221908 2.3023753 6447714
0.063601539 -0.47495389 2.3257835 6447714
0.047686115 -0.42535305 2.3020446 6447714
0.063568354 -0.42500052 2.3265402 6447714
0.047722001 -0.37541464 2.3029087 6447714
0.062647402 -0.37498528 2.3259301 6447714
0.047702275 -0.32497802 2.3036945 6447714
0.062640347 -0.32506984 2.3267267 6447714
0.047148317 -0.27238587 2.3036911 6447714
0.062651157 -0.2750451 2.3275533 6447714
0.046770532 -0.22525261 2.3038719 6447714
0.062698059 -0.22498399 2.3284359 6447714
0.046812415 -0.17535999 2.3047431 6447714
0.062762253 -0.17488575 2.329345 6447714
0.046779934 -0.12481166 2.3055115 6447714
0.062731005 -0.12497308 2.3301032 6447714
0.045925338 -0.073832959 2.3050184 6447714
0.062556706 -0.075473621 2.3306367 6447714
0.045853909 -0.024834353 2.3057017 6447714
0.061817523 -0.025099415 2.3303127 6447714
0.04587042 0.024846256 2.3065307 6447714
0.061840031 0.025111577 2.3311598 6447714
0.045773733 0.071149834 2.3070014 6447714
0.061920583 0.071588717 2.3307042 6447714
0.68532872 -0.6538676 2.3698781 11711154
0.70139182 -0.65476459 2.3946326 11711154
0.68352598 -0.64052814 2.3673143 11711154
0.70147687 -0.64492208 2.3949232 11711154
0.074968554 -0.055496145 2.3500981 6447714
0.07498493 -0.02531804 2.3506117 6447714
0.075012438 0.025330424 2.3514738 6447714
0.075036786 0.070165172 2.352237 6447714
0.71771806 -0.65448576 2.4198115 11711154
0.70987028 -0.64693868 2.4078326 11711154
0.82977122 -1.5664773 3.5379143 11711154
0.87725884 -1.5678613 3.5405118 11711154
0.91243297 -1.5663503 3.5388942 11711154
0.83102846 -1.5249438 3.5374501 11711154
0.87383091 -1.5253079 3.5396907 11711154
0.91221476 -1.5249935 3.5394289 11711154
0.83097667 -1.4748797 3.5379102 11711154
0.87384492 -1.4749279 3.5404036 11711154
0.91221315 -1.474793 3.5400078 11711154
0.8311525 -1.4249985 3.5382199 11711154
0.87390816 -1.4245378 3.541115 11711154
0.91189545 -1.4255687 3.5403543 11711154
0.83251667 -1.3749954 3.5377588 11711154
0.87137419 -1.3744882 3.5408044 11711154
0.9108007 -1.3752499 3.5402288 11711154
0.83251327 -1.3249867 3.5381885 11711154
0.87171817 -1.325415 3.541611 11711154
0.91094822 -1.3251084 3.5408013 11711154
0.83271116 -1.274969 3.5384829 11711154
0.87269306 -1.2751571 3.5410142 11711154
0.91118813 -1.2748007 3.541434 11711154
0.83280337 -1.2249392 3.5388467 11711154
0.8728506 -1.2247299 3.542068 11711154
0.91128433 -1.2247912 3.5419514 11711154
0.83344406 -1.1753496 3.5388539 11711154
0.87074399 -1.1758746 3.542176 11711154
0.91135216 -1.1747668 3.5425856 11711154
0.83795804 -1.1349941 3.5362678 11711154
0.86913306 -1.1273001 3.5423779 11711154
0.91049767 -1.1255423 3.5425823 11711154
0.89835697 -1.0909671 3.5489948 11711154
0.9111293 -1.0840874 3.5421834 11711154
0.74099165 -1.6044968 3.595175 11711154
0.75606287 -1.6020001 3.5854211 11711154
0.95827371 -1.6043935 3.5935571 11711154
0.74169344 -1.5752369 3.5949686 11711154
0.7735588 -1.5738558 3.574311 11711154
0.80521607 -1.5700351 3.5538101 11711154
0.8806408 -1.5701479 3.5545366 11711154
0.93968815 -1.5722592 3.5654185 11711154
0.95647454 -1.5770669 3.5912247 11711154
0.74175799 -1.5250081 3.5953529 11711154
0.77448422 -1.5249213 3.5741267 11711154
0.80540466 -1.5251198 3.5540681 11711154
0.88071239 -1.5254172 3.5549362 11711154
0.93962878 -1.5246584 3.5660968 11711154
0.95463854 -1.5256315 3.589226 11711154
0.74242604 -1.4761627 3.595335 11711154
0.77446759 -1.4749647 3.5745623 11711154
0.80548847 -1.4752107 3.5544384 11711154
0.88073701 -1.4752215 3.5555561 11711154
0.93998551 -1.4749866 3.5674508 11711154
0.9550032 -1.4756378 3.5905972 11711154
0.74324071 -1.424822 3.5952425 11711154
0.77462965 -1.4250743 3.5748806 11711154
0.80557215 -1.425292 3.5548096 11711154
0.88109088 -1.4248372 3.5560791 11711154
0.93950206 -1.4240632 3.5675294 11711154
0.95536828 -1.4256063 3.5919702 11711154
0.74331802 -1.3749188 3.5956161 11711154
0.774629 -1.3750962 3.5753057 11711154
0.80695158 -1.3750899 3.5543408 11711154
0.88245541 -1.3749542 3.555886 11711154
0.93821925 -1.3755295 3.5663376 11711154
0.95573372 -1.3755367 3.5933437 11711154
0.74339503 -1.3250054 3.5959897 11711154
0.77476621 -1.325029 3.5756414 11711154
0.80702347 -1.3249184 3.5547199 11711154
0.88232708 -1.3245964 3.5562885 11711154
0.93857586 -1.3257983 3.5676913 11711154
0.95609933 -1.3254282 3.5947182 11711154
0.7434417 -1.2747843 3.5963857 11711154
0.77479082 -1.2749525 3.576051 11711154
0.80710781 -1.2749797 3.555089 11711154
0.88103163 -1.2749947 3.5562298 11711154
0.93881893 -1.2757286 3.5688765 11711154
0.95565802 -1.2794054 3.5947828 11711154
0.74484926 -1.2346933 3.5958138 11711154
0.77566195 -1.2256652 3.5759048 11711154
0.80719113 -1.2250307 3.5554595 11711154
0.88116753 -1.2250916 3.5567799 11711154
0.93923718 -1.2253428 3.5703378 11711154
0.95430386 -1.2252588 3.5935707 11711154
0.78741723 -1.1870575 3.5686078 11711154
0.8083331 -1.1757511 3.5551372 11711154
0.88202661 -1.1745807 3.556968 11711154
0.93965453 -1.1752077 3.5717921 11711154
