# .PCD v0.7 - Point Cloud Data file format
VERSION 0.7
FIELDS x y z rgb
SIZE 4 4 4 4
TYPE F F F U
COUNT 1 1 1 1
WIDTH 1155
HEIGHT 1
VIEWPOINT 0 0 0 1 0 0 0
POINTS 1155
DATA ascii
0.42461523 0.099946588 1.536618 10197915
0.47507423 0.0999818 1.5371593 10197915
0.098186783 0.10005109 1.5000079 10197915
0.12493339 0.10006983 1.5002888 10197915
0.17534085 0.10010512 1.5008179 10197915
0.22516093 0.10014 1.5013407 10197915
0.2771543 0.10010456 1.5090446 10197915
0.32479072 0.10012748 1.5105866 10197915
0.37498775 0.10016259 1.5111164 10197915
0.42490253 0.10019854 1.511539 10197915
0.47485512 0.10023244 1.5121703 10197915
0.5250814 0.10018536 1.5208921 10197915
0.57505769 0.10022032 1.5214226 10197915
0.6250729 0.10025523 1.521953 10197915
0.67511845 0.10029022 1.5224844 10197915
0.72520292 0.10032522 1.5230154 10197915
0.77531904 0.10036027 1.5235475 10197915
0.82526183 0.10039375 1.5242174 10197915
0.87502509 0.10042996 1.524605 10197915
0.92503512 0.10046633 1.5249934 10197915
0.97507989 0.1004999 1.5256666 10197915
1.0249467 0.10053334 1.5263364 10197915
1.074851 0.10056962 1.5267255 10197915
1.1252118 0.10060483 1.5272599 10197915
1.1751857 0.10063977 1.5277864 10197915
1.2115235 0.10056869 1.5377872 9013641
0.86756974 -0.60016435 1.5956073 11711154
0.92406362 -0.60010195 1.5885334 11711154
0.97752857 -0.60006946 1.5818386 11711154
0.84222585 -0.57607836 1.5990199 10329501
0.8748616 -0.5750308 1.5949436 10461087
0.92476457 -0.57495821 1.5886956 10855845
0.97485352 -0.57500565 1.5824226 11250603
1.025054 -0.5750578 1.5761359 11579568
1.0750325 -0.57489091 1.5698792 11711154
1.1247635 -0.57501304 1.5636508 11711154
1.1750194 -0.57476139 1.5573593 11711154
1.2165345 -0.57470375 1.5521613 11711154
0.84432185 -0.52614397 1.5992539 6513507
0.87514865 -0.52506477 1.5954045 6513507
0.92501646 -0.5249294 1.5891604 6513507
0.97510636 -0.52506202 1.5828863 6513507
1.0248857 -0.52497315 1.5766549 6513507
1.0747842 -0.52500176 1.5704055 6842472
1.1249273 -0.52497023 1.5641268 7237230
1.1750463 -0.52520376 1.5578475 7697781
1.2167298 -0.52476966 1.5526328 7960953
0.84621859 -0.47773209 1.5994973 6513507
0.8751691 -0.47496158 1.5959002 6513507
0.92526078 -0.47495121 1.589627 6513507
0.97541529 -0.47502595 1.5833458 6513507
1.0251426 -0.47499037 1.577119 6513507
1.0751066 -0.47501299 1.5708611 6513507
1.125226 -0.47496569 1.5645865 6513507
1.1749749 -0.47505775 1.5583556 6513507
1.2167426 -0.4749912 1.5531256 6513507
0.84774929 -0.43021834 1.5997777 6513507
0.87496972 -0.42507014 1.59642 6513507
0.92508209 -0.42511615 1.5901442 6513507
0.97490031 -0.42497954 1.5839072 6513507
1.0251373 -0.4248583 1.5776175 6513507
1.0752324 -0.42514259 1.5713413 6513507
1.1252073 -0.42500955 1.5650846 6513507
1.175184 -0.42488015 1.5588273 6513507
1.2171092 -0.42501551 1.5535765 6513507
0.84909898 -0.39571589 1.5999514 6513507
0.87535572 -0.3754043 1.5968651 6513507
0.92494208 -0.37485871 1.5906612 6513507
0.97472787 -0.37496707 1.5844257 6513507
1.0250075 -0.37503323 1.5781287 6513507
1.0750064 -0.37495694 1.5718687 6513507
1.1247333 -0.37499782 1.5656412 6513507
1.1751086 -0.37498578 1.5593324 6513507
1.2174524 -0.37503412 1.5540295 6513507
0.87702113 -0.32540634 1.5971533 6513507
0.92484307 -0.32500145 1.591169 6513507
0.9750331 -0.32499787 1.5848842 6513507
1.0248444 -0.32497993 1.5786462 6513507
1.0748621 -0.32497981 1.5723827 6513507
1.1250874 -0.32496321 1.5660934 6513507
1.1749039 -0.32496136 1.5598557 6513507
1.2172778 -0.32512876 1.5545479 6513507
0.87917918 -0.27552128 1.5973786 6513507
0.92511457 -0.27501374 1.5916308 6513507
0.97536111 -0.2749531 1.5853399 6513507
1.0252569 -0.27495703 1.5790927 6513507
1.0751935 -0.27505592 1.5728374 6513507
1.1252688 -0.27499092 1.5665673 6513507
1.1750686 -0.27495784 1.5603316 6513507
1.2175698 -0.27508125 1.5550089 6513507
0.88118917 -0.22547293 1.5976244 6513507
0.92521995 -0.22518764 1.5921139 6513507
0.9752928 -0.22485863 1.5858452 6513507
1.0251631 -0.22494303 1.5796006 6513507
1.0750067 -0.22516371 1.573357 6513507
1.1250541 -0.22499613 1.5670907 6513507
1.1750916 -0.22490938 1.5608253 6513507
1.2179246 -0.22489762 1.555463 6513507
0.88330394 -0.17524326 1.5978585 6513507
0.92510092 -0.17517875 1.5926249 6513507
0.97466201 -0.17482343 1.5864214 6513507
1.0248755 -0.17524247 1.5801308 6513507
1.0751923 -0.17485955 1.5738329 6513507
1.1246614 -0.17497554 1.5676372 6513507
1.1750128 -0.17523038 1.5613294 6513507
1.217886 -0.17450799 1.5559682 6513507
0.88492209 -0.12560821 1.5981489 6513507
0.92497575 -0.12516712 1.593138 6513507
0.97494566 -0.12490987 1.5868831 6513507
1.0249608 -0.12481986 1.5806206 6513507
1.07486 -0.12521327 1.5743673 6513507
1.1253071 -0.12500909 1.5680532 6513507
1.1750191 -0.12487888 1.561829 6513507
1.217937 -0.12486107 1.5564551 6513507
0.88697964 -0.07583037 1.5983858 6513507
0.92495668 -0.07526435 1.5936358 6513507
0.97522879 -0.074967138 1.5873444 6513507
1.0251064 -0.074672304 1.5811001 6513507
1.0752034 -0.075013049 1.5748236 6513507
1.1252512 -0.07498689 1.5685568 6513507
1.175265 -0.075000875 1.562294 6513507
1.2185051 -0.075237952 1.5568768 6513507
0.88900328 -0.025919773 1.5986284 6513507
0.92522639 -0.025094617 1.5941004 6513507
0.97538465 -0.025097428 1.5878192 6513507
1.025273 -0.02479683 1.5815748 6513507
1.0749662 -0.024856215 1.5753514 6513507
1.1247979 -0.024819717 1.5691119 6513507
1.1749272 -0.025375485 1.562829 6513507
1.2185681 -0.024990056 1.5573679 6447714
0.89111441 0.024263589 1.5988631 6513507
0.92496318 0.025034057 1.5946318 6513507
0.97465479 0.025077511 1.5884093 6513507
1.0249506 0.024800649 1.582108 6513507
1.0750669 0.024918387 1.5758337 6513507
1.1250033 0.024790037 1.5695795 6513507
1.1748613 0.025260476 1.5633402 6513507
1.2185202 0.025172146 1.5578722 6381921
-1.257129 0.098069221 1.5887079 10197915
-1.223003 0.09825477 1.5729622 10197915
-1.1749245 0.098308481 1.5714682 10197915
-1.1249715 0.098343119 1.5720229 10197915
-1.0749854 0.098376274 1.5727335 10197915
-1.0249656 0.098412544 1.573132 10197915
-0.97490686 0.098447323 1.5736872 10197915
-0.92503244 0.098481901 1.5742407 10197915
-0.87511909 0.098516554 1.5747947 10197915
-0.82517403 0.098551221 1.5753487 10197915
-0.77519053 0.098585941 1.5759034 10197915
-0.72517526 0.098620631 1.5764583 10197915
-0.67512125 0.098655403 1.5770137 10197915
-0.62503546 0.098690137 1.5775694 10197915
-0.57512796 0.098724782 1.5781225 10197915
-0.52518934 0.098757923 1.5788317 10197915
-0.47521386 0.098794125 1.5792315 10197915
-0.425201 0.09882886 1.5797862 10197915
-0.37493888 0.098863736 1.5803442 10197915
-0.32485491 0.09889695 1.5810559 10197915
-0.27517724 0.098934606 1.5812908 10197915
-0.22515693 0.09905827 1.5729825 10197915
-0.17504038 0.099090762 1.5737675 10197915
-0.12488784 0.099127948 1.5740888 10197915
-0.075021118 0.099161416 1.5747552 10197915
-0.025125327 0.099197246 1.5751892 10197915
0.025137112 0.09923216 1.5757437 10197915
0.077691935 0.09931834 1.5713769 10197915
0.12494408 0.09939035 1.5679924 10197915
0.17502351 0.099425182 1.5685421 10197915
0.22492281 0.099458352 1.569243 10197915
0.27485818 0.099494591 1.5696374 10197915
0.32504272 0.09952949 1.5701878 10197915
0.37504876 0.099564277 1.5707363 10197915
0.42508867 0.099597573 1.5714382 10197915
0.47515932 0.099633887 1.5718346 10197915
0.52505136 0.099670202 1.572224 10197915
0.5747593 0.099701568 1.5730805 10197915
0.62472087 0.099737875 1.5734748 10197915
0.67515117 0.099772945 1.5740283 10197915
0.7249704 0.099806033 1.5747271 10197915
0.77505094 0.099752001 1.5841336 10197915
0.82521713 0.099786833 1.5846871 10197915
0.89052421 0.077639438 1.5970203 9408399
0.9251461 0.075919434 1.5946319 9408399
0.97485805 0.075635932 1.5886054 9408399
1.0247537 0.07477916 1.5826194 9408399
1.0750672 0.074888252 1.5763298 9474192
1.1251943 0.074878946 1.5700523 9474192
1.1752018 0.075153023 1.5637934 9605778
1.2189564 0.075033642 1.558313 9276813
0.74903601 0.1000005 1.557285 10197915
0.77498436 0.1000186 1.557567 10197915
0.82495779 0.10005341 1.5581089 10197915
0.87496632 0.10008822 1.5586512 10197915
0.92500967 0.1001231 1.559194 10197915
0.97508776 0.10015798 1.5597372 10197915
1.0257447 0.10010727 1.5688524 10197915
1.07057 0.10017751 1.5652319 10197915
1.12488 0.10026232 1.5613621 10197915
1.1756518 0.10028954 1.5617862 10197915
1.2149357 0.10011484 1.5590656 10197915
-1.3052281 -0.62577343 1.6459655 6513507
0.44197619 -0.60046172 1.6488991 11711154
0.47649607 -0.60064459 1.6445742 11711154
0.52283317 -0.60044509 1.6387738 11711154
0.57462925 -0.60047591 1.6322875 11711154
0.62635779 -0.60045636 1.6258098 11711154
0.67057562 -0.6003074 1.6202742 11711154
0.72293139 -0.60031992 1.6137179 11711154
0.7791217 -0.60027927 1.6066821 11711154
0.82257879 -0.6001882 1.601241 11711154
0.44264108 -0.57640791 1.6490549 6974058
0.47533894 -0.57502568 1.6449736 7237230
0.52533501 -0.57489008 1.638713 7631988
0.57486081 -0.5749501 1.6325119 8026746
0.62452728 -0.57505339 1.6262922 8421504
0.6749354 -0.57511473 1.6199784 8816262
0.7251066 -0.5748688 1.613699 9211020
0.77510512 -0.57497013 1.6074367 9605778
0.81736374 -0.57455409 1.6021485 9934743
0.44426739 -0.5266394 1.6493455 6513507
0.47448298 -0.52497667 1.6455791 6513507
0.52497375 -0.52503157 1.6392559 6513507
0.57503182 -0.52498335 1.632988 6513507
0.62476987 -0.52498657 1.626758 6513507
0.67469639 -0.52499884 1.6205066 6513507
0.72493744 -0.52498436 1.6142151 6513507
0.77541417 -0.52504522 1.6078939 6513507
0.81948191 -0.5245806 1.6023799 6513507
0.44623309 -0.47739723 1.6495887 6513507
0.47465879 -0.47493479 1.6460545 6513507
0.52515328 -0.47507161 1.6397285 6513507
0.5752008 -0.47500494 1.6334625 6513507
0.62493354 -0.47494245 1.6272353 6513507
0.67492789 -0.475043 1.6209745 6513507
0.7251085 -0.47498351 1.6146907 6513507
0.77507734 -0.47515154 1.6084318 6513507
0.82116002 -0.47444424 1.602668 6513507
0.448172 -0.43055451 1.6498115 6513507
0.47477096 -0.42499006 1.6465355 6513507
0.52471745 -0.42517194 1.6402789 6513507
0.57485801 -0.42491099 1.6340022 6513507
0.62507999 -0.42497149 1.6277139 6513507
0.67506385 -0.42499137 1.6214542 6513507
0.72502732 -0.42516693 1.6151949 6513507
0.77491021 -0.42483959 1.6089522 6513507
0.82308918 -0.42464143 1.6029205 6513507
0.4491086 -0.3998912 1.6499987 6513507
0.47544178 -0.37530822 1.646945 6513507
0.52473032 -0.37500715 1.6407759 6513507
0.57488483 -0.37501857 1.6344957 6513507
0.62528402 -0.37500659 1.6281836 6513507
0.675273 -0.37499464 1.6219245 6513507
0.72485781 -0.37498218 1.6157151 6513507
0.77471203 -0.37501323 1.6094725 6513507
0.82473463 -0.37494883 1.6032087 6513507
0.85078871 -0.36006972 1.600094 6513507
0.47765112 -0.32540423 1.6471639 6513507
0.5249024 -0.32499731 1.6412514 6513507
0.57505214 -0.32500371 1.6349721 6513507
0.62550491 -0.32497814 1.6286544 6513507
0.67559648 -0.32496905 1.622381 6513507
0.7252807 -0.32501185 1.6161586 6513507
0.77512562 -0.32504866 1.6099172 6513507
0.82518488 -0.32502687 1.6036482 6513507
0.85240126 -0.32096645 1.6002809 6513507
0.47964177 -0.27539214 1.6474118 6513507
0.52514589 -0.27508312 1.6417162 6513507
0.57521707 -0.27497768 1.6354464 6513507
0.62512839 -0.27490357 1.629198 6513507
0.67500252 -0.27511308 1.6229507 6513507
0.72505921 -0.27492914 1.6166846 6513507
0.77514738 -0.27500525 1.6104112 6513507
0.82549244 -0.27498096 1.6041068 6513507
0.85437036 -0.2728031 1.6005124 6513507
0.4815219 -0.22535071 1.6476737 6513507
0.52528805 -0.22510445 1.6421962 6513507
0.57496715 -0.22513603 1.6359756 6513507
0.62477797 -0.22470494 1.6297405 6513507
0.67447722 -0.22516175 1.6235131 6513507
0.72503453 -0.22489721 1.6171838 6513507
0.77534503 -0.22523963 1.6108805 6513507
0.82505161 -0.22488807 1.6046599 6513507
0.85633314 -0.22329918 1.6007583 6513507
0.48381752 -0.1756067 1.6478802 6513507
0.52536452 -0.17489897 1.6426842 6513507
0.57495129 -0.17511234 1.6364739 6513507
0.62471902 -0.17492478 1.6302435 6513507
0.67475051 -0.1750443 1.623976 6513507
0.7251513 -0.17494996 1.6176659 6513507
0.77499652 -0.17497526 1.6114241 6513507
0.8247534 -0.17511702 1.6051917 6513507
0.85794473 -0.17411211 1.6010453 6513507
0.48559785 -0.1257329 1.6481532 6513507
0.52523267 -0.12465663 1.6431993 6513507
0.57519346 -0.1253016 1.6369386 6513507
0.6249004 -0.12498215 1.6307166 6513507
0.67515188 -0.12478025 1.6244255 6513507
0.72472388 -0.12530556 1.6182128 6513507
0.77486265 -0.12483308 1.6119388 6513507
0.82484668 -0.12505884 1.6056771 6513507
0.86006558 -0.12392797 1.6012781 6513507
0.48712906 -0.075754531 1.6484582 6513507
0.52515537 -0.075100742 1.6437024 6513507
0.575239 -0.075297587 1.637429 6513507
0.62508172 -0.075010642 1.6311891 6513507
0.67518681 -0.074722253 1.6249192 6513507
0.72503126 -0.074936919 1.6186743 6513507
0.77487648 -0.074816078 1.612434 6513507
0.82505357 -0.075155795 1.6061473 6513507
0.86214429 -0.074342296 1.6015105 6513507
0.48917997 -0.026073042 1.6486949 6513507
0.52474451 -0.025352368 1.6442494 6513507
0.57498163 -0.024958195 1.6379608 6513507
0.62526339 -0.025010014 1.6316632 6513507
0.67538249 -0.024913851 1.6253895 6513507
0.72511756 -0.02481837 1.6191612 6513507
0.77510238 -0.024722453 1.6129037 6513507
0.82535654 -0.02525896 1.6066051 6513507
0.86424983 -0.024620647 1.6017408 6513507
0.49124107 0.024324538 1.6489372 6513507
0.52466547 0.025213199 1.6447606 6513507
0.57492357 0.025116717 1.6384643 6513507
0.62535977 0.024944751 1.632148 6513507
0.6754899 0.024998227 1.6258711 6513507
0.72532672 0.024827927 1.6196289 6513507
0.77532512 0.024731925 1.6133672 6513507
0.82552719 0.025054751 1.6070836 6513507
0.86621255 0.025918791 1.6019968 6513507
-1.304525 0.097464509 1.6451598 10197915
-1.2716218 0.097646616 1.6296575 10197915
-1.2253571 0.097714432 1.6266053 10197915
-1.1752332 0.097749077 1.6271813 10197915
-1.1250696 0.097783618 1.6277601 10197915
-1.0748745 0.09781833 1.6283354 10197915
-1.0250876 0.097850963 1.6290767 10197915
-0.97504264 0.097887211 1.6294831 10197915
-0.92474109 0.097921871 1.6300598 10197915
-0.87660944 0.098023631 1.6237915 10197915
-0.82500309 0.098086193 1.6216984 10197915
-0.77522129 0.098121852 1.62214 10197915
-0.72507185 0.098153956 1.6229668 10197915
-0.67489296 0.098191179 1.6232858 10197915
-0.62467033 0.098225877 1.6238589 10197915
-0.57475013 0.098259069 1.6245563 10197915
-0.52479458 0.098294862 1.6250004 10197915
-0.47480541 0.098328128 1.6256992 10197915
-0.4251143 0.098362461 1.6262654 10197915
-0.3750563 0.098398313 1.6267101 10197915
-0.32495892 0.098431624 1.6274097 10197915
-0.27482942 0.098467559 1.6278554 10197915
-0.22491692 0.09859699 1.6189642 10197915
-0.17489509 0.098631516 1.6195333 10197915
-0.12483998 0.098667897 1.6199291 10197915
-0.074976712 0.098698974 1.6208354 10197915
-0.025075121 0.098735191 1.6212331 10197915
0.025086869 0.098769844 1.6218033 10197915
0.075058386 0.098802663 1.6225395 10197915
0.1250616 0.098840714 1.6227674 10197915
0.17510399 0.098871917 1.6236758 10197915
0.22517848 0.098908253 1.6240753 10197915
0.27506685 0.098942734 1.6246364 10197915
0.32498613 0.098977223 1.6252086 10197915
0.37494412 0.099011838 1.6257715 10197915
0.4249332 0.099046387 1.6263427 10197915
0.4889006 0.079615213 1.643854 9211020
0.52485263 0.076220632 1.6438088 9079434
0.57510287 0.075919725 1.6379213 9145227
0.62499124 0.07568191 1.6319966 9145227
0.67459571 0.075350367 1.6260657 9145227
0.72497916 0.075174652 1.6199424 9211020
0.77492303 0.074849799 1.6138486 9211020
0.82443815 0.075112596 1.6077168 9276813
0.86784011 0.075441152 1.6022859 9342606
-1.3080064 -0.62179267 1.6719583 6513507
-1.2990974 -0.62699759 1.6922581 6513507
0.042867653 -0.60100031 1.698872 6513507
0.075403661 -0.60099465 1.6947976 6513507
0.12389644 -0.600945 1.6887257 6513507
0.17463787 -0.60085082 1.6823723 6513507
0.22373223 -0.60087484 1.6762246 6513507
0.27472797 -0.60069668 1.6698406 6513507
0.32411721 -0.60081536 1.6636544 6513507
0.37437993 -0.60064781 1.657362 9145227
0.41617233 -0.60062569 1.6521288 11711154
0.043211658 -0.57617837 1.6990757 6513507
0.075109676 -0.5750463 1.6950926 6513507
0.12455064 -0.57497042 1.6889021 6513507
0.17495002 -0.57502967 1.6825902 6513507
0.22502369 -0.57498997 1.67632 6513507
0.27466699 -0.57498926 1.6701034 6513507
0.32465145 -0.57501322 1.663844 6513507
0.37496918 -0.57502174 1.6575433 6513507
0.4177787 -0.57450145 1.6521872 6710886
0.045200605 -0.52672088 1.6993181 6513507
0.075198717 -0.52493685 1.6955791 6513507
0.12462597 -0.52505654 1.6893884 6513507
0.17500009 -0.52501249 1.6830806 6513507
0.22511931 -0.52492839 1.6768053 6513507
0.27479222 -0.52508092 1.6705831 6513507
0.32475045 -0.52495956 1.6643285 6513507
0.37503782 -0.52500814 1.6580312 6513507
0.4198488 -0.52458334 1.6524236 6513507
0.047142282 -0.47746724 1.6995639 6513507
0.07518179 -0.47498 1.6960775 6513507
0.12456199 -0.47507498 1.6898928 6513507
0.17505306 -0.47500312 1.6835712 6513507
0.22511075 -0.47491392 1.6773025 6513507
0.27484059 -0.47503266 1.6710749 6513507
0.32488385 -0.47504184 1.6648085 6513507
0.37513834 -0.4749859 1.6585151 6513507
0.42179915 -0.47464657 1.6526755 6513507
0.048892837 -0.43418545 1.6997744 6513507
0.074950829 -0.42490011 1.696605 6513507
0.12462716 -0.42502493 1.6903821 6513507
0.17511223 -0.42500249 1.6840599 6513507
0.22519319 -0.42496753 1.6777898 6513507
0.27488962 -0.42495587 1.6715664 6513507
0.32495409 -0.42502195 1.6652961 6513507
0.37530166 -0.42501912 1.6589912 6513507
0.42397457 -0.42463827 1.6529001 6513507
0.07588914 -0.37540439 1.6969777 6513507
0.12473795 -0.37502322 1.6908644 6513507
0.17518109 -0.37501001 1.6845489 6513507
0.22525199 -0.37501079 1.678278 6513507
0.27495953 -0.37497929 1.6720538 6513507
0.32496271 -0.37497297 1.6657919 6513507
0.3745884 -0.37496683 1.6595781 6513507
0.42452976 -0.37498859 1.6533238 6513507
0.45094115 -0.36363164 1.6501293 6513507
0.077631876 -0.32537687 1.6972568 6513507
0.12482062 -0.32499337 1.6913515 6513507
0.17514227 -0.32518494 1.6850482 6513507
0.22517557 -0.3249228 1.6787857 6513507
0.27506715 -0.32499251 1.6725372 6513507
0.32517686 -0.3249689 1.6662621 6513507
0.37497094 -0.32494643 1.6600269 6513507
0.42492676 -0.32504591 1.6537702 6513507
0.45265102 -0.32176021 1.6503313 6513507
0.079777554 -0.27549419 1.6974835 6513507
0.12462698 -0.27491269 1.6918737 6513507
0.17462029 -0.27508366 1.6856111 6513507
0.22471213 -0.27507517 1.6793386 6513507
0.2751928 -0.27494019 1.6730182 6513507
0.32533377 -0.27497417 1.6667391 6513507
0.37478465 -0.27500561 1.6605469 6513507
0.42476609 -0.27501926 1.6542871 6513507
0.45465913 -0.27313605 1.6505629 6513507
0.081717268 -0.22551484 1.6977373 6513507
0.124756 -0.22499907 1.692353 6513507
0.17461836 -0.22492708 1.6861099 6513507
0.22480918 -0.22514245 1.6798221 6513507
0.2753579 -0.22480302 1.6734964 6513507
0.32529324 -0.22515348 1.6672394 6513507
0.37506533 -0.22494572 1.6610085 6513507
0.42517078 -0.22507492 1.6547329 6513507
0.45667115 -0.22365645 1.6508025 6513507
0.083668314 -0.1755894 1.6979896 6513507
0.12496902 -0.17511751 1.6928219 6513507
0.17463315 -0.17472179 1.6866074 6513507
0.2249438 -0.17529422 1.680301 6513507
0.27531064 -0.17476532 1.6739993 6513507
0.32525861 -0.17519057 1.6677402 6513507
0.37520871 -0.17493075 1.6614878 6513507
0.42505342 -0.17497046 1.6552448 6513507
0.45870888 -0.17410916 1.6510392 6513507
0.085727736 -0.12578401 1.6982259 6513507
0.12485652 -0.12487091 1.693336 6513507
0.17459013 -0.12487362 1.6871072 6513507
0.22490086 -0.12533931 1.6808034 6513507
0.27539033 -0.12486821 1.6744845 6513507
0.32566577 -0.12481379 1.6681893 6513507
0.37517115 -0.12523684 1.6619862 6513507
0.42536107 -0.12495026 1.6557041 6513507
0.46073586 -0.12433778 1.6512803 6513507
0.087664425 -0.075939082 1.6984787 6513507
0.12489273 -0.075084075 1.6938254 6513507
0.17493615 -0.075237848 1.6875571 6513507
0.22496596 -0.075225048 1.6812932 6513507
0.27547038 -0.074942216 1.6749711 6513507
0.3255963 -0.074661516 1.6686975 6513507
0.37541142 -0.074998125 1.6624553 6513507
0.42526898 -0.074891843 1.6562128 6513507
0.46264154 -0.074401893 1.6515381 6513507
0.08968772 -0.026175998 1.6987201 6513507
0.12492882 -0.025268419 1.6943159 6513507
0.17482129 -0.025175273 1.6880687 6513507
0.22503163 -0.025081508 1.6817828 6513507
0.27517697 -0.025156844 1.6755023 6513507
0.32521912 -0.024809264 1.6692392 6513507
0.3753607 -0.02472082 1.6629617 6513507
0.42485219 -0.024708407 1.6567634 6513507
0.4641847 -0.024720412 1.6518375 6513507
0.091678239 0.024203397 1.6989715 6513507
0.12496534 0.025278306 1.6948133 6513507
0.17487241 0.025185078 1.6885638 6513507
0.22509733 0.025091236 1.6822726 6513507
0.27495077 0.024998102 1.6760286 6513507
0.32443395 0.0249057 1.6698319 6513507
0.37489301 0.024811421 1.6635118 6513507
0.42497399 0.024717849 1.6572386 6513507
0.46631864 0.025628159 1.6520714 6513507
-1.3170999 0.09712965 1.6775128 10197915
-1.2751794 0.097182341 1.6756221 10197915
-1.2252824 0.097218052 1.676073 10197915
-1.1753547 0.097250983 1.6768041 10197915
-1.1253859 0.097286649 1.6772556 10197915
-1.0753887 0.097319618 1.6779875 10197915
-1.0253483 0.097355291 1.6784397 10197915
-0.9752816 0.097388245 1.6791726 10197915
-0.92516941 0.097424068 1.6796256 10197915
-0.87351727 0.09754318 1.6719193 10197915
-0.82528073 0.097594313 1.6706917 10197915
-0.77502525 0.09762881 1.6712828 10197915
-0.72473866 0.097663388 1.6718744 10197915
-0.67487186 0.097695746 1.6726466 10197915
-0.62520397 0.097733766 1.6728559 10197915
-0.57526714 0.097766086 1.6736324 10197915
-0.52506971 0.097798765 1.6744075 10197915
-0.47483456 0.097835168 1.6748157 10197915
-0.42502281 0.097869515 1.675396 10197915
-0.37518027 0.097903661 1.6759876 10197915
-0.32506707 0.09793631 1.6767627 10197915
-0.27515599 0.097974256 1.6769739 10197915
-0.22520457 0.098004863 1.6779382 10197915
-0.17522019 0.098043025 1.6781501 10197915
-0.125202 0.098073669 1.6791146 10197915
-0.077294059 0.098169982 1.6733613 10197915
-0.024906795 0.09824501 1.6700835 10197915
0.024918385 0.09827926 1.6706666 10197915
0.090035692 0.078230433 1.6937759 8882055
0.12502117 0.075777039 1.6939954 8750469
0.17492335 0.075501934 1.6881245 8816262
0.22514363 0.075241432 1.6821979 8816262
0.27502838 0.075010099 1.6761379 8816262
0.32455051 0.074707769 1.6701404 8882055
0.37501639 0.074434571 1.6639737 8882055
0.42509595 0.074172541 1.6577154 8882055
0.46813086 0.074806921 1.6523325 9013641
-0.35167608 -0.76558232 1.7466429 11711154
-0.32543519 -0.76497877 1.7433623 11711154
-0.2753889 -0.76358718 1.7371081 11711154
-0.22569303 -0.7622053 1.7309 11711154
-0.17562485 -0.76079875 1.7246445 11711154
-0.12393662 -0.75967473 1.7197168 11711154
-0.099053472 -0.7656756 1.7452062 11711154
-0.35177043 -0.7248649 1.7470596 11711154
-0.32502654 -0.72503406 1.7437069 11711154
-0.27495348 -0.7250284 1.737438 11711154
-0.22520868 -0.72500169 1.7312089 11711154
-0.17506546 -0.72496897 1.72493 11711154
-0.12393153 -0.72498208 1.7197152 11711154
-0.0990794 -0.72537553 1.7456629 11711154
-0.35185099 -0.675129 1.7475634 10987431
-0.32518071 -0.67498136 1.7442257 11184810
-0.27499679 -0.67507201 1.7379405 11579568
-0.22526284 -0.67497224 1.7317111 11711154
-0.17511526 -0.67493939 1.725433 11711154
-0.12403346 -0.67503142 1.7202252 11711154
-0.099111818 -0.67497176 1.7462342 11711154
-1.3635463 -0.61265051 1.7311424 6513507
-1.3250538 -0.61252409 1.723166 6513507
-1.2951436 -0.62663025 1.7244123 6513507
-0.35196462 -0.62498927 1.748076 6513507
-0.32531017 -0.62494177 1.7447377 6513507
-0.27514902 -0.62506539 1.7384593 6513507
-0.22532846 -0.62497669 1.7322176 6776679
-0.17520034 -0.62496048 1.7259413 7171437
-0.12428132 -0.62523043 1.7205675 7566195
-0.081955492 -0.61015826 1.7233454 6513507
-0.025280202 -0.60105526 1.7074051 6513507
0.015039908 -0.60104305 1.7023561 6513507
-0.35206679 -0.57518607 1.7485836 6513507
-0.32534868 -0.57504451 1.7452397 6513507
-0.27520975 -0.57498646 1.7389641 6513507
-0.22538932 -0.57499528 1.7327234 6513507
-0.17524913 -0.57501429 1.7264422 6513507
-0.12467904 -0.57496417 1.7201104 6513507
-0.074544109 -0.57501334 1.7138337 6513507
-0.024750378 -0.57500559 1.707597 6513507
0.018091554 -0.57447803 1.702238 6513507
-0.35216907 -0.52535397 1.7490914 6513507
-0.32548478 -0.52503079 1.7457534 6513507
-0.27524751 -0.5249216 1.7394612 6513507
-0.22542448 -0.52504581 1.7332231 6513507
-0.17529534 -0.52503872 1.7269459 6513507
-0.12477133 -0.52492809 1.720619 6513507
-0.074561529 -0.52501899 1.7143322 6513507
-0.024761807 -0.52501005 1.7080964 6513507
0.019898837 -0.5245524 1.7025082 6513507
-0.35157454 -0.47406593 1.7495266 6513507
-0.32478675 -0.47503555 1.7461624 6513507
-0.27533656 -0.47497553 1.7399694 6513507
-0.22488429 -0.47503638 1.7336509 6513507
-0.17466497 -0.47506517 1.7273631 6513507
-0.12480881 -0.47498402 1.7211207 6513507
-0.074651472 -0.47495556 1.7148405 6513507
-0.02477055 -0.47500673 1.7085934 6513507
0.022070318 -0.47461903 1.702732 6513507
-0.35080567 -0.4334164 1.7498339 6513507
-0.32501835 -0.42498714 1.7466884 6513507
-0.27554268 -0.42502135 1.7404913 6513507
-0.22491135 -0.42502585 1.7341509 6513507
-0.17467231 -0.4250133 1.7278619 6513507
-0.12482172 -0.42501146 1.7216185 6513507
-0.074637212 -0.42498305 1.7153354 6513507
-0.024845107 -0.42497426 1.7091005 6513507
0.023855351 -0.42465976 1.7030046 6513507
-0.32398483 -0.37543678 1.7470515 6513507
-0.27555284 -0.3750169 1.7409906 6513507
-0.2249698 -0.37500826 1.7346536 6513507
-0.17472847 -0.37499312 1.7283657 6513507
-0.12482876 -0.37499011 1.7221161 6513507
-0.074555859 -0.37498182 1.7158227 6513507
-0.024632609 -0.37497365 1.7095708 6513507
0.024857 -0.37504551 1.7033713 6513507
0.050876845 -0.3680144 1.7001837 6513507
-0.32203719 -0.32530469 1.7473056 6513507
-0.27544966 -0.32511127 1.7414756 6513507
-0.22499238 -0.3250441 1.7351551 6513507
-0.17477943 -0.32496485 1.7288682 6513507
-0.12481839 -0.3249191 1.722612 6513507
-0.074603952 -0.32503301 1.7163239 6513507
-0.02494612 -0.32500312 1.7101061 6513507
0.024519483 -0.32503504 1.703912 6513507
0.05267683 -0.3221221 1.7004144 6513507
-0.31964758 -0.27522579 1.7475049 6513507
-0.27513576 -0.27508581 1.7419316 6513507
-0.22492348 -0.2751759 1.7356429 6513507
-0.17484017 -0.27494949 1.7293726 6513507
-0.12490375 -0.27487943 1.7231208 6513507
-0.074798867 -0.27513462 1.7168441 6513507
-0.024827706 -0.27498507 1.7105875 6513507
0.024871461 -0.27499843 1.704365 6513507
0.05462008 -0.27311358 1.700658 6513507
-0.31742612 -0.22555226 1.747719 6513507
-0.27448907 -0.22486594 1.7423488 6513507
-0.22443746 -0.22514042 1.7360789 6513507
-0.17488602 -0.22498919 1.7298748 6513507
-0.12497894 -0.22493319 1.7236263 6513507
-0.074792534 -0.22510642 1.71734 6513507
-0.024682216 -0.22491843 1.7110674 6513507
0.024543082 -0.22504763 1.7049021 6513507
0.056584418 -0.22365344 1.7009037 6513507
-0.31565177 -0.17560141 1.7479925 6513507
-0.27420688 -0.17511597 1.742808 6513507
-0.22448176 -0.17482427 1.7365834 6513507
-0.1748708 -0.1751484 1.7303672 6513507
-0.12501507 -0.17499854 1.7241255 6513507
-0.074668534 -0.1748891 1.7178233 6513507
-0.02483307 -0.17514332 1.7115815 6513507
0.024874972 -0.174955 1.7053589 6513507
0.058547679 -0.17393546 1.7011515 6513507
-0.31356314 -0.12572724 1.7482281 6513507
-0.27446765 -0.12494706 1.7433391 6513507
-0.22471663 -0.12477065 1.7371092 6513507
-0.17486617 -0.12534255 1.7308612 6513507
-0.12505151 -0.12503505 1.7246273 6513507
-0.074661985 -0.12470241 1.718322 6513507
-0.025011534 -0.12513481 1.7120994 6513507
0.024720373 -0.12508875 1.7058729 6513507
0.060583815 -0.12408239 1.7013916 6513507
-0.31174329 -0.075760104 1.7484958 6513507
-0.27454707 -0.075134046 1.7438442 6513507
-0.22444102 -0.075143576 1.7375679 6513507
-0.17503344 -0.075314239 1.7313813 6513507
-0.1250878 -0.075042367 1.7251288 6513507
-0.07478486 -0.074768476 1.7188329 6513507
-0.02467566 -0.074804075 1.7125583 6513507
0.024727583 -0.074933194 1.70637 6513507
0.062553771 -0.074052691 1.7016429 6513507
-0.30968288 -0.026030988 1.7487319 6513507
-0.27462661 -0.025291948 1.7443501 6513507
-0.22467721 -0.025201278 1.7380935 6513507
-0.17508444 -0.025111258 1.7318833 6513507
-0.12512414 -0.025020575 1.7256304 6513507
-0.074806429 -0.024929238 1.7193309 6513507
-0.024854777 -0.024838543 1.7130769 6513507
0.024734784 -0.024748536 1.7068676 6513507
0.064545482 -0.02410955 1.7018894 6513507
-0.3078112 0.023977974 1.7489945 6513507
-0.27470729 0.025301877 1.744862 6513507
-0.22474293 0.025211137 1.7386028 6513507
-0.17513551 0.025121028 1.7323899 6513507
-0.12516046 0.025030306 1.7261326 6513507
-0.074828133 0.024938861 1.7198292 6513507
-0.024862003 0.024848124 1.7135714 6513507
0.024741886 0.024758015 1.7073593 6513507
0.066482753 0.025165092 1.7021354 6513507
-1.365685 0.096488886 1.737463 10197915
-1.3247793 0.096623391 1.7273383 10197915
-1.2771724 0.096723795 1.7211578 10197915
-1.2252661 0.096798211 1.7179116 10197915
-1.1747978 0.096831165 1.7186751 10197915
-1.1246419 0.096865438 1.7192837 10197915
-1.0748073 0.096901082 1.7197372 10197915
-1.0249361 0.096933566 1.7204937 10197915
-0.97503006 0.096969232 1.7209479 10197915
-0.9250896 0.09700188 1.7217051 10197915
-0.8751117 0.097037539 1.7221601 10197915
-0.82510221 0.097070195 1.7229182 10197915
-0.77505273 0.09710598 1.7233742 10197915
-0.72497416 0.097138673 1.7241337 10197915
-0.67521036 0.097172722 1.7247372 10197915
-0.62505823 0.097208522 1.7251942 10197915
-0.57487053 0.097241297 1.7259548 10197915
-0.52500153 0.097275391 1.7265601 10197915
-0.47474664 0.097311258 1.7270179 10197915
-0.42480627 0.097345479 1.7276195 10197915
-0.37519339 0.097377814 1.7283781 10197915
-0.31003454 0.077628106 1.7449754 8553090
-0.27480641 0.075187258 1.7444001 8421504
-0.2248147 0.074937709 1.7384773 8421504
-0.17516677 0.074662358 1.7324926 8487297
-0.1251827 0.074384116 1.7264438 8487297
-0.074685417 0.074611343 1.7198905 8553090
-0.024863064 0.074541174 1.713678 8553090
0.024746677 0.074281968 1.7076569 8618883
0.068458252 0.074444421 1.7023466 8684676
-0.09289445 -0.80112171 1.7938137 11711154
-0.095281027 -0.7717945 1.7752353 11711154
-0.095548667 -0.72499859 1.7738683 11711154
-0.095569417 -0.67499971 1.7745252 10724259
-1.4108588 -0.61325681 1.7873048 6513507
-1.3745306 -0.61308956 1.7748418 6513507
-1.3249648 -0.61302048 1.7742001 6513507
-1.2893364 -0.62594789 1.7746718 6513507
-0.09591423 -0.63634938 1.7724075 6513507
-0.35231 -0.41782552 1.7501773 6513507
-0.35174274 -0.37494859 1.7505744 6513507
-0.34808126 -0.3656677 1.7501659 6513507
-0.3518599 -0.32501557 1.7511578 6513507
-0.34645787 -0.32232308 1.750393 6513507
-0.35196209 -0.27503717 1.7516671 6513507
-0.3445338 -0.2732023 1.7506403 6513507
-0.35206461 -0.22502971 1.7521772 6513507
-0.34263942 -0.2236315 1.7508962 6513507
-0.3521671 -0.17499307 1.7526873 6513507
-0.34072813 -0.17389207 1.7511493 6513507
-0.35226965 -0.12492733 1.7531971 6513507
-0.33880019 -0.12410016 1.7514029 6513507
-0.35216933 -0.076985881 1.7536312 6513507
-0.33684164 -0.074111722 1.7516551 6513507
-0.35170558 -0.024705404 1.7540073 6513507
-0.3349112 -0.024100434 1.7519097 6513507
-0.35180649 0.024714861 1.754511 6513507
-0.33304632 0.025154736 1.752166 6513507
-1.4113706 0.095941477 1.7883414 10197915
-1.3753678 0.096023887 1.783016 10197915
-1.3252385 0.096059628 1.7834804 10197915
-1.273376 0.096187867 1.7748646 10197915
-1.2251854 0.096242301 1.7733117 10197915
-1.1749122 0.096276432 1.7739418 10197915
-1.1248415 0.096308276 1.7747896 10197915
-1.075228 0.09634649 1.7749627 10197915
-1.0250868 0.096378282 1.7758181 10197915
-0.97491455 0.096410193 1.7766678 10197915
-0.92535108 0.096555941 1.76612 10197915
-0.87483543 0.096595287 1.7662534 10197915
-0.82500029 0.096627563 1.7670377 10197915
-0.7751255 0.096663177 1.7674944 10197915
-0.72522163 0.096695483 1.7682793 10197915
-0.67527574 0.096731097 1.768737 10197915
-0.62530279 0.096763477 1.7695228 10197915
-0.57528496 0.096799158 1.7699813 10197915
-0.52524316 0.096831582 1.7707683 10197915
-0.47552395 0.096865401 1.771387 10197915
-0.42540407 0.096901186 1.7718464 10197915
-0.36445352 0.084528618 1.763036 9145227
-0.33111361 0.073724054 1.7524053 8289918
-0.088365644 -0.80938321 1.8298488 11711154
-0.089169458 -0.77505702 1.8239946 11711154
-0.089203857 -0.72491515 1.824545 11711154
-0.08922486 -0.67511964 1.825197 8816262
-1.456475 -0.61382097 1.8393396 6513507
-1.4233 -0.61366618 1.82778 6513507
-1.3749896 -0.6135897 1.8261917 6513507
-1.3249826 -0.61352438 1.8259981 6513507
-1.2838093 -0.62560141 1.8252562 6513507
-0.090286568 -0.64438701 1.8172237 6513507
-1.4591693 -0.3193301 1.8429471 6513507
-1.4572513 0.095369868 1.8416147 10197915
-1.4236786 0.09551093 1.830251 10197915
-1.3748364 0.095547728 1.830503 10197915
-1.3248746 0.095583342 1.8309675 10197915
-1.2748809 0.095615268 1.8317966 10197915
-1.2252234 0.095648818 1.8324392 10197915
-1.1751595 0.095684469 1.8329051 10197915
-1.1250557 0.095716469 1.8337357 10197915
-1.0749199 0.095752172 1.8342023 10197915
-1.0247469 0.095784262 1.8350341 10197915
-0.97491372 0.095817924 1.8356789 10197915
-0.92448515 0.09597256 1.8243183 10197915
-0.87490714 0.096008532 1.8247105 10197915
-0.82710499 0.096065126 1.8229097 10197915
-0.77520156 0.096197046 1.8139318 10197915
-0.72510374 0.0962274 1.8149276 10197915
-0.67497736 0.096264906 1.8152118 10197915
-0.62480652 0.096298896 1.8158526 10197915
-0.57497817 0.096330851 1.8166674 10197915
-0.52511424 0.096366435 1.8171258 10197915
-0.47521713 0.096398421 1.8179415 10197915
-0.42528185 0.096434042 1.8184009 10197915
-0.38312453 0.096468791 1.8183211 10197915
-0.082730874 -0.81972718 1.8746829 11711154
-0.083018042 -0.77519679 1.8731227 11711154
-0.083066374 -0.72499591 1.8735632 11645361
-0.083258368 -0.67899948 1.8727872 7171437
-1.503969 -0.61443222 1.8959999 6513507
-1.4708328 -0.61421609 1.8781023 6513507
-1.42519 -0.61414039 1.8762575 6513507
-1.3749876 -0.61407715 1.8763125 6513507
-1.3250229 -0.61401057 1.8759667 6513507
-1.2785511 -0.62539649 1.8756951 6513507
-1.5035996 -0.30527151 1.8942368 6513507
-1.4580227 -0.31761751 1.8756529 6513507
-1.5023969 0.094830483 1.8917345 10197915
-1.4717544 0.094958909 1.8813951 10197915
-1.4251839 0.095011324 1.8799115 10197915
-1.3750478 0.095045 1.8805784 10197915
-1.3248762 0.095078722 1.8812456 10197915
-1.2750615 0.095114186 1.8817097 10197915
-1.2248176 0.095147952 1.8823775 10197915
-1.1749315 0.095179483 1.8832392 10197915
-1.1250033 0.09521503 1.8837048 10197915
-1.0750484 0.095246606 1.8845671 10197915
-1.025048 0.095282204 1.8850337 10197915
-0.97502393 0.095313802 1.8858973 10197915
-0.92534453 0.095347188 1.8865579 10197915
-0.87918204 0.09544751 1.8802675 10197915
-0.82102317 0.095602259 1.8695165 10197915
-0.77528173 0.09570577 1.8628751 10197915
-0.7249881 0.095737718 1.8637284 10197915
-0.6750378 0.095771372 1.8643832 10197915
-0.6254397 0.09580671 1.8648405 10197915
-0.57503617 0.095838748 1.8656955 10197915
-0.52459663 0.09587469 1.866163 10197915
-0.47489399 0.095906228 1.8670087 10197915
-0.42515323 0.095941693 1.8674673 10197915
-0.38798743 0.095977023 1.8669289 10197915
-0.07831426 -0.85196424 1.909428 11711154
-0.078911901 -0.82434863 1.9051088 11711154
-0.078956068 -0.77487552 1.9055711 11711154
-0.078972258 -0.72497797 1.9062637 10921638
-0.079024062 -0.68483424 1.9065106 6513507
-1.5173333 -0.61477119 1.9290899 6513507
-1.4750693 -0.61467135 1.9243422 6513507
-1.4250472 -0.61460692 1.9242289 6513507
-1.3756677 -0.6145373 1.9235206 6513507
-1.3211143 -0.60914117 1.9068362 6513507
-1.2724448 -0.61948246 1.9205837 6513507
-1.3159313 -0.57522798 1.906245 6513507
-1.2762156 -0.57504451 1.9157768 6513507
-1.3161365 -0.52486873 1.9067531 6513507
-1.2764925 -0.52502751 1.9160309 6513507
-1.3160203 -0.4747355 1.9072177 6513507
-1.2764711 -0.47508255 1.9164764 6513507
-1.3158329 -0.42507184 1.9076682 6513507
-1.2762625 -0.42494905 1.9170276 6513507
-1.316334 -0.37484124 1.9082139 6513507
-1.2763988 -0.37507924 1.917316 6513507
-1.5182772 -0.30564803 1.9314258 6513507
-1.4631822 -0.31295636 1.9168061 6513507
-1.44786 -0.3203167 1.9320015 6513507
-1.3165517 -0.3251262 1.9087172 6513507
-1.2767173 -0.32508919 1.9175439 6513507
-1.3160927 -0.27520055 1.9091356 6513507
-1.276906 -0.27490035 1.9178741 6513507
-1.3160644 -0.22442219 1.9096178 6513507
-1.2766888 -0.22515546 1.9184893 6513507
-1.315926 -0.17496625 1.9100732 6513507
-1.2767222 -0.17513867 1.9187665 6513507
-1.316337 -0.12506215 1.9106038 6513507
-1.2769191 -0.1249088 1.9190682 6513507
-1.3166968 -0.075215831 1.9111266 6513507
-1.2770697 -0.07510224 1.9193566 6513507
-1.3168207 -0.025615534 1.9116164 6513507
-1.2776159 -0.025097881 1.9188488 6513507
-1.3159504 0.025640009 1.9119956 7895160
-1.2774034 0.024947383 1.9193445 7895160
-1.5199128 0.09437795 1.9354161 10197915
-1.4751513 0.094447233 1.9321051 10197915
-1.4248323 0.094483018 1.9325771 10197915
-1.375966 0.094522618 1.9325544 10197915
-1.316427 0.073215932 1.9125746 10197915
-1.2768707 0.07304278 1.9202343 10197915
-1.2247863 0.094616704 1.9353114 10197915
-1.1775045 0.094663516 1.9344413 10197915
-1.1250639 0.09481784 1.923272 10197915
-1.0752443 0.094851181 1.9239482 10197915
-1.0253893 0.094884545 1.924625 10197915
-0.97470742 0.09491846 1.9253129 10197915
-0.9247818 0.094951861 1.9259905 10197915
-0.87185568 0.095095806 1.915899 10197915
-0.82505417 0.095153943 1.9138629 10197915
-0.77497262 0.095185392 1.9147487 10197915
-0.72486132 0.095221087 1.9152131 10197915
-0.67510319 0.095254444 1.915884 10197915
-0.624924 0.095285945 1.9167712 10197915
-0.57509774 0.095319338 1.9174432 10197915
-0.52523607 0.095352754 1.9181155 10197915
-0.47495067 0.095388569 1.9185821 10197915
-0.42501745 0.095422052 1.9192554 10197915
-0.39304146 0.095464922 1.9175481 10197915
-1.5643467 -0.6153459 1.9820415 6513507
-1.525753 -0.61518419 1.9704673 6513507
-1.4757217 -0.61508811 1.9670984 6513507
-1.4255106 -0.61499476 1.9640447 6513507
-1.3848007 -0.61490202 1.9598118 6513507
-1.265566 -0.62233561 1.9544138 6513507
-1.2656616 -0.57493287 1.9545976 6513507
-1.2657665 -0.52493286 1.9547597 6513507
-1.2658083 -0.4738057 1.9554363 6513507
-1.2658423 -0.4249191 1.9561309 6513507
-1.2659494 -0.37483937 1.9562761 6513507
-1.5632403 -0.30617711 1.9816152 6513507
-1.5251051 -0.30608389 1.9753546 6513507
-1.4751705 -0.30604258 1.9753919 6513507
-1.442652 -0.32052007 1.9742639 6513507
-1.2660515 -0.32502371 1.9564536 6513507
-1.2661564 -0.27506346 1.9566165 6513507
-1.2662593 -0.22495936 1.9567961 6513507
-1.2663659 -0.17498231 1.9569457 6513507
-1.2663445 -0.1250509 1.9580923 6513507
-1.2664843 -0.074666008 1.9579889 6513507
-1.2666796 -0.025138801 1.9574313 6513507
-1.2667853 0.025141593 1.9575944 7829367
-1.5591587 0.093974449 1.9724661 10197915
-1.5243942 0.093997583 1.9729515 10197915
-1.4750497 0.094030425 1.9736408 10197915
-1.4256705 0.094063275 1.9743304 10197915
-1.387602 0.094088599 1.9748621 10197915
-1.2665319 0.073523954 1.9588964 10197915
-1.2245604 0.094197057 1.9771386 10197915
-1.1714289 0.094285622 1.972581 10197915
-1.1255281 0.09440358 1.9645126 10197915
-1.0750481 0.094439454 1.9649895 10197915
-1.0245295 0.094470873 1.9659134 10197915
-0.97478515 0.094506338 1.9663727 10197915
-0.92500639 0.094537213 1.9672927 10197915
-0.87478465 0.094570659 1.9679892 10197915
-0.82493901 0.094606183 1.9684504 10197915
-0.77505076 0.094637111 1.9693727 10197915
-0.7251336 0.094672665 1.969833 10197915
-0.67517662 0.094703652 1.9707558 10197915
-0.62518787 0.094739281 1.9712191 10197915
-0.57516247 0.09477029 1.9721435 10197915
-0.5251013 0.094805978 1.9726068 10197915
-0.47500712 0.094837025 1.9735315 10197915
-0.42487386 0.09487275 1.9739965 10197915
-0.39717761 0.095030226 1.9605303 10197915
-1.6090322 -0.30672622 2.0337667 6513507
-1.5744339 -0.306586 2.0224032 6513507
-1.5249383 -0.30653629 2.0215552 6513507
-1.4746807 -0.30649281 2.0214088 6513507
-1.4366471 -0.32042533 2.0239921 6513507
-1.6072555 0.093357071 2.0301208 10197915
-1.5730686 0.093514718 2.0171599 10197915
-1.5249625 0.093562506 2.0162587 10197915
-1.4749438 0.09359321 2.0172155 10197915
-1.42792 0.093652934 2.0150375 10197915
-1.3969432 0.093793578 2.0035136 10197915
-1.304742 0.09355709 2.0344701 10197915
-1.272662 0.093713619 2.0214503 10197915
-1.2247367 0.093758896 2.0207868 10197915
-1.1749189 0.09379188 2.0214982 10197915
-1.1250757 0.093829855 2.0217144 10197915
-1.0751895 0.093857914 2.0229216 10197915
-1.0252664 0.093890987 2.0236335 10197915
-0.97489393 0.09392678 2.0241091 10197915
-0.92448676 0.093957707 2.0250723 10197915
-0.87487519 0.093993112 2.0255284 10197915
-0.82523316 0.094023459 2.0264888 10197915
-0.77513373 0.094056621 2.0272038 10197915
-0.72499841 0.094089821 2.0279198 10197915
-0.67483729 0.09412802 2.0281389 10197915
-0.62463474 0.094156303 2.0293517 10197915
-0.574808 0.094191812 2.0298104 10197915
-0.52496099 0.0942223 2.0307741 10197915
-0.47464925 0.094255611 2.0314925 10197915
-0.42922911 0.094298162 2.0308971 10197915
-1.5082276 -0.77115136 2.0989115 6513507
-1.4752561 -0.76864082 2.094774 6513507
-1.4348819 -0.76860708 2.091579 6513507
-1.4669127 -0.74328959 2.0939677 6513507
-1.4341813 -0.73647314 2.091959 6513507
-1.5029422 -0.65144885 2.0994043 6513507
-1.479148 -0.6512 2.0964038 6513507
-1.5025656 -0.62819189 2.099582 6513507
-1.4803677 -0.6248039 2.0968127 6513507
-1.5011394 -0.58439815 2.0998263 6513507
-1.4806478 -0.57494748 2.0973306 6513507
-1.4798971 -0.52558088 2.097717 6513507
-1.4781106 -0.47572961 2.0979726 6513507
-1.4764575 -0.42568278 2.0982497 6513507
-1.4747322 -0.37543684 2.0985177 6513507
-1.6554209 -0.30729574 2.0879574 6513507
-1.6223032 -0.30711889 2.0727296 6513507
-1.5749446 -0.3070547 2.0702212 6513507
-1.5249778 -0.30701005 2.0699234 6513507
-1.4717008 -0.31142527 2.0737376 6513507
-1.4370275 -0.31482491 2.0562222 6513507
-1.4596754 -0.27454853 2.077436 6513507
-1.4483503 -0.27435982 2.0760076 6513507
-1.4600478 -0.22468764 2.077965 6513507
-1.4487199 -0.22453324 2.0765376 6513507
-1.4598497 -0.17422402 2.0784295 6513507
-1.4486661 -0.17895502 2.0769722 6513507
-1.4598486 -0.12488257 2.078907 6513507
-1.4485147 -0.12479672 2.0774779 6513507
-1.4602211 -0.074948221 2.079438 6513507
-1.4488844 -0.074896708 2.0780082 6513507
-1.4598216 -0.025337921 2.0798683 6513507
-1.4488373 -0.020892454 2.0785251 6513507
-1.4600215 0.024995489 2.0803809 7631988
-1.4486798 0.024978302 2.0789499 7631988
-1.656536 0.09270364 2.0912726 10197915
-1.6223888 0.092865497 2.077889 10197915
-1.5748384 0.092917614 2.0765109 10197915
-1.5250514 0.092947707 2.0775094 10197915
-1.4627048 0.07502804 2.0795734 10197915
-1.4477524 0.072419398 2.0766497 10197915
-1.3208306 0.093040861 2.0846162 10197915
-1.2747089 0.093115084 2.0809236 10197915
-1.2247009 0.093145296 2.0819263 10197915
-1.174665 0.09318091 2.0823946 10197915
-1.1245878 0.093211174 2.0833981 10197915
-1.078425 0.093274504 2.0807931 10197915
-1.0252099 0.093434826 2.069092 10197915
-0.97498041 0.093467921 2.0698249 10197915
-0.92556775 0.09350048 2.0705466 10197915
-0.87526733 0.093533635 2.0712807 10197915
-0.82493156 0.093566805 2.0720148 10197915
-0.77541405 0.093599446 2.0727377 10197915
-0.72500724 0.093632646 2.073473 10197915
-0.6745649 0.093665898 2.0742092 10197915
-0.62494242 0.093698591 2.0749335 10197915
-0.5752852 0.093731321 2.0756583 10197915
-0.5255934 0.093764067 2.0763834 10197915
-0.47500908 0.093797401 2.0771213 10197915
-0.43383029 0.093824536 2.0777223 10197915
-1.5625819 -0.78212738 2.1056647 6513507
-1.5318555 -0.77530432 2.1018529 6513507
-1.4250563 -0.76878101 2.1051564 6513507
-1.4251243 -0.73501664 2.1051712 6513507
-1.6659319 -0.65142822 2.1199729 6513507
-1.6214454 -0.65130353 2.1143599 6513507
-1.5721587 -0.65132666 2.1081398 6513507
-1.5261921 -0.65125096 2.1023405 6513507
-1.6694344 -0.62500525 2.1206706 6513507
-1.6246619 -0.62498027 2.1150198 6513507
-1.5745027 -0.62490946 2.1086912 6513507
-1.5275905 -0.62473029 2.1027744 6513507
-1.6695276 -0.57507586 2.1211653 6513507
-1.6249106 -0.57501239 2.1155355 6513507
-1.5746002 -0.57503408 2.1091938 6513507
-1.5256217 -0.57458192 2.1030118 6513507
-1.670261 -0.5250265 2.121743 6513507
-1.6252388 -0.52495271 2.1160607 6513507
-1.5748343 -0.52502459 2.1097002 6513507
-1.5248495 -0.52506101 2.1033936 6513507
-1.4986125 -0.51600701 2.1001701 6513507
-1.6697725 -0.47475231 2.1221673 6513507
-1.625312 -0.47520414 2.116555 6513507
-1.5755918 -0.47495377 2.1102777 6513507
-1.525319 -0.47497568 2.1039381 6513507
-1.4971772 -0.47261667 2.100409 6513507
-1.6701462 -0.42503938 2.1226993 6513507
-1.6245521 -0.42476851 2.116945 6513507
-1.5753677 -0.4252829 2.1107359 6513507
-1.5257797 -0.42472801 2.1044872 6513507
-1.4953136 -0.42460206 2.1006389 6513507
-1.6682985 -0.39161691 2.1227887 6513507
-1.6231093 -0.38728312 2.1171312 6513507
-1.5730969 -0.38255093 2.1108632 6513507
-1.5232936 -0.37781 2.1046219 6513507
-1.4927876 -0.37379339 2.1008136 6513507
-1.7016523 -0.30785888 2.1415086 6513507
-1.6699796 -0.30767775 2.1257207 6513507
-1.6255653 -0.30753785 2.1152277 6513507
-1.5751158 -0.30748963 2.1146145 6513507
-1.526924 -0.3074021 2.1097956 6513507
-1.4925296 -0.31564298 2.1036122 6513507
-1.6697013 0.092370242 2.1234419 10197915
-1.6253456 0.092399269 2.124109 10197915
-1.5748687 0.092432313 2.1248684 10197915
-1.5252274 0.092464805 2.1256154 10197915
-1.3603773 0.092572682 2.1280959 10197915
-1.3254378 0.092595533 2.1286211 10197915
-1.2747459 0.092628717 2.1293838 10197915
-1.2248935 0.092661358 2.1301341 10197915
-1.1750053 0.092693999 2.1308846 10197915
-1.1250821 0.09272667 2.1316354 10197915
-1.0707321 0.092845872 2.1241188 10197915
-1.0247109 0.092958331 2.1166046 10197915
-0.97507095 0.092985161 2.1179156 10066329
-0.92539394 0.093023479 2.1180875 8355711
-0.87523729 0.09305349 2.1191213 8553090
-0.82505602 0.093089253 2.1195848 8816262
-0.77526641 0.093121886 2.1203282 9211020
-0.72501415 0.093151964 2.1213641 9408399
-0.67471594 0.093187831 2.121829 9737364
-0.62482816 0.093214788 2.1231463 10000536
-0.57490772 0.093253262 2.1233194 10197915
-0.52494252 0.093286008 2.1240652 10197915
-0.47494215 0.093318798 2.1248116 10197915
-0.43873587 0.093359306 2.1236794 10197915
-1.7174506 0.091755696 2.1808429 10197915
-1.6751022 0.091858856 2.1739631 10197915
-1.62524 0.091891311 2.1747317 10197915
-1.5753423 0.091923781 2.1755002 10197915
-1.5381765 0.092099398 2.1609886 10197915
-1.4070064 0.09186016 2.195348 10197915
-1.3734202 0.092038229 2.1803021 10197915
-1.3253392 0.092086509 2.1793511 10197915
-1.2747905 0.092122473 2.179827 10197915
-1.2246431 0.092155211 2.180588 10197915
-1.1749176 0.092184417 2.1816678 10197915
-1.1263807 0.092229366 2.1810858 10197915
-1.0749775 0.092423081 2.1659122 10197915
-1.0250889 0.092455611 2.1666744 10197915
-0.97516519 0.092488177 2.1674376 8882055
-0.92520612 0.092520751 2.168201 6579300
-0.87521183 0.09255334 2.1689649 6513507
-0.82518214 0.092585973 2.1697295 6579300
-0.7751174 0.092618622 2.1704943 6579300
-0.72501725 0.092651285 2.1712596 6579300
-0.67488194 0.092683986 2.1720262 6513507
-0.62471104 0.092716701 2.1727929 6579300
-0.57450473 0.092749432 2.1735604 6842472
-0.52426296 0.092782184 2.1743279 7434609
-0.47488388 0.092814386 2.1750827 8092539
-0.44434276 0.092834294 2.175549 8355711
-1.7600235 0.091274142 2.2254109 10197915
-1.7254112 0.091296561 2.2259569 10197915
-1.6752856 0.091329001 2.226748 10197915
-1.6251249 0.091361471 2.2275393 10197915
-1.5867974 0.091386251 2.2281444 10197915
-1.4177197 0.091495663 2.2308116 10197915
-1.3747001 0.091523498 2.2314904 10197915
-1.3252412 0.091555506 2.232271 10197915
-1.2748312 0.091588132 2.2330663 10197915
-1.2243853 0.091620788 2.2338622 10197915
-1.1748213 0.091652855 2.2346442 10197915
-1.1223384 0.091733009 2.2308645 10197915
-1.0752077 0.091896504 2.2183576 10197915
-1.0250232 0.091929026 2.2191432 10197915
-0.97480351 0.091961607 2.2199292 7171437
-0.92501563 0.091997147 2.2203834 6513507
-0.87472284 0.092029765 2.2211704 6513507
-0.82486004 0.09205883 2.2222757 6513507
-0.77495539 0.092094459 2.2227318 6513507
-0.72502488 0.092123561 2.2238386 6513507
-0.67504787 0.092159234 2.2242951 6513507
-0.62504894 0.092188388 2.2254033 6579300
-0.57546389 0.09222053 2.2261794 6513507
