# .PCD v0.7 - Point Cloud Data file format
VERSION 0.7
FIELDS x y z rgb
SIZE 4 4 4 4
TYPE F F F U
COUNT 1 1 1 1
WIDTH 1192
HEIGHT 1
VIEWPOINT 0 0 0 1 0 0 0
POINTS 1192
DATA ascii
2.2779517 -1.4242244 3.2391753 2039583
2.3239169 -1.4196033 3.2166724 2039583
2.3533974 -1.4165114 3.2022443 2039583
1.2565869 -1.3753166 3.2336872 2894892
2.2786448 -1.3750001 3.2391391 2039583
2.3252017 -1.374965 3.2163193 2039583
2.3542559 -1.3740345 3.202085 2039583
1.257117 -1.325439 3.2349572 2894892
2.2787619 -1.3250787 3.2393875 2039583
2.3253117 -1.3249029 3.2165713 2039583
2.3547354 -1.3252853 3.2021501 2039583
1.2574772 -1.274876 3.2358844 2894892
2.2790148 -1.2751346 3.239568 2039583
2.3255014 -1.2749943 3.2167876 2039583
2.354903 -1.2749649 3.2023778 2039583
1.2554929 -1.2287122 3.2320104 2894892
2.2797046 -1.2252778 3.2395341 2039583
2.3252439 -1.2248659 3.2172213 2039583
2.3550704 -1.2246369 3.2026052 2039583
1.2517157 -1.1742339 3.2245104 2894892
2.2792366 -1.1749988 3.2400765 2039583
2.3248436 -1.175094 3.2177243 2039583
2.3555524 -1.1736108 3.2026834 2039583
1.2520639 -1.1251192 3.2254069 2894892
2.2794602 -1.1250775 3.2402768 2039583
2.3250113 -1.1249787 3.2179518 2039583
2.3563683 -1.1248955 3.2025838 2039583
1.2396907 -1.071304 3.2003634 2894892
1.2524118 -1.075977 3.2263038 2894892
2.2795298 -1.0750827 3.2405543 2039583
2.3252225 -1.0749581 3.2181563 2039583
2.3565519 -1.0749967 3.2028017 2039583
1.2400141 -1.0251657 3.2011988 2894892
1.2527698 -1.0254785 3.2272253 2894892
2.2806387 -1.025136 3.2403128 2039583
2.3254189 -1.0249827 3.2183666 2039583
2.3567789 -1.0253152 3.2029955 2039583
1.2403656 -0.97504556 3.202106 2894892
1.2531278 -0.97495091 3.2281475 2894892
2.2808173 -0.97493577 3.2405343 2039583
2.3247411 -0.97510093 3.2190075 2039583
2.3563051 -0.97428787 3.203542 2039583
1.2407173 -0.92489702 3.2030141 2894892
1.2534859 -0.92439461 3.2290704 2894892
2.2810631 -0.92497522 3.2407196 2039583
2.3246102 -0.92491525 3.2193797 2039583
2.3570409 -0.92503417 3.2034848 2039583
1.2410692 -0.87472034 3.203922 2894892
1.2538351 -0.87514091 3.2299693 2894892
2.28122 -0.89441544 3.2408328 2039583
2.3250072 -0.8942861 3.219373 2039583
2.3569362 -0.89437526 3.2037246 2039583
1.2414212 -0.82451487 3.2048314 2894892
1.254184 -0.82585961 3.2308688 2894892
1.2417735 -0.77428126 3.2057407 2894892
1.2545429 -0.77521789 3.2317932 2894892
1.242126 -0.72401887 3.2066505 2894892
1.2549019 -0.72454721 3.232718 2894892
1.2424693 -0.67505175 3.2075374 2894892
1.2552516 -0.67518234 3.2336187 2894892
1.242813 -0.62605745 3.2084243 2894892
1.2556016 -0.62578952 3.23452 2894892
1.2431661 -0.57571101 3.2093358 2894892
1.2559612 -0.57503325 3.2354467 2894892
1.2435194 -0.52533591 3.2102478 2894892
1.2563211 -0.524248 3.2363732 2894892
1.2438729 -0.47493207 3.2111602 2894892
1.2566715 -0.47477129 3.2372763 2894892
1.2442265 -0.42449966 3.2120731 2894892
1.2570221 -0.42526671 3.2381802 2894892
1.2445804 -0.37403843 3.2129867 2894892
1.2573828 -0.37439558 3.2391083 2894892
1.2449251 -0.3248778 3.2138767 2894892
1.2577338 -0.32483518 3.2400131 2894892
1.24527 -0.27568957 3.214767 2894892
1.2580853 -0.27524689 3.2409179 2894892
1.2456247 -0.22514376 3.2156823 2894892
1.2584461 -0.22428964 3.2418485 2894892
1.2459791 -0.17456917 3.216598 2894892
1.2587981 -0.17464538 3.2427537 2894892
1.2463247 -0.12529789 3.2174902 2894892
1.2591498 -0.1249731 3.2436607 2894892
1.2466705 -0.075999029 3.2183826 2894892
1.2595021 -0.075273305 3.2445679 2894892
1.2470256 -0.025339428 3.2192998 2894892
1.2598544 -0.025545452 3.2454753 2894892
1.2473811 0.025349051 3.2202177 2894892
1.2602161 0.025555234 3.246408 2894892
-0.41036624 0.097262062 3.2160161 2960685
-0.37428477 0.097233683 3.2150772 2960685
-0.3248719 0.097194806 3.2137918 8684676
-0.27549878 0.097155973 3.212508 10197915
-0.22483218 0.097116105 3.2111907 10197915
-0.17420715 0.097076297 3.2098737 10197915
-0.124954 0.097037546 3.2085929 10197915
-0.075740553 0.096998848 3.2073128 10197915
-0.025237653 0.096959122 3.2059984 10197915
0.025223887 0.096919425 3.2046869 10197915
0.075644128 0.096879765 3.2033756 10197915
0.12602313 0.096840121 3.2020645 10197915
0.17503695 0.096801572 3.2007897 10197915
0.20151606 0.096780747 3.2001014 10197915
1.2477182 0.073396139 3.221087 2894892
1.2695959 0.083708078 3.2470982 3421236
1.3151771 0.09547814 3.2459605 10197915
1.2846805 -1.4609816 3.2906861 2894892
2.1749592 -1.4610099 3.2894218 2039583
2.2207553 -1.4558568 3.2670088 2039583
2.2533281 -1.4519354 3.2510691 2039583
1.2760273 -1.4251896 3.2731647 2894892
2.1771917 -1.4249641 3.2885487 2039583
2.2251902 -1.425012 3.2650251 2039583
2.2534137 -1.4250517 3.2511933 2039583
1.2763873 -1.3754046 3.2740889 2894892
2.1772528 -1.3749615 3.2888265 2039583
2.2252331 -1.3750052 3.2653131 2039583
2.253572 -1.3753123 3.2514212 2039583
1.2767477 -1.3255911 3.2750132 2894892
2.1774523 -1.3250117 3.289036 2039583
2.2254913 -1.3249928 3.2654934 2039583
2.2536979 -1.3246601 3.2516716 2039583
1.2771178 -1.274402 3.2759628 2894892
2.1776412 -1.2750573 3.2892518 2039583
2.2256267 -1.2749714 3.2657366 2039583
2.254071 -1.2741268 3.2517996 2039583
1.2731166 -1.2207627 3.2680018 2894892
2.1787951 -1.2250355 3.288995 2039583
2.2250464 -1.2252405 3.2663255 2039583
2.2543318 -1.2236338 3.2519834 2039583
1.2712499 -1.1752014 3.2643661 2894892
2.1789861 -1.1750281 3.2892089 2039583
2.2249599 -1.174993 3.2666767 2039583
2.2542102 -1.1749383 3.2523422 2039583
1.2714349 -1.1248132 3.2649341 2894892
2.1790347 -1.12501 3.2894948 2039583
2.2250359 -1.124999 3.2669489 2039583
2.2544115 -1.1248984 3.2525516 2039583
1.2721487 -1.0750523 3.2665796 2894892
2.1792729 -1.0749253 3.2896852 2039583
2.2252543 -1.0750536 3.267149 2039583
2.254463 -1.0748361 3.2528348 2039583
1.2721509 -1.0252964 3.2667723 2894892
2.1800442 -1.0252103 3.2896144 2039583
2.2253797 -1.0250442 3.2673943 2039583
2.2556305 -1.024411 3.2525737 2039583
1.2726921 -0.97480595 3.268069 2894892
2.1797543 -0.97509557 3.2900631 2039583
2.2246292 -0.97500449 3.2680717 2039583
2.2557702 -0.97496986 3.2528093 2039583
1.2730507 -0.92497146 3.2689891 2894892
2.1795495 -0.92501849 3.2904711 2039583
2.2246578 -0.92502385 3.2683647 2039583
2.2560923 -0.92518717 3.2529571 2039583
1.2734098 -0.8751086 3.2699111 2894892
2.1798921 -0.89449418 3.2904925 2039583
2.2248671 -0.89441156 3.2684505 2039583
2.2561076 -0.89489657 3.2531376 2039583
1.273595 -0.8245461 3.2704818 2894892
1.2743109 -0.77462161 3.2721319 2894892
1.2743137 -0.7246905 3.2723265 2894892
1.2748466 -0.67538238 3.2736013 2894892
1.2752066 -0.62537867 3.2745256 2894892
1.2753929 -0.57466465 3.2750983 2894892
1.2761103 -0.52461642 3.2767522 2894892
1.2761134 -0.47452673 3.2769485 2894892
1.2766477 -0.42508796 3.2782259 2894892
1.2770087 -0.3749429 3.2791526 2894892
1.2773696 -0.32476982 3.2800801 2894892
1.2775471 -0.27523738 3.2806296 2894892
1.2782661 -0.22502667 3.2822878 2894892
1.2782698 -0.17476086 3.2824867 2894892
1.2788059 -0.12515804 3.2837679 2894892
1.2791678 -0.074843362 3.284698 2894892
1.2795303 -0.024500411 3.2856274 2894892
1.277302 0.020263365 3.2812514 2894892
-0.41597691 0.096833825 3.2920494 2960685
-0.37493792 0.096801698 3.290957 2960685
-0.32435903 0.096762069 3.2896101 9868950
-0.27518702 0.096723579 3.288301 10197915
-0.22469006 0.096684031 3.2869568 10197915
-0.17423397 0.096644513 3.2856131 10197915
-0.12518135 0.096606098 3.2843077 10197915
-0.074806958 0.096566655 3.2829664 10197915
-0.024473306 0.096527234 3.2816265 10197915
0.024460368 0.096488923 3.2803237 10197915
0.074712656 0.096449561 3.2789857 10197915
0.12492434 0.096410245 3.2776484 10197915
0.17509472 0.096370958 3.2763131 10197915
0.22522463 0.096331693 3.2749786 10197915
0.27531332 0.096292473 3.2736452 10197915
0.32536161 0.096253268 3.2723129 10197915
0.37536877 0.096214131 3.2709813 10197915
0.42533571 0.096174993 3.2696512 10197915
0.47526154 0.096135885 3.2683218 10197915
0.52514714 0.096096806 3.2669933 10197915
0.57499188 0.09605778 3.2656658 10197915
0.62479663 0.096018784 3.2643402 10197915
0.67456049 0.095979802 3.2630153 10197915
0.72562748 0.095939815 3.2616558 10197915
0.77531004 0.095900908 3.2603331 10197915
0.82495171 0.095862031 3.2590113 10197915
0.87455368 0.095823191 3.2576909 10197915
0.924115 0.095784388 3.2563715 10197915
0.97497427 0.09574455 3.2550175 10197915
1.0164347 0.095712088 3.2539132 10197915
1.2735921 0.071886376 3.2738774 2894892
1.3026669 -1.4694626 3.3273549 2894892
2.0746942 -1.4718575 3.3384922 2039583
2.1238048 -1.4664717 3.3144588 2039583
2.1521351 -1.4619024 3.3006022 2039583
1.2894013 -1.4247667 3.3004563 2894892
1.3029901 -1.4257045 3.3281803 2894892
2.075877 -1.4250715 3.3382025 2039583
2.1252782 -1.4249408 3.3139904 2039583
2.1523631 -1.4248805 3.3007181 2039583
1.2897681 -1.374566 3.3013954 2894892
1.3033638 -1.3750821 3.3291354 2894892
2.0761828 -1.3752397 3.3383594 2039583
2.1254911 -1.3749251 3.3141959 2039583
2.1524866 -1.3750528 3.3009641 2039583
1.2901351 -1.3243371 3.302335 2894892
1.3037378 -1.3244309 3.3300905 2894892
2.0771594 -1.3250661 3.3381898 2039583
2.1256173 -1.3250171 3.3144407 2039583
2.1526964 -1.3245739 3.3011723 2039583
1.2904925 -1.2754378 3.3032496 2894892
1.3041023 -1.275121 3.3310211 2894892
2.0774035 -1.2750558 3.3383782 2039583
2.1257343 -1.2749863 3.3146923 2039583
2.1529059 -1.2740889 3.3013809 2039583
1.2908602 -1.2251521 3.3041909 2894892
1.3044666 -1.2257833 3.3319521 2894892
2.0774367 -1.2250371 3.3386693 2039583
2.1259582 -1.2248948 3.3148906 2039583
2.1540065 -1.22539 3.3011415 2039583
1.2912278 -1.1748381 3.3051317 2894892
1.3048413 -1.1750461 3.3329091 2894892
2.0776441 -1.1750124 3.338877 2039583
2.1254048 -1.1751729 3.3154683 2039583
2.1534517 -1.173568 3.3017323 2039583
1.2915857 -1.1258562 3.3060479 2894892
1.3052163 -1.1242802 3.3338666 2894892
2.0782635 -1.1255593 3.3388786 2039583
2.1247427 -1.1246647 3.316103 2039583
2.1533182 -1.1248674 3.3020976 2039583
1.2919537 -1.0754853 3.3069901 2894892
1.3055811 -1.0748582 3.3347991 2894892
2.0779176 -1.0750104 3.3393571 2039583
2.1243494 -1.0749036 3.3166032 2039583
2.1534264 -1.075345 3.30235 2039583
1.2923222 -1.0250858 3.3079329 2894892
1.3059461 -1.0254086 3.335732 2894892
2.0781276 -1.0249335 3.3395641 2039583
2.124402 -1.0249945 3.316885 2039583
2.1542614 -1.0240358 3.3022563 2039583
1.2926906 -0.97465748 3.3088768 2894892
1.3063117 -0.97593141 3.3366652 2894892
2.0781806 -0.97491777 3.3398457 2039583
2.1245346 -0.9750787 3.3171279 2039583
2.1548364 -0.97464758 3.302279 2039583
1.2930597 -0.92420071 3.3098209 2894892
1.3066875 -0.92505056 3.337625 2894892
2.078717 -0.92525584 3.3398902 2039583
2.1247318 -0.9249844 3.3173399 2039583
2.1549203 -0.9249059 3.3025434 2039583
1.2934185 -0.87507963 3.3107395 2894892
1.3070636 -0.87414098 3.3385859 2894892
2.0796852 -0.89467299 3.3396027 2039583
2.1249835 -0.89449984 3.3174028 2039583
2.1550117 -0.89484358 3.3026836 2039583
1.2937779 -0.82593131 3.3116591 2894892
1.3074298 -0.82457894 3.3395207 2894892
1.2941471 -0.77538919 3.3126047 2894892
1.307796 -0.77498913 3.3404565 2894892
1.2945169 -0.72481853 3.3135507 2894892
1.3081625 -0.72537148 3.3413925 2894892
1.2948766 -0.6755867 3.3144722 2894892
1.3085291 -0.67572606 3.3423288 2894892
1.2952466 -0.62495869 3.315419 2894892
1.3088959 -0.62605268 3.343266 2894892
1.2956169 -0.57430202 3.3163667 2894892
1.3092734 -0.5749706 3.3442299 2894892
1.2959772 -0.52498651 3.3172894 2894892
1.3096508 -0.5238592 3.3451939 2894892
1.296338 -0.47564352 3.318212 2894892
1.3100182 -0.47410071 3.3461323 2894892
1.2967087 -0.42490122 3.3191614 2894892
1.3103859 -0.42431432 3.3470716 2894892
1.2970799 -0.3741301 3.3201113 2894892
1.3107538 -0.37449995 3.348012 2894892
1.297441 -0.3247031 3.3210361 2894892
1.3111219 -0.32465762 3.3489518 2894892
1.2978027 -0.27524862 3.3219612 2894892
1.3114187 -0.28448722 3.3497095 2894892
1.2981644 -0.22576658 3.3228867 2894892
1.2985361 -0.17488112 3.3238387 2894892
1.2989082 -0.12396678 3.3247914 2894892
1.2992705 -0.074400343 3.3257184 2894892
1.299633 -0.024806267 3.3266463 2894892
1.2928985 0.024586871 3.3130918 2894892
1.3000865 0.037224393 3.3278065 2894892
0.38856328 0.095753171 3.3496673 10197915
0.42451859 0.095725149 3.3486872 10197915
0.47426993 0.095686369 3.3473306 10197915
0.52398086 0.095647603 3.3459747 10197915
0.57503062 0.095607825 3.3445823 10197915
0.62603843 0.095568053 3.3431921 10197915
0.67562664 0.095529422 3.3418398 10197915
0.72517478 0.095490798 3.3404887 10197915
0.77468282 0.095452212 3.339139 10197915
0.82415104 0.095413648 3.3377903 10197915
0.87495142 0.095374048 3.3364048 10197915
0.92571014 0.0953345 3.335021 10197915
0.97505635 0.095296033 3.3336756 10197915
1.0243626 0.095257595 3.3323312 10197915
1.0531077 0.095235176 3.3315468 10197915
1.2875302 0.073734358 3.302279 2894892
1.3132981 0.084050357 3.3261688 4079166
1.3561449 0.094998993 3.3232846 10197915
1.3302672 -1.5068886 3.383532 2894892
1.9717163 -1.5081083 3.3887396 2039583
2.0151973 -1.5032165 3.3674598 2039583
1.3232888 -1.4749182 3.3694124 2894892
1.9745717 -1.4749864 3.3875439 2039583
2.0245068 -1.4749504 3.3630724 2039583
2.0501795 -1.4741298 3.3504946 2039583
1.3238577 -1.4243724 3.3707662 2894892
1.9747268 -1.4249297 3.3877761 2039583
2.02456 -1.4250743 3.3633513 2039583
2.050324 -1.4242597 3.3507307 2039583
1.3242316 -1.3744876 3.3717189 2894892
1.9748929 -1.374927 3.3880031 2039583
2.0247085 -1.3750697 3.3635879 2039583
2.0507817 -1.3713531 3.350832 2039583
1.3246061 -1.3245753 3.3726721 2894892
1.975836 -1.3252107 3.3878467 2039583
2.024884 -1.3250582 3.3638098 2039583
2.0516808 -1.3242921 3.3506808 2039583
1.3249809 -1.2746347 3.3736262 2894892
1.9762353 -1.2749683 3.3879609 2039583
2.0249949 -1.2750393 3.3640635 2039583
2.051826 -1.2744086 3.3509173 2039583
1.3253559 -1.2246654 3.3745806 2894892
1.9763758 -1.2249084 3.3882 2039583
2.0251744 -1.2250137 3.3642828 2039583
2.0519705 -1.2245183 3.3511539 2039583
1.325731 -1.1746681 3.375536 2894892
1.976503 -1.1749681 3.3884449 2039583
2.02528 -1.1750425 3.3645391 2039583
2.0521152 -1.1746207 3.3513906 2039583
1.3261065 -1.1246426 3.376492 2894892
1.9770126 -1.125272 3.3885012 2039583
2.0254667 -1.1250634 3.3647556 2039583
2.0531616 -1.1230171 3.3511949 2039583
1.3262755 -1.0752962 3.3770239 2894892
1.9778885 -1.0750822 3.3883808 2039583
2.0256152 -1.0750769 3.3649914 2039583
2.0534732 -1.0746369 3.3513403 2039583
1.3268473 -1.0259038 3.3783789 2894892
1.9780227 -1.0249528 3.3886251 2039583
2.0257156 -1.0250837 3.3652496 2039583
2.0536177 -1.0247263 3.3515773 2039583
1.3272233 -0.9757936 3.3793354 2894892
1.9780285 -0.97505933 3.3889298 2039583
2.0257196 -0.97492599 3.365557 2039583
2.0537627 -0.97480822 3.3518138 2039583
1.3275995 -0.92565536 3.3802936 2894892
1.977296 -0.92493051 3.3895972 2039583
2.0249777 -0.92507982 3.3662274 2039583
2.0543396 -0.92316252 3.3518486 2039583
1.327976 -0.87548864 3.3812521 2894892
1.9770856 -0.8947069 3.3898857 2039583
2.0251548 -0.89473307 3.366327 2039583
2.0550644 -0.89423108 3.3516719 2039583
1.3283527 -0.82529342 3.3822114 2894892
1.3287297 -0.77506977 3.3831706 2894892
1.3288999 -0.72553068 3.3837063 2894892
1.3294739 -0.67593986 3.3850648 2894892
1.3235209 -0.62701446 3.3731043 2894892
1.323161 -0.57565075 3.3725648 2894892
1.3235353 -0.52549964 3.3735187 2894892
1.3239099 -0.47532019 3.3744738 2894892
1.3242846 -0.42511237 3.3754289 2894892
1.3246596 -0.37487608 3.3763845 2894892
1.3250347 -0.32461134 3.377341 2894892
1.3215442 -0.27018154 3.3704247 2894892
1.3188224 -0.22444265 3.3650441 2894892
1.3189905 -0.17500269 3.365576 2894892
1.3195565 -0.12553747 3.3669176 2894892
1.3199296 -0.075343281 3.3678691 2894892
1.3203021 -0.025120741 3.3688209 2894892
1.3206753 0.025130197 3.3697729 2894892
-0.42045787 0.096383743 3.3717268 2960685
-0.37422183 0.096347719 3.370466 3815994
-0.32382137 0.09630844 3.3690917 10197915
-0.27486014 0.096270278 3.3677566 10197915
-0.22593802 0.096232146 3.3664229 10197915
-0.1756584 0.096192963 3.3650522 10197915
-0.12541969 0.096153788 3.3636823 10197915
-0.075221874 0.096114665 3.3623133 10197915
-0.025064887 0.096075587 3.3609457 10197915
0.025051309 0.096036524 3.3595796 10197915
0.075126775 0.09599749 3.3582144 10197915
0.12516154 0.095958471 3.3568497 10197915
0.17515568 0.095919512 3.3554866 10197915
0.22510923 0.095880583 3.3541245 10197915
0.27502227 0.095841683 3.3527632 10197915
0.32489479 0.095802814 3.3514035 10197915
0.36365771 0.095772594 3.3503468 10197915
1.3210279 0.072615243 3.3706727 2894892
1.344521 -1.5127624 3.4125946 2894892
1.3590109 -1.5201521 3.4421327 2894892
1.8482264 -1.5251337 3.4491565 2039583
1.8737463 -1.5185788 3.4366901 2039583
1.9234484 -1.5133849 3.4123623 2039583
1.3448095 -1.4749058 3.4133272 2894892
1.3593595 -1.4748969 3.4430163 2894892
1.8478813 -1.4748746 3.4496346 2039583
1.8749908 -1.4750227 3.436348 2039583
1.9251293 -1.4750055 3.4117761 2039583
1.3451841 -1.425809 3.4142771 2894892
1.3597412 -1.4253731 3.4439828 2894892
1.8480116 -1.4249552 3.4498785 2039583
1.8751277 -1.4249856 3.4365857 2039583
1.9252346 -1.4250592 3.4120317 2039583
1.3455694 -1.3752809 3.4152553 2894892
1.3601232 -1.3758212 3.4449503 2894892
1.8751762 -1.3750023 3.4368699 2039583
1.9253761 -1.375039 3.4122708 2039583
1.3459544 -1.3247237 3.4162321 2894892
1.3605163 -1.3248248 3.4459462 2894892
1.8750347 -1.3252426 3.4372492 2039583
1.9252559 -1.3247811 3.4126389 2039583
1.9509352 -1.3184659 3.4000924 2039583
1.3463393 -1.2741369 3.4172096 2894892
1.3608985 -1.2752166 3.446914 2894892
1.874346 -1.2749232 3.4378974 2039583
1.924556 -1.2750709 3.4132874 2039583
1.9510556 -1.2748771 3.4003019 2039583
1.3467146 -1.2249285 3.4181619 2894892
1.361281 -1.2255802 3.4478827 2894892
1.8744544 -1.2249653 3.4381485 2039583
1.9246991 -1.2250515 3.4135261 2039583
1.9511914 -1.2256579 3.4005384 2039583
1.3470899 -1.1756924 3.4191148 2894892
1.3616736 -1.1744958 3.4488769 2894892
1.8751469 -1.1753052 3.4381146 2039583
1.9248232 -1.1750225 3.4137716 2039583
1.951331 -1.175025 3.4007821 2039583
1.3474762 -1.1250211 3.4200952 2894892
1.3619909 -1.1333245 3.4496806 2894892
1.8758997 -1.1249677 3.4380577 2039583
1.9249917 -1.1249874 3.4139993 2039583
1.9519598 -1.1203332 3.4008105 2039583
1.3478627 -1.0743206 3.4210763 2894892
1.8759539 -1.0749174 3.4383419 2039583
1.9251385 -1.0749454 3.4142346 2039583
1.9527065 -1.0749747 3.4007239 2039583
1.3482389 -1.0250007 3.4220309 2894892
1.8761275 -1.0250018 3.4385624 2039583
1.9251993 -1.0249557 3.4145124 2039583
1.9528422 -1.0257353 3.4009607 2039583
1.3486152 -0.97565299 3.422986 2894892
1.8763394 -0.97500378 3.4387689 2039583
1.9254003 -0.97508633 3.414721 2039583
1.9529822 -0.97508168 3.4012043 2039583
1.3490024 -0.9248668 3.4239688 2894892
1.877341 -0.92508072 3.4385805 2039583
1.9254932 -0.92508292 3.4149854 2039583
1.9531223 -0.92442107 3.4014478 2039583
1.3493897 -0.87405145 3.4249516 2894892
1.8776728 -0.8947832 3.438607 2039583
1.9258786 -0.89466745 3.4149818 2039583
1.9532036 -0.89486605 3.4015894 2039583
1.3497667 -0.82461977 3.4259088 2894892
1.3499713 -0.79777485 3.4264283 2894892
1.3501654 -0.77233338 3.4269204 2894892
1.3505321 -0.7242589 3.4278514 2894892
1.3509097 -0.67474347 3.4288094 2894892
1.3369259 -0.62408555 3.4004681 2894892
1.3512874 -0.62520015 3.4297686 2894892
1.3372965 -0.57493764 3.4014111 2894892
1.3516762 -0.57421243 3.4307554 2894892
1.3376783 -0.52435744 3.4023819 2894892
1.3520545 -0.52461308 3.4317153 2894892
1.3380494 -0.47515449 3.403326 2894892
1.3524327 -0.47498572 3.4326754 2894892
1.3384207 -0.42592403 3.4042702 2894892
1.3528115 -0.42533082 3.4336364 2894892
1.3388029 -0.37525865 3.4052427 2894892
1.3531903 -0.37564778 3.4345984 2894892
1.3391854 -0.32456425 3.4062152 2894892
1.3535801 -0.32451642 3.4355876 2894892
1.3395573 -0.27525043 3.4071615 2894892
1.3539593 -0.27477717 3.4365504 2894892
1.3399297 -0.22590896 3.4081085 2894892
1.3543389 -0.22500984 3.4375141 2894892
1.3403128 -0.17512923 3.4090824 2894892
1.3547186 -0.17521486 3.4384773 2894892
1.3406959 -0.12432045 3.4100573 2894892
1.3550982 -0.12539168 3.4394414 2894892
1.341069 -0.074895285 3.4110055 2894892
1.3554785 -0.075540826 3.4404061 2894892
1.341442 -0.025442369 3.4119549 2894892
1.3558588 -0.025661714 3.4413714 2894892
1.3418258 0.02545207 3.4129312 2894892
1.3562502 0.025671581 3.4423649 2894892
-0.2172249 0.095750093 3.4495466 10197915
-0.17572254 0.095717907 3.4483869 10197915
-0.12566984 0.095679082 3.4469883 10197915
-0.075657338 0.095640302 3.4455907 10197915
-0.025685774 0.095601536 3.4441946 10197915
0.025671517 0.095561713 3.4427595 10197915
0.075561404 0.095523015 3.4413655 10197915
0.12541051 0.095484361 3.4399726 10197915
0.17521966 0.095445722 3.4385808 10197915
0.22498815 0.095407121 3.4371903 10197915
0.27471676 0.095368557 3.4358008 10197915
0.32440487 0.095330007 3.4344125 10197915
0.37547085 0.095290408 3.4329855 10197915
0.42507792 0.095251933 3.4315994 10197915
0.47464454 0.095213495 3.4302146 10197915
0.52558583 0.09517397 3.4287906 10197915
0.57507175 0.095135592 3.4274077 10197915
0.62451738 0.095097236 3.4260261 10197915
0.67533427 0.095057823 3.4246063 10197915
0.72469968 0.095019527 3.4232271 10197915
0.77402478 0.094981275 3.421849 10197915
0.82471806 0.094941966 3.4204323 10197915
0.87536925 0.094902664 3.4190168 10197915
0.92597866 0.094863437 3.4176033 10197915
0.97514218 0.094825298 3.4162292 10197915
1.0242658 0.094787203 3.4148564 10197915
1.0663418 0.094754554 3.413681 10197915
1.3424164 0.076848261 3.4121668 2894892
1.3651104 0.084315032 3.4230075 3223857
1.3735647 -1.5519123 3.4717093 2894892
1.7464879 -1.5576884 3.4988177 2039583
1.7702662 -1.5550984 3.4871795 2039583
1.8055522 -1.5511085 3.4699111 2039583
1.3737758 -1.5248179 3.4722431 2894892
1.747407 -1.5273876 3.4985535 2039583
1.7757661 -1.5250388 3.484669 2039583
1.8233488 -1.5239788 3.4613552 2039583
1.3741648 -1.4748878 3.4732263 2894892
1.748036 -1.4748007 3.4985695 2039583
1.7750579 -1.4753361 3.485323 2039583
1.823288 -1.47466 3.4616892 2039583
1.374554 -1.4249291 3.4742098 2894892
1.7481261 -1.4248823 3.4988327 2039583
1.7748364 -1.4249903 3.4857409 2039583
1.8230226 -1.4249588 3.4621255 2039583
1.3749437 -1.3749424 3.4751945 2894892
1.748248 -1.375694 3.4990757 2039583
1.7748979 -1.3749552 3.4860182 2039583
1.8242611 -1.3749306 3.4618266 2039583
1.3753333 -1.3249271 3.4761796 2894892
1.7484384 -1.3264016 3.4992862 2039583
1.7751825 -1.3249828 3.486187 2039583
1.8244587 -1.3250217 3.4620368 2039583
1.3757232 -1.2748839 3.477165 2894892
1.7496635 -1.2741953 3.4990072 2039583
1.7750608 -1.2750039 3.4865558 2039583
1.8245389 -1.2750424 3.4623055 2039583
1.3761133 -1.2248118 3.4781508 2894892
1.7497852 -1.2249942 3.4992507 2039583
1.775321 -1.2250166 3.4867351 2039583
1.8246536 -1.2249916 3.4625592 2039583
1.3765036 -1.1747116 3.4791379 2894892
1.749907 -1.1757863 3.4994943 2039583
1.7754648 -1.1749562 3.4869733 2039583
1.8247968 -1.1750621 3.4627953 2039583
1.8509667 -1.1606061 3.4500585 2039583
1.3732151 -1.1207319 3.4726317 2894892
1.7499821 -1.14539 3.4996445 2039583
1.774585 -1.1248112 3.4877126 2039583
1.8249079 -1.1250609 3.4630487 2039583
1.85106 -1.1249298 3.4502323 2039583
1.3696499 -1.0747628 3.4655311 2894892
1.7750866 -1.0752808 3.4877727 2039583
1.8251019 -1.075055 3.4632604 2039583
1.8511908 -1.0749767 3.4504759 2039583
1.3702433 -1.0255035 3.4669294 2894892
1.7757907 -1.0249338 3.4877379 2039583
1.8251308 -1.0250366 3.4635563 2039583
1.8513213 -1.025017 3.4507198 2039583
1.3706309 -0.97550827 3.4679089 2894892
1.7759671 -0.97497803 3.4879587 2039583
1.8253669 -0.97501832 3.4637477 2039583
1.8514524 -0.97505021 3.450963 2039583
1.3708119 -0.92476064 3.4684713 2894892
1.7760857 -0.9249506 3.4882083 2039583
1.8254514 -0.92505074 3.4640138 2039583
1.8526825 -0.92424029 3.4506729 2039583
1.371624 -0.87472779 3.4703181 2894892
1.775794 -0.89484972 3.4885368 2039583
1.8253369 -0.8949613 3.4642558 2039583
1.8527936 -0.89494514 3.4507992 2039583
1.3715876 -0.82464087 3.4704337 2894892
1.3721826 -0.77525163 3.4718349 2894892
1.3725712 -0.7251147 3.4728181 2894892
1.3729599 -0.67494982 3.4738021 2894892
1.3733488 -0.62475616 3.474786 2894892
1.3737383 -0.5745346 3.4757717 2894892
1.3739096 -0.52500153 3.4763086 2894892
1.3747244 -0.47472429 3.478163 2894892
1.3746889 -0.42442861 3.4782808 2894892
1.375286 -0.37480673 3.4796882 2894892
1.3754581 -0.32514587 3.480227 2894892
1.3762741 -0.27478755 3.4820833 2894892
1.3764466 -0.22507083 3.4826233 2894892
1.3766186 -0.17534479 3.4831636 2894892
1.3759084 -0.12849687 3.4818928 2894892
1.3701497 -0.07476034 3.4703457 2894892
1.3705376 -0.024447087 3.471328 2894892
1.3709146 0.024456045 3.4722826 2894892
-0.45102081 0.095931411 3.4560788 2960685
-0.42516088 0.095911369 3.4553568 2960685
-0.37490574 0.095872395 3.4539521 5066061
-0.32469106 0.095833443 3.4525492 10197915
-0.27451748 0.095794529 3.4511471 10197915
-0.24156666 0.095768973 3.4502265 10197915
1.0888685 0.094242983 3.4997199 10197915
1.1046746 0.094230779 3.4992666 10197915
1.3769509 0.078661658 3.478653 2894892
1.4156463 0.093990847 3.4903572 2236962
1.3885747 -1.5583378 3.5023129 2894892
1.403852 -1.5648773 3.5334611 2894892
1.6461574 -1.5686874 3.5479212 2039583
1.6746421 -1.5655788 3.5339797 2039583
1.7206208 -1.5605526 3.5114765 2039583
1.3888354 -1.5252507 3.5029707 2894892
1.4041755 -1.5242394 3.5342755 2894892
1.646382 -1.5246981 3.5480819 2039583
1.6761383 -1.5249478 3.5334988 2039583
1.7229518 -1.524772 3.510555 2039583
1.3892322 -1.4748787 3.5039711 2894892
1.4045688 -1.4748693 3.535265 2894892
1.6466316 -1.4766526 3.5482552 2039583
1.6752487 -1.474854 3.5342445 2039583
1.723424 -1.4749942 3.5106297 2039583
1.3896291 -1.4244779 3.5049725 2894892
1.4049621 -1.4254714 3.5362554 2894892
1.6465636 -1.4245718 3.548609 2039583
1.6740375 -1.4250987 3.535141 2039583
1.7224219 -1.4249938 3.5114284 2039583
1.3900152 -1.3754892 3.5059459 2894892
1.4053558 -1.3760458 3.5372462 2894892
1.6466799 -1.3746835 3.5488598 2039583
1.6741294 -1.3749832 3.5354042 2039583
1.7226526 -1.3750484 3.5116246 2039583
1.3904127 -1.3250315 3.5069485 2894892
1.4057612 -1.3251375 3.5382662 2894892
1.6467961 -1.3247886 3.5491099 2039583
1.6742358 -1.3249284 3.5356598 2039583
1.7226691 -1.3248903 3.5119238 2039583
1.3908103 -1.2745448 3.507951 2894892
1.4061669 -1.2742001 3.5392878 2894892
1.647112 -1.2778875 3.5492444 2039583
1.6743667 -1.2749372 3.5359039 2039583
1.7239269 -1.2749717 3.5116153 2039583
1.3911966 -1.2254732 3.5089262 2894892
1.406561 -1.2246897 3.5402801 2894892
1.648227 -1.224775 3.5490248 2039583
1.6744453 -1.2249388 3.536175 2039583
1.7241012 -1.2249705 3.5118377 2039583
1.3915949 -1.1749294 3.5099308 2894892
1.4069556 -1.1751515 3.5412731 2894892
1.6483434 -1.174867 3.5492749 2039583
1.6746229 -1.1749331 3.5363939 2039583
1.724274 -1.1749638 3.5120611 2039583
1.3919934 -1.1243571 3.5109348 2894892
1.4073504 -1.1255856 3.5422668 2894892
1.6484594 -1.1249521 3.5495255 2039583
1.6747094 -1.1248507 3.5366621 2039583
1.7242796 -1.1249487 3.5123665 2039583
1.3923805 -1.0752019 3.5119116 2894892
1.4077454 -1.075992 3.5432611 2894892
1.648576 -1.0750302 3.5497761 2039583
1.6748745 -1.0748315 3.5368898 2039583
1.7244666 -1.0750644 3.5125828 2039583
1.7501899 -1.0614241 3.5000601 2039583
1.3927679 -1.0260191 3.5128884 2894892
1.4081521 -1.0249103 3.5442846 2894892
1.6486582 -1.0397871 3.549953 2039583
1.6749394 -1.0249442 3.5371633 2039583
1.7245487 -1.0251039 3.5128491 2039583
1.7502793 -1.0252255 3.5002391 2039583
1.3931661 -0.97536045 3.5138931 2894892
1.4085592 -0.97379953 3.5453091 2894892
1.6750237 -0.97498012 3.5374315 2039583
1.7246783 -0.9749319 3.5130961 2039583
1.7504013 -0.97598976 3.5004826 2039583
1.3935646 -0.92467356 3.5148985 2894892
1.408955 -0.92412049 3.5463049 2894892
1.6751883 -0.92500824 3.5376589 2039583
1.7247674 -0.92488837 3.5133603 2039583
1.7505265 -0.92529869 3.5007329 2039583
1.3939527 -0.87540698 3.5158775 2894892
1.4093502 -0.87441307 3.5472996 2894892
1.6759274 -0.89503193 3.5374808 2039583
1.7251761 -0.8949123 3.5133438 2039583
1.7506018 -0.89488095 3.5008838 2039583
1.3943523 -0.82466269 3.5168853 2894892
1.4097451 -0.82467771 3.5482941 2894892
1.3947524 -0.7738896 3.5178938 2894892
1.4101416 -0.77491498 3.5492916 2894892
1.395141 -0.72453916 3.5188744 2894892
1.4103863 -0.7441662 3.5499077 2894892
1.39553 -0.67516112 3.519855 2894892
1.3959191 -0.62575567 3.5208371 2894892
1.3963199 -0.57486808 3.5218477 2894892
1.3967211 -0.52395171 3.5228596 2894892
1.3971109 -0.47446182 3.5238435 2894892
1.3975011 -0.42494431 3.524827 2894892
1.3978915 -0.37539911 3.5258117 2894892
1.3982819 -0.32582629 3.5267963 2894892
1.3986726 -0.27622569 3.5277817 2894892
1.399075 -0.2251372 3.5287969 2894892
1.3994777 -0.17401959 3.5298121 2894892
1.3953297 -0.12229531 3.5215449 2894892
1.4000301 -0.10386845 3.5312059 2894892
1.3850788 -0.073966421 3.5008106 2894892
1.4002604 -0.07462088 3.5317872 2894892
1.3854628 -0.024661554 3.5017817 2894892
1.4006524 -0.024879813 3.5327752 2894892
1.3858471 0.024670668 3.502754 2894892
1.4010441 0.024889093 3.5337641 2894892
-0.45662183 0.095435411 3.5440006 2960685
-0.42421103 0.095410407 3.5430715 2960685
-0.37415248 0.095371775 3.5416377 6447714
-0.3241345 0.095333189 3.5402045 10197915
-0.27415696 0.095294625 3.5387726 10197915
-0.22421987 0.095256098 3.5373418 10197915
-0.17432311 0.095217593 3.535912 10197915
-0.12446669 0.095179141 3.5344839 10197915
-0.074650519 0.095140696 3.5330563 10197915
-0.024874575 0.09510228 3.5316305 10197915
0.024861204 0.095063917 3.5302055 10197915
0.074556872 0.095025584 3.5287814 10197915
0.12421246 0.094987258 3.5273588 10197915
0.17382801 0.094948985 3.5259373 10197915
0.22486094 0.094909623 3.5244751 10197915
0.27585191 0.094870269 3.5230143 10197915
0.32534528 0.094832085 3.5215962 10197915
0.37479895 0.094793931 3.520179 10197915
0.42421278 0.094755813 3.5187635 10197915
0.47503826 0.094716594 3.517307 10197915
0.52582204 0.094677389 3.5158517 10197915
0.57511449 0.094639361 3.5144396 10197915
0.62436736 0.094601363 3.5130279 10197915
0.67502725 0.09456227 3.5115767 10197915
0.72564584 0.094523221 3.5101261 10197915
0.77477789 0.094485313 3.5087185 10197915
0.82531369 0.094446316 3.5072708 10197915
0.87580824 0.094407365 3.5058239 10197915
0.92481995 0.094369553 3.50442 10197915
0.97523201 0.094330646 3.5029752 10197915
1.0256028 0.094291776 3.5015318 10197915
1.0644331 0.094261833 3.5004196 10197915
1.3862091 0.071125753 3.5036688 2894892
1.4014136 0.071755618 3.5346951 2894892
1.4350184 -1.6048959 3.5969036 2894892
1.5438548 -1.6048534 3.5978367 2039583
1.561707 -1.6028351 3.5890994 2039583
1.4278204 -1.5742497 3.5823326 2894892
1.5442588 -1.5751382 3.5978215 2039583
1.5747304 -1.5749373 3.5828886 2039583
1.6202668 -1.5715141 3.5605931 2039583
1.4277179 -1.5256273 3.5823071 2894892
1.5444825 -1.5258625 3.5980167 2039583
1.5750289 -1.5251415 3.583051 2039583
1.6210737 -1.5249535 3.560483 2039583
1.427876 -1.4763256 3.5828173 2894892
1.5456061 -1.4745981 3.5977807 2039583
1.5750839 -1.4751287 3.583328 2039583
1.6223252 -1.4748429 3.5601795 2039583
1.4205818 -1.4250152 3.5681283 2894892
1.5457635 -1.4250242 3.5980091 2039583
1.5751611 -1.4250376 3.5836003 2039583
1.6225582 -1.4249562 3.5603724 2039583
1.4209952 -1.3736769 3.5691662 2894892
1.5459212 -1.3754445 3.5982358 2039583
1.5752858 -1.3750104 3.5838475 2039583
1.6226215 -1.3749841 3.5606494 2039583
1.421397 -1.3237765 3.5701756 2894892
1.5459814 -1.3253403 3.5985143 2039583
1.5754528 -1.3249766 3.5840721 2039583
1.6227401 -1.3250055 3.560899 2039583
1.4217991 -1.2738479 3.5711861 2894892
1.5464791 -1.2770441 3.5985682 2039583
1.5755442 -1.2749352 3.5843375 2039583
1.6232778 -1.2748177 3.5609446 2039583
1.4222014 -1.2238911 3.5721965 2894892
1.5473963 -1.2246624 3.5984416 2039583
1.5750414 -1.2252907 3.5848892 2039583
1.6235148 -1.2247629 3.5611362 2039583
1.422604 -1.173906 3.5732069 2894892
1.5475782 -1.175581 3.5986559 2039583
1.5745381 -1.1750325 3.5854466 2039583
1.6231357 -1.1750523 3.5616291 2039583
1.4230067 -1.1238927 3.5742188 2894892
1.54765 -1.1256992 3.5989285 2039583
1.5746387 -1.1249783 3.585706 2039583
1.6232685 -1.1251842 3.5618708 2039583
1.4234096 -1.0738509 3.5752308 2894892
1.5477608 -1.0750823 3.599184 2039583
1.5747646 -1.074844 3.5859506 2039583
1.6233042 -1.0752348 3.5621603 2039583
1.4238127 -1.0237809 3.5762436 2894892
1.5485348 -1.0284264 3.5990927 2039583
1.5748839 -1.0248514 3.586201 2039583
1.6241418 -1.0248371 3.5620608 2039583
1.4242163 -0.97368252 3.5772572 2894892
1.5492111 -0.97515273 3.5990899 2039583
1.5749731 -0.9750011 3.5864658 2039583
1.6247581 -0.97509909 3.5620649 2039583
1.4246079 -0.92503059 3.5782409 2894892
1.5493188 -0.92601222 3.5993392 2039583
1.5750258 -0.9249934 3.5867462 2039583
1.6248523 -0.9250595 3.5623276 2039583
1.425 -0.87635148 3.5792255 2894892
1.5493872 -0.8947376 3.5994987 2039583
1.5759065 -0.89501518 3.5865002 2039583
1.625748 -0.89508623 3.5620723 2039583
1.4254041 -0.82616961 3.5802405 2894892
1.4258084 -0.77595896 3.5812559 2894892
1.4194404 -0.72292262 3.5684631 2894892
1.4187758 -0.6753788 3.5672879 2894892
1.4191769 -0.62530744 3.5682957 2894892
1.419578 -0.57520759 3.5693042 2894892
1.4199796 -0.52507967 3.5703137 2894892
1.4203811 -0.47492313 3.5713234 2894892
1.4205384 -0.42548934 3.5718327 2894892
1.4211723 -0.37600896 3.573313 2894892
1.4215747 -0.32576823 3.5743246 2894892
1.421977 -0.27549896 3.5753367 2894892
1.42238 -0.22520123 3.57635 2894892
1.422783 -0.17487511 3.5773633 2894892
1.4229419 -0.12526992 3.5778756 2894892
1.4235778 -0.075626031 3.579361 2894892
1.4239817 -0.025215035 3.5803764 2894892
1.4243854 0.025224563 3.5813923 2894892
0.78890896 0.093953267 3.5997221 10197915
0.82445979 0.093925998 3.5986767 10197915
0.87479007 0.093887381 3.5971971 10197915
0.92507923 0.093848795 3.5957193 10197915
0.9753269 0.093810238 3.5942419 10197915
1.0255333 0.093771711 3.5927658 10197915
1.0756986 0.093733214 3.5912914 10197915
1.1199286 0.093699284 3.5899909 10197915
1.4275552 0.07707528 3.5815129 2829099
1.4594249 0.093438804 3.5800107 2039583
1.4755961 -1.6122369 3.630496 2302755
1.5176443 -1.6077468 3.6106644 2039583
1.476728 -1.5750279 3.630198 2236962
1.5195067 -1.574922 3.6099539 2039583
1.4769673 -1.5248559 3.6304412 2236962
1.5197623 -1.5247958 3.6101379 2039583
1.43627 -1.4511845 3.6000407 2894892
1.4772092 -1.4748437 3.6307154 2236962
1.5209526 -1.4751134 3.6098607 2039583
1.4364868 -1.4245521 3.600584 2894892
1.4771634 -1.4249038 3.6310625 2236962
1.5211132 -1.424983 3.6100903 2039583
1.4368966 -1.3742269 3.6016119 2894892
1.4772887 -1.3749579 3.6313603 2236962
1.5211762 -1.37493 3.6103666 2039583
1.4373065 -1.323873 3.602639 2894892
1.4774545 -1.3249217 3.6316438 2236962
1.5211622 -1.3249615 3.610682 2039583
1.4377048 -1.2749728 3.6036375 2894892
1.4776208 -1.2749563 3.6319399 2236962
1.5219771 -1.2746346 3.6105924 2039583
1.4381033 -1.2260453 3.6046357 2894892
1.477685 -1.225071 3.6322494 2236962
1.522723 -1.2249774 3.6105344 2039583
1.438514 -1.1756067 3.6056652 2894892
1.4777869 -1.1749243 3.6325586 2236962
1.5228754 -1.1749495 3.610769 2039583
1.4389247 -1.1251395 3.6066952 2894892
1.4780804 -1.1248512 3.6327908 2236962
1.5229177 -1.1250007 3.6110528 2039583
1.4393359 -1.0746433 3.6077259 2894892
1.4779371 -1.0749412 3.6332016 2236962
1.5229595 -1.0750431 3.6113408 2039583
1.4397475 -1.0241182 3.6087568 2894892
1.4781938 -1.0250185 3.6334367 2236962
1.5240778 -1.0246962 3.6111028 2039583
1.4401469 -0.97505164 3.6097581 2894892
1.4784476 -0.97500825 3.6336815 2236962
1.524642 -0.97496897 3.6111338 2039583
1.4405466 -0.92595774 3.6107602 2894892
1.4782947 -0.92498451 3.6341105 2236962
1.5244762 -0.92495555 3.6115208 2039583
1.440959 -0.87534755 3.6117935 2894892
1.4748425 -0.8761012 3.6361442 2302755
1.5252097 -0.89507353 3.6113462 2039583
1.4413712 -0.82470846 3.6128266 2894892
1.4735591 -0.82507664 3.6370907 2302755
1.4417838 -0.77404052 3.6138611 2894892
1.4738137 -0.77497196 3.637274 2302755
1.4421842 -0.72483504 3.6148648 2894892
1.4737942 -0.72497475 3.6375921 2302755
1.4425851 -0.67560208 3.6158695 2894892
1.4739093 -0.67507553 3.6378424 2302755
1.4429979 -0.62484848 3.6169047 2894892
1.4742838 -0.62495548 3.6379671 2302755
1.4434112 -0.5740658 3.6179402 2894892
1.4738845 -0.57493263 3.6384721 2302755
1.4438127 -0.52474916 3.6189463 2894892
1.4744389 -0.52512491 3.6385067 2302755
1.4442146 -0.47540486 3.6199534 2894892
1.4742942 -0.47497898 3.638886 2302755
1.4446288 -0.42453665 3.6209915 2894892
1.4743692 -0.42493567 3.639158 2302755
1.4450312 -0.37513682 3.6220007 2894892
1.474776 -0.3750051 3.6392658 2302755
1.445433 -0.32570904 3.6230083 2894892
1.4744048 -0.32482296 3.6397567 2302755
1.4458475 -0.27475485 3.6240468 2894892
1.4750317 -0.27510685 3.6397557 2302755
1.4462507 -0.22527158 3.6250575 2894892
1.4746649 -0.22497699 3.6402447 2302755
1.446654 -0.17576043 3.6260676 2894892
1.4737219 -0.17497747 3.6410153 2368548
1.4470693 -0.12472019 3.6271091 2894892
1.4738245 -0.12520809 3.6412704 2368548
1.4474728 -0.075153269 3.6281209 2894892
1.4739282 -0.075431779 3.6415281 2368548
1.4478768 -0.025558384 3.6291332 2894892
1.4740314 -0.025648387 3.6417832 2368548
1.4482929 0.025568178 3.6301758 2894892
1.4741384 0.025650874 3.642046 2368548
-0.4625155 0.094913498 3.6365118 2960685
-0.42472264 0.094884485 3.635401 2960685
-0.37487027 0.094846234 3.6339347 7697781
-0.32505766 0.094808027 3.6324711 10197915
-0.27528551 0.094769828 3.6310081 10197915
-0.22555317 0.094731674 3.6295452 10197915
-0.17586121 0.094693549 3.6280842 10197915
-0.12470505 0.094654299 3.6265802 10197915
-0.075093806 0.094616227 3.6251228 10197915
-0.025522856 0.094578199 3.6236653 10197915
0.025508776 0.094539031 3.6221647 10197915
0.074999288 0.094501071 3.6207106 10197915
0.12444966 0.094463125 3.6192563 10197915
0.17535722 0.094424054 3.6177597 10197915
0.22472745 0.094386168 3.6163085 10197915
0.27405769 0.094348334 3.6148586 10197915
0.32484165 0.094309352 3.6133654 10197915
0.37558359 0.094270423 3.6118736 10197915
0.42479336 0.094232671 3.6104269 10197915
0.47396329 0.094194934 3.6089814 10197915
0.52458227 0.094156101 3.6074929 10197915
0.57515943 0.094117291 3.6060057 10197915
0.62569493 0.094078511 3.6045203 10197915
0.67618895 0.094039761 3.6030359 10197915
0.72515827 0.094002187 3.6015964 10197915
0.7637133 0.093972608 3.6004627 10197915
1.4486727 0.072208807 3.6311283 2894892
1.474236 0.072430059 3.642287 2368548
0.67741311 0.093489297 3.6993861 10197915
0.72464406 0.093453281 3.6979611 10197915
0.77488303 0.093414947 3.6964443 10197915
0.82508039 0.093376666 3.6949291 10197915
0.87523717 0.0933384 3.6934152 10197915
0.92535245 0.093300164 3.6919026 10197915
0.97542697 0.09326198 3.6903913 10197915
1.0254602 0.09322381 3.6888809 10197915
1.0754528 0.093185693 3.6873717 10197915
1.1254042 0.093147576 3.6858642 10197915
1.1601963 0.093121029 3.6848142 10197915
-0.4687252 0.094363585 3.7339823 2960685
-0.42371017 0.094329268 3.7326238 2960685
-0.37407571 0.094291404 3.7311251 9342606
-0.32448116 0.09425357 3.7296283 10197915
-0.27492636 0.094215766 3.728133 10197915
-0.2254113 0.094177999 3.7266381 10197915
-0.17593589 0.094140254 3.7251449 10197915
-0.12495613 0.094101362 3.7236059 10197915
-0.074018046 0.094062522 3.7220685 10197915
-0.024663899 0.094024867 3.7205789 10197915
0.024650758 0.093987241 3.7190902 10197915
0.073925965 0.093949661 3.7176027 10197915
0.12469956 0.093910933 3.7160704 10197915
0.17543171 0.093872249 3.7145388 10197915
0.22458643 0.093834743 3.7130556 10197915
0.27523589 0.093796104 3.7115264 10197915
0.32584414 0.093757495 3.7099988 10197915
0.37487876 0.093720101 3.7085192 10197915
0.42540461 0.093681559 3.7069933 10197915
0.47588927 0.093643039 3.7054698 10197915
0.52480429 0.093605727 3.7039931 10197915
0.57520682 0.093567275 3.702472 10197915
0.62556839 0.093528844 3.7009511 10197915
0.65302253 0.093507916 3.7001228 10197915
0.73036212 0.092869438 3.7994292 10197915
0.77415818 0.092836238 3.7980716 10197915
0.82417327 0.09279833 3.7965205 10197915
0.87414747 0.092760429 3.7949703 10197915
0.92408097 0.092722587 3.7934217 10197915
0.97397381 0.092684753 3.7918742 10197915
1.0238258 0.092646979 3.790328 10197915
1.0736372 0.092609212 3.7887836 10197915
1.1249626 0.092570297 3.7871914 10197915
1.1762452 0.092531435 3.7856011 10197915
-0.50081134 0.093802758 3.8376131 2960685
-0.47527689 0.093783423 3.836822 2960685
-0.42583072 0.093745939 3.8352885 3487029
-0.37483084 0.093707278 3.8337069 10197915
-0.32546458 0.093669862 3.8321757 10197915
-0.27613813 0.09363246 3.830646 10197915
-0.22526157 0.093593881 3.8290679 10197915
-0.17442697 0.093555346 3.8274915 10197915
-0.1252206 0.093518056 3.8259654 10197915
-0.076053888 0.093480773 3.8244405 10197915
-0.025342025 0.093442328 3.8228679 10197915
0.025328152 0.093403921 3.8212962 10197915
0.075956672 0.093365535 3.8197262 10197915
0.12496361 0.093328394 3.8182063 10197915
0.17393114 0.093291283 3.8166876 10197915
0.22443767 0.093252987 3.8151209 10197915
0.27490273 0.09321472 3.813556 10197915
0.32532638 0.093176499 3.8119924 10197915
0.37570876 0.093138315 3.8104293 10197915
0.42604977 0.093100145 3.8088679 10197915
0.47634962 0.093062021 3.8073082 10197915
0.52503848 0.093025096 3.8057981 10197915
0.57368827 0.092988215 3.8042891 10197915
0.62386721 0.092950173 3.8027327 10197915
0.67400515 0.09291216 3.8011775 10197915
0.70532221 0.09288843 3.8002067 10197915
0.9467932 0.092094228 3.899915 10197915
0.97564358 0.092072487 3.8989944 10197915
1.0253017 0.092035092 3.8974109 10197915
1.0749189 0.091997728 3.8958285 10197915
1.1244965 0.0919604 3.8942475 10197915
1.1740334 0.091923088 3.892668 10197915
1.2171468 0.091890626 3.8912933 10197915
-0.50845867 0.093190148 3.9463241 2960685
-0.47563562 0.09316542 3.9452772 2960685
-0.42479229 0.093127146 3.9436557 5329233
-0.37399027 0.09308888 3.9420357 10197915
-0.32486698 0.093051888 3.940469 10197915
-0.2757827 0.093014933 3.938904 10197915
-0.22510347 0.092976764 3.9372878 10197915
-0.17446534 0.092938632 3.9356728 10197915
-0.12550046 0.092901744 3.9341111 10197915
-0.074944451 0.092863686 3.9324989 10197915
-0.024429407 0.092825629 3.9308879 10197915
0.024416512 0.092788853 3.9293299 10197915
0.074849755 0.09275087 3.9277217 10197915
0.12524216 0.092712924 3.9261146 10197915
0.17559291 0.092675008 3.9245093 10197915
0.22590297 0.092637129 3.922905 10197915
0.27455071 0.09260048 3.9213531 10197915
0.32477942 0.092562653 3.9197519 10197915
0.3749676 0.092524864 3.9181514 10197915
0.42511427 0.092487097 3.9165521 10197915
0.47522059 0.092449345 3.9149542 10197915
0.52528554 0.09241166 3.9133573 10197915
0.57531011 0.092373982 3.9117622 10197915
0.62529337 0.092336327 3.9101672 10197915
0.67523652 0.092298716 3.9085748 10197915
0.72513831 0.092261128 3.9069831 10197915
0.77500021 0.092223592 3.9053931 10197915
0.82482088 0.092186064 3.9038043 10197915
0.8746016 0.09214858 3.9022169 10197915
0.92113411 0.092113532 3.9007328 10197915
-0.16106348 0.092275798 4.0496988 10197915
-0.12579636 0.092249416 4.0485411 10197915
-0.075447701 0.092211768 4.0468888 10197915
-0.025140107 0.092174158 4.0452375 10197915
0.025126453 0.092136554 4.0435886 10197915
0.075352043 0.092098996 4.0419397 10197915
0.12553668 0.092061482 4.0402927 10197915
0.17568044 0.092023984 4.0386472 10197915
0.22578338 0.091986515 4.0370035 10197915
0.27584553 0.091949075 4.0353603 10197915
0.32586697 0.091911681 4.0337186 10197915
0.3758477 0.091874309 4.0320783 10197915
0.42578781 0.091836952 4.0304394 10197915
0.47568738 0.091799639 4.0288019 10197915
0.52554637 0.091762349 4.0271654 10197915
0.57536489 0.091725104 4.0255303 10197915
0.62514281 0.091687851 4.0238962 10197915
0.67488045 0.09165068 4.022264 10197915
0.72457784 0.091613509 4.0206327 10197915
0.77423495 0.09157636 4.0190034 10197915
0.82385176 0.091539264 4.017375 10197915
0.87507999 0.09150096 4.0156932 10197915
0.9262659 0.091462694 4.0140138 10197915
0.97575963 0.091425672 4.0123892 10197915
1.0252132 0.091388695 4.0107665 10197915
1.0746269 0.09135174 4.0091453 10197915
1.1240007 0.091314822 4.0075245 10197915
1.1749781 0.091276705 4.0058513 10197915
1.2259135 0.09123861 4.00418 10197915
1.2603952 0.091212831 4.0030479 10197915
-0.51655114 0.092541628 4.0613651 2960685
-0.47601449 0.092511304 4.0600343 2960685
-0.42537954 0.092473462 4.058373 6908265
-0.37478608 0.092435606 4.0567122 10197915
-0.32423404 0.092397816 4.0550532 10197915
-0.27372327 0.092360042 4.0533962 10197915
-0.2249352 0.092323557 4.0517945 10197915
-0.18626797 0.092294641 4.0505257 10197915
0.47960865 0.091108635 4.1493616 10197915
0.52411252 0.091075614 4.1478572 10197915
0.57542402 0.091037519 4.1461229 10197915
0.62498462 0.091000736 4.1444473 10197915
0.67450452 0.09096396 4.1427732 10197915
0.72569048 0.090925969 4.1410422 10197915
0.77512974 0.090889283 4.1393714 10197915
0.82452863 0.090852626 4.1377015 10197915
0.87558925 0.090814739 4.1359763 10197915
0.92490762 0.090778127 4.1343088 10197915
0.97418582 0.090741545 4.1326437 10197915
1.0251217 0.090703748 4.1309214 10197915
1.0760152 0.090665959 4.1292019 10197915
1.1251721 0.090629503 4.1275396 10197915
1.1742892 0.090593033 4.1258798 10197915
1.2250584 0.090555355 4.1241636 10197915
1.2757856 0.090517707 4.1224494 10197915
1.3045139 0.090496376 4.1214776 10197915
-0.52339065 0.091853037 4.1832643 2960685
-0.47467756 0.09181688 4.1816173 2960685
-0.42600283 0.091780759 4.1799722 8750469
-0.37563038 0.091743372 4.1782699 10197915
-0.32529846 0.09170603 4.1765685 10197915
-0.27500787 0.091668695 4.1748686 10197915
-0.22475787 0.091631413 4.1731696 10197915
-0.17454912 0.09159413 4.171473 10197915
-0.12438077 0.091556899 4.1697774 10197915
-0.074253641 0.091519706 4.1680827 10197915
-0.024166765 0.091482513 4.166389 10197915
0.024154151 0.09144666 4.1647558 10197915
0.074160665 0.091409549 4.1630659 10197915
0.12584907 0.091371186 4.1613188 10197915
0.17577358 0.091334127 4.1596317 10197915
0.22565712 0.091297112 4.1579452 10197915
0.27550068 0.091260128 4.1562605 10197915
0.32530347 0.09122315 4.1545773 10197915
0.37506631 0.091186225 4.1528955 10197915
0.42478845 0.091149323 4.1512141 10197915
0.455632 0.091126412 4.1501713 10197915
-2.7117794 -1.8867666 4.2333984 2960685
1.2834156 0.089786321 4.2494984 10197915
1.3234718 0.089756846 4.2481027 10197915
-2.7016871 -1.9015802 4.2539349 2960685
-2.6872487 -1.9080211 4.2833724 2960685
-2.7016091 -1.8898524 4.2541389 2960685
-2.6893301 -1.8898108 4.2791944 2960685
-0.15853867 0.090847887 4.2997408 10197915
-0.12466061 0.090822943 4.2985601 10197915
-0.074766792 0.090786211 4.2968221 10197915
-0.0249133 0.09074951 4.2950845 10197915
0.024899891 0.09071283 4.2933488 10197915
0.074672833 0.090676188 4.2916141 10197915
0.1244056 0.090639576 4.2898812 10197915
0.17409818 0.090602994 4.2881498 10197915
0.2237507 0.090566434 4.2864194 10197915
0.27513403 0.090528607 4.2846289 10197915
0.32647493 0.090490803 4.2828403 10197915
0.37600464 0.09045434 4.2811141 10197915
0.42549434 0.090417907 4.2793899 10197915
0.47494429 0.090381503 4.277667 10197915
0.52435434 0.090345107 4.2759447 10197915
0.57372463 0.090308771 4.2742243 10197915
0.62481606 0.090271145 4.2724438 10197915
0.67586535 0.090233549 4.2706652 10197915
0.72511387 0.090197302 4.268949 10197915
0.77432281 0.09016107 4.2672343 10197915
0.82524735 0.090123579 4.2654595 10197915
0.87612993 0.090086117 4.2636867 10197915
0.92521763 0.090049975 4.2619758 10197915
0.97426605 0.090013854 4.2602668 10197915
1.0250245 0.089976482 4.2584982 10197915
1.0757412 0.089939155 4.256731 10197915
1.124669 0.089903124 4.2550263 10197915
1.1753025 0.089865841 4.253262 10197915
1.2258947 0.08982861 4.2514987 10197915
1.2590196 0.089804217 4.2503448 10197915
-2.6655819 -1.9187559 4.3275423 2960685
-2.6673472 -1.8903836 4.3240476 2960685
-0.55757272 0.091141671 4.3136454 2960685
-0.52526945 0.091117874 4.3125191 2960685
-0.47505113 0.091080919 4.3107696 3552822
-0.42487353 0.091043971 4.309021 10197915
-0.37473664 0.091007061 4.3072739 10197915
-0.32464036 0.090970166 4.3055286 10197915
