# .PCD v0.7 - Point Cloud Data file format
VERSION 0.7
FIELDS x y z rgb
SIZE 4 4 4 4
TYPE F F F U
COUNT 1 1 1 1
WIDTH 1215
HEIGHT 1
VIEWPOINT 0 0 0 1 0 0 0
POINTS 1215
DATA ascii
1.3756981 0.10699881 3.3541756 10132122
1.4254584 0.1069789 3.3535516 10132122
1.4752005 0.10695904 3.3529296 10132122
1.524924 0.10693917 3.3523064 10132122
1.5746293 0.10691932 3.3516843 10132122
1.6243159 0.10689947 3.3510618 10132122
1.6739838 0.10687962 3.3504398 10132122
1.7043293 0.10686754 3.3500609 10132122
2.545789 0.10385317 3.3875496 10197915
2.5549304 0.10308947 3.362639 10197915
2.5288868 -1.5168066 3.4276652 2039583
2.5299647 -1.4750041 3.4248791 2039583
2.5299397 -1.4249961 3.425133 2039583
2.530035 -1.3749825 3.4250555 2039583
2.5300877 -1.3248961 3.4250953 2039583
2.5301023 -1.2747288 3.4252388 2039583
2.5301697 -1.2247862 3.4252379 2039583
2.5301864 -1.1749165 3.425375 2039583
2.5302644 -1.1249708 3.4253457 2039583
2.5302978 -1.0749464 3.425436 2039583
2.5308049 -1.0249501 3.4242384 2039583
2.5308583 -0.97488981 3.4242761 2039583
2.5309021 -0.92489833 3.4243424 2039583
2.5309477 -0.87497699 3.4244008 2039583
2.5309768 -0.82498419 3.424505 2039583
2.5310421 -0.77498758 3.4245086 2039583
2.5310812 -0.72491884 3.4245851 2039583
2.5311146 -0.67491812 3.4246759 2039583
2.5311751 -0.62499005 3.4246962 2039583
2.531224 -0.5749855 3.4247439 2039583
2.5312617 -0.52491021 3.424829 2039583
2.5313036 -0.4749729 3.4248948 2039583
2.5313191 -0.42503816 3.4250371 2039583
2.5314302 -0.37502658 3.4249182 2039583
2.5314486 -0.3249439 3.425055 2039583
2.531471 -0.27499902 3.4251707 2039583
2.5314841 -0.22505778 3.4253213 2039583
2.5316579 -0.17511134 3.4250278 2039583
2.5316203 -0.12481017 3.4253163 2039583
2.5316141 -0.075139433 3.4255137 2039583
2.5318887 -0.025784003 3.4249489 2039583
2.5322034 0.025535544 3.4242756 2039583
2.5322473 0.075189181 3.4243388 6381921
0.82612985 0.10701174 3.4440362 10132122
0.87448418 0.10699244 3.4434156 10132122
0.92424244 0.1069726 3.4427769 10132122
0.97540337 0.10695221 3.4421206 10132122
1.0251243 0.10693237 3.4414823 10132122
1.074827 0.10691256 3.440845 10132122
1.124511 0.10689276 3.4402072 10132122
1.1741766 0.10687293 3.4395695 10132122
1.2252421 0.10685258 3.4389143 10132122
1.2748706 0.10683278 3.4382772 10132122
1.3244803 0.10681302 3.4376411 10132122
1.3754888 0.10679267 3.4369864 10132122
1.4250616 0.1067729 3.4363501 10132122
1.4746162 0.10675314 3.4357142 10132122
1.5255672 0.10673282 3.4350598 10132122
1.5750844 0.10671309 3.4344246 10132122
1.6245832 0.10669335 3.4337895 10132122
1.6754771 0.10667305 3.4331365 10132122
1.7249392 0.10665333 3.4325018 10197915
1.774384 0.10663372 3.4318705 9803157
1.8252214 0.10661345 3.4312181 6513507
1.8746284 0.10659377 3.4305844 2829099
1.9240164 0.10657407 3.4299507 2039583
1.9747968 0.10655382 3.4292991 2039583
2.025558 0.10653359 3.4286485 2039583
2.0748906 0.10651392 3.4280148 2039583
2.1242049 0.10649429 3.4273827 2039583
2.1749096 0.10647406 3.4267321 2039583
2.2255943 0.10645385 3.4260817 2039583
2.2748535 0.10643421 3.4254498 2039583
2.3240938 0.10641459 3.4248183 2565927
2.3747225 0.1063944 3.4241686 2894892
2.4253318 0.10637423 3.4235198 8158332
2.4759219 0.10635407 3.4228706 10197915
2.5300424 0.10353856 3.4219985 10197915
2.5068078 -1.5552751 3.4876804 2039583
2.5115616 -1.5244979 3.4748411 2039583
2.5117998 -1.4749461 3.4743714 2039583
2.5118017 -1.4250454 3.4745529 2039583
2.511888 -1.3749932 3.4745023 2039583
2.5118864 -1.3250132 3.4746835 2039583
2.5120137 -1.2750328 3.4745216 2039583
2.5119781 -1.2249759 3.4748077 2039583
2.5120461 -1.1750669 3.4748049 2039583
2.5120676 -1.1250789 3.4749236 2039583
2.5121365 -1.0750173 3.47492 2039583
2.5121911 -1.0250267 3.474957 2039583
2.5122359 -0.97496104 3.4750106 2039583
2.512255 -0.92496562 3.4751451 2039583
2.5123127 -0.87504864 3.4751749 2039583
2.5123544 -0.82505047 3.4752426 2039583
2.5124207 -0.77497756 3.4752438 2039583
2.512435 -0.72497487 3.4753919 2039583
2.5125031 -0.6750505 3.4753883 2039583
2.5125258 -0.62504548 3.4755056 2039583
2.5126002 -0.57504135 3.4754887 2039583
2.5126057 -0.52503127 3.4756632 2039583
2.5126839 -0.47494897 3.4756286 2039583
2.5126846 -0.42493692 3.4758093 2039583
2.5128074 -0.37500155 3.4756551 2039583
2.512785 -0.32505938 3.4758987 2039583
2.5128536 -0.27497041 3.4759004 2039583
2.5128453 -0.22487554 3.4761043 2039583
2.5131254 -0.17503917 3.4755204 2039583
2.5134485 -0.12524337 3.4748297 2039583
2.5134928 -0.074859388 3.4748907 2039583
2.5137429 -0.024150083 3.474396 2039583
2.5140634 0.024464974 3.4736993 2039583
2.5141089 0.074835211 3.4737613 6316128
2.5141337 0.10361899 3.4737966 10197915
2.4909635 -1.5648574 3.5308146 2434341
2.5014441 -1.5583247 3.5022838 2039583
2.4918597 -1.525453 3.5285182 2368548
2.5012238 -1.5222957 3.5030158 2039583
2.4917872 -1.4754702 3.5288944 2368548
2.5010257 -1.4747777 3.5037303 2039583
2.4921649 -1.4249262 3.5280561 2368548
2.50107 -1.4249662 3.5037923 2039583
2.4921622 -1.374963 3.528245 2368548
2.5011327 -1.3751515 3.5038028 2039583
2.4922371 -1.3249974 3.5282226 2368548
2.5011396 -1.3248556 3.5039687 2039583
2.492254 -1.2751249 3.5283611 2368548
2.5012028 -1.2750374 3.5039787 2039583
2.4923329 -1.2251555 3.5283291 2368548
2.5012472 -1.225219 3.5040407 2039583
2.4923589 -1.1749897 3.5284426 2368548
2.5013101 -1.1749166 3.5040522 2039583
2.4923787 -1.1249195 3.5285702 2368548
2.5013356 -1.1250937 3.5041649 2039583
2.4924357 -1.0749431 3.5285995 2368548
2.5013614 -1.0752666 3.5042791 2039583
2.4924874 -1.0249664 3.5286412 2368548
2.501425 -1.0249598 3.5042899 2039583
2.4925518 -0.97489047 3.528652 2368548
2.5014882 -0.97465301 3.5043008 2039583
2.4925904 -0.92490917 3.5287249 2368548
2.5015137 -0.92482013 3.5044148 2039583
2.492615 -0.87492883 3.5288405 2368548
2.5015574 -0.87547296 3.5044756 2039583
2.4926679 -0.82494313 3.5288811 2368548
2.5015831 -0.82563329 3.5045903 2039583
2.4927168 -0.77495706 3.5289333 2368548
2.5016656 -0.77484477 3.5045505 2039583
2.4927216 -0.72497034 3.5291038 2368548
2.5016916 -0.72451812 3.5046632 2039583
2.4928398 -0.67488426 3.5289636 2368548
2.5017354 -0.67516404 3.5047255 2039583
2.4928303 -0.62489229 3.5291736 2368548
2.501761 -0.62531435 3.5048392 2039583
2.4928818 -0.57509446 3.5292175 2368548
2.5018246 -0.57499802 3.5048497 2039583
2.4929132 -0.52509898 3.5293114 2368548
2.5018878 -0.52468204 3.5048609 2039583
2.4929976 -0.47500524 3.5292666 2368548
2.5019131 -0.47482643 3.5049746 2039583
2.4929905 -0.4249967 3.5294676 2368548
2.501919 -0.42502868 3.5051396 2039583
2.4925461 -0.37478355 3.5308616 2368548
2.5014794 -0.37550399 3.5065203 2039583
2.4925971 -0.32494947 3.5309079 2368548
2.5015807 -0.32469225 3.5064301 2039583
2.4926414 -0.27500975 3.5309711 2368548
2.5015969 -0.27456585 3.5065687 2039583
2.4927018 -0.22486021 3.530988 2368548
2.5016415 -0.22517692 3.5066302 2039583
2.4927857 -0.17460847 3.5309434 2368548
2.5017893 -0.17491443 3.5064085 2039583
2.4928007 -0.12445487 3.5310855 2368548
2.5022235 -0.12489344 3.5054126 2039583
2.4928181 -0.074610002 3.5312209 2368548
2.5022681 -0.074066021 3.5054753 2039583
2.4928613 -0.024870399 3.5312846 2368548
2.5023122 -0.024689054 3.505537 2039583
2.4929059 0.024870975 3.531347 2368548
2.5023561 0.024689643 3.5055976 2039583
2.49295 0.074614137 3.5314097 4802889
2.5023997 0.074070081 3.5056601 6184542
0.83676833 0.1067904 3.531075 10132122
0.8761372 0.10677473 3.5305574 10132122
0.92569679 0.10675501 3.5299053 10132122
0.97523814 0.1067353 3.5292532 10132122
1.0247613 0.1067156 3.5286016 10132122
1.0742661 0.1066959 3.5279498 10132122
1.1252078 0.10667562 3.5272799 10132122
1.1761302 0.10665535 3.5266097 10132122
1.2255793 0.10663567 3.5259595 10132122
1.2750098 0.10661601 3.5253086 10132122
1.3244222 0.10659635 3.5246589 10132122
1.3752691 0.10657611 3.5239897 10132122
1.4260966 0.10655588 3.5233209 10132122
1.4754533 0.10653625 3.5226712 10132122
1.5247917 0.10651661 3.522022 10132122
1.5741122 0.10649698 3.521373 10132122
1.6248641 0.10647678 3.5207052 10132122
1.6755972 0.10645661 3.5200381 10197915
1.7248619 0.106437 3.5193896 9474192
1.7741095 0.10641746 3.5187435 5855577
1.8247896 0.10639752 3.5180848 2434341
1.8754466 0.10637736 3.5174177 2039583
1.9246384 0.10635781 3.5167708 2039583
1.9752576 0.10633766 3.5161049 2039583
2.0258579 0.10631753 3.5154393 2039583
2.0749941 0.106298 3.5147932 2039583
2.1241121 0.10627843 3.5141473 2039583
2.1746564 0.10625834 3.5134821 2039583
2.2251809 0.10623823 3.5128179 2039583
2.2742438 0.10621872 3.512172 2039583
2.3247309 0.10619864 3.5115085 2039583
2.3751988 0.10617855 3.5108442 2500134
2.424207 0.10615907 3.5101991 2894892
2.4857986 0.10387065 3.5228715 6842472
2.5025666 0.10289901 3.5053113 10197915
2.4680109 -1.6035581 3.592798 2894892
2.4739971 -1.5739646 3.5768709 2894892
2.4748194 -1.5250288 3.5748529 2894892
2.4750724 -1.4747018 3.5743666 2894892
2.4754326 -1.4250741 3.5735734 2894892
2.4754429 -1.3750896 3.5737309 2894892
2.4754798 -1.3251034 3.5738127 2894892
2.4755654 -1.2751175 3.5737658 2894892
2.4755962 -1.2250448 3.5738609 2894892
2.4756384 -1.1749717 3.5739288 2894892
2.4756756 -1.1249785 3.5740111 2894892
2.4756985 -1.0749842 3.5741289 2894892
2.47577 -1.0249884 3.5741189 2894892
2.4758313 -0.97499037 3.5741355 2894892
2.4758561 -0.92498952 3.574255 2894892
2.4758892 -0.87498778 3.5743473 2894892
2.4759538 -0.82498437 3.5743549 2894892
2.4759781 -0.7751444 3.5744734 2894892
2.4760225 -0.72521889 3.5745313 2894892
2.476068 -0.67512786 3.5745895 2894892
2.4761171 -0.62503409 3.5746417 2894892
2.4761672 -0.57494062 3.5746906 2894892
2.4761992 -0.52500957 3.5747869 2894892
2.4762478 -0.47507486 3.5748355 2894892
2.4762712 -0.42505655 3.5749528 2894892
2.4763563 -0.37503761 3.5749073 2894892
2.4764013 -0.32510078 3.574964 2894892
2.4763947 -0.27507603 3.5751665 2894892
2.4764402 -0.22496751 3.5752242 2894892
2.4765055 -0.17502287 3.5752304 2894892
2.4766591 -0.12541543 3.5749977 2894892
2.4765778 -0.075543389 3.5753975 2894892
2.4766223 -0.025181537 3.5754619 2894892
2.4766669 0.025182128 3.5755241 2894892
2.4767108 0.075547591 3.5755877 2894892
2.4767354 0.10369369 3.5756247 2894892
2.4483993 -1.6156838 3.6459806 2039583
2.4563124 -1.6107562 3.6244371 2565927
2.4484899 -1.5749102 3.6458814 2039583
2.457649 -1.5746857 3.6209297 2631720
2.4484901 -1.5251011 3.6460633 2039583
2.4580667 -1.5250219 3.6199729 2697513
2.4485765 -1.475273 3.6460094 2039583
2.4580767 -1.4749589 3.6201301 2697513
2.4485779 -1.4249538 3.6461921 2039583
2.4581621 -1.4249908 3.6200786 2697513
2.4486427 -1.3746235 3.646199 2039583
2.4581811 -1.3750232 3.6202118 2697513
2.4486864 -1.3247981 3.6462634 2039583
2.4582202 -1.3249545 3.6202879 2631720
2.4487295 -1.2749705 3.6463277 2039583
2.4582548 -1.2748806 3.6203735 2631720
2.4487948 -1.2246394 3.6463349 2039583
2.4583201 -1.2249079 3.6203821 2697513
2.4487948 -1.1748064 3.646517 2039583
2.4583762 -1.1749306 3.6204121 2697513
2.4488819 -1.1249772 3.6464639 2039583
2.4584029 -1.1250556 3.6205204 2631720
2.4488814 -1.0751377 3.6466458 2039583
2.4584215 -1.0750762 3.6206539 2631720
2.4485593 -1.0271926 3.6476986 2039583
2.458045 -1.0247545 3.6218634 2631720
2.448457 -0.97484869 3.6481707 2039583
2.4580383 -0.97493035 3.622066 2631720
2.4485004 -0.92498904 3.6482348 2039583
2.4580357 -0.92495686 3.6222529 2631720
2.4485435 -0.87512767 3.6482999 2039583
2.4580998 -0.87507677 3.6222641 2631720
2.4485867 -0.82526463 3.6483641 2039583
2.458127 -0.8250075 3.6223714 2631720
2.4486296 -0.77539963 3.6484289 2039583
2.4581869 -0.77493393 3.6223922 2631720
2.4486578 -0.72476298 3.6485381 2039583
2.4582207 -0.72495478 3.6224837 2631720
2.4490452 -0.67866516 3.6476524 2039583
2.4582562 -0.67487854 3.6225698 2631720
2.4492946 -0.62554461 3.6471663 2039583
2.4583185 -0.62489712 3.622586 2631720
2.4493387 -0.57569265 3.6472318 2039583
2.4583547 -0.57491022 3.6226671 2631720
2.4493828 -0.52432805 3.6472976 2039583
2.4584236 -0.52501667 3.6226652 2631720
2.4494262 -0.47447234 3.6473629 2039583
2.4583931 -0.47502863 3.6229293 2631720
2.4494693 -0.42461494 3.6474268 2039583
2.4585056 -0.42503858 3.6228049 2631720
2.4495127 -0.37475574 3.6474919 2039583
2.4585352 -0.37504736 3.6229088 2631720
2.4495564 -0.32489479 3.6475563 2039583
2.4585736 -0.32486081 3.622987 2631720
2.4495997 -0.27503207 3.6476207 2039583
2.4585979 -0.27496377 3.6231055 2631720
2.4496429 -0.2251676 3.647686 2039583
2.458632 -0.22505675 3.6231928 2631720
2.4496865 -0.17530136 3.6477499 2039583
2.4588058 -0.17506437 3.6229043 2631720
2.4497297 -0.12543333 3.6478152 2039583
2.4587016 -0.12468102 3.623373 2631720
2.4497731 -0.075563572 3.6478789 2039583
2.4588048 -0.075152598 3.6232741 2631720
2.4498165 -0.025692016 3.647944 2039583
2.4588172 -0.025519315 3.6234217 2631720
2.449861 0.025692632 3.6480103 2039583
2.4588618 0.025519904 3.6234868 2631720
2.4499044 0.07556776 3.6480746 2039583
2.4589362 0.075156711 3.6234677 2631720
0.84646237 0.10655822 3.6226482 10132122
0.87488425 0.10654692 3.6222637 10132122
0.92573136 0.10652672 3.6215777 10132122
0.97506452 0.10650713 3.6209116 10132122
1.0243794 0.10648754 3.6202459 10132122
1.0751696 0.10646736 3.6195602 10132122
1.125941 0.10644724 3.6188753 10132122
1.1752003 0.10642763 3.6182098 10132122
1.2244416 0.10640812 3.6175454 10132122
1.2751561 0.10638794 3.6168602 10132122
1.3258519 0.10636785 3.6161764 10132122
1.3750378 0.10634831 3.6155119 10132122
1.4242058 0.10632878 3.6148486 10132122
1.4748449 0.10630867 3.6141648 10132122
1.5254648 0.10628859 3.6134815 10132122
1.5760654 0.10626848 3.612798 10132122
1.6251597 0.10624899 3.6121361 10197915
1.6742358 0.10622951 3.6114728 8618883
1.7247804 0.10620944 3.610791 5000268
1.7753059 0.10618936 3.6101086 2039583
1.825814 0.10616941 3.6094303 2039583
1.8748202 0.10615017 3.6087754 2039583
1.9238048 0.10613068 3.608114 2039583
1.9742557 0.10611068 3.6074338 2039583
2.0246868 0.10609064 3.6067524 2039583
2.0750992 0.10607065 3.6060722 2039583
2.1254933 0.10605064 3.6053925 2039583
2.1758671 0.10603065 3.6047122 2039583
2.226223 0.10601065 3.604033 2039583
2.2750793 0.10599124 3.6033735 2039583
2.3239174 0.10597187 3.6027145 2039583
2.374217 0.10595191 3.6020358 2039583
2.4271746 0.10559942 3.6062782 2236962
2.4586461 0.10276093 3.6204863 2631720
2.4297297 -1.6517268 3.6967134 2039583
2.4369891 -1.6221725 3.6770456 2039583
2.4377518 -1.5750104 3.6751359 2039583
2.4377105 -1.5250609 3.6754344 2039583
2.4378052 -1.4750198 3.6753614 2039583
2.4378283 -1.4249747 3.675478 2039583
2.4378834 -1.3749304 3.6755128 2039583
2.4379001 -1.3249713 3.6756516 2039583
2.4380004 -1.2749252 3.6755593 2039583
2.4379783 -1.2248706 3.6758044 2039583
2.4380798 -1.1749105 3.6757114 2039583
2.4381199 -1.1248552 3.6757874 2039583
2.4381385 -1.0749779 3.6759129 2039583
2.4381735 -1.0250098 3.6760023 2039583
2.4382184 -0.97495139 3.6760657 2039583
2.4383104 -0.92497742 3.6759939 2039583
2.4383473 -0.87523508 3.6760805 2039583
2.4389262 -0.82495636 3.6746879 2039583
2.4389241 -0.77491969 3.674876 2039583
2.4390159 -0.72507292 3.6748056 2039583
2.4394011 -0.67483377 3.6739428 2039583
2.4396281 -0.62496722 3.6735046 2039583
2.4396636 -0.57502055 3.6735919 2039583
2.4396808 -0.52507597 3.6737318 2039583
2.4397318 -0.47494927 3.6737757 2039583
2.4398365 -0.42509058 3.6736698 2039583
2.4397857 -0.37513509 3.6739907 2039583
2.4398768 -0.32500955 3.6739302 2039583
2.4399557 -0.2750493 3.6738966 2039583
2.4399037 -0.22509465 3.6742184 2039583
2.4400189 -0.17486823 3.6740923 2039583
2.4401095 -0.12509325 3.6740282 2039583
2.4399898 -0.074847423 3.6745329 2039583
2.4401956 -0.024635218 3.6741581 2039583
2.4402387 0.02463579 3.6742225 2039583
2.4401195 0.074851543 3.6747296 2039583
2.2425227 0.1057649 3.6999009 2039583
2.2744393 0.10575227 3.6994584 2039583
2.3245797 0.1057324 3.6987638 2039583
2.3747015 0.10571256 3.6980693 2039583
2.4342897 0.10401251 3.6797488 2039583
2.417558 -1.6593523 3.7298484 2039583
2.419513 -1.6250392 3.7246442 2039583
2.4195971 -1.5750144 3.7246013 2039583
2.4195716 -1.5248909 3.7248545 2039583
2.4196532 -1.4749579 3.7248142 2039583
2.4197266 -1.4250243 3.7247984 2039583
2.4197302 -1.3750885 3.7249699 2039583
2.4197974 -1.3250542 3.7249722 2039583
2.419838 -1.2748249 3.7250445 2039583
2.419816 -1.2248857 3.7252882 2039583
2.419924 -1.1751338 3.7251756 2039583
2.419935 -1.1250929 3.7253296 2039583
2.4200206 -1.074955 3.7252793 2039583
2.4200506 -1.0250056 3.7253797 2039583
2.4200726 -0.97505569 3.7255049 2039583
2.4201314 -0.92491168 3.7255237 2039583
2.4202793 -0.87471431 3.7253082 2039583
2.4207554 -0.82507366 3.7241938 2039583
2.420805 -0.77498955 3.7242391 2039583
2.4208698 -0.72490472 3.7242494 2039583
2.4208806 -0.67490709 3.7244046 2039583
2.4209187 -0.62490749 3.7244806 2039583
2.4210052 -0.57490844 3.7244263 2039583
2.4210083 -0.52490586 3.7246017 2039583
2.4210725 -0.47499102 3.724612 2039583
2.4211674 -0.42498654 3.7245369 2039583
2.4211342 -0.37497884 3.7248108 2039583
2.4211974 -0.32514891 3.7248206 2039583
2.4212747 -0.27513722 3.7247906 2039583
2.4212413 -0.22503671 3.7250667 2039583
2.4212563 -0.17510825 3.7252069 2039583
2.4213617 -0.1249112 3.7251081 2039583
2.4215119 -0.074543513 3.7248795 2039583
2.4214342 -0.024693307 3.7252736 2039583
2.4214766 0.024693895 3.7253392 2039583
2.4216399 0.074547589 3.7250779 2039583
0.88278067 0.10630348 3.7187407 10132122
0.92423439 0.10628702 3.7181666 10132122
0.97488314 0.10626698 3.7174644 10132122
1.0255128 0.10624691 3.7167633 10132122
1.0745901 0.10622746 3.7160823 10132122
1.1251823 0.10620744 3.7153816 10132122
1.1757553 0.10618739 3.7146804 10132122
1.2247777 0.10616797 3.7140017 10132122
1.2753128 0.10614794 3.7133002 10132122
1.3258294 0.10612794 3.7126009 10132122
1.3747966 0.10610853 3.7119217 10132122
1.4252756 0.10608854 3.7112224 10132122
1.4757354 0.10606854 3.7105227 10132122
1.5246483 0.10604918 3.7098453 10197915
1.5750704 0.10602919 3.7091458 10197915
1.625474 0.10600922 3.7084477 7237230
1.6743318 0.10598986 3.7077703 3815994
1.7246978 0.1059699 3.707072 2039583
1.775045 0.10594997 3.7063746 2039583
1.8253729 0.10593003 3.7056773 2039583
1.875683 0.10591013 3.7049811 2039583
1.924451 0.10589089 3.7043083 2039583
1.9747227 0.10587096 3.7036111 2039583
2.0249763 0.10585107 3.7029152 2039583
2.0752103 0.10583116 3.7022185 2039583
2.1254258 0.10581128 3.7015235 2039583
2.1756225 0.10579139 3.7008276 2039583
2.2181988 0.10577453 3.7002375 2039583
2.4203932 0.10221529 3.7285757 2039583
2.3997056 -1.6702449 3.7784472 2039583
2.4050603 -1.6670127 3.7638717 2039583
2.3997443 -1.6248758 3.7785087 2039583
2.4054708 -1.6249418 3.7629063 2039583
2.3997869 -1.5748113 3.7785757 2039583
2.4054899 -1.5749091 3.7630353 2039583
2.3998294 -1.5247449 3.7786431 2039583
2.4055407 -1.5248767 3.7630801 2039583
2.3998721 -1.4746767 3.7787099 2039583
2.4055755 -1.4748406 3.7631695 2039583
2.399915 -1.4246069 3.7787776 2039583
2.4056823 -1.4249774 3.7630627 2039583
2.3999574 -1.3745354 3.7788441 2039583
2.4056613 -1.375114 3.763303 2039583
2.3999896 -1.3369805 3.7788947 2039583
2.4054039 -1.3245457 3.7641883 2039583
2.4051757 -1.2752781 3.7649903 2039583
2.4052362 -1.2252293 3.7650096 2039583
2.4052582 -1.1750259 3.7651334 2039583
2.4053047 -1.1249746 3.7651906 2039583
2.4053471 -1.0750778 3.7652583 2039583
2.4054136 -1.0250239 3.7652583 2039583
2.4054322 -0.97496748 3.7653923 2039583
2.4054751 -0.92506522 3.7654567 2039583
2.4055495 -0.87500614 3.7654386 2039583
2.4055598 -0.82494467 3.7655938 2039583
2.4056067 -0.7748819 3.7656507 2039583
2.4056778 -0.72497261 3.7656388 2039583
2.4056878 -0.67521811 3.7657928 2039583
2.4057312 -0.62530524 3.7658591 2039583
2.4057839 -0.57523304 3.7658968 2039583
2.4058161 -0.52516258 3.7659938 2039583
2.4058595 -0.47524443 3.7660599 2039583
2.4059198 -0.42516819 3.7660804 2039583
2.4059691 -0.3749359 3.7661269 2039583
2.4060192 -0.3247025 3.7661748 2039583
2.4060302 -0.27462053 3.7663302 2039583
2.4060731 -0.22469345 3.7663963 2039583
2.4061155 -0.17476474 3.7664618 2039583
2.4061584 -0.12483412 3.7665286 2039583
2.4062009 -0.074901782 3.7665963 2039583
2.4062436 -0.024967644 3.7666614 2039583
2.406286 0.024968246 3.7667294 2039583
2.4063296 0.074905932 3.7667966 2039583
2.3393245 0.10547427 3.799875 2039583
2.373652 0.1054607 3.7993865 2039583
2.4061024 0.10340519 3.7721846 2039583
0.89426237 0.10604528 3.8204467 10132122
0.92423069 0.10603341 3.8200192 10132122
0.97469032 0.10601348 3.8193009 10132122
1.0251306 0.10599355 3.8185825 10132122
1.0755522 0.10597362 3.8178644 10132122
1.125955 0.10595369 3.8171468 10132122
1.1763384 0.10593378 3.8164296 10132122
1.2251298 0.10591449 3.8157346 10132122
1.2739029 0.10589521 3.8150401 10132122
1.3242308 0.10587532 3.8143239 10132122
1.3745401 0.10585543 3.813607 10132122
1.4248302 0.10583556 3.812891 10132122
1.4751015 0.10581569 3.8121753 10197915
1.5253538 0.10579583 3.8114598 9276813
1.5755877 0.10577597 3.8107448 5855577
1.6258024 0.10575611 3.810029 2631720
1.6759984 0.10573629 3.809315 2039583
1.7261751 0.10571644 3.8086002 2039583
1.7763338 0.10569663 3.8078859 2039583
1.826473 0.10567681 3.8071721 2039583
1.8750281 0.10565762 3.8064809 2039583
1.9235655 0.10563848 3.8057909 2039583
1.9736513 0.10561876 3.8050804 2039583
2.0237169 0.10559897 3.8043678 2039583
2.0737638 0.10557921 3.8036556 2039583
2.1237919 0.10555942 3.8029432 2039583
2.1738017 0.10553967 3.8022316 2039583
2.2237923 0.10551992 3.8015196 2039583
2.2737641 0.10550017 3.8008082 2039583
2.3143532 0.10548415 3.8002307 2039583
0.93233496 0.10576231 3.9274912 10132122
0.97448641 0.10574569 3.9268734 10132122
1.0247269 0.10572588 3.9261377 10132122
1.0749488 0.10570609 3.9254034 10132122
1.1251518 0.1056863 3.9246676 10132122
1.175336 0.10566651 3.9239333 10132122
1.2255013 0.10564674 3.9231987 10132122
1.2756478 0.10562695 3.9224641 10132122
1.3241591 0.10560785 3.9217546 10132122
1.3742685 0.10558809 3.9210207 10132122
1.4243596 0.10556832 3.9202871 10197915
1.4744318 0.10554859 3.9195547 7763574
1.5244852 0.10552885 3.9188216 4342338
1.5745201 0.10550914 3.9180894 2039583
1.6245363 0.10548941 3.917357 2039583
1.6745334 0.1054697 3.9166241 2039583
1.7245125 0.10545 3.9158931 2039583
1.7744721 0.10543029 3.9151614 2039583
1.8244135 0.10541061 3.9144304 2039583
1.8743365 0.10539093 3.9136996 2039583
1.9258499 0.10537062 3.9129453 2039583
1.9757355 0.105351 3.9122167 2039583
2.0256033 0.1053314 3.9114892 2039583
2.0754511 0.10531176 3.9107599 2039583
2.1252804 0.10529213 3.9100304 2039583
2.1750913 0.10527249 3.9093015 2039583
2.2248828 0.10525286 3.9085724 2039583
2.274657 0.10523327 3.9078448 2039583
2.3244114 0.10521365 3.9071159 2039583
2.3757524 0.10519342 3.9063649 2039583
2.4254692 0.10517381 3.9056368 2039583
2.4639478 0.10515865 3.9050739 2039583
0.94591361 0.10547356 4.0411096 10197915
0.97593874 0.10546173 4.0406566 10197915
1.0259674 0.10544205 4.0399032 10197915
1.0759771 0.1054224 4.0391498 10132122
1.1259682 0.10540274 4.0383964 10132122
1.1759409 0.10538311 4.0376439 10132122
1.2258947 0.10536347 4.0368915 10132122
1.2758299 0.10534382 4.0361385 10132122
1.3257467 0.10532422 4.0353875 10132122
1.3756446 0.10530458 4.0346351 10132122
1.425524 0.10528494 4.0338836 10132122
1.4753852 0.10526537 4.033133 5395026
1.5252274 0.10524576 4.032382 2039583
1.5750512 0.10522615 4.031631 2039583
1.6248566 0.1052066 4.0308814 2039583
1.6746432 0.10518701 4.0301309 2039583
1.7244114 0.10516743 4.0293813 2039583
1.7741612 0.10514788 4.0286322 2039583
1.8238922 0.10512833 4.0278826 2039583
1.8736049 0.10510878 4.0271335 2039583
1.9249554 0.10508858 4.0263605 2039583
1.9762859 0.10506841 4.0255866 2039583
2.0259442 0.10504901 4.0248432 2039583
2.0755858 0.10502967 4.0241032 2039583
2.1252055 0.10501017 4.023356 2039583
2.1748061 0.10499068 4.0226092 2039583
2.2243886 0.10497118 4.0218625 2039583
2.273953 0.10495171 4.0211163 2039583
2.32515 0.1049316 4.0203447 2039583
2.3763275 0.10491148 4.0195746 2039583
2.4258349 0.104892 4.0188284 2039583
2.4753251 0.10487259 4.0180836 2039583
2.5247955 0.10485311 4.0173383 2039583
1.7260162 0.10486756 4.1496263 2039583
1.7755421 0.10484813 4.1488566 2039583
1.8250504 0.10482872 4.1480889 2039583
1.8745397 0.10480931 4.1473217 2039583
1.9257164 0.10478925 4.1465268 2039583
1.9751692 0.10476988 4.1457605 2039583
2.0246029 0.10475048 4.1449928 2039583
2.0757229 0.10473047 4.1442008 2039583
2.1251218 0.10471119 4.1434393 2039583
2.1745002 0.10469185 4.1426725 2039583
2.2255626 0.10467184 4.141881 2039583
2.2749045 0.1046525 4.1411157 2039583
2.3242273 0.10463316 4.1403503 2039583
2.3752327 0.10461318 4.1395593 2039583
2.4245191 0.10459385 4.1387954 2039583
2.4737871 0.10457454 4.138031 2039583
2.524735 0.10455458 4.1372409 2039583
2.5756633 0.1045346 4.1364498 2039583
2.6129997 0.10452 4.1358728 2039583
0.98435074 0.10515834 4.1611319 10197915
1.0255665 0.10514219 4.1604929 10197915
1.0753524 0.10512266 4.1597199 10197915
1.1251198 0.10510314 4.1589475 10197915
1.1748688 0.10508364 4.1581769 10197915
1.2245992 0.10506415 4.1574039 10197915
1.2743114 0.10504465 4.1566334 10132122
1.3240052 0.10502518 4.1558623 10132122
1.375393 0.10500503 4.1550655 10132122
1.4250488 0.10498554 4.154295 10132122
1.4746867 0.10496608 4.1535254 10132122
1.5260168 0.10494597 4.1527281 4276545
1.5756172 0.10492652 4.1519585 2039583
1.625199 0.10490708 4.1511898 2039583
1.6747628 0.10488767 4.1504216 2039583
1.7003927 0.10487761 4.1500235 2039583
1.0251389 0.10482364 4.2884936 10197915
1.0764562 0.10480357 4.287673 10197915
1.1259855 0.10478421 4.286881 10197915
1.1754965 0.10476487 4.2860904 10197915
1.2249891 0.10474552 4.2852983 10197915
1.2744637 0.10472618 4.2845068 10197915
1.3239197 0.10470685 4.2837167 10197915
1.3751229 0.10468683 4.2828975 10132122
1.4263066 0.10466682 4.2820787 10132122
1.4757063 0.1046475 4.2812881 10132122
1.5250885 0.10462821 4.2804995 10132122
1.574452 0.10460891 4.2797093 3881787
1.6237974 0.10458963 4.2789202 2039583
1.6748862 0.10456967 4.2781038 2039583
1.7259556 0.10454971 4.277287 2039583
1.7752448 0.10453043 4.2764983 2039583
1.8245163 0.10451116 4.2757106 2039583
1.8737695 0.10449191 4.2749228 2039583
1.9247627 0.10447199 4.2741075 2039583
1.9757364 0.10445205 4.2732921 2039583
2.0249343 0.10443283 4.2725053 2039583
2.0741138 0.10441361 4.2717195 2039583
2.12503 0.10439371 4.270905 2039583
2.17593 0.10437393 4.2700953 2039583
2.2250547 0.10435474 4.269311 2039583
2.2741606 0.10433555 4.2685256 2039583
2.3250012 0.10431568 4.2677126 2039583
2.3758225 0.10429581 4.2669005 2039583
2.4248731 0.10427665 4.2661161 2039583
2.4739058 0.10425749 4.2653327 2039583
2.5246706 0.10423766 4.2645211 2039583
2.5754161 0.10421783 4.2637091 2039583
2.6243937 0.10419869 4.2629271 2039583
2.6751008 0.10417889 4.262116 2039583
2.7030694 0.10416793 4.2616682 2039583
2.5336308 0.10389712 4.3997316 2039583
2.5751534 0.10388093 4.3990474 2039583
2.6238799 0.10386195 4.398243 2039583
2.6743934 0.1038423 4.3974109 2039583
2.7248876 0.10382261 4.3965774 2039583
2.7699554 0.10380507 4.395834 2039583
1.0392927 0.10447917 4.4243808 10197915
1.0739794 0.10446566 4.4238081 10197915
1.1250813 0.10444574 4.422965 10197915
1.1761639 0.10442584 4.4221225 10197915
1.2254037 0.10440666 4.4213099 10197915
1.2746251 0.10438748 4.4204974 10132122
1.3256509 0.10436761 4.4196558 10132122
1.3748357 0.10434845 4.4188447 10132122
1.4240024 0.10432929 4.4180331 10132122
1.4749709 0.10430942 4.417192 10132122
1.5259202 0.10428955 4.4163513 10132122
1.5750315 0.10427044 4.4155416 10132122
1.6241248 0.10425132 4.4147315 3881787
1.6750172 0.10423147 4.4138913 2039583
1.7258904 0.10421167 4.4130521 2039583
1.7749288 0.10419255 4.4122434 2039583
1.8239486 0.10417347 4.4114347 2039583
1.8747648 0.10415365 4.4105954 2039583
1.9255621 0.10413384 4.4097571 2039583
1.9763402 0.10411408 4.4089198 2039583
2.0252867 0.10409501 4.4081125 2039583
2.0742147 0.10407595 4.4073048 2039583
2.1249359 0.10405617 4.4064679 2039583
2.1756384 0.10403644 4.405632 2039583
2.2263229 0.10401676 4.404799 2039583
2.2751787 0.10399778 4.403995 2039583
2.3240154 0.10397876 4.4031892 2039583
2.3746426 0.10395902 4.4023547 2039583
2.4252498 0.10393933 4.4015193 2039583
2.4758384 0.10391962 4.4006853 2039583
2.5083508 0.10390697 4.4001498 2039583
0.18923113 -2.0061669 4.4889417 2960685
0.21051559 -2.0082593 4.4967484 2960685
0.23608939 -2.0100076 4.5061312 2960685
0.27723342 -2.0138111 4.521224 2960685
0.32674161 -2.0178967 4.5393858 2960685
0.35240397 -2.0201981 4.5487995 2960685
2.1902883 0.10367114 4.5498056 2039583
2.2258048 0.10365733 4.5491991 2039583
2.2743936 0.10363851 4.5483732 2039583
2.3248382 0.10361926 4.5475278 2039583
2.3752573 0.10359967 4.5466681 2039583
2.4256568 0.1035801 4.5458093 2039583
2.4760377 0.10356055 4.5449514 2039583
2.5245347 0.10354172 4.5441256 2039583
2.5748782 0.10352219 4.5432677 2039583
2.6252027 0.10350263 4.5424099 2039583
2.6755085 0.10348313 4.541554 2039583
2.7257953 0.10346361 4.5406971 2039583
2.7742014 0.10344481 4.5398722 2039583
2.82445 0.10342531 4.5390158 2039583
2.865381 0.10340942 4.5383191 2039583
0.47525674 -2.0524247 4.5938158 2960685
0.37860593 -2.0221651 4.5584121 2960685
0.42536461 -2.026001 4.5755639 2960685
0.4699589 -2.0272346 4.5919299 2960685
1.0826519 0.1041012 4.5686784 10197915
1.1260028 0.10408436 4.5679402 10197915
1.1749915 0.10406534 4.5671048 10197915
1.2239623 0.10404631 4.5662699 10197915
1.2747976 0.10402658 4.5654039 10197915
1.3256139 0.10400684 4.5645385 10197915
1.3745296 0.10398787 4.563705 10132122
1.425308 0.10396814 4.56284 10132122
1.4760668 0.10394843 4.5619745 10132122
1.5249279 0.10392945 4.5611415 10132122
1.5737708 0.10391049 4.5603094 10132122
1.6244738 0.10389082 4.5594454 10132122
1.6751574 0.10387114 4.5585818 4013373
1.7239456 0.10385219 4.5577507 2039583
1.7745912 0.10383252 4.5568876 2039583
1.8252181 0.10381287 4.556025 2039583
1.8739522 0.10379395 4.5551949 2039583
1.9245408 0.1037743 4.5543323 2039583
1.9751108 0.10375467 4.5534701 2039583
2.0256617 0.10373503 4.5526094 2039583
2.0761933 0.10371542 4.5517483 2039583
2.1248355 0.10369654 4.5509195 2039583
2.1641104 0.10368127 4.5502496 2039583
0.49562737 -2.0549462 4.6012869 2960685
0.52777755 -2.0569193 4.6130815 2960685
0.57689524 -2.0610936 4.6311007 4144959
0.61422884 -2.064152 4.6447959 6974058
0.49563444 -2.0282872 4.6013513 2960685
0.52599305 -2.0251446 4.6125011 2960685
0.57550788 -2.025069 4.6306753 2960685
0.61384475 -2.0251479 4.6447463 2960685
0.52949351 -1.9749092 4.6139045 2960685
0.57567686 -1.9749233 4.6308546 2960685
0.61386085 -1.9751691 4.6448689 2960685
0.52942431 -1.9250867 4.6139965 2960685
0.57557684 -1.9249336 4.6309347 2960685
0.613877 -1.9251879 4.6449904 2960685
0.52960455 -1.8750901 4.6141768 2960685
0.57559216 -1.8751005 4.6310558 2960685
0.61389339 -1.8752041 4.6451135 2960685
0.52948034 -1.8249176 4.6142507 2960685
0.57554299 -1.825105 4.6311545 2960685
0.61390936 -1.8252171 4.645237 2960685
0.5294109 -1.7747409 4.6143408 2960685
0.57562214 -1.7751077 4.6313 2960685
0.6139257 -1.775228 4.645359 2960685
0.52959085 -1.7247348 4.6145215 2960685
0.57563746 -1.7249473 4.631422 2960685
0.61394191 -1.7252359 4.6454806 2960685
0.52957749 -1.6748984 4.614635 2960685
0.57565254 -1.6747845 4.6315446 2960685
0.61193424 -1.6754321 4.6448607 2960685
0.52959132 -1.6250601 4.6147547 2960685
0.57566786 -1.6249391 4.6316671 2960685
0.61195034 -1.6254427 4.6449819 2960685
0.52957731 -1.5750458 4.6148653 2960685
0.57556796 -1.5749315 4.6317468 2960685
0.61196643 -1.575451 4.6451058 2960685
0.5296191 -1.5252038 4.6149988 2960685
0.57569826 -1.5249201 4.6319113 2960685
0.61198258 -1.5254565 4.6452274 2960685
0.52957749 -1.4753571 4.615099 2960685
0.5756371 -1.4747496 4.6320057 2960685
0.61199886 -1.4754597 4.64535 2960685
0.52956396 -1.425335 4.6152091 2960685
0.57572865 -1.4245708 4.6321564 2960685
0.61201489 -1.4254596 4.645473 2960685
0.52968872 -1.3751374 4.6153722 2960685
0.57574379 -1.374712 4.6322775 2960685
0.61203098 -1.3754572 4.6455946 2960685
0.52964759 -1.3247665 4.6154766 2960685
0.57575899 -1.3248497 4.6324005 2960685
0.61204708 -1.3254524 4.6457167 2960685
0.52968901 -1.2747344 4.6156068 2960685
0.57581252 -1.2748265 4.6325359 2960685
0.61206329 -1.2754445 4.6458397 2960685
0.52978617 -1.2248771 4.6157579 2960685
0.57578933 -1.2247989 4.6326447 2960685
0.61207932 -1.2254342 4.6459627 2960685
0.52977234 -1.1748407 4.615871 2960685
0.57580447 -1.1749293 4.6327658 2960685
0.61209577 -1.1754211 4.6460848 2960685
0.52973086 -1.124977 4.6159701 2960685
0.57567656 -1.1252075 4.632834 2960685
0.61132705 -1.1303223 4.6459079 2960685
0.52693129 -1.082365 4.6150436 2960685
0.56505579 -1.0932523 4.6290116 2960685
0.76111436 -2.1003642 4.6986246 11711154
0.63843346 -2.065949 4.653676 8421504
0.67585003 -2.0690475 4.6674027 10000536
0.72682476 -2.0733278 4.6861014 11447982
0.7568782 -2.0757284 4.6971269 11711154
0.63809383 -2.0251303 4.6536465 2960685
0.67477244 -2.0250025 4.6671095 2960685
0.72604501 -2.025126 4.6859283 3026478
0.75700706 -2.0258186 4.6972909 3684408
0.63817376 -1.9754385 4.6537919 2960685
0.67483896 -1.9750807 4.6672506 2960685
0.72609073 -1.9750262 4.6860604 2960685
0.75702733 -1.9752743 4.6974163 2960685
0.63819081 -1.9253613 4.6539154 2960685
0.67473519 -1.9250062 4.6673265 2960685
0.72602975 -1.9249258 4.6861563 2960685
0.75704736 -1.9247276 4.6975412 2960685
0.63820767 -1.8752815 4.6540375 2960685
0.67489892 -1.8750795 4.6675057 2960685
0.72599512 -1.8751464 4.6862597 2960685
0.75706756 -1.8741779 4.6976662 2960685
0.63822436 -1.8251988 4.6541605 2960685
0.67474627 -1.8251505 4.6675663 2960685
0.72614843 -1.825039 4.6864333 2960685
0.75719643 -1.8242549 4.6978302 2960685
0.63824135 -1.7751131 4.6542835 2960685
0.67491013 -1.7750685 4.6677413 2960685
0.72615439 -1.7747673 4.686552 2960685
0.75710726 -1.7750148 4.6979127 2960685
0.6381312 -1.7254176 4.6543584 2960685
0.67492807 -1.7249843 4.6678662 2960685
0.72629368 -1.7248149 4.6867185 2960685
0.75701797 -1.7257735 4.6979938 2960685
0.63624591 -1.6754377 4.6537828 2960685
0.67494565 -1.6748977 4.6679893 2960685
0.72613961 -1.6748626 4.6867785 2960685
0.75714672 -1.6758423 4.6981583 2960685
0.63626277 -1.6253526 4.6539068 2960685
0.67493933 -1.6248065 4.6681037 2960685
0.72625142 -1.624908 4.6869364 2960685
0.75716686 -1.6252793 4.6982837 2960685
0.63627946 -1.5752643 4.6540298 2960685
0.67498124 -1.5747157 4.6682358 2960685
0.72621715 -1.5751133 4.6870418 2960685
0.75718719 -1.5747136 4.6984091 2960685
0.63629627 -1.5251744 4.6541529 2960685
0.67509687 -1.5247667 4.6683936 2960685
0.72618264 -1.5253167 4.6871443 2960685
0.75536793 -1.5247915 4.6978574 2960685
0.6363132 -1.4750812 4.6542754 2960685
0.675017 -1.4748201 4.6684818 2960685
0.72632188 -1.4753511 4.6873121 2960685
0.7552408 -1.4742796 4.697928 2960685
0.63632995 -1.4249855 4.6543989 2960685
0.67496175 -1.424719 4.6685791 2960685
0.72631472 -1.4252226 4.6874251 2960685
0.75509459 -1.4257182 4.6979876 2960685
0.6363467 -1.3748866 4.6545215 2960685
0.6750769 -1.3749142 4.668736 2960685
0.72630739 -1.3750913 4.6875391 2960685
0.75519711 -1.376093 4.6981411 2960685
0.63636345 -1.3247855 4.6546445 2960685
0.67494839 -1.3251072 4.6688056 2960685
0.7263 -1.3249573 4.6876545 2960685
0.75521725 -1.3255225 4.6982665 2960685
0.63638031 -1.2746818 4.6547666 2960685
0.67518526 -1.2751492 4.6690078 2960685
0.72629231 -1.2748212 4.687767 2960685
0.75523746 -1.2749492 4.6983914 2960685
0.63639718 -1.2245753 4.6548901 2960685
0.67495954 -1.2251875 4.6690421 2960685
0.72628516 -1.2246829 4.6878819 2960685
0.75525755 -1.224373 4.6985164 2960685
0.63641387 -1.1744664 4.6550131 2960685
0.67519647 -1.1752234 4.6692452 2960685
0.7262758 -1.174866 4.6879945 2960685
0.75527763 -1.1737945 4.6986418 2960685
0.63619095 -1.1355398 4.6550221 2960685
0.67500418 -1.1365548 4.6692657 2960685
0.72641176 -1.1365319 4.6881337 2960685
0.75529319 -1.1348859 4.6987386 2960685
2.4338043 0.10319333 4.6997342 2039583
2.4743159 0.10317765 4.6990199 2039583
2.5244572 0.10315828 4.6981382 2039583
2.5745795 0.10313888 4.6972551 2039583
2.6246822 0.1031195 4.696373 2039583
2.6747668 0.10310013 4.6954904 2039583
2.7248328 0.10308078 4.6946087 2039583
2.7748795 0.10306141 4.693728 2039583
2.8249075 0.10304206 4.6928458 2039583
2.8749163 0.10302273 4.6919651 2039583
2.9249072 0.10300339 4.6910844 2039583
2.9633498 0.10298854 4.6904082 2039583
0.78504664 -2.1030869 4.7074018 11711154
0.8280136 -2.106539 4.7231646 11711154
0.8774913 -2.1107912 4.7413144 11711154
0.78182793 -2.0749781 4.7062845 11711154
0.82580096 -2.0749407 4.722425 11711154
0.87607545 -2.0750444 4.7408791 11711154
0.78195637 -2.024986 4.706449 4013373
0.82554966 -2.0251064 4.7224503 5000268
0.8760168 -2.0250137 4.740973 6184542
0.78190476 -1.9752125 4.7065468 2960685
0.82558537 -1.975105 4.7225785 2960685
0.87595755 -1.9749812 4.7410684 2960685
0.78185314 -1.9254377 4.7066431 2960685
0.82555294 -1.92494 4.7226849 2960685
0.87606257 -1.9249449 4.7412229 2960685
0.78198171 -1.8754365 4.7068076 2960685
0.82580638 -1.8749307 4.7228942 2960685
0.87609982 -1.8750688 4.741354 2960685
0.78196657 -1.8252172 4.7069182 2960685
0.82578647 -1.8249228 4.7230034 2960685
0.87523323 -1.8256238 4.7411513 2960685
0.78195173 -1.7749957 4.7070303 2960685
0.82569891 -1.7750764 4.7230873 2960685
0.87390286 -1.774983 4.7407804 2960685
0.78193647 -1.7247729 4.7071409 2960685
0.82566708 -1.725226 4.7231922 2960685
0.87401605 -1.7246716 4.7409396 2960685
0.7820648 -1.6747631 4.707305 2960685
0.82579774 -1.675045 4.7233582 2960685
0.87419003 -1.6747167 4.7411189 2960685
0.782013 -1.6249739 4.7074032 2960685
0.82592797 -1.6248589 4.7235217 2960685
0.87397009 -1.6251287 4.7411556 2960685
0.78217804 -1.5751746 4.7075801 2960685
0.82580024 -1.5748386 4.7235909 2960685
0.87414443 -1.5751684 4.741334 2960685
0.78014559 -1.5249252 4.7069507 2960685
0.82575262 -1.5251461 4.7236881 2960685
0.87404841 -1.524848 4.7414174 2960685
0.77998829 -1.4748316 4.7070098 2960685
0.825939 -1.4752791 4.7238741 2960685
0.87422132 -1.4748855 4.7415967 2960685
0.77986246 -1.4247508 4.7070818 2960685
0.82589316 -1.4249214 4.7239771 2960685
0.87418377 -1.4251078 4.7416997 2960685
0.78019184 -1.3750641 4.7073174 2960685
0.82596952 -1.3747201 4.7241197 2960685
0.87423688 -1.3749571 4.7418351 2960685
0.78017843 -1.3251736 4.7074275 2960685
0.82570201 -1.3250173 4.7241378 2960685
0.87404954 -1.3248047 4.7418838 2960685
0.78018385 -1.2750859 4.7075467 2960685
0.82613474 -1.2751456 4.7244115 2960685
0.87425268 -1.2750143 4.742074 2960685
0.78012347 -1.2249955 4.7076411 2960685
0.82604796 -1.2249393 4.7244964 2960685
0.87442565 -1.2250401 4.7422533 2960685
0.78003013 -1.1749041 4.7077241 2960685
0.82589263 -1.1748937 4.7245564 2960685
0.87214029 -1.1748867 4.7415323 2960685
0.77996486 -1.1365063 4.7077904 2960685
0.8260321 -1.1362616 4.724699 2960685
0.87205482 -1.1364095 4.741591 2960685
1.1250379 0.10369921 4.722775 10197915
1.175687 0.10367963 4.7218819 10197915
1.2263169 0.10366003 4.7209897 10197915
1.2749816 0.10364121 4.7201328 10197915
1.3236285 0.10362239 4.7192755 10197915
1.3742028 0.10360284 4.7183847 10197915
1.4247578 0.10358328 4.717495 10197915
1.475294 0.10356373 4.7166042 10197915
1.5258107 0.10354419 4.7157135 10197915
1.5763086 0.10352464 4.7148242 10197915
1.6248461 0.10350587 4.7139688 10132122
1.6733661 0.1034871 4.7131143 10132122
1.7238083 0.10346759 4.7122259 5263440
1.7742317 0.10344809 4.7113366 2039583
1.8246354 0.10342859 4.7104492 2039583
1.8750209 0.1034091 4.7095623 2039583
1.9253869 0.10338961 4.7086744 2039583
1.9757341 0.10337014 4.707787 2039583
2.0260625 0.10335068 4.7069016 2039583
2.0763719 0.10333121 4.7060142 2039583
2.126662 0.10331175 4.7051287 2039583
2.1750002 0.10329306 4.7042761 2039583
2.2233205 0.10327436 4.7034254 2039583
2.273556 0.10325494 4.7025409 2039583
2.3237722 0.10323552 4.7016559 2039583
2.3739753 0.10321634 4.7007828 2039583
2.4087188 0.103203 4.7001753 2039583
0.92539114 -2.1145105 4.7588863 11711154
0.97450262 -2.1187806 4.7769027 11711154
1.019068 -2.1221046 4.7932515 11711154
0.92481685 -2.0748813 4.7587695 11711154
0.97375983 -2.0752306 4.776732 11711154
1.0188673 -2.0749125 4.7932868 11711154
0.92459679 -2.0251124 4.7588043 7237230
0.97356021 -2.0251508 4.7767754 8355711
1.0186265 -2.0251098 4.7933164 9276813
0.92456096 -1.9751616 4.7589068 2960685
0.97369814 -1.9750689 4.7769418 2960685
1.0188047 -1.9748434 4.793498 2960685
0.92476749 -1.9250212 4.7591004 2960685
0.97383678 -1.9249837 4.7771106 2960685
1.0187552 -1.9250382 4.7935972 2960685
0.92473137 -1.8750665 4.7592025 2960685
0.97348064 -1.8750647 4.7770958 2960685
1.0165808 -1.8749559 4.7929158 2960685
0.89932102 -1.8104491 4.7500277 2960685
0.92469496 -1.82511 4.7593074 2960685
0.9738884 -1.8251361 4.7773614 2960685
1.0166917 -1.8248689 4.7930732 2960685
0.89933777 -1.7750602 4.7501159 2960685
0.92474991 -1.7747827 4.7594442 2960685
0.97385716 -1.7750441 4.7774673 2960685
1.0167825 -1.7750257 4.7932224 2960685
0.89936095 -1.7259071 4.7502389 2960685
0.92480421 -1.7248125 4.7595811 2960685
0.97367072 -1.7251195 4.7775154 2960685
1.0165731 -1.7251745 4.793262 2960685
0.89938539 -1.6747854 4.7503672 2960685
0.92485934 -1.6752136 4.7597151 2960685
0.97395033 -1.6750138 4.7777338 2960685
1.0169412 -1.6750824 4.7935138 2960685
0.89940959 -1.6236604 4.7504954 2960685
0.92482311 -1.6250559 4.7598195 2960685
0.97380745 -1.6249154 4.7777996 2960685
1.0167356 -1.6247309 4.7935557 2960685
0.89943272 -1.5744992 4.7506185 2960685
0.92499965 -1.574898 4.7600017 2960685
0.97387576 -1.574984 4.7779417 2960685
1.0168254 -1.5748769 4.7937036 2960685
0.89945608 -1.5253356 4.750741 2960685
0.92477953 -1.525112 4.7600384 2960685
0.97395796 -1.5248673 4.7780871 2960685
1.0169168 -1.5250189 4.7938542 2960685
0.89948046 -1.4742031 4.7508698 2960685
0.92492676 -1.4751265 4.7602053 2960685
0.9738692 -1.4750974 4.7781711 2960685
1.0165595 -1.4749123 4.7938399 2960685
0.89950365 -1.4250342 4.7509928 2960685
0.92495096 -1.4249605 4.760334 2960685
0.97402328 -1.4251493 4.7783437 2960685
1.0172261 -1.4247991 4.7942033 2960685
0.89952713 -1.375863 4.7511163 2960685
0.9249137 -1.3749846 4.760437 2960685
0.97395033 -1.3748642 4.7784343 2960685
1.0167613 -1.3749363 4.7941475 2960685
0.89955139 -1.3247221 4.7512441 2960685
0.92509067 -1.3249954 4.7606177 2960685
0.97404599 -1.3249233 4.7785869 2960685
1.0170661 -1.3250655 4.7943759 2960685
0.89957458 -1.2755457 4.7513671 2960685
0.92484194 -1.2748227 4.760643 2960685
0.97405833 -1.2749647 4.778707 2960685
1.0159318 -1.2758545 4.7940736 2960685
0.89959806 -1.2263665 4.7514906 2960685
0.92504817 -1.2248328 4.7608337 2960685
0.97391176 -1.2251699 4.7787695 2960685
1.014616 -1.2248114 4.7937102 2960685
0.89750743 -1.1750256 4.7508426 2960685
0.92525631 -1.1750171 4.7610288 2960685
0.97431946 -1.1752162 4.7790351 2960685
1.0151817 -1.1748866 4.7940335 2960685
0.89752614 -1.1356848 4.7509408 2960685
0.92503566 -1.1364874 4.7610373 2960685
0.97412944 -1.1364638 4.7790561 2960685
1.0146302 -1.136915 4.7939196 2960685
1.0840374 -2.1524932 4.8170276 11711154
1.1283516 -2.156219 4.8332839 11711154
1.1629435 -2.1588993 4.8459735 11711154
1.0445738 -2.1249592 4.8026066 11711154
1.0747417 -2.1249931 4.8136787 11711154
1.1248243 -2.1250172 4.8320613 11711154
1.1621773 -2.1248243 4.8457723 11711154
1.0446011 -2.0752723 4.8027334 11711154
1.0751472 -2.074826 4.8139448 11711154
1.1253791 -2.0750284 4.8323817 11711154
1.162634 -2.0750811 4.846056 11711154
1.0447457 -2.0249021 4.8029037 9934743
1.0747956 -2.0250251 4.8139338 10592673
1.1248833 -2.0250313 4.8323178 11513775
1.1622418 -2.0249553 4.8460288 11711154
1.0445424 -1.975245 4.8029447 2960685
1.0752035 -1.975212 4.814198 2960685
1.1254387 -1.9750329 4.8326373 3158064
1.1626953 -1.9748027 4.8463125 3684408
1.0447979 -1.9248517 4.8031564 2960685
1.0748222 -1.925225 4.8141756 2960685
1.1249428 -1.9250338 4.832571 2960685
1.162303 -1.9246744 4.8462853 2960685
1.042377 -1.8752086 4.8023829 2960685
1.0752274 -1.8750477 4.8144407 2960685
1.1254979 -1.8750265 4.832891 2960685
1.1626878 -1.8749168 4.8465414 2960685
1.0427048 -1.8249935 4.8026195 2960685
1.0750998 -1.8250507 4.8145099 2960685
1.1250023 -1.8250264 4.8328261 2960685
1.1625739 -1.8251759 4.8466167 2960685
1.0424725 -1.7753229 4.8026514 2960685
1.0749717 -1.7750543 4.8145781 2960685
1.1255573 -1.7750095 4.8331475 2960685
1.161831 -1.7765067 4.8464565 2960685
1.0426327 -1.7251163 4.8028264 2960685
1.075251 -1.7250468 4.8147984 2960685
1.1250614 -1.7250085 4.8330817 2960685
1.1605622 -1.7250744 4.8461113 2960685
1.0427927 -1.6749055 4.8030024 2960685
1.0751221 -1.6750504 4.8148699 2960685
1.1254123 -1.6749829 4.8333268 2960685
1.1603289 -1.6749527 4.8461423 2960685
1.0425603 -1.6252302 4.8030334 2960685
1.0751811 -1.6250316 4.8150072 2960685
1.1253251 -1.6249787 4.8334117 2960685
1.1606699 -1.6252729 4.846384 2960685
1.042888 -1.5749953 4.8032703 2960685
1.0752722 -1.5750352 4.8151555 2960685
1.1254714 -1.5749469 4.8335814 2960685
1.1603484 -1.5751576 4.8463826 2960685
1.0425695 -1.5253259 4.8032694 2960685
1.0752381 -1.5248282 4.8152609 2960685
1.125384 -1.5249381 4.8336668 2960685
1.1607313 -1.5249634 4.8466401 2960685
1.0427703 -1.474602 4.8034625 2960685
1.0753294 -1.4750068 4.8154101 2960685
1.125531 -1.4748999 4.833837 2960685
1.1604098 -1.4748454 4.8466387 2960685
1.0427974 -1.4248891 4.8035874 2960685
1.0751386 -1.4249781 4.8154597 2960685
1.1254437 -1.4248868 4.8339219 2960685
1.1607512 -1.4251502 4.8468795 2960685
1.0428251 -1.3751736 4.8037124 2960685
1.075513 -1.3749664 4.8157115 2960685
1.1254584 -1.3750101 4.834043 2960685
1.1605176 -1.3750188 4.846911 2960685
1.0429851 -1.3249407 4.8038893 2960685
1.0753205 -1.3249379 4.8157568 2960685
1.1256338 -1.3249906 4.8342247 2960685
1.1606776 -1.3253391 4.8470855 2960685
1.0414648 -1.2737458 4.8034501 2960685
1.0754108 -1.274914 4.815906 2960685
1.1255177 -1.274943 4.8342981 2960685
1.1607082 -1.2751704 4.8472142 2960685
1.0409557 -1.2249935 4.8033786 2960685
1.0754399 -1.2250667 4.8160343 2960685
1.125679 -1.2250835 4.8344741 2960685
1.1607387 -1.2249995 4.8473415 2960685
1.0405676 -1.1753144 4.80335 2960685
1.0753732 -1.1750351 4.8161278 2960685
1.1254297 -1.1752024 4.8344979 2960685
1.1607697 -1.1748255 4.8474703 2960685
1.040795 -1.1363143 4.803525 2960685
1.0758425 -1.1366055 4.8163881 2960685
1.1299273 -1.1290152 4.8362575 2960685
1.1594779 -1.1261429 4.8471098 2960685
1.1387005 -1.0750312 4.8396029 2960685
1.1587441 -1.0749338 4.8469601 2960685
1.1390234 -1.0249114 4.839838 2960685
1.1585397 -1.0248133 4.847002 2960685
1.1387607 -0.97483301 4.8398576 2960685
1.1588081 -0.97525167 4.8472157 2960685
1.1391717 -0.92503268 4.8401251 2960685
1.158604 -0.92512763 4.8472571 2960685
1.1387337 -0.87496567 4.8400812 2960685
1.1587501 -0.87558854 4.8474259 2960685
1.1392646 -0.82514691 4.8403916 2960685
1.1587806 -0.82540464 4.8475542 2960685
1.1370374 -0.77575988 4.8396893 2960685
1.1568986 -0.77423352 4.8469834 2960685
1.1370776 -0.72499776 4.8398232 2960685
1.156642 -0.72490799 4.8470039 2960685
1.1366863 -0.67494404 4.8397961 2960685
1.1566724 -0.67472452 4.8471322 2960685
1.1369246 -0.62560773 4.8399982 2960685
1.156703 -0.62453818 4.8472605 2960685
1.1369545 -0.57549399 4.8401265 2960685
1.1567336 -0.5743494 4.8473887 2960685
1.1369847 -0.52537781 4.8402538 2960685
1.1568081 -0.52563471 4.8475294 2960685
1.1370147 -0.47525895 4.8403816 2960685
1.1544768 -0.47525391 4.8467913 2960685
1.1370448 -0.42513737 4.8405104 2960685
1.1546227 -0.42570394 4.8469601 2960685
1.1370748 -0.37501314 4.8406391 2960685
1.154653 -0.37551287 4.8470883 2960685
1.1371051 -0.32488632 4.8407664 2960685
1.1546836 -0.32531926 4.8472166 2960685
1.1371347 -0.2747567 4.8408947 2960685
1.1547141 -0.27512288 4.8473458 2960685
1.1371652 -0.2246246 4.8410215 2960685
1.1547447 -0.22492392 4.8474731 2960685
1.1371952 -0.17448972 4.8411489 2960685
1.1547754 -0.1747223 4.8476028 2960685
1.137225 -0.12435227 4.8412776 2960685
1.1548059 -0.12451802 4.8477302 2960685
1.1372554 -0.074212134 4.8414059 2960685
1.1548364 -0.07431104 4.847858 2960685
1.1372852 -0.024069371 4.8415332 2960685
1.1548669 -0.024101453 4.8479862 2960685
