# .PCD v0.7 - Point Cloud Data file format
VERSION 0.7
FIELDS x y z rgb
SIZE 4 4 4 4
TYPE F F F U
COUNT 1 1 1 1
WIDTH 1203
HEIGHT 1
VIEWPOINT 0 0 0 1 0 0 0
POINTS 1203
DATA ascii
0.48116297 -1.3750459 3.4878244 2039583
0.52389622 -1.3750138 3.4745843 2039583
0.57451046 -1.3750486 3.4589064 2039583
0.60181093 -1.3751593 3.450449 2039583
0.66774768 -1.3748143 3.4734576 2039583
0.48120877 -1.3248357 3.4878812 2039583
0.5241347 -1.324978 3.4745848 2039583
0.57477659 -1.3249943 3.4588962 2039583
0.60182297 -1.3251541 3.4505177 2039583
0.66752112 -1.32445 3.4727058 2039583
0.48114496 -1.2748423 3.4879744 2039583
0.52381122 -1.2749411 3.4747565 2039583
0.57450032 -1.2749412 3.459053 2039583
0.60183495 -1.2751465 3.4505863 2039583
0.66761953 -1.274783 3.4730046 2039583
0.48122868 -1.2251775 3.4880195 2039583
0.52403736 -1.2249827 3.4747603 2039583
0.57476676 -1.2248845 3.4590435 2039583
0.60184693 -1.2251371 3.4506545 2039583
0.66750139 -1.2251076 3.4726036 2039583
0.48128644 -1.1750678 3.4880745 2039583
0.52409643 -1.1750218 3.4748104 2039583
0.57459682 -1.1749771 3.4591694 2039583
0.60185885 -1.1751257 3.4507236 2039583
0.6677081 -1.1747682 3.4732513 2039583
0.4811613 -1.1249558 3.4881856 2039583
0.52390873 -1.1250554 3.4749448 2039583
0.5746578 -1.1249926 3.4592211 2039583
0.60187083 -1.1251124 3.4507918 2039583
0.6675899 -1.1250954 3.4728508 2039583
0.48262781 -1.0749272 3.4878042 2039583
0.52411598 -1.0749346 3.4749522 2039583
0.5747934 -1.0750827 3.4592514 2039583
0.6031161 -1.0730299 3.4504817 2039583
0.66747171 -1.0754392 3.4724493 2039583
0.48283017 -1.0249755 3.4878123 2039583
0.52402222 -1.0250458 3.4750512 2039583
0.57461548 -1.0250911 3.4593799 2039583
0.60325086 -1.0249548 3.4505098 2039583
0.66767842 -1.0250742 3.4730973 2039583
0.48244601 -0.97502321 3.4880068 2039583
0.52398461 -0.97507381 3.4751379 2039583
0.57475007 -0.97502953 3.4594097 2039583
0.60326296 -0.97494179 3.4505782 2039583
0.66745174 -0.9747088 3.4723461 2039583
0.48258305 -0.92506796 3.4880347 2039583
0.52407795 -0.9249481 3.4751801 2039583
0.5746792 -0.92510599 3.459506 2039583
0.60327494 -0.92492646 3.4506471 2039583
0.66755033 -0.92505789 3.4726446 2039583
0.48287791 -0.8748728 3.4880152 2039583
0.52412009 -0.87513059 3.4752417 2039583
0.5747394 -0.87504292 3.459559 2039583
0.6032868 -0.87490916 3.4507155 2039583
0.66754043 -0.87469143 3.4725926 2039583
0.48252106 -0.82491016 3.4882007 2039583
0.52410281 -0.82507634 3.4753175 2039583
0.57482523 -0.82503968 3.4596043 2039583
0.6032989 -0.8248899 3.4507842 2039583
0.66753042 -0.82432604 3.4725406 2039583
0.48255852 -0.77506852 3.4882593 1974047
0.5239684 -0.77494061 3.4754326 2039583
0.574664 -0.77504677 3.4597263 2039583
0.603311 -0.77486861 3.4508529 2039583
0.6675207 -0.77540135 3.4724903 2039584
0.48284051 -0.72487068 3.488245 1848655
0.52429622 -0.72503918 3.4754033 2045775
0.57484841 -0.72504264 3.4597416 2111053
0.60332286 -0.72484541 3.4509218 2110796
0.66751069 -0.72503918 3.4724379 2439761
0.48275858 -0.67502463 3.4883423 1782863
0.52394968 -0.67505997 3.4755809 1848655
0.57471901 -0.67504144 3.4598544 2045776
0.6033349 -0.67482018 3.4509897 2111312
0.66750073 -0.67467833 3.4723868 2242384
0.4824805 -0.62528956 3.4884992 1849169
0.52407473 -0.62499595 3.4756179 1980497
0.57477242 -0.6249609 3.4599106 1979984
0.60334688 -0.62479287 3.4510584 2177362
0.66738254 -0.6250397 3.4719861 2440276
0.4828417 -0.57485062 3.4884627 1981011
0.5244329 -0.57501423 3.4755781 2112083
0.57493216 -0.57503039 3.4599335 2177875
0.60335886 -0.57476383 3.4511278 2243411
0.66758931 -0.57467961 3.4726331 2374740
0.48278737 -0.52475762 3.4885495 1652048
0.52380848 -0.52510059 3.4758441 1717584
0.57459062 -0.52501935 3.4601109 1783120
0.60337085 -0.52473253 3.4511962 1848913
0.66736263 -0.52433598 3.4718819 2046291
0.48264804 -0.4753806 3.4886634 1586256
0.52431077 -0.47487772 3.4757552 1652048
0.57515323 -0.47501516 3.4600098 1717327
0.60426784 -0.47217655 3.4509938 1651535
0.66746116 -0.47469437 3.4721811 1848912
0.48267388 -0.42504439 3.4887307 1388107
0.52428985 -0.42496747 3.4758365 1652048
0.57444799 -0.42506722 3.4603 1849426
0.60475081 -0.42461261 3.4509134 1849426
0.66745138 -0.42577976 3.4721303 1915219
0.48287645 -0.37459609 3.4887407 1323084
0.52380675 -0.37520218 3.4760621 1520463
0.57519788 -0.37491623 3.4601402 1652048
0.60476279 -0.37458155 3.4509821 1717584
0.66744155 -0.37542802 3.4720781 1783377
0.48275131 -0.32521248 3.4888489 1191499
0.52451622 -0.32482597 3.4759142 1322828
0.57459044 -0.32511145 3.4604018 1454414
0.60477501 -0.32454845 3.451051 1520206
0.66743153 -0.32507768 3.4720263 1520463
0.48253119 -0.2752167 3.4889908 1323085
0.52417815 -0.27505952 3.4760921 1323341
0.57509458 -0.27495611 3.4603164 1388878
0.60478705 -0.27451336 3.4511199 1454670
0.66731346 -0.27544355 3.4716256 1454926
0.4830029 -0.22466141 3.4889188 1389134
0.52390862 -0.22504911 3.4762461 1454926
0.57486367 -0.22507954 3.4604609 1454927
0.60479915 -0.22447631 3.4511883 1520719
0.66752005 -0.22510554 3.4722731 1520720
0.48278019 -0.17490241 3.4890585 1323084
0.52448672 -0.17467095 3.4761405 1389133
0.57487518 -0.17490596 3.4605291 1454926
0.60481107 -0.1744373 3.4512572 1520718
0.66729331 -0.17476059 3.4715219 1454926
0.48278961 -0.1257588 3.4891276 1520717
0.52420914 -0.12529628 3.4762964 1520717
0.57488638 -0.12473051 3.4605989 1586510
0.60482305 -0.12439626 3.4513264 1586511
0.66739196 -0.12513511 3.4718206 1586254
0.4827992 -0.075167626 3.4891965 1257803
0.52421981 -0.074891187 3.4763682 1323340
0.57489783 -0.07455299 3.4606667 1323339
0.60483515 -0.074353218 3.4513948 1323340
0.667382 -0.074792296 3.4717691 1388876
0.48280931 -0.024574466 3.4892671 1257803
0.52423078 -0.024484109 3.4764364 1323596
0.57490939 -0.024373539 3.4607365 1323596
0.60484719 -0.02430822 3.4514637 1454924
0.66737205 -0.024451002 3.4717164 1455181
0.48281869 0.024575114 3.4893343 1257289
0.52424061 0.024484744 3.4765034 1257289
0.57492077 0.024374174 3.4608045 1323082
0.60485888 0.024308847 3.4515295 1191497
0.66736233 0.024450528 3.4716666 1323338
0.48282838 0.07517232 3.4894059 860994
0.52425104 0.074895851 3.4765747 926787
0.57493192 0.074557558 3.4608727 1058885
0.60487098 0.074357808 3.4515982 1058628
0.66735232 0.074788846 3.4716148 992836
0.14354555 0.11164661 3.4998736 10197915
0.17541873 0.11163068 3.4993742 7896710
0.22466065 0.11160607 3.4986031 7896966
0.2753281 0.11158073 3.4978094 7436930
0.32597277 0.11155543 3.4970162 5661810
0.37514839 0.11153086 3.4962456 5727346
0.42430228 0.1115063 3.4954758 5727346
0.4800241 0.10747854 3.4900615 2043722
0.5242579 0.10658375 3.4766169 1518151
0.57493925 0.10610239 3.4609165 1518664
0.60487849 0.10581806 3.4516418 1518151
0.67777932 0.10904765 3.4820526 1058628
0.72309643 0.11135698 3.4907951 794943
0.68392861 -1.563731 3.5257635 2039583
2.3278084 -1.5677726 3.5438633 1587024
0.68305373 -1.5251626 3.5229247 2039583
2.3284819 -1.524923 3.543716 1455183
0.68304384 -1.4755179 3.5228734 2039583
2.328531 -1.4748477 3.5437737 1389134
0.68292212 -1.4251472 3.5224609 2039583
2.3285122 -1.4248618 3.5438507 1191242
0.68302363 -1.3747777 3.5227683 2039583
2.3285971 -1.3747863 3.5438981 1058887
0.6830138 -1.325138 3.5227184 2039583
2.3285933 -1.324705 3.5439715 1059144
0.68300414 -1.2754997 3.5226688 2039583
2.3286283 -1.274807 3.5440319 993352
0.68299407 -1.2258621 3.5226171 2039583
2.3286717 -1.2249072 3.5440915 1125193
0.68287247 -1.1754829 3.5222046 2039583
2.3286972 -1.174914 3.5441554 1059914
0.68297374 -1.1251366 3.5225112 2039583
2.3287485 -1.1249191 3.5442119 1125450
0.68307495 -1.0747765 3.5228183 2039583
2.3287888 -1.0750139 3.5442724 1257548
0.68295336 -1.0244068 3.5224068 2039583
2.3295932 -1.0253828 3.544095 1125707
0.68294328 -0.97477633 3.5223548 2039583
2.3300886 -0.97500944 3.5440135 1191755
0.68282163 -0.92443019 3.5219426 2039583
2.3301303 -0.92500758 3.5440738 1191754
0.6829229 -0.87406594 3.5222495 2039583
2.3303781 -0.8833217 3.5440576 1126475
0.68291283 -0.82444024 3.5221977 2039583
0.68290281 -0.77481562 3.522146 2106923
0.68289274 -0.72519284 3.5220938 2505555
0.68288273 -0.67557132 3.522042 2373713
0.68276107 -0.62522292 3.5216298 2506068
0.68286228 -0.57487875 3.5219369 2374740
0.68285227 -0.52526182 3.5218849 2111827
0.6828422 -0.47564626 3.5218334 1914449
0.68283218 -0.42603222 3.5217814 1980755
0.68271053 -0.37567505 3.5213687 1717584
0.68292302 -0.32463467 3.5220354 1585999
0.68280143 -0.27428049 3.5216234 1454927
0.68279141 -0.22467235 3.5215709 1520720
0.68278134 -0.17506562 3.5215197 1454926
0.6826598 -0.12474164 3.5211072 1586254
0.68276095 -0.074402913 3.521414 1388876
0.682751 -0.024800653 3.5213618 1455181
0.68274087 0.024800168 3.5213106 1257290
0.68273091 0.074399516 3.5212588 992836
-1.0100076 0.11222304 3.5179443 10197915
-0.97487706 0.11220548 3.5173938 10197915
-0.92512697 0.11218063 3.5166144 10197915
-0.87539864 0.11215577 3.5158353 10197915
-0.8256923 0.11213093 3.5150564 10197915
-0.77600825 0.11210612 3.5142782 10197915
-0.72488558 0.11208056 3.5134776 10197915
-0.67378646 0.11205502 3.5126767 10197915
-0.62416929 0.11203023 3.5118999 10197915
-0.57457429 0.11200545 3.5111232 10197915
-0.52500123 0.11198068 3.5103464 10197915
-0.47545013 0.11195592 3.5095704 10197915
-0.42592084 0.11193117 3.5087943 10197915
-0.37495777 0.11190569 3.5079961 10197915
-0.32401773 0.11188024 3.5071979 10197915
-0.27455539 0.11185551 3.5064232 10197915
-0.22511488 0.11183082 3.5056486 10197915
-0.17569624 0.11180612 3.5048745 10197915
-0.124847 0.11178073 3.5040781 10197915
-0.074020661 0.11175531 3.5032818 10197915
-0.024668712 0.11173066 3.5025086 10197915
0.024661463 0.11170601 3.5017359 10197915
0.073969871 0.11168137 3.5009634 10197915
0.11745961 0.11165964 3.5002823 10197915
0.6827246 0.10503375 3.5212266 926272
0.70291752 -1.601998 3.5870781 2039583
2.1487315 -1.605957 3.5992813 1718096
2.1709905 -1.6036747 3.5923886 1718096
2.2063346 -1.6009659 3.581445 1718352
0.69488049 -1.5712265 3.5611217 2039583
0.70291191 -1.5752362 3.5870495 2039583
2.1487534 -1.5761502 3.5993178 1586767
2.1750586 -1.5751041 3.5911705 1521231
2.2246981 -1.5745574 3.5757949 1586767
2.2738984 -1.5714505 3.5605574 1652560
2.3039603 -1.5698125 3.5512476 1587024
0.69487077 -1.5239947 3.5610716 2039583
0.70290172 -1.5261735 3.5869973 2039583
2.1487904 -1.5254771 3.5993798 1257804
2.1751397 -1.5249914 3.591218 1258061
2.2250638 -1.5249455 3.575753 1258061
2.27456 -1.5249006 3.5604212 1389390
2.3039947 -1.5256982 3.5513008 1389646
0.69486034 -1.4738122 3.5610182 2039583
0.70289117 -1.4756256 3.5869434 2039583
2.1488271 -1.4748024 3.5994418 1126218
2.1752224 -1.4748772 3.5912635 1126219
2.2251172 -1.4748991 3.5758078 1192012
2.2745388 -1.4749228 3.5604994 1323341
2.3040335 -1.4757001 3.5513608 1258061
0.69485003 -1.4236313 3.5609658 2039583
0.70288056 -1.4250795 3.5868895 2039583
2.148864 -1.4241259 3.5995033 1059656
2.1753905 -1.4249852 3.5912859 1059657
2.225239 -1.4249277 3.5758433 1059657
2.2745786 -1.4249414 3.5605581 1125450
2.3040726 -1.4257005 3.5514209 1191242
0.69483995 -1.3749278 3.560914 2039583
0.70287001 -1.3745346 3.5868359 2039583
2.1489003 -1.374938 3.5995636 1059913
2.1751935 -1.375017 3.5914187 1059657
2.2250819 -1.3749515 3.5759635 1059657
2.2746212 -1.3750331 3.5606201 1059401
2.3041117 -1.3756994 3.5514815 1059144
0.69482988 -1.3262254 3.5608623 2039583
0.70285952 -1.3239913 3.5867825 2039583
2.1489358 -1.3257487 3.5996237 1191242
2.1752143 -1.3249717 3.5914853 1059657
2.2251525 -1.3249736 3.5760162 1059144
2.2746556 -1.324975 3.5606809 993351
2.3041511 -1.3256963 3.5515418 1124937
0.69481975 -1.2760493 3.5608106 2039583
0.70284939 -1.2749361 3.58673 2039583
2.148973 -1.2750671 3.5996852 1191242
2.1753089 -1.2750012 3.5915287 1125450
2.2251947 -1.2749947 3.5760739 1059401
2.2747052 -1.2749151 3.5607367 1058631
2.3041899 -1.2756917 3.5516021 1058888
0.69480997 -1.2258749 3.56076 2039583
0.70283914 -1.2258824 3.5866785 2039583
2.1490099 -1.2243837 3.5997474 1257034
2.1754069 -1.2250279 3.5915685 1191498
2.2252879 -1.2250141 3.5761168 1191242
2.2747509 -1.2249275 3.5607946 1125450
2.304229 -1.2256856 3.5516622 1125194
0.6947996 -1.1757013 3.5607071 2039583
0.70282912 -1.1753443 3.5866272 2039583
2.1490457 -1.1751896 3.5998077 1190985
2.1755028 -1.1750538 3.5916126 1125449
2.2253065 -1.1750324 3.5761843 1125450
2.2747719 -1.174865 3.5608611 1125194
2.3042684 -1.1756773 3.5517225 1059658
0.69478923 -1.1255292 3.5606542 2039583
0.70281869 -1.1248071 3.5865736 2039583
2.1490819 -1.1259935 3.5998683 926789
2.175447 -1.1250017 3.5917027 993094
2.2254217 -1.1250494 3.5762198 1125706
2.2748353 -1.1247991 3.5609131 1125706
2.3043075 -1.1256678 3.5517826 1125706
0.69477892 -1.0753584 3.5606012 2039583
0.70280814 -1.0742713 3.58652 2039583
2.1491189 -1.0753051 3.59993 992581
2.1754479 -1.074872 3.5917745 1059144
2.2253997 -1.0751388 3.5762994 1191755
2.2748201 -1.0748806 3.5609903 1257291
2.3043461 -1.0756564 3.5518434 1323084
0.69476861 -1.0251894 3.5605483 2039583
0.70279795 -1.0252233 3.5864675 2039583
2.1491492 -1.0335603 3.5999811 992324
2.1755123 -1.0248921 3.5918267 993351
2.2254016 -1.0250758 3.5763717 1125449
2.2749274 -1.024961 3.5610294 1125450
2.3052392 -1.0243385 3.5516412 1125706
0.69475824 -0.97502172 3.5604949 2039583
0.70278764 -0.97617668 3.5864155 2039583
2.1756139 -0.97513765 3.5918667 1059400
2.22545 -0.97493786 3.5764298 1191754
2.2749729 -0.9749648 3.5610874 1191498
2.3056493 -0.97552425 3.551584 1191242
0.69474792 -0.92485565 3.560442 2039583
0.70277721 -0.92564523 3.5863621 2039583
2.1755376 -0.92515182 3.5919626 1124679
2.2255177 -0.92487305 3.5764806 1126218
2.2749643 -0.92504132 3.5611629 1126219
2.3056886 -0.92551285 3.5516448 1125963
0.69473761 -0.87469095 3.5603893 2039583
0.70276666 -0.87511545 3.5863085 2039583
2.1756818 -0.88349575 3.5919785 993863
2.2254689 -0.8833254 3.576556 1126219
2.2750123 -0.88337874 3.5612085 1125962
2.3055925 -0.8837164 3.5517347 1191755
0.69472724 -0.8245278 3.5603364 2039583
0.70275611 -0.82458723 3.5862548 2039583
0.69471693 -0.77436614 3.5602834 2173749
0.70274568 -0.77406013 3.5862005 2305595
0.69470656 -0.72420579 3.5602305 2505298
0.70273536 -0.72502083 3.5861483 2439762
0.69469619 -0.67404705 3.5601773 2439762
0.70272511 -0.67598295 3.586096 2505555
0.69468588 -0.62388992 3.5601246 2505812
0.70271462 -0.62546062 3.5860424 2505812
0.69467562 -0.57373422 3.5600717 2374740
0.70270401 -0.57493973 3.5859888 2309204
0.69466549 -0.52505511 3.5600197 2177363
0.70269358 -0.52442038 3.5859349 2111827
0.69465542 -0.47637737 3.5599685 1914705
0.70268303 -0.47390252 3.5858815 1980242
0.69464523 -0.42622605 3.5599155 1980755
0.70267278 -0.42487198 3.585829 1915219
0.69463485 -0.37607622 3.5598626 1717328
0.70266253 -0.37584284 3.585777 1651792
0.69462448 -0.32592791 3.5598097 1520463
0.70265204 -0.32532945 3.5857234 1520463
0.69461417 -0.27578104 3.5597568 1454927
0.70264149 -0.27481759 3.5856695 1454927
0.69460374 -0.22563568 3.5597038 1520719
0.702631 -0.22430718 3.5856159 1520719
0.69459349 -0.17549184 3.5596511 1454926
0.70262045 -0.17379835 3.585562 1454926
0.69458324 -0.12534946 3.5595977 1586254
0.70261031 -0.12477651 3.5855098 1652046
0.69457293 -0.075208597 3.559545 1388875
0.7026 -0.075756095 3.5854583 1323339
0.69456249 -0.0250692 3.5594921 1455181
0.70258957 -0.025251696 3.5854042 1455181
0.69455218 0.025068702 3.5594389 1257034
0.70257902 0.025251191 3.5853505 1257033
0.69454187 0.075205117 3.5593863 992836
0.70256853 0.075752564 3.5852966 992836
-0.50558633 0.11185539 3.5999231 10197915
-0.47569567 0.11184044 3.5994422 10197915
-0.42489833 0.11181508 3.5986259 10197915
-0.37412393 0.11178974 3.5978107 10197915
-0.32486486 0.11176517 3.597019 10197915
-0.27562773 0.11174057 3.5962279 10197915
-0.22492103 0.11171526 3.5954142 10197915
-0.1742373 0.11168995 3.594599 10197915
-0.12506609 0.11166541 3.5938089 6842472
-0.075916745 0.11164088 3.5930195 4079166
-0.025300492 0.11161561 3.5922067 2039583
0.025292862 0.11159036 3.5913944 2039583
0.075863317 0.11156512 3.5905812 5329233
0.12492465 0.11154062 3.5897923 10197915
0.17396423 0.11151614 3.5890055 1913932
0.22446743 0.11149091 3.5881937 861762
0.27494785 0.11146574 3.5873826 993862
0.32540542 0.11144054 3.5865722 928068
0.37584019 0.11141536 3.5857613 926785
0.42625219 0.11139019 3.5849519 1059141
0.4647879 0.11137096 3.5843327 794687
0.69453549 0.10617103 3.5593538 860479
0.72188079 0.11037358 3.580915 926016
0.75781071 0.11122467 3.5796247 728123
0.71623641 -1.611416 3.6300774 2039583
1.9916866 -1.6160393 3.647917 1848910
2.0241735 -1.6138755 3.6378555 1454154
2.0739198 -1.6103364 3.6224501 1454410
2.1217587 -1.6070302 3.6076362 1718095
0.71519488 -1.5745964 3.6267004 2039583
1.9919815 -1.5752721 3.6478834 1519947
2.025444 -1.5750269 3.6375167 1388618
2.075408 -1.5748984 3.6220388 1323082
2.1235075 -1.5750102 3.6071403 1455438
0.71518445 -1.5249915 3.626647 2039583
1.992041 -1.525793 3.6479371 1322569
2.0254657 -1.5250211 3.6375825 1256263
2.0752256 -1.5249342 3.6221695 1125704
2.1234949 -1.5250931 3.6072176 1192268
0.71504855 -1.4746344 3.6261883 2039583
1.9933003 -1.4752144 3.64762 1256007
2.0253365 -1.4750142 3.6376958 1388105
2.0753329 -1.4749634 3.6222088 1257290
2.1235862 -1.4750146 3.6072595 1125963
0.71528858 -1.425037 3.6269443 2039583
1.9932709 -1.425061 3.6477025 1454668
2.0257046 -1.4250039 3.6376562 1388618
2.0755877 -1.4249934 3.6222022 1190984
2.1237502 -1.4249363 3.6072817 1059657
0.71502739 -1.375443 3.6260822 2039583
1.9932404 -1.3749051 3.6477838 1454668
2.0253239 -1.3750684 3.6378443 1322568
2.0753152 -1.3749408 3.6223583 1191240
2.1236587 -1.3749343 3.6073835 1060169
0.71514189 -1.3250895 3.6264322 2039583
1.9933995 -1.3250716 3.6478071 1454411
2.025605 -1.3250551 3.6378303 1322568
2.0754311 -1.3249673 3.6223955 1191240
2.1236477 -1.3249294 3.6074588 1059913
0.71525651 -1.2747203 3.6267819 2039583
1.9932774 -1.2749006 3.647918 1323082
2.0256453 -1.274966 3.6378908 1190983
2.0756435 -1.2750734 3.622401 1191241
2.1237545 -1.2750041 3.6074975 1191242
0.7149955 -1.2251642 3.6259198 2039583
1.993499 -1.2250727 3.6479208 1322826
2.0248082 -1.2252498 3.6382201 1256520
2.0747316 -1.2246393 3.6227582 1191240
2.1238539 -1.2250773 3.6075394 1257291
0.71511006 -1.1747981 3.6262703 2039583
1.9933466 -1.1748933 3.6480401 1256519
2.0244367 -1.1750271 3.6384096 1190727
2.0742321 -1.1749412 3.6229832 1191240
2.1238265 -1.174908 3.6076195 1190985
0.7149744 -1.1244451 3.6258135 2039583
1.9935682 -1.1250643 3.6480448 1124165
2.0243411 -1.1249799 3.6385136 1190470
2.07443 -1.1250584 3.6229949 1058629
2.123791 -1.1248962 3.6077034 927045
0.71521449 -1.0748713 3.6265693 2039583
1.9934461 -1.0748837 3.6481552 1124165
2.0245144 -1.0751017 3.6385288 992579
2.0743933 -1.074865 3.6230795 927043
2.1239469 -1.0751243 3.607728 927045
0.71495354 -1.0252745 3.6257074 2039583
1.9936055 -1.0250435 3.6481783 1124422
2.0244663 -1.0250546 3.638617 1058628
2.0743215 -1.0248975 3.6231744 992836
2.1243303 -1.0247976 3.6076825 926788
0.7150681 -0.97493756 3.6260576 2039583
1.9935753 -0.97487247 3.6482599 1124935
2.0245245 -0.97500598 3.6386714 1058885
2.0744789 -0.9750855 3.6231983 927043
2.1252997 -0.9748823 3.6074553 992581
0.71518266 -0.92458576 3.6264079 2039583
1.9936087 -0.92501098 3.6483212 1124935
2.0244868 -0.92512202 3.6387553 1059141
2.0745258 -0.92488706 3.6232545 927043
2.1252155 -0.92498219 3.6075521 795459
0.71492159 -0.87502682 3.6255457 2039583
1.9936365 -0.88421404 3.6483717 1059142
2.0245631 -0.88339806 3.6387918 1059141
2.0744579 -0.88317138 3.6233368 927300
2.1253483 -0.88337147 3.6075714 795203
0.71503627 -0.82467771 3.6258957 2039583
0.71502572 -0.77509487 3.625843 2372420
0.71501517 -0.72551334 3.6257892 2373969
0.71487921 -0.67517799 3.6253309 2571348
0.71499389 -0.62485832 3.6256809 2506068
0.71510839 -0.57452321 3.6260307 2308948
0.71484739 -0.52496165 3.625169 2046290
0.71496195 -0.47462952 3.6255193 1980498
0.71495146 -0.4250569 3.6254659 1915219
0.71494091 -0.37548584 3.6254129 1651535
0.71480501 -0.32515445 3.6249549 1520463
0.71504498 -0.27560773 3.6257095 1520463
0.71490908 -0.22527933 3.6252513 1520719
0.7147733 -0.17496906 3.6247931 1454926
0.71488768 -0.12465391 3.6251435 1586254
0.71487725 -0.075091623 3.6250894 1388875
0.71486676 -0.025530823 3.6250367 1454925
0.71485585 0.025530303 3.6249824 1257033
0.71484548 0.075088173 3.6249285 1058628
-1.0239766 0.11211415 3.6082511 10197915
-0.9759326 0.11209016 3.6074793 10197915
-0.92490816 0.1120647 3.6066597 10197915
-0.87540656 0.11203999 3.6058645 10197915
-0.82592696 0.11201528 3.6050694 10197915
-0.77497065 0.11198983 3.60425 10197915
-0.72403753 0.1119644 3.6034327 10197915
-0.67462432 0.11193974 3.602638 10197915
-0.62523323 0.11191511 3.6018453 10197915
-0.574368 0.11188971 3.6010275 10197915
-0.52950585 0.1118673 3.6003075 10197915
0.71483904 0.10512258 3.624896 794430
0.73625737 -1.6516044 3.6947255 2039583
1.8355223 -1.6517712 3.6962414 4017499
1.8518745 -1.6500186 3.6911781 3491673
0.73243231 -1.6235503 3.6823659 2039583
1.8372347 -1.6249527 3.6957488 3885914
1.8750958 -1.6240369 3.6840239 2834003
1.924909 -1.6206758 3.6685965 1979983
1.9669224 -1.6178863 3.6555862 1717325
0.7319811 -1.5752493 3.6808903 2039583
1.8374128 -1.5750628 3.6957667 3622744
1.8757315 -1.5749563 3.6838963 2768211
1.9255064 -1.5749106 3.6684778 1979983
1.9672576 -1.5750242 3.6555438 1585740
0.73196989 -1.5249023 3.6808331 2039583
1.8373709 -1.5250223 3.695852 3622488
1.8758141 -1.5250185 3.6839418 2900053
1.9257233 -1.5248603 3.6684816 2111825
1.9675441 -1.524789 3.6555269 1585740
0.73182964 -1.4753181 3.6803615 2039583
1.8373289 -1.4749792 3.6959374 3491159
1.8756092 -1.4750004 3.6840789 2768468
1.9254962 -1.474893 3.6686254 2046033
1.9686214 -1.4749589 3.6552656 1387849
0.732077 -1.4249794 3.6811395 2039583
1.8375063 -1.4250865 3.6959536 3491673
1.8759204 -1.4249803 3.6840558 2637139
1.9258717 -1.4249225 3.6685822 2046032
1.9686841 -1.424901 3.655319 1585740
0.73180789 -1.3746448 3.6802514 2039583
1.8374636 -1.3750399 3.6960397 3294552
1.8757565 -1.375037 3.6841779 2571346
1.9255774 -1.3749473 3.6687443 2046032
1.968661 -1.3749523 3.6553986 1520205
0.7319262 -1.3250639 3.6806135 2039583
1.8374231 -1.3249906 3.6961262 3228760
1.8758062 -1.3250126 3.6842353 2505554
1.9258531 -1.3248961 3.6687322 1980240
1.968749 -1.3249989 3.655443 1520204
0.73191524 -1.2747257 3.6805589 2039583
1.8376571 -1.2749419 3.6961246 2965846
1.8760245 -1.2749897 3.6842394 2374225
1.9256601 -1.2749177 3.6688633 1782862
1.9687276 -1.275046 3.6555221 1585997
0.73190427 -1.2243885 3.6805038 2039583
1.8375576 -1.2250421 3.6962276 2768981
1.875785 -1.2250369 3.6843867 2177104
1.9258345 -1.2249428 3.6688824 1783118
1.9688567 -1.2249805 3.6555548 1586253
0.73189378 -1.1755781 3.6804507 2039583
1.8379872 -1.1757972 3.6961663 2637139
1.876078 -1.174933 3.6843667 2111569
1.9259019 -1.1750424 3.6689327 1783119
1.9687548 -1.1750257 3.6556594 1454412
0.73188275 -1.1252441 3.6803961 2039583
1.8390557 -1.1249138 3.6959083 2571347
1.875967 -1.1249801 3.6844759 1979984
1.9258425 -1.125059 3.6690247 1717326
1.9689236 -1.1250646 3.6556797 1454412
0.73187178 -1.0749114 3.6803405 2039583
1.8390526 -1.0750828 3.6959829 2505811
1.875957 -1.0750248 3.6845505 1914447
1.9258915 -1.0750014 3.6690819 1651533
1.9688225 -1.0751054 3.6557837 1454155
0.73173237 -1.0253458 3.6798713 2039583
1.8388315 -1.0252401 3.6961246 2374739
1.8760473 -1.0249171 3.6845953 1914190
1.9258978 -1.0250102 3.6691518 1519434
1.9690412 -1.0250341 3.655787 1190471
0.73197979 -0.97501165 3.6806509 2039583
1.83922 -0.97474188 3.6960773 2177105
1.8761482 -0.97511566 3.6846366 1848911
1.9259744 -0.97495151 3.6692009 1322056
1.9688376 -0.97507012 3.6559222 1190471
0.73171097 -0.92469984 3.6797638 2039583
1.8390727 -0.92489839 3.6961937 1979727
1.8760936 -0.92508024 3.6847246 1717326
1.9261481 -0.92503631 3.6692193 1322056
1.9691683 -0.92499775 3.6558928 1256264
0.73182917 -0.87512761 3.6801264 2039583
1.8390992 -0.8835662 3.696245 1782862
1.8761842 -0.88315266 3.6847577 1651533
1.9260423 -0.8835305 3.6693118 1321800
1.9690173 -0.88324976 3.6559994 1190471
0.73181838 -0.82480252 3.6800716 2039583
0.73180747 -0.77447867 3.6800168 2571088
0.73166758 -0.72490919 3.6795459 2505041
0.7319147 -0.67460823 3.6803238 2571604
0.73177493 -0.6250416 3.6798534 2506069
0.73163515 -0.57549328 3.679383 2243412
0.73188221 -0.52516299 3.6801608 2046034
0.7316134 -0.47487366 3.6792727 2046034
0.73173147 -0.42531002 3.6796355 1915219
0.73172069 -0.3749983 3.6795805 1585999
0.73170978 -0.32468805 3.6795259 1520462
0.73157007 -0.27513638 3.6790552 1520719
0.73181707 -0.22483946 3.6798329 1454927
0.73154831 -0.17453469 3.6789451 1520719
0.73166645 -0.12499209 3.6793077 1586254
0.73165554 -0.074689329 3.6792529 1388875
0.73164457 -0.024388023 3.6791978 1454925
0.73163408 0.024387555 3.6791451 1257033
0.73162317 0.074685879 3.6790905 1058885
-0.81848145 0.11188971 3.6996861 10197915
-0.77541631 0.11186823 3.698976 10197915
-0.72468191 0.11184293 3.6981394 10197915
-0.67397022 0.11181764 3.6973033 10197915
-0.62481737 0.11179313 3.6964927 10197915
-0.57568598 0.11176864 3.695683 10197915
-0.52504182 0.11174338 3.6948476 10197915
-0.47442043 0.11171815 3.6940134 10197915
-0.42535484 0.11169367 3.6932039 10197915
-0.37477869 0.11166845 3.6923702 10197915
-0.3242251 0.11164324 3.6915367 10197915
-0.27522534 0.11161882 3.6907289 10197915
-0.22471692 0.11159363 3.6898959 10197915
-0.17423105 0.11156844 3.6890635 10197915
-0.12529694 0.11154404 3.6882567 5197647
-0.07485614 0.11151889 3.6874254 2039583
-0.024437876 0.11149376 3.686594 2039583
0.024430759 0.11146939 3.6857877 2039583
0.07480406 0.11144426 3.6849575 3355443
0.12515488 0.11141916 3.6841273 10197915
0.17548279 0.11139406 3.6832976 2439761
0.22578827 0.11136898 3.6824682 862019
0.27454761 0.11134467 3.681664 928325
0.3248083 0.1113196 3.6808352 928325
0.37504655 0.11129455 3.6800067 860993
0.42526188 0.1112695 3.6791785 993092
0.47089323 0.11124676 3.6784265 860736
0.73503655 0.10834927 3.6756625 728895
0.76703972 0.11109907 3.6735437 992579
0.74490541 -1.6579157 3.7226448 2039583
1.6806017 -1.6625695 3.7442169 1388876
1.7233529 -1.6597042 3.7309783 2045519
1.7721214 -1.6562364 3.7158756 3359830
1.8108881 -1.6534994 3.7038701 4346204
0.7448982 -1.6255131 3.722609 2039583
1.6814241 -1.6248932 3.7440164 1322827
1.7248906 -1.6250412 3.7305515 2045263
1.7746459 -1.625008 3.7151377 3425880
1.8120297 -1.625033 3.7035568 4346204
0.74488735 -1.5761385 3.7225542 2039583
1.6814762 -1.5748433 3.7440729 1256778
1.7248268 -1.5749245 3.7306435 2111569
1.7747444 -1.5751324 3.7151802 3359831
1.812187 -1.5751082 3.703582 4214620
0.74487597 -1.5252225 3.7224982 2039583
1.681439 -1.5248984 3.7441564 1323083
1.7248002 -1.5249773 3.7307246 2177361
1.7746271 -1.5250975 3.7152886 3294039
1.8120543 -1.5250125 3.7036946 4017243
0.74486476 -1.474308 3.7224419 2039583
1.6814795 -1.475064 3.7442172 1454669
1.724831 -1.4750277 3.7307873 2177362
1.7746049 -1.4749767 3.715368 3228246
1.8120854 -1.4749134 3.7037573 3885657
0.74485278 -1.4249358 3.7223818 2039583
1.6815199 -1.425229 3.7442753 1520718
1.7249668 -1.4249916 3.7308173 2243155
1.7748263 -1.4249351 3.7153711 3096660
1.8122802 -1.4248142 3.7037702 3819865
0.74484164 -1.375567 3.7223265 2039583
1.681524 -1.3751686 3.7443473 1586511
1.7250184 -1.3749547 3.7308743 2243411
1.7748829 -1.3749744 3.7154276 3031125
1.8122015 -1.3748832 3.703867 3623258
0.74483085 -1.3261999 3.7222717 2039583
1.6815468 -1.3249996 3.7444131 1586767
1.7250345 -1.3249153 3.7309422 2046290
1.7747381 -1.3250905 3.715544 2965846
1.8121234 -1.3249478 3.7039628 3491673
0.74481952 -1.2752913 3.7222157 2039583
1.6816776 -1.274829 3.7444453 1454926
1.7250218 -1.2750438 3.7310181 1914705
1.7747432 -1.2750441 3.7156141 2900054
1.8123177 -1.2748454 3.7039771 3359832
0.74480826 -1.2243847 3.7221596 2039583
1.6828363 -1.2249134 3.7441597 1652047
1.7250088 -1.2251712 3.7310941 1783376
1.7749553 -1.2249174 3.7156212 2768469
1.8124212 -1.2249113 3.704015 3162711
0.74479741 -1.175022 3.7221048 2039583
1.682968 -1.1749494 3.7441895 1586768
1.7250245 -1.1751261 3.7311614 1717584
1.7749071 -1.1749501 3.7157085 2702933
1.8128126 -1.1744614 3.7039676 2899797
0.74478644 -1.1256607 3.7220502 2039583
1.6829975 -1.1249728 3.7442532 1389390
1.7252061 -1.124911 3.7311773 1717327
1.774938 -1.125139 3.7157719 2505811
1.8136219 -1.1250399 3.7037866 2702675
0.74477518 -1.0747584 3.7219944 2039583
1.6830645 -1.0749952 3.7443042 1191499
1.7250643 -1.0748624 3.7312934 1849169
1.7748898 -1.0750837 3.7158592 2505811
1.8139125 -1.0747348 3.7037706 2768468
0.74476391 -1.0238578 3.7219381 2039583
1.6831322 -1.025015 3.7443566 1059144
1.7251356 -1.0249829 3.7313447 1717841
1.7750494 -1.0247921 3.7158825 2374483
1.8137484 -1.0250314 3.7038937 2637396
0.744753 -0.97450095 3.7218833 2039583
1.6832129 -0.9749158 3.7444034 1059144
1.7252157 -0.97510147 3.7313914 1717584
1.7749494 -0.97481537 3.7159858 2374483
1.8135836 -0.97532421 3.7040172 2440275
0.74474239 -0.92514592 3.7218299 2039583
1.6832931 -0.9248144 3.7444525 1125193
1.7253336 -0.92521936 3.7314277 1717584
1.7750846 -0.92499858 3.7160161 2045776
1.8139316 -0.9248659 3.7039821 2176848
0.74473208 -0.87579256 3.7217784 2039583
1.6828214 -0.88317358 3.7446582 1191242
1.7250447 -0.88349593 3.7315776 1454413
1.7749786 -0.88336539 3.7161093 1848398
1.8136879 -0.88297492 3.704119 1979983
0.74472082 -0.82489783 3.7217224 2106150
0.74470955 -0.77400452 3.7216659 2636883
0.75348306 -0.76280451 3.7499835 2505812
0.74469858 -0.72465503 3.7216113 2505041
0.75347441 -0.72395676 3.7499397 2439505
0.74468762 -0.67530704 3.7215569 2637141
0.75346315 -0.67423314 3.7498848 2637397
0.74467683 -0.62596029 3.7215025 2440276
0.75345212 -0.62451088 3.7498295 2440276
0.7446655 -0.57507306 3.7214458 2243412
0.75344104 -0.57479012 3.7497742 2243412
0.74465424 -0.52418739 3.7213902 2046034
0.75342983 -0.52507079 3.7497189 2045778
0.74464345 -0.47484514 3.7213356 2046034
0.75341874 -0.47535294 3.7496638 2046290
0.74463254 -0.42550439 3.7212811 1915219
0.75340766 -0.42563659 3.749608 1915218
0.74462163 -0.37616503 3.7212267 1585999
0.75339657 -0.37592161 3.7495534 1585743
0.74461037 -0.32528538 3.7211707 1520206
0.75338542 -0.3262082 3.7494977 1520206
0.74459928 -0.27440721 3.7211144 1586512
0.75337398 -0.27494273 3.7494409 1586512
0.74458826 -0.22507229 3.7210603 1454670
0.7533626 -0.22367883 3.7493834 1454414
0.74457741 -0.17573881 3.7210057 1520719
0.75335151 -0.17396989 3.7493286 1586511
0.74456614 -0.1248652 3.7209496 1586254
0.75334042 -0.12426238 3.7492733 1586254
0.74455494 -0.073993094 3.7208934 1388619
0.75332928 -0.074556358 3.7492182 1323083
0.74454409 -0.024664043 3.720839 1454925
0.75331819 -0.024851795 3.7491632 1454924
0.74453318 0.024663566 3.7207842 1257290
0.75330698 0.024851304 3.7491076 1322826
0.74452227 0.073989727 3.7207301 1058885
0.7532959 0.074552938 3.749052 1058885
-1.0618036 0.11201105 3.7036982 10197915
-1.02481 0.1119926 3.7030885 10197915
-0.97550297 0.111968 3.7022755 10197915
-0.92467815 0.11194266 3.701437 10197915
-0.87387592 0.11191732 3.7005994 10197915
-0.84309721 0.11190198 3.7000918 10197915
0.74451542 0.10481791 3.720696 926017
0.75328898 0.10561578 3.7490177 926274
0.75895274 -1.6681676 3.7679954 2039583
1.5249406 -1.6734157 3.7924209 2039583
1.5734696 -1.6700637 3.7773941 2039583
1.624297 -1.6665106 3.7616534 2039583
1.6568146 -1.6645865 3.7515831 1582644
0.75813293 -1.6254255 3.7653317 2039583
1.5254983 -1.6249855 3.7923198 2039583
1.5742285 -1.6250172 3.7772245 2039583
1.6248052 -1.6252593 3.7615526 2039583
1.656163 -1.624157 3.7518427 1582386
0.75812161 -1.5754838 3.7652757 2039583
1.5256174 -1.5749228 3.7923553 2039583
1.5743178 -1.5750542 3.7772679 2039583
1.6239467 -1.5749568 3.7618952 2039583
1.6554631 -1.5752846 3.7521312 1647407
0.75811034 -1.5255443 3.7652202 2039583
1.5256327 -1.5249501 3.7924228 2039583
1.5742816 -1.5250913 3.7773519 2039583
1.6239973 -1.5250233 3.761951 2039583
1.6555253 -1.5249492 3.7521844 1647920
0.7580992 -1.4756061 3.7651637 2039583
1.5256791 -1.4750675 3.7924802 2039583
1.574308 -1.4750391 3.7774162 2039583
1.6239401 -1.4750025 3.7620411 2039583
1.6555873 -1.4746132 3.7522383 1647664
0.75795269 -1.4248927 3.7646716 2039583
1.525633 -1.4250906 3.7925665 2039583
1.5744072 -1.4250728 3.7774608 2039583
1.6240618 -1.4249797 3.7620773 2039583
1.6556498 -1.4242748 3.7522914 1647150
0.75807619 -1.3741796 3.7650509 2039583
1.5256581 -1.3749273 3.7926321 2039583
1.5743624 -1.3751035 3.7775433 2039583
1.6240563 -1.3750411 3.762152 2039583
1.6556103 -1.374235 3.752377 1713456
0.75806445 -1.3242446 3.764992 2039583
1.5256953 -1.3247623 3.7926927 2039583
1.574471 -1.3251336 3.7775841 2039583
1.6241266 -1.3251017 3.7622032 2039583
1.655638 -1.3245114 3.7524402 1713456
0.75805318 -1.2743126 3.7649357 2039583
1.5257314 -1.2746878 3.7927544 2039583
1.5744154 -1.2751614 3.7776709 2039583
1.6241119 -1.2749875 3.7622786 2039583
1.655666 -1.2747864 3.7525029 1713456
0.75804168 -1.2243813 3.7648787 2039583
1.5256847 -1.2247024 3.7928407 2039583
1.5744433 -1.2251008 3.7777371 2039583
1.6241386 -1.2249575 3.7623417 2039583
1.6569892 -1.2246828 3.752166 1780022
0.75803041 -1.1744522 3.7648227 2039583
1.5257828 -1.1749036 3.7928827 2039583
1.5744543 -1.1751263 3.7778053 2039583
1.6242287 -1.1750134 3.7623849 2039583
1.6570889 -1.1751976 3.7522066 1780278
0.75801921 -1.1245245 3.7647672 2039583
1.5258504 -1.1250104 3.7929349 2039583
1.5744958 -1.1251488 3.7778642 2039583
1.6242224 -1.1248941 3.7624595 2039583
1.6571172 -1.1254728 3.752269 1648693
0.75800788 -1.0745982 3.7647114 2039583
1.5258243 -1.0750228 3.793014 2039583
1.5745231 -1.0750828 3.7779286 2039583
1.6243029 -1.0747734 3.7625058 2039583
1.6571447 -1.0757464 3.7523327 1517108
0.75799668 -1.0246735 3.7646551 2039583
1.526913 -1.0253575 3.7927485 2039583
1.574549 -1.0250154 3.7779956 2039583
1.6242499 -1.0248226 3.7625978 2039583
1.6571026 -1.0257518 3.7524185 1516851
0.75798565 -0.97475004 3.7645996 2039583
1.527226 -0.97507387 3.7927253 2039583
1.5745708 -0.97503334 3.7780592 2039583
1.6242443 -0.97487116 3.7626708 2039583
1.6571586 -0.97550625 3.7524741 1516851
0.75797421 -0.92482829 3.7645442 2039583
1.5272635 -0.92500478 3.7927856 2039583
1.5746026 -0.92504966 3.7781191 2039583
1.6243048 -0.92491722 3.7627249 2039583
1.65723 -0.92500228 3.7525246 1582388
0.75796318 -0.87490797 3.7644885 2039583
1.5274105 -0.88327968 3.7928007 2039583
1.5748838 -0.88332039 3.7780933 2039583
1.6246001 -0.88335723 3.7626934 2039583
1.6574291 -0.88357854 3.7525239 1582901
0.75767386 -0.82499355 3.7635365 2238511
0.75968593 -0.77988964 3.7700143 2505554
0.76238602 -0.72638023 3.7787101 2505041
0.7623747 -0.67627501 3.7786539 2637396
0.76236343 -0.62617117 3.7785981 2440533
0.76235205 -0.57606894 3.7785418 2243155
0.76234078 -0.52596819 3.7784853 1980241
0.7623294 -0.47586897 3.7784297 2046290
0.76231796 -0.42577118 3.7783735 1980754
0.76230669 -0.37567484 3.7783172 1585999
0.76229542 -0.32558006 3.7782612 1454669
0.76228416 -0.27548674 3.7782049 1586512
0.76227283 -0.2253949 3.7781487 1454414
0.76226151 -0.17530453 3.7780924 1586511
0.76225013 -0.12521569 3.7780368 1586254
0.76223886 -0.075128324 3.7779806 1323083
0.76222748 -0.025042446 3.7779243 1389388
0.76221615 0.025041949 3.7778685 1257290
0.76220495 0.07512486 3.777812 993349
-0.82327396 0.11176365 3.7996171 10197915
-0.77430689 0.11173926 3.7987883 10197915
-0.72378242 0.1117141 3.7979324 10197915
-0.67485851 0.11168973 3.7971039 10197915
-0.62595618 0.11166538 3.7962761 10197915
-0.57549858 0.11164025 3.7954218 10197915
-0.52506363 0.11161513 3.7945676 10197915
-0.47465146 0.11159001 3.793714 10197915
-0.4242619 0.11156492 3.792861 10197915
-0.37389502 0.11153984 3.7920079 10197915
-0.32512361 0.11151554 3.7911823 10197915
-0.27637365 0.11149126 3.7903569 10197915
-0.22607322 0.1114662 3.7895048 10197915
-0.17579544 0.11144117 3.7886536 10197915
-0.12554023 0.11141612 3.7878025 4671303
-0.0753076 0.11139111 3.7869518 2039583
-0.025097521 0.11136611 3.7861018 2039583
0.025090018 0.11134112 3.7852521 2039583
0.075255036 0.11131613 3.7844028 2368548
0.12539753 0.11129115 3.7835531 9145227
0.17551756 0.11126619 3.7827051 3162968
0.22561505 0.11124122 3.7818561 862019
0.27569017 0.11121628 3.781008 928068
0.32574275 0.11119134 3.7801607 928582
0.37577292 0.11116644 3.7793136 861250
0.42578068 0.11114151 3.7784665 992579
0.47576609 0.11111663 3.7776203 992835
0.50231278 0.11110345 3.7771721 663100
0.77656567 0.10982061 3.7734661 926786
0.8032409 0.11095351 3.7720749 1058628
0.77953815 -1.7072541 3.8344634 2039583
1.3454745 -1.7105392 3.8479631 2039583
1.3744965 -1.7088103 3.838974 2039583
1.4228396 -1.7054852 3.8240047 2039583
1.4673851 -1.7022803 3.81021 2039583
0.77609986 -1.6752495 3.8233514 2039583
1.3453985 -1.6746774 3.8480392 2039583
1.3754809 -1.6749791 3.8387196 2039583
1.4254255 -1.6750771 3.8232481 2039583
1.4749827 -1.6749984 3.8078957 2039583
1.5003209 -1.6750699 3.8000464 2039583
0.77623647 -1.6253067 3.8237731 2039583
1.3456064 -1.6253119 3.8480461 2039583
1.3755894 -1.6249576 3.8387592 2039583
1.4255635 -1.6250348 3.8232782 2039583
1.4750814 -1.6250074 3.8079376 2039583
1.5003467 -1.6247194 3.8001113 2039583
0.77622491 -1.5745904 3.8237157 2039583
1.3455361 -1.5751076 3.8481402 2039583
1.3757514 -1.5750293 3.8387799 2039583
1.4256129 -1.5749917 3.8233342 2039583
1.4750851 -1.5750159 3.8080091 2039583
1.5003724 -1.5743675 3.8001764 2039583
0.77606511 -1.5246594 3.8231807 2039583
1.3454909 -1.5245063 3.8482277 2039583
1.3757532 -1.5250056 3.8388517 2039583
1.4257165 -1.5250347 3.8233745 2039583
1.4752156 -1.5250225 3.8080411 2039583
1.5003982 -1.5240136 3.8002412 2039583
0.77620173 -1.4747535 3.8236024 2039583
1.3456523 -1.4751303 3.8482492 2039583
1.3756062 -1.474884 3.8389709 2039583
1.4255362 -1.4749867 3.8235035 2039583
1.4750943 -1.4750271 3.8081508 2039583
1.5004238 -1.4736583 3.8003066 2039583
0.77633852 -1.4248304 3.8240244 2039583
1.3456049 -1.4253217 3.8483357 2039583
1.3757257 -1.4250449 3.8390057 2039583
1.4255459 -1.4249382 3.8235719 2039583
1.47514 -1.4248434 3.8082094 2039583
1.5004485 -1.4248749 3.800369 2039583
0.77617872 -1.37491 3.8234892 2039583
1.3455597 -1.3747143 3.8484235 2039583
1.375855 -1.3751118 3.8390379 2039583
1.4256495 -1.374976 3.8236127 2039583
1.4750491 -1.3748431 3.8083105 2039583
1.5004734 -1.3760898 3.800432 2039583
0.77601898 -1.3250091 3.8229537 2039583
1.3457214 -1.3253349 3.8484447 2039583
1.3757719 -1.3248922 3.8391359 2039583
1.4258395 -1.3251022 3.8236256 2039583
1.4752101 -1.325029 3.8083324 2039583
1.500499 -1.3257294 3.8004971 2039583
0.77615577 -1.2750845 3.8233752 2039583
1.3456732 -1.2755204 3.8485322 2039583
1.3757318 -1.2747624 3.8392196 2039583
1.4256778 -1.2750484 3.8237484 2039583
1.4752146 -1.2750283 3.8084025 2039583
1.5005244 -1.2753673 3.8005619 2039583
0.77614397 -1.2243787 3.8233182 2039583
1.3442582 -1.2246625 3.8490438 2039583
1.3744619 -1.2249615 3.8396862 2039583
1.4257672 -1.2248151 3.8237929 2039583
1.4753132 -1.2251194 3.8084452 2039583
1.5005503 -1.2250032 3.8006268 2039583
0.77598411 -1.1744504 3.822782 2039583
1.3448095 -1.1775489 3.8489408 2039583
1.374418 -1.175052 3.8397715 2039583
1.4256562 -1.1749332 3.8239007 2039583
1.4752232 -1.1752043 3.8085444 2039583
1.5005758 -1.1746374 3.8006921 2039583
0.77626878 -1.1253637 3.8236806 2039583
1.3457423 -1.1257039 3.8487275 2039583
1.3744714 -1.1248697 3.8398283 2039583
1.4258106 -1.1251411 3.8239238 2039583
1.4752795 -1.1250107 3.8086009 2039583
1.5006016 -1.1242701 3.8007567 2039583
0.77610886 -1.0754383 3.8231449 2039583
1.3457656 -1.0746992 3.8487935 2039583
1.3744301 -1.074953 3.8399136 2039583
1.4258046 -1.0751706 3.8239992 2039583
1.4753357 -1.074816 3.8086553 2039583
1.5006272 -1.0739011 3.800822 2039583
0.77609676 -1.024738 3.8230853 2039583
1.3457881 -1.0252864 3.8488579 2039583
1.374503 -1.02513 3.839962 2039583
1.4258186 -1.025018 3.8240671 2039583
1.4754548 -1.0248028 3.8086903 2039583
1.5019 -1.0229018 3.8005009 2039583
0.77593714 -0.97484082 3.8225498 2039583
1.3458108 -0.97587228 3.8489227 2039583
1.3744615 -0.97503197 3.8400476 2039583
1.4259635 -0.97486436 3.8240941 2039583
1.4753335 -0.97497785 3.8088002 2039583
1.5020797 -0.97619444 3.8005133 2039583
0.77607381 -0.92493373 3.8229721 2039583
1.3458343 -0.92486227 3.8489892 2039583
1.3746456 -0.92484498 3.840065 2039583
1.4259028 -0.9249751 3.8241851 2039583
1.4753479 -0.92515153 3.8088679 2039583
1.5021055 -0.92582595 3.8005781 2039583
0.77606219 -0.87423861 3.8229148 2039583
1.3458529 -0.8834154 3.8490436 2039583
1.3743836 -0.88323164 3.8402047 2039583
1.4247165 -0.88358188 3.8246131 2039583
1.4743191 -0.88317764 3.8092465 2039583
1.5021271 -0.88332635 3.8006327 2039583
0.77605093 -0.82512921 3.8228583 2371645
0.77603942 -0.77602118 3.8228028 2505298
0.77602816 -0.72533077 3.8227468 2571091
0.77601683 -0.67464191 3.8226912 2571604
0.77585727 -0.62474799 3.8221574 2506069
0.77599406 -0.57485843 3.8225791 2177619
0.77598244 -0.52417368 3.8225214 1980241
0.77597117 -0.47507444 3.8224661 2046547
0.77595973 -0.42597663 3.8224106 1914962
0.77594817 -0.37529647 3.8223526 1585999
0.77593642 -0.32461783 3.8222957 1388877
0.77577692 -0.27472675 3.8217602 1586768
0.77591348 -0.22485484 3.8221827 1454414
0.77605021 -0.17496581 3.8226042 1520975
0.77589065 -0.12508552 3.8220689 1520462
0.77573097 -0.075225294 3.8215344 1322827
0.7758677 -0.025334317 3.8219559 1323083
0.77585596 0.025333811 3.8218987 1125704
0.77569622 0.075221807 3.8213644 1058885
-1.1016867 0.11190237 3.8043332 10197915
-1.074765 0.11188894 3.8038759 10197915
-1.0241051 0.11186369 3.8030179 10197915
-0.97505015 0.11183927 3.8021879 10197915
-0.92601669 0.11181483 3.8013568 10197915
-0.87542397 0.11178964 3.8005004 10197915
-0.84855491 0.11177626 3.8000455 10197915
0.77649385 0.10523359 3.8239267 1058372
0.79572272 -1.7191648 3.886714 2039583
1.1879377 -1.7217019 3.8967497 2039583
1.2241031 -1.719221 3.8855488 2039583
1.2736337 -1.7158186 3.8702104 2039583
1.3186784 -1.712775 3.856261 2039583
0.79492205 -1.6750907 3.8841116 2039583
1.1883656 -1.6749138 3.8966846 2039583
1.2251531 -1.6749872 3.8852882 2039583
1.2747023 -1.6750512 3.8699384 2039583
1.3196404 -1.6751093 3.8560174 2039583
0.79491025 -1.6251831 3.8840539 2039583
1.1888943 -1.6256967 3.8965917 2039583
1.2247739 -1.6250216 3.8854787 2039583
1.2744827 -1.6250004 3.8700781 2039583
1.3194925 -1.6249262 3.8561363 2039583
0.79489845 -1.575277 3.8839962 2039583
1.1898538 -1.5748107 3.8963666 2039583
1.2251498 -1.5750543 3.8854332 2039583
1.2747779 -1.5749484 3.87006 2039583
1.3195409 -1.5749726 3.8561928 2039583
0.79488665 -1.5253726 3.8839388 2039583
1.1895479 -1.5247842 3.8965361 2039583
1.2248272 -1.5249873 3.8856063 2039583
1.2746027 -1.5249859 3.8701878 2039583
1.3197021 -1.5251371 3.8562162 2039583
0.79472166 -1.4746621 3.8833864 2039583
1.1898942 -1.4747791 3.8964999 2039583
1.2251925 -1.4750187 3.8855665 2039583
1.2747114 -1.4750242 3.8702254 2039583
1.3196841 -1.474946 3.8562939 2039583
0.79501581 -1.4247658 3.8843164 2039583
1.1896142 -1.4249786 3.8966599 2039583
1.224924 -1.4250432 3.8857205 2039583
1.274799 -1.4249682 3.8702714 2039583
1.3196079 -1.4248737 3.8563902 2039583
0.7946983 -1.3748733 3.8832715 2039583
1.1899065 -1.3749702 3.8966403 2039583
1.2251896 -1.3750705 3.8857107 2039583
1.2746017 -1.374903 3.8704038 2039583
1.3196503 -1.3750329 3.8564489 2039583
0.79499227 -1.3249546 3.8842018 2039583
1.1896548 -1.3249345 3.8967919 2039583
1.2249882 -1.3249971 3.8858454 2039583
1.2748764 -1.3250365 3.8703923 2039583
1.3197515 -1.3248376 3.8564901 2039583
0.79467475 -1.2750903 3.8831568 2039583
1.1899467 -1.274925 3.8967736 2039583
1.225131 -1.274924 3.8858745 2039583
1.2747872 -1.2748756 3.870491 2039583
1.3197619 -1.274874 3.8565593 2039583
0.79481566 -1.2243735 3.8835917 2039583
1.1896949 -1.2248836 3.896925 2039583
1.2251728 -1.2249471 3.8859334 2039583
1.2747316 -1.2249032 3.8705802 2039583
1.3196318 -1.2250257 3.856672 2039583
0.79480392 -1.1744794 3.883534 2039583
1.1899869 -1.1748728 3.8969049 2039583
1.2251276 -1.1749606 3.8860197 2039583
1.2748306 -1.1750298 3.8706224 2039583
1.3206208 -1.174348 3.8564391 2039583
0.79463923 -1.1253815 3.8829837 2039583
1.1897897 -1.1250601 3.8970401 2039583
1.2251484 -1.1249834 3.8860857 2039583
1.2748966 -1.1249539 3.8706746 2039583
1.3211762 -1.1248368 3.8563387 2039583
0.79493344 -1.0755105 3.883914 2039583
1.189973 -1.0750411 3.8970537 2039583
1.2252479 -1.0749911 3.8861277 2039583
1.2747971 -1.0750816 3.8707783 2039583
1.3211858 -1.0750085 3.8564084 2039583
0.79461581 -1.0256131 3.8828688 2039583
1.1898299 -1.0249964 3.8971708 2039583
1.2251236 -1.0250111 3.8862379 2039583
1.2749281 -1.0249101 3.8708103 2039583
1.3215156 -1.0249637 3.8563776 2039583
0.79475671 -0.97492391 3.8833041 2039583
1.1900132 -0.97497469 3.8971875 2039583
1.2253673 -0.9750163 3.8862348 2039583
1.27494 -0.97493207 3.8708789 2039583
1.3210704 -0.97502911 3.8565888 2039583
0.79474473 -0.92503715 3.8832448 2039583
1.1910959 -0.92570412 3.8969238 2039583
1.2250981 -0.92503196 3.8863902 2039583
1.2748177 -0.92504621 3.8709881 2039583
1.3213143 -0.92508781 3.8565841 2039583
0.79473287 -0.87515169 3.8831873 2039583
1.1913328 -0.88334882 3.8969109 2039583
1.2255118 -0.88336802 3.8863225 2039583
1.2750839 -0.88336104 3.8709662 2039583
1.3214619 -0.88334721 3.8565989 2039583
0.79472083 -0.82526785 3.8831291 2570315
0.79470921 -0.77538562 3.8830712 2505297
0.79454422 -0.72468919 3.8825197 2637140
0.79483831 -0.67483217 3.8834488 2637141
0.79452074 -0.62494493 3.8824048 2440533
0.79481483 -0.57506549 3.8833349 2177876
0.79449761 -0.52520674 3.8822916 1980241
0.79463869 -0.47452122 3.8827279 2046291
0.79462695 -0.42464927 3.8826702 1849169
0.79461521 -0.3747789 3.8826125 1585999
0.79460359 -0.32490999 3.8825552 1454157
0.79459167 -0.27504253 3.8824975 1586769
0.7944268 -0.22437286 3.8819456 1388877
0.79472095 -0.17450722 3.8828752 1586511
0.79440337 -0.12465806 3.8818312 1520461
0.7946974 -0.074769989 3.8827605 1190728
0.79437995 -0.024949139 3.8817165 1059655
0.79436821 0.024948644 3.8816588 993863
0.79466224 0.074766554 3.8825881 1058886
-0.51860869 0.11147652 3.8997068 10197915
-0.47489533 0.11145481 3.8989463 10197915
-0.42472619 0.11142982 3.8980734 10197915
-0.37457973 0.11140488 3.8972001 10197915
-0.32445553 0.11137996 3.8963284 10197915
-0.27435395 0.11135501 3.8954561 10197915
-0.22427456 0.11133011 3.8945847 10197915
-0.17421782 0.11130521 3.8937132 10197915
-0.12418326 0.1112803 3.8928425 3750201
-0.075784095 0.11125624 3.8920004 2039583
-0.02579377 0.11123137 3.8911304 2039583
0.025785843 0.11120571 3.890233 2039583
0.075731032 0.11118087 3.8893638 2368548
0.12565365 0.11115602 3.888495 7105644
0.17555425 0.1111312 3.8876266 3886432
0.22543226 0.1111064 3.8867586 862019
0.27528828 0.11108159 3.8858905 927812
0.32512185 0.1110568 3.8850236 928069
0.37493333 0.11103201 3.8841562 927300
0.42472234 0.11100724 3.8832898 993092
0.47448951 0.1109825 3.8824241 992836
0.50819069 0.11096571 3.8818371 860994
0.79444951 0.10660139 3.879195 1058372
0.81423783 0.11081348 3.8765111 992835
0.80931884 -1.7537956 3.9306183 2039583
1.0318811 -1.7575556 3.9450402 2039583
1.0717192 -1.7547246 3.9327037 2039583
1.1119659 -1.7518712 3.9202397 2039583
0.80931187 -1.7244693 3.930584 2039583
1.0328295 -1.725112 3.9447944 2039583
1.0750647 -1.7250669 3.9317102 2039583
1.1243494 -1.7249378 3.9164417 2039583
1.1628034 -1.7234362 3.9045312 2039583
0.80930012 -1.675593 3.930527 2039583
1.0338686 -1.6754022 3.9445448 2039583
1.0752355 -1.6751107 3.9317296 2039583
1.1245275 -1.6748587 3.9164596 2039583
1.1632618 -1.6749308 3.9044607 2039583
0.80928797 -1.6250893 3.9304678 2039583
1.0343481 -1.6247803 3.9444675 2039583
1.0748876 -1.6250477 3.9319098 2039583
1.1242955 -1.6249688 3.9166033 2039583
1.1638629 -1.6243747 3.9043498 2039583
0.80927575 -1.574587 3.9304087 2039583
1.0344739 -1.5750369 3.9445016 2039583
1.0752044 -1.5748858 3.9318831 2039583
1.1245999 -1.5750774 3.9165826 2039583
1.1646447 -1.5750842 3.9041772 2039583
0.80926406 -1.5257151 3.9303517 2039583
