# .PCD v0.7 - Point Cloud Data file format
VERSION 0.7
FIELDS x y z rgb
SIZE 4 4 4 4
TYPE F F F U
COUNT 1 1 1 1
WIDTH 1164
HEIGHT 1
VIEWPOINT 0 0 0 1 0 0 0
POINTS 1164
DATA ascii
0.67531389 0.10091455 2.1746693 10197915
0.72516298 0.10089217 2.1745405 10197915
0.77545446 0.10087161 2.1740971 10197915
0.8261556 0.10078605 2.1729107 10197915
0.87192893 0.1007861 2.1587174 10197915
0.72802609 -1.0022701 2.2449567 6447714
0.73519731 -0.97499043 2.2408381 6447714
0.77393198 -0.97109729 2.2176445 6447714
0.80155402 -0.96751881 2.2011099 6447714
0.7350446 -0.92560112 2.2412579 6447714
0.77469105 -0.92488712 2.2174969 6447714
0.80162013 -0.92505783 2.2013519 6447714
0.73540998 -0.87502217 2.2413747 6447714
0.77456903 -0.87504524 2.2178996 6447714
0.80175567 -0.87501246 2.2016032 6447714
0.73553658 -0.82498151 2.2416306 6447714
0.7746892 -0.82500184 2.2181597 6447714
0.8024736 -0.82413989 2.20151 6447714
0.73559242 -0.77492827 2.2419291 6447714
0.77473694 -0.77497274 2.2184627 6447714
0.80271149 -0.77486688 2.2016947 6447714
0.7364952 -0.72500378 2.2417192 6447714
0.77491015 -0.72495914 2.2186913 6447714
0.80276257 -0.72501165 2.2019942 6447714
-1.2054557 -0.65532053 2.2468741 6566193
-1.1753911 -0.65555668 2.2288043 6566193
-1.1388607 -0.65549487 2.2068501 6566193
0.73655134 -0.67504591 2.2420168 6447714
0.77493596 -0.67498791 2.2190065 6447714
0.80334836 -0.67367947 2.2019839 6447714
-1.2041601 -0.63023788 2.2462544 6566193
-1.1734341 -0.62630653 2.2278137 6566193
-1.1381805 -0.62509102 2.2066338 6566193
0.73665303 -0.62501967 2.2422872 6447714
0.77511704 -0.62497801 2.2192307 6447714
0.80375183 -0.62510502 2.2020643 6447714
-1.1573377 -0.59800124 2.2183194 6566193
-1.13668 -0.59475458 2.2059245 6566193
0.73718274 -0.57534611 2.2422996 6447714
0.77511865 -0.57498252 2.2195616 6447714
0.80379659 -0.57517785 2.202369 6447714
0.73761958 -0.52493584 2.2423725 6447714
0.77525967 -0.52497506 2.2198091 6447714
0.80417979 -0.52413261 2.2024777 6447714
0.73772472 -0.47506168 2.24264 6447714
0.77537137 -0.4749833 2.2200732 6447714
0.80473953 -0.47507727 2.2024679 6447714
0.73797703 -0.42543963 2.2428181 6447714
0.77544445 -0.42500603 2.2203617 6447714
0.80491167 -0.42495102 2.2026963 6447714
0.73865438 -0.37506217 2.2427461 6447714
0.77557766 -0.37496164 2.2206144 6447714
0.80497462 -0.37510765 2.2029898 6447714
0.73873806 -0.32499075 2.2430282 6447714
0.77559239 -0.32496077 2.2209356 6447714
0.80577636 -0.32488906 2.2028427 6447714
-1.4614043 -0.29841098 2.2167299 2039583
-1.424853 -0.29846478 2.2234688 2040874
-1.3747241 -0.2984826 2.2235937 2644618
-1.3266445 -0.29849079 2.2222829 1720165
-1.2943804 -0.29840648 2.2067811 1323341
-1.1080796 -0.29847145 2.207068 3104654
-1.0952333 -0.29845107 2.2030432 1717326
0.73883331 -0.27496845 2.2433033 6513507
0.77574182 -0.27494639 2.2211773 6513507
0.80594593 -0.27485856 2.2030725 6513507
0.7396211 -0.22519447 2.2431607 6513507
0.77527839 -0.22507483 2.2217875 6513507
0.80538929 -0.22442509 2.2037408 6513507
0.73986328 -0.17526123 2.2433481 6513507
0.77510607 -0.17497538 2.2222216 6513507
0.8059324 -0.17418894 2.2037485 6513507
0.73986089 -0.12554497 2.2436793 6447714
0.77522188 -0.12487932 2.2224867 6447714
0.80621886 -0.12508745 2.2039034 6447714
0.73956251 -0.075810395 2.2441874 6447714
0.77469391 -0.074801922 2.2231343 6447714
0.80631888 -0.074878894 2.2041757 6447714
0.7400738 -0.025102807 2.2442174 6447714
0.77463555 -0.024871079 2.2235014 6447714
0.80671555 -0.024043608 2.2042754 6447714
0.74016577 0.025106952 2.2444956 6447714
0.77472985 0.024875147 2.2237737 6447714
0.80726463 0.024656966 2.2042696 6447714
0.74036396 0.075058952 2.2447085 6908265
0.77496302 0.074802436 2.2239664 6842472
0.80736512 0.074892409 2.2045422 6908265
-1.503406 0.10146827 2.2469912 10132122
-1.4719329 0.10154276 2.2329659 10066329
-1.4249363 0.10155134 2.2281797 9015448
-1.3748012 0.10153094 2.2277184 2775691
-1.3272201 0.10152091 2.2258141 1324380
-1.2943689 0.10160887 2.2095623 1125704
-1.1122248 0.10137649 2.2328053 1258332
-1.0920931 0.10152624 2.2077651 993605
-1.0154685 0.10134939 2.2299891 1788024
-0.9749583 0.10136558 2.2244723 1651533
-0.9380601 0.10139465 2.2171981 7962501
-0.82523108 0.10130446 2.2231314 10197915
-0.75268382 0.10116219 2.2402129 1059655
-0.72322446 0.1012562 2.2232604 1257810
-0.6746524 0.101243 2.2217822 5661295
-0.62482208 0.10122266 2.2213356 10132122
-0.5750196 0.10120653 2.2202334 10000536
-0.52523637 0.10118203 2.220444 10000536
-0.48264006 0.10117649 2.2181976 10000536
-0.31125158 0.10108002 2.2208359 1059141
-0.2752175 0.10108202 2.2178824 6121331
-0.22860481 0.10103539 2.2218077 10000536
-0.17500208 0.10092665 2.2349973 10000536
-0.12497648 0.10090626 2.2345455 10000536
-0.074971072 0.10088588 2.2340944 10000536
-0.02498587 0.10086549 2.2336431 10000536
0.024979148 0.10084511 2.233192 10132122
0.074923985 0.10082477 2.2327409 10197915
0.12484865 0.1008044 2.23229 10197915
0.1747532 0.10078406 2.2318394 10197915
0.22463754 0.10076374 2.2313888 10197915
0.2745018 0.10074338 2.2309387 10197915
0.32434592 0.10072306 2.230489 10197915
0.3750923 0.10070237 2.2300303 10197915
0.425818 0.10068169 2.2295725 10197915
0.47560117 0.1006614 2.2291231 10197915
0.5253641 0.1006411 2.2286737 10197915
0.57510716 0.10062083 2.2282245 10197915
0.62483013 0.10060055 2.2277758 10197915
0.67453295 0.10058028 2.2273266 10197915
0.72513568 0.10055967 2.2268701 10197915
0.7718417 0.10039736 2.2232759 10197915
0.64286709 -1.0135819 2.2959309 6447714
0.67217714 -1.009688 2.2783861 6447714
0.70935726 -1.0046647 2.2561324 6447714
0.64303488 -0.97502095 2.2960868 6447714
0.6748355 -0.97517872 2.2770209 6447714
0.70976841 -0.97443044 2.2560861 6447714
0.64309889 -0.92495656 2.29638 6447714
0.67459375 -0.92499679 2.2774994 6447714
0.70982653 -0.92459655 2.2563818 6447714
0.64381081 -0.87549663 2.2962813 6447714
0.67478156 -0.87500757 2.277719 6447714
0.7104457 -0.87508523 2.2563398 6447714
0.6440801 -0.8249917 2.2964556 6447714
0.67476988 -0.82497311 2.2780588 6447714
0.71052343 -0.82504368 2.2566249 6447714
0.64419502 -0.77507013 2.2967172 6447714
0.67487532 -0.77495795 2.2783267 6447714
0.71059215 -0.77498895 2.2569156 6447714
0.64447838 -0.72587323 2.2968729 6447714
0.67495418 -0.72499067 2.27861 6447714
0.71149689 -0.72488135 2.2567062 6447714
-1.272557 -0.65565163 2.2871997 1585741
-1.2303841 -0.65568471 2.2618532 2957615
0.64512265 -0.67495912 2.2968247 6447714
0.67503399 -0.67498195 2.2788951 6447714
0.71157694 -0.67497766 2.2569885 6447714
-1.2682459 -0.64063925 2.2847044 1454155
-1.2280488 -0.63455898 2.2605841 3219499
0.64524347 -0.62492281 2.2970848 6447714
0.67513162 -0.6249904 2.2791679 6447714
0.71163321 -0.62506127 2.2572863 6447714
0.6453287 -0.57503235 2.2973642 6447714
0.67519689 -0.57501733 2.2794602 6447714
0.71220797 -0.57467926 2.2572756 6447714
-1.2805411 -0.5124734 2.2929072 1322056
0.64602751 -0.52578658 2.2972727 6447714
0.67531735 -0.52497071 2.2797198 6447714
0.71264035 -0.52505392 2.2573459 6447714
-1.553498 -0.4686211 2.2990813 2039583
-1.2806011 -0.49114561 2.2930791 1256264
0.64627761 -0.47495231 2.2974601 6447714
0.67538983 -0.47494176 2.2800074 6447714
0.71271414 -0.47496322 2.2576334 6447714
0.64638251 -0.42475286 2.2977307 6447714
0.6754474 -0.42499232 2.280304 6447714
0.71298295 -0.42460421 2.2578073 6447714
0.6467362 -0.3763957 2.2978384 6447714
0.67555165 -0.37500077 2.2805753 6447714
0.71368635 -0.37496349 2.2577147 6447714
0.64730829 -0.32532671 2.2978344 6447714
0.67561495 -0.32499549 2.2808678 6447714
0.71372896 -0.32504618 2.2580206 6447714
-1.4206884 -0.29877037 2.2729499 2510453
-1.3752303 -0.2987999 2.2752595 2248830
-1.3382325 -0.29878509 2.2707961 1257548
0.64743507 -0.27491701 2.2980933 6447714
0.67571294 -0.27503932 2.2811408 6447714
0.71382403 -0.27500424 2.2582946 6513507
0.64749265 -0.22471777 2.2983918 6513507
0.67581785 -0.22494921 2.2814114 6513507
0.71474707 -0.22495377 2.2580738 6513507
0.6478945 -0.17749324 2.2984648 6447714
0.67524701 -0.17477772 2.2820864 6447714
0.71479201 -0.17496026 2.258379 6513507
0.64763701 -0.12523545 2.2989657 6447714
0.67532033 -0.12514503 2.2823727 6447714
0.71476281 -0.12475962 2.2587295 6447714
0.64774847 -0.074783139 2.2992337 6447714
0.67477065 -0.075149044 2.2830329 6447714
0.71526384 -0.07459598 2.2587614 6447714
0.64810652 -0.028979296 2.2993224 6447714
0.67466217 -0.024876198 2.2834313 6447714
0.71505249 -0.025270559 2.2592161 6447714
0.64870733 0.024767598 2.299319 6447714
0.67473096 0.024849409 2.2837195 6447714
0.71514148 0.025274746 2.2594976 6447714
0.6487866 0.074310847 2.2996001 6842472
0.67445534 0.074996345 2.2842169 6908265
0.71547866 0.075345621 2.2596281 6908265
-1.5157589 0.10123982 2.2838373 10197915
-1.4748321 0.10122317 2.283462 10132122
-1.4244046 0.10120265 2.2829988 4089229
-1.3749485 0.10118253 2.2825451 1589616
-1.3407205 0.10116861 2.2822309 1125704
-1.1336567 0.10108437 2.2803309 1192278
-1.0520656 0.10105119 2.279582 1987210
-1.0255135 0.10104039 2.2793386 1456993
-0.97621572 0.10102033 2.2788861 4675174
-0.85021639 0.10096909 2.2777302 10197915
-0.84453499 0.10096675 2.2776771 10197915
-0.75934911 0.10093209 2.2768955 1059911
-0.72529191 0.10091825 2.2765834 1388882
-0.67516774 0.10089786 2.2761233 8422537
-0.62506413 0.10087748 2.2756634 10197915
-0.57498062 0.10085711 2.2752039 10197915
-0.52491742 0.10083675 2.2747443 10000536
-0.48809054 0.10082176 2.2744067 10000536
-0.31449452 0.10075114 2.2728133 993605
-0.27490389 0.10073504 2.2724504 7501951
-0.22496177 0.10071473 2.2719917 10000536
-0.17503966 0.1006944 2.2715335 10000536
-0.12513784 0.10067412 2.2710757 10000536
-0.075256005 0.10065383 2.2706182 10000536
-0.025394378 0.10063354 2.2701607 10000536
0.025387432 0.10061289 2.2696948 10066329
0.075208634 0.10059262 2.2692373 10197915
0.12500964 0.10057236 2.2687802 10197915
0.1747907 0.10055211 2.2683237 10197915
0.22455165 0.10053185 2.2678668 10197915
0.27523085 0.10051125 2.2674015 10197915
0.3249515 0.10049102 2.2669458 10197915
0.37465191 0.10047081 2.2664897 10197915
0.42526966 0.10045021 2.2660246 10197915
0.47492987 0.10043 2.2655692 10197915
0.52457005 0.10040983 2.2651136 10197915
0.57512635 0.10038924 2.2646496 10197915
0.62648922 0.10035694 2.265456 10197915
0.67524171 0.10034854 2.2637312 10197915
0.71103829 0.1002396 2.2612734 10197915
0.55375499 -1.0500907 2.349108 6447714
0.57559055 -1.0226015 2.3362014 6447714
0.61750782 -1.0170138 2.3111098 6447714
0.57677287 -0.97502929 2.3358083 6447714
0.61845827 -0.97501445 2.3108194 6447714
0.5768165 -0.92496115 2.3361123 6447714
0.61851335 -0.92495573 2.3111196 6447714
0.57771158 -0.87500733 2.3359091 6447714
0.61924148 -0.8747713 2.3110139 6447714
0.57777864 -0.82500428 2.3362002 6447714
0.61948121 -0.82502967 2.3112013 6447714
0.5778957 -0.77502286 2.3364618 6447714
0.61961514 -0.7750026 2.3114524 6447714
0.57830203 -0.72527295 2.3365476 6447714
0.61991525 -0.72475398 2.3116047 6447714
-1.3520039 -0.66004103 2.334919 2374483
-1.3213753 -0.65630537 2.3165355 2308946
-1.2969345 -0.65609592 2.3018477 1848655
0.57883286 -0.67503208 2.3365629 6447714
0.62056047 -0.67502165 2.3115504 6447714
-1.3084002 -0.64723605 2.308795 2045776
-1.2969909 -0.64563429 2.3019481 1782862
0.57894719 -0.62499654 2.3368273 6447714
0.62063605 -0.6250217 2.3118358 6447714
0.57895738 -0.5750519 2.3371518 6447714
0.62067401 -0.57493943 2.312144 6447714
-1.3623998 -0.51266176 2.342103 1585741
-1.3252807 -0.51264679 2.3197944 1782862
-1.2962714 -0.51221263 2.3023629 1651534
0.57899427 -0.52504355 2.337461 6447714
0.62066382 -0.52493 2.3124831 6447714
-1.5517068 -0.46160206 2.3020778 2039583
-1.5436567 -0.4648239 2.3153262 2039583
-1.3623929 -0.49124309 2.3422346 1520205
-1.3255084 -0.49137759 2.3200667 1717069
-1.2963847 -0.49127108 2.3025637 1651534
0.57914788 -0.47491813 2.3377013 6447714
0.62084389 -0.47504359 2.3127062 6447714
-1.5517616 -0.43491301 2.3021586 2039583
-1.544029 -0.43471488 2.3149045 2039583
0.57926077 -0.42493224 2.3379653 6447714
0.62093264 -0.42505255 2.312983 6447714
0.57955164 -0.37520671 2.3381214 6447714
0.62140155 -0.37479162 2.313035 6447714
-1.5433974 -0.30610076 2.3167679 2039583
0.58018303 -0.32495326 2.3380773 6447714
0.62193185 -0.3249962 2.3130493 6447714
-1.543449 -0.2750783 2.3168814 2039583
-1.408639 -0.29901785 2.3125558 2645393
-1.3769046 -0.2774131 2.3284323 1257292
-1.348828 -0.29899657 2.3057885 1323342
0.58030874 -0.27499762 2.3383327 6447714
0.62195504 -0.27502236 2.3133676 6447714
-1.5435672 -0.2249413 2.3170078 2039583
-1.3768513 -0.22514568 2.3305628 1257290
0.580338 -0.22503094 2.3386464 6447714
0.62204099 -0.22507139 2.3136468 6513507
-1.5436615 -0.17479812 2.3171723 2039583
-1.3770615 -0.17515017 2.3309512 1191241
0.58106273 -0.17510304 2.3385434 6447714
0.62299031 -0.17501359 2.3134105 6447714
-1.5434397 -0.12438546 2.3178608 2039583
-1.3769608 -0.12552175 2.3311665 1059399
0.58133376 -0.125075 2.3387134 6447714
0.62315303 -0.12481699 2.3136446 6447714
-1.543323 -0.075168625 2.3183675 2039583
-1.3761413 -0.075323939 2.3309882 1191497
0.58152461 -0.075322993 2.3389289 6447714
0.62308311 -0.074775785 2.3140204 6447714
-1.5430342 -0.024980601 2.3191655 2039583
-1.3763788 -0.025111809 2.3313887 1191754
0.58173716 -0.025459999 2.3391323 6447714
0.62360936 -0.024709359 2.3140357 6447714
-1.5431347 0.024982782 2.3193178 2039583
-1.3766164 0.025117571 2.331789 1191753
0.58237201 0.025195986 2.3390863 6447714
0.62405801 0.024926772 2.3140962 6447714
-1.543237 0.074952707 2.3194711 4144959
-1.3768011 0.075300939 2.3321626 1191496
0.34173805 0.09999723 2.3434105 10197915
0.37469611 0.099983916 2.3430984 10197915
0.42508677 0.099963509 2.3426204 10197915
0.47545671 0.099943109 2.3421421 10197915
0.52483815 0.099923134 2.3416739 10197915
0.58209002 0.075901076 2.3393323 7039851
0.62413478 0.074788533 2.3143811 6908265
-1.5274961 0.10093679 2.3203733 10197915
-1.4753011 0.10098211 2.3214149 8424086
-1.4250032 0.1009617 2.3209455 2118794
-1.3774768 0.10090449 2.3214157 1192275
-1.1583744 0.10085348 2.3184578 1324642
-1.1448652 0.10084801 2.3183322 1059654
-1.0609471 0.10081396 2.3175495 1986951
-1.0252755 0.10079947 2.3172164 1125707
-0.98383105 0.10078266 2.3168297 2637139
-0.85958171 0.10073223 2.3156703 10197915
-0.76527447 0.10069397 2.3147907 993862
-0.72487932 0.10067756 2.3144135 1717589
-0.67488378 0.10065728 2.3139472 10197915
-0.62490869 0.100637 2.3134811 10197915
-0.57495368 0.10061672 2.3130152 10197915
-0.52501851 0.10059647 2.3125494 10132122
-0.49237889 0.10058322 2.3122451 10000536
-0.31913254 0.1003793 2.3316569 993092
-0.27505386 0.10037097 2.3297398 8750987
-0.22531588 0.10035325 2.3288891 10000536
-0.17509842 0.1003328 2.3284307 10000536
-0.12442568 0.10030992 2.3283224 10000536
-0.07473515 0.10029223 2.3274732 10066329
-0.025070282 0.10026966 2.3273878 10132122
0.025063511 0.10024934 2.3269162 10197915
0.074688375 0.10023167 2.3260672 10197915
0.12429895 0.10020912 2.3259826 10197915
0.17484914 0.10019096 2.3251393 10197915
0.2253795 0.10016815 2.3250318 10197915
0.2749289 0.10015049 2.3241835 10197915
0.3213118 0.10015175 2.3205884 10197915
0.37515 0.10023116 2.3041515 10197915
0.42565578 0.10021066 2.3036804 10197915
0.47518867 0.10019056 2.3032184 10197915
0.5247016 0.10017046 2.3027563 10197915
0.5751462 0.10015 2.3022859 10197915
0.62460923 0.10012837 2.3017886 10197915
0.4832747 -1.0599412 2.3912933 6447714
0.51805228 -1.0552887 2.3704767 6447714
0.55119407 -1.0507751 2.3506389 6447714
0.48435739 -1.0250031 2.3908761 6447714
0.52459866 -1.0250169 2.3667529 6447714
0.55122983 -1.0245472 2.350791 6447714
0.48442537 -0.97501624 2.3911664 6447714
0.5246582 -0.97496158 2.3670483 6447714
0.55129743 -0.9749977 2.3510799 6447714
0.48483226 -0.92541438 2.3912518 6447714
0.52469778 -0.92496216 2.367357 6447714
0.55136514 -0.92543608 2.3513677 6447714
0.48546934 -0.8750599 2.3912036 6447714
0.52477473 -0.87501734 2.3676424 6447714
0.55226618 -0.87438935 2.351167 6447714
0.4854311 -0.82507235 2.3915584 6447714
0.52482289 -0.82502753 2.3679452 6447714
0.55233371 -0.82479638 2.3514543 6447714
0.48551515 -0.7750712 2.391839 6447714
0.52492124 -0.77505726 2.3682172 6447714
0.55244607 -0.77521634 2.351716 6447714
0.48632851 -0.72526276 2.3916824 6447714
0.52495283 -0.72507507 2.3685305 6447714
0.55291694 -0.72308433 2.3517797 6447714
0.48653665 -0.67502099 2.3918915 6447714
0.52504599 -0.67501438 2.3688056 6447714
0.5533812 -0.67471451 2.3518229 6447714
0.48663852 -0.62502271 2.3921618 6447714
0.52510405 -0.62500662 2.3691027 6447714
0.55351603 -0.62510866 2.3520713 6447714
0.48684618 -0.57527077 2.3923671 6447714
0.52517104 -0.57505554 2.3693948 6447714
0.5535512 -0.57499218 2.3523819 6447714
-1.8875163 -0.51004958 2.3878732 2965589
-1.3818488 -0.51253098 2.3537924 1388877
0.48760739 -0.5251286 2.3922436 6447714
0.52520788 -0.52505875 2.3697047 6447714
0.55437821 -0.52448976 2.352222 6447714
-1.8875958 -0.47494712 2.3879375 2834004
-1.3819464 -0.47515327 2.3540888 1323085
0.48765007 -0.47513723 2.39255 6447714
0.52531946 -0.47501501 2.3699703 6447714
0.55458122 -0.47521463 2.3524265 6447714
-1.8877358 -0.42548603 2.3879797 2571604
-1.382163 -0.42529789 2.3545351 1454927
0.48773792 -0.42499453 2.3928292 6447714
0.52531904 -0.42499226 2.3703024 6447714
0.55461013 -0.42497435 2.3527431 6447714
-1.8917719 -0.39907303 2.3813937 1783120
0.48830053 -0.37540865 2.3928211 6447714
0.52543288 -0.37495884 2.3705645 6447714
0.55498129 -0.37387881 2.3528597 6447714
0.4887397 -0.3250086 2.3928926 6447714
0.52549595 -0.3249788 2.3708599 6447714
0.55564457 -0.32524267 2.3527844 6447714
0.48888078 -0.27494368 2.3931401 6447714
0.52556771 -0.275089 2.3711472 6447714
0.55566913 -0.27491066 2.3531032 6447714
0.48884422 -0.22509155 2.3934922 6447714
0.52562213 -0.22501747 2.3714459 6447714
0.55569273 -0.22488931 2.353421 6447714
0.48973069 -0.17532603 2.3932912 6447714
0.52561611 -0.17493334 2.3717818 6447714
0.55659199 -0.17471901 2.353214 6447714
0.48985028 -0.12494295 2.393554 6447714
0.52590674 -0.12511002 2.3719392 6447714
0.55672836 -0.12480099 2.3534646 6447714
0.48996946 -0.074549571 2.3938167 6447714
0.52554965 -0.074994788 2.3724847 6447714
0.55679661 -0.075084634 2.3537531 6447714
0.49034119 -0.025323635 2.3939199 6447714
0.52529544 -0.024988998 2.3729684 6447714
0.5564484 -0.024255844 2.3542991 6447714
0.49091631 0.02479469 2.393908 6447714
0.52520436 0.024833784 2.3733544 6447714
0.55693281 0.025360258 2.3543375 6447714
-0.27423051 0.099989884 2.3896379 10000536
-0.22468559 0.099969864 2.3891604 10000536
-0.1751605 0.099949874 2.3886828 10066329
-0.12565523 0.099929899 2.3882053 10197915
-0.075180322 0.099909514 2.3877184 10197915
-0.02472586 0.099889137 2.3872306 10197915
0.024719266 0.099869184 2.3867536 10197915
0.075132862 0.099848822 2.3862672 10197915
0.12552607 0.099828452 2.3857808 10197915
0.17491116 0.099808499 2.3853042 10197915
0.22526357 0.099788196 2.3848186 10197915
0.27559558 0.099767864 2.3843331 10197915
0.32492074 0.099747941 2.3838573 10197915
0.37521204 0.099727646 2.3833716 10197915
0.42548302 0.099707358 2.3828869 10197915
0.48962408 0.076500088 2.3932192 7171437
0.52490652 0.074980147 2.3738353 6974058
0.55700111 0.075113505 2.3546274 6908265
-1.5545189 0.10076492 2.3614008 10197915
-1.5249896 0.10075294 2.3611202 10197915
-1.4748046 0.10073263 2.3606439 4417678
-1.4285737 0.10071391 2.3602054 1854078
-1.2033868 0.10036504 2.3986046 1721982
-1.1797475 0.10049981 2.3756804 1192018
-1.1045702 0.10032517 2.3976517 1986953
-1.0731912 0.10042696 2.3793428 1523302
-1.0253947 0.10042448 2.3762372 1453897
-0.9917053 0.10053705 2.356061 3359833
-0.88170141 0.10036384 2.3752596 10066329
-0.80361319 0.10020362 2.3947468 1059655
-0.77364177 0.10031194 2.3755171 1191761
-0.72522372 0.10030311 2.3733652 4740968
-0.67492974 0.10028278 2.3728843 10197915
-0.62516248 0.10026013 2.3728046 10197915
-0.57491189 0.10023982 2.3723238 10197915
-0.5251767 0.1002223 2.3714352 10197915
-0.49681291 0.10033672 2.3513663 10197915
-0.32280365 0.10000949 2.3901079 1321799
0.39294377 -1.072075 2.4453619 6447714
0.4236401 -1.06787 2.4269881 6447714
0.45913938 -1.0632248 2.4057388 6447714
0.39313418 -1.0250766 2.4455595 6447714
0.4252055 -1.0248969 2.4263337 6447714
0.45945978 -1.0251409 2.4058001 6447714
0.39315984 -0.97491854 2.4458771 6447714
0.42526087 -0.97498131 2.4266346 6447714
0.45951703 -0.9750644 2.4060979 6447714
0.39383698 -0.92574823 2.4457974 6447714
0.42529655 -0.92508954 2.4269428 6447714
0.45998666 -0.92448062 2.4061513 6447714
0.39416683 -0.8752175 2.4459345 6447714
0.42533821 -0.87507343 2.4272485 6447714
0.4605386 -0.87497491 2.4061496 6447714
0.39422652 -0.8249433 2.4462323 6447714
0.42543998 -0.82500869 2.4275198 6447714
0.46059617 -0.82490253 2.4064469 6447714
0.39437246 -0.77507722 2.4464762 6447714
0.42546833 -0.77496892 2.4278388 6447714
0.46063805 -0.77490103 2.4067533 6447714
0.39519903 -0.72496456 2.4463134 6447714
0.42550746 -0.72499013 2.4281447 6447714
0.46142656 -0.72465312 2.4066138 6447714
0.39529774 -0.67505056 2.4465857 6447714
0.4255546 -0.67500049 2.4284484 6447714
0.46165073 -0.67504221 2.4068084 6447714
0.39539653 -0.62512553 2.4468575 6447714
0.42563713 -0.62499684 2.4287276 6447714
0.46175712 -0.62495774 2.4070785 6447714
0.3949742 -0.57694888 2.4474299 6447714
0.4249773 -0.57492173 2.4294572 6447714
0.4619751 -0.57457423 2.4072812 6447714
0.39540839 -0.52472192 2.4475162 6447714
0.42477936 -0.52501518 2.4299066 6447714
0.46274769 -0.52491355 2.4071479 6447714
0.39553231 -0.47510707 2.4477708 6447714
0.42484874 -0.47499165 2.4302013 6447714
0.46276408 -0.47496676 2.4074693 6447714
0.39554352 -0.42495641 2.448097 6447714
0.42492613 -0.42502809 2.43048 6447714
0.46282628 -0.42500734 2.407764 6447714
0.39616913 -0.37644452 2.4480441 6447714
0.42497367 -0.37501669 2.4307837 6447714
0.46347225 -0.37463778 2.4077101 6447714
0.39659128 -0.32523859 2.4481306 6447714
0.42500719 -0.32499138 2.4310973 6447714
0.46384999 -0.32499373 2.4078126 6447714
0.39661548 -0.27489194 2.4484496 6447714
0.4250944 -0.27502647 2.4313776 6447714
0.46390712 -0.27495185 2.4081104 6447714
0.39666408 -0.22521585 2.4487505 6447714
0.42514426 -0.22512262 2.4316809 6447714
0.46402115 -0.22483271 2.4083753 6447714
0.39763781 -0.17548767 2.4484963 6447714
0.42510203 -0.1750596 2.4320335 6447714
0.46496251 -0.17471951 2.4081423 6447714
0.39768764 -0.12478416 2.4488029 6447714
0.42520943 -0.12505716 2.4323046 6447714
0.46495762 -0.12472499 2.408478 6447714
0.39773634 -0.075082436 2.4491034 6447714
0.42546058 -0.075264208 2.4324806 6447714
0.46501496 -0.074843943 2.4087739 6447714
0.39798465 -0.028931839 2.449261 6447714
0.42528677 -0.025197696 2.4329181 6447714
0.46547848 -0.02457568 2.4088302 6447714
0.39875987 0.025366934 2.4491563 6447714
0.42533997 0.025201896 2.4332178 6447714
0.46602145 0.02494929 2.4088326 6447714
-0.90586722 0.099978648 2.4376407 10000536
-0.8997857 0.099976189 2.4375806 10000536
-0.81062698 0.099940293 2.4367056 1059399
-0.77518457 0.099926032 2.4363577 1257298
-0.72558111 0.099906057 2.4358706 7962245
-0.67498589 0.09988568 2.4353738 10197915
-0.62441134 0.09986531 2.4348774 10197915
-0.57486802 0.099845357 2.4343908 10197915
-0.530397 0.099827453 2.433954 10197915
-0.35166326 0.099755488 2.4321995 993092
-0.32543126 0.099744909 2.4319413 2045006
-0.27499896 0.099724598 2.4314463 10000536
-0.22458729 0.099704295 2.4309511 10132122
-0.17419611 0.099683993 2.4304566 10197915
-0.12483261 0.099664129 2.4299719 10197915
-0.075488932 0.099644259 2.4294877 10197915
-0.025158424 0.099623986 2.4289935 10197915
0.025151603 0.09960372 2.4284992 10197915
0.075441167 0.099583477 2.4280057 10197915
0.12571029 0.099563226 2.4275122 10197915
0.17495428 0.0995434 2.4270284 10197915
0.22417851 0.099523574 2.4265449 10197915
0.27438721 0.099503353 2.4260523 10197915
0.32457545 0.09948314 2.4255595 10197915
0.38653052 0.087527253 2.4370129 8553090
0.42540634 0.075529829 2.4331603 6974058
0.46607906 0.074855998 2.4091289 6908265
-1.6072162 0.10026111 2.4445279 9868950
-1.5720032 0.10035869 2.4265916 9672345
-1.5250146 0.10036419 2.422286 5665424
-1.4769148 0.10035367 2.4204202 1986692
-1.4412687 0.10046111 2.4009008 1523823
-1.2133638 0.10010248 2.44066 1258327
-1.1138264 0.10006242 2.4396825 1920641
-1.0752519 0.10004687 2.4393041 1059655
-1.0346595 0.10003053 2.4389055 2242639
0.32148188 -1.1066581 2.4879715 6447714
0.35680106 -1.1017605 2.4668312 6447714
0.32637084 -1.0749494 2.4852521 6447714
0.36775202 -1.074605 2.4604468 6447714
0.3264364 -1.0250379 2.4855428 6447714
0.3680203 -1.0249858 2.4606154 6447714
0.32645145 -0.97503012 2.4858656 6447714
0.36801398 -0.97499537 2.4609506 6447714
0.32694334 -0.92519528 2.4859033 6447714
0.36878192 -0.92471749 2.460824 6447714
0.32748041 -0.87492436 2.4859123 6447714
0.3691012 -0.87492877 2.4609635 6447714
0.32755879 -0.82494873 2.4861979 6447714
0.3691262 -0.82502151 2.4612794 6447714
0.32754856 -0.77496076 2.4865353 6447714
0.36923718 -0.77490443 2.4615448 6447714
0.32829207 -0.72519076 2.4864206 6447714
0.37014866 -0.72495681 2.4613304 6447714
0.32858646 -0.6749289 2.4865763 6447714
0.37018326 -0.67507511 2.4616399 6447714
0.32865098 -0.62497467 2.4868689 6447714
0.37026885 -0.62503511 2.4619217 6447714
0.32876006 -0.57505566 2.4871356 6447714
0.37059507 -0.57471246 2.4620585 6447714
0.32958251 -0.52511722 2.4869735 6447714
0.37128878 -0.52496052 2.4619741 6447714
0.32974267 -0.47493139 2.4872105 6447714
0.37131578 -0.47499281 2.4622893 6447714
0.32972842 -0.42491406 2.4875498 6447714
0.37132663 -0.42506158 2.4626138 6447714
0.33003649 -0.37516502 2.4876959 6447714
0.37216511 -0.3747803 2.4624457 6447714
0.33081362 -0.32497302 2.4875629 6447714
0.372318 -0.32496774 2.462683 6447714
0.33085859 -0.27499792 2.4878678 6447714
0.37243026 -0.27496833 2.4629474 6447714
0.33103028 -0.22501355 2.488097 6447714
0.37262538 -0.22495112 2.4631634 6447714
0.33122295 -0.17543656 2.4883101 6447714
0.37326539 -0.17499566 2.46311 6447714
0.33158767 -0.1253407 2.4884236 6447714
0.37349665 -0.12485307 2.463304 6447714
0.33117509 -0.074741192 2.4890065 6447714
0.37233952 -0.074965775 2.4643285 6447714
0.33103132 -0.024751617 2.4894238 6447714
0.37320471 -0.024730679 2.4641433 6447714
0.33173901 0.024470892 2.4893267 6447714
0.37384582 0.024980765 2.4640892 6447714
-1.6214912 0.099990197 2.4881885 9868950
-1.5748091 0.099971466 2.4877222 3498126
-1.5250334 0.099951468 2.4872248 2118794
-1.4918597 0.099938117 2.4868927 1589101
-1.2350725 0.099835001 2.4843266 1258327
-1.1244451 0.099790566 2.4832211 1655147
-1.0748496 0.09977065 2.4827256 1124934
-1.0428289 0.099757791 2.4824049 3951454
-0.92102224 0.099708863 2.4811881 10000536
-0.81789011 0.09966746 2.4801576 993605
-0.77460033 0.099650078 2.4797249 1520212
-0.72514445 0.099630207 2.4792306 10197915
-0.67570823 0.099610351 2.4787366 10197915
-0.62526244 0.099590093 2.4782324 10197915
-0.57483709 0.099569865 2.4777284 10197915
-0.53471678 0.099553742 2.4773271 10197915
-0.35485163 0.099481523 2.4755304 993092
-0.32507145 0.09946955 2.4752324 3162968
-0.27476802 0.099449329 2.4747295 10197915
-0.22551115 0.099429548 2.4742377 10197915
-0.17524834 0.099409372 2.4737351 10197915
-0.12500577 0.099389195 2.473233 10197915
-0.074783757 0.099369027 2.4727311 10197915
-0.024581982 0.099348865 2.4722295 10197915
0.024575466 0.099329136 2.4717383 10197915
0.074736804 0.099308997 2.4712369 10197915
0.12487794 0.099288851 2.470736 10197915
0.17499858 0.099268712 2.4702349 10197915
0.2250991 0.099248596 2.4697344 10197915
0.27517912 0.099228486 2.4692338 10197915
0.33171052 0.075571105 2.4883683 7039851
0.37342522 0.07495828 2.4646001 6974058
0.23306857 -1.1183758 2.5408947 6447714
0.27285737 -1.1131543 2.5170774 6447714
0.30139792 -1.10409 2.5000281 6447714
0.23367137 -1.0749308 2.5408208 6447714
0.27519253 -1.0750756 2.5159292 6447714
0.3014195 -1.075166 2.5002072 6447714
0.23460893 -1.0250623 2.5405905 6447714
0.27519381 -1.0249722 2.5162628 6447714
0.30145648 -1.0255731 2.5005138 6447714
0.23476657 -0.97495604 2.5408273 6447714
0.27524689 -0.97497463 2.5165632 6447714
0.30149427 -0.97493452 2.5008271 6447714
0.23473375 -0.92496401 2.5411787 6447714
0.2752682 -0.92496508 2.5168798 6447714
0.30214247 -0.91992724 2.5008035 6447714
0.23489805 -0.8751508 2.5414114 6447714
0.27529159 -0.87498254 2.5171978 6447714
0.30253527 -0.8744514 2.5008695 6447714
0.23583542 -0.82500714 2.5411818 6447714
0.27535975 -0.825028 2.517488 6447714
0.30257237 -0.8248207 2.5011766 6447714
0.23585838 -0.77501965 2.5415001 6447714
0.27539888 -0.77502108 2.5177965 6447714
0.30260956 -0.77517796 2.5014837 6447714
0.23588455 -0.72494513 2.5418158 6447714
0.27545944 -0.72500253 2.5180919 6447714
0.30337271 -0.72332937 2.5013702 6447714
0.23616569 -0.67526197 2.5419779 6447714
0.27541521 -0.67501122 2.5184498 6447714
0.30362365 -0.67534941 2.5015378 6447714
0.23691183 -0.62494808 2.5418639 6447714
0.27545217 -0.62500691 2.5187593 6447714
0.30368793 -0.62499648 2.5018337 6447714
0.23697339 -0.57495832 2.5421586 6447714
0.27548638 -0.57499051 2.5190704 6447714
0.30375218 -0.57463211 2.5021293 6447714
0.23702233 -0.5250389 2.54246 6447714
0.27555022 -0.52500176 2.5193651 6447714
0.30469877 -0.52422071 2.5018964 6447714
0.23744668 -0.47551429 2.5425353 6447714
0.27559057 -0.47496122 2.5196717 6447714
0.30476651 -0.47477356 2.5021834 6447714
0.23809391 -0.42492992 2.5424814 6447714
0.27566889 -0.42498803 2.5199571 6447714
0.30480394 -0.42506787 2.502491 6447714
0.23810242 -0.3749437 2.5428078 6447714
0.2750749 -0.37521398 2.5206423 6447714
0.3044256 -0.37333295 2.5030608 6447714
0.23802669 -0.32494345 2.543185 6447714
0.2746599 -0.32492402 2.5212257 6447714
0.30484411 -0.32544348 2.5031285 6447714
0.23878545 -0.27554467 2.5430589 6447714
0.2746971 -0.27490461 2.5215352 6447714
0.30488893 -0.27518275 2.5034349 6447714
0.23925003 -0.22518694 2.5431139 6447714
0.27474725 -0.22491506 2.5218368 6447714
0.3049798 -0.22474307 2.5037143 6447714
0.23918794 -0.17491956 2.5434847 6447714
0.27484369 -0.17503934 2.52211 6447714
0.30549952 -0.17347768 2.5037432 6447714
0.23912601 -0.12463648 2.5438557 6447714
0.27493069 -0.12523673 2.522388 6447714
0.30599454 -0.12447342 2.5037713 6447714
0.24014868 -0.075475536 2.5435681 6447714
0.27482614 -0.075250886 2.5227833 6447714
0.30603212 -0.074693002 2.5040781 6447714
0.24027564 -0.025292514 2.5438256 6447714
0.27485994 -0.025086394 2.5230956 6447714
0.3060697 -0.024900392 2.5043886 6447714
0.24030559 0.025296718 2.544143 6447714
0.27489403 0.025090534 2.5234075 6447714
0.30681762 0.025566511 2.5042727 6447714
-1.6616435 0.099719591 2.5336959 9868950
-1.6246642 0.09970478 2.5333195 6716564
-1.575022 0.099684902 2.5328143 2118793
-1.5306782 0.099667132 2.5323632 1788284
-1.2607318 0.099559024 2.5296164 1324379
-1.2459861 0.099553138 2.5294669 1125447
-1.1596534 0.099518575 2.5285883 2052744
-1.124927 0.09950465 2.5282345 1192273
-1.077588 0.099485703 2.5277529 1979468
-0.93777913 0.099429697 2.5263302 10000536
-0.85061002 0.099394776 2.5254428 1059399
-0.82436734 0.099384278 2.5251763 1126225
-0.77504414 0.099364541 2.5246747 3754590
-0.72574073 0.09934479 2.524173 10197915
-0.67540842 0.099324644 2.5236609 10197915
-0.62509644 0.099304497 2.5231488 10197915
-0.57480502 0.099284351 2.5226371 10197915
-0.53919351 0.099270098 2.5222752 10197915
-0.35815567 0.099197611 2.5204332 1059142
-0.32574394 0.099184595 2.5201027 4017504
-0.27557382 0.099164516 2.5195925 10197915
-0.22542398 0.099144436 2.5190821 10197915
-0.17529446 0.099124372 2.5185726 10197915
-0.12518522 0.099104293 2.5180624 10197915
-0.075096272 0.099084251 2.5175529 10197915
-0.025027586 0.099064179 2.5170434 10197915
0.025020838 0.099044152 2.5165341 10197915
0.075049013 0.099024124 2.5160253 10197915
0.12505697 0.099004097 2.5155165 10197915
0.17504466 0.098984063 2.5150073 10197915
0.23888722 0.077123262 2.5416236 7237230
0.27492705 0.075223617 2.5233095 6974058
0.30711052 0.074704327 2.5044234 6908265
0.14137521 -1.1556221 2.595614 6447714
0.16099721 -1.1529528 2.5838685 6447714
0.14200434 -1.1251324 2.595438 6447714
0.17480293 -1.1247451 2.5757778 6447714
0.20841283 -1.121573 2.5556524 6447714
0.14299105 -1.07515 2.5951784 6447714
0.17496985 -1.0750223 2.5760083 6447714
0.20859858 -1.0748593 2.5558524 6447714
0.14300872 -1.0252035 2.5954995 6447714
0.17504631 -1.024992 2.5762968 6447714
0.20953254 -1.0247695 2.5556245 6447714
0.14302646 -0.97494376 2.5958223 6447714
0.17511137 -0.9750365 2.576587 6447714
0.20967419 -0.97500682 2.5558698 6447714
0.14320229 -0.92548263 2.5960448 6447714
0.1750292 -0.92502511 2.5769696 6447714
0.20966154 -0.92503762 2.5562077 6447714
0.14413367 -0.87503564 2.5958214 6447714
0.17513289 -0.87500113 2.5772398 6447714
0.20985651 -0.87477154 2.5564244 6447714
0.14412172 -0.82495224 2.5961609 6447714
0.17514758 -0.82500798 2.5775614 6447714
0.21074177 -0.82506639 2.5562239 6447714
0.14411712 -0.77503449 2.5964949 6447714
0.17510688 -0.77509284 2.577919 6447714
0.21074443 -0.77510005 2.5565536 6447714
0.1443904 -0.7259317 2.5966566 6447714
0.17518848 -0.72503185 2.5781996 6447714
0.21083267 -0.72512197 2.5568326 6447714
0.14527059 -0.67489517 2.5964677 6447714
0.17521098 -0.67500228 2.5785191 6447714
0.21109053 -0.67453784 2.5570135 6447714
0.14523515 -0.62505746 2.5968199 6447714
0.17520268 -0.62504947 2.5788541 6447714
0.21184583 -0.62497836 2.5568902 6447714
0.14519966 -0.57520556 2.5971713 6447714
0.1751937 -0.57503968 2.5791924 6447714
0.21189678 -0.57499927 2.5571902 6447714
0.14563717 -0.52620578 2.5972345 6447714
0.17531025 -0.52506328 2.5794554 6447714
0.211916 -0.52491534 2.5575111 6447714
0.14636447 -0.47477698 2.5971394 6447714
0.17526065 -0.4750278 2.5798156 6447714
0.21241124 -0.47450307 2.557548 6447714
0.14634886 -0.42506069 2.5974791 6447714
0.17528786 -0.42498276 2.5801308 6447714
0.21297093 -0.42496395 2.5575418 6447714
0.14633328 -0.37533098 2.5978181 6447714
0.1753315 -0.3749674 2.5804377 6447714
0.21303077 -0.37496638 2.5578377 6447714
0.1468309 -0.32656741 2.5978427 6447714
0.17538851 -0.32507446 2.5807331 6447714
0.21294473 -0.32503793 2.5582221 6447714
0.14744501 -0.27444229 2.5978208 6447714
0.17535022 -0.27503386 2.5810905 6447714
0.21386939 -0.27465919 2.5580003 6447714
0.14746307 -0.22496235 2.5981383 6447714
0.17529413 -0.22493979 2.5814562 6447714
0.21394899 -0.22498405 2.5582826 6447714
0.14748107 -0.17547046 2.5984557 6447714
0.1755843 -0.17492023 2.5816119 6447714
0.21422057 -0.17520025 2.5584495 6447714
0.14800128 -0.12747486 2.5984626 6447714
0.17538443 -0.12515596 2.5820627 6447714
0.21412325 -0.12509093 2.5588412 6447714
0.14855944 -0.074279338 2.5984805 6447714
0.17544779 -0.074845269 2.5823569 6447714
0.21499147 -0.075025417 2.5586524 6447714
0.14857757 -0.02476247 2.5987983 6447714
0.17542824 -0.024609106 2.5827034 6447714
0.21518311 -0.025442054 2.5588658 6447714
0.14859577 0.024766507 2.5991158 6447714
0.17544958 0.024613099 2.5830178 6447714
0.21521015 0.02544632 2.5591874 6447714
-1.7022176 0.099438593 2.5808907 9868950
-1.6753067 0.099427827 2.5806117 9212052
-1.6258039 0.099408075 2.5800986 2709900
-1.5752454 0.099387884 2.5795746 2052744
-1.544059 0.099375427 2.5792515 1456738
-1.2809082 0.099270381 2.5765245 1258583
-1.1704437 0.099226274 2.5753798 1721970
-1.1254282 0.09920828 2.5749137 1059654
-1.087927 0.099193312 2.5745249 2768211
-0.95622838 0.099140726 2.5731597 10000536
-0.94980747 0.099138156 2.5730929 10000536
-0.85888278 0.099101856 2.5721509 993863
-0.82467049 0.099088214 2.5717967 1126225
-0.77443671 0.099068142 2.5712762 6384502
-0.72529161 0.09904854 2.5707672 10066329
-0.67509824 0.099028498 2.5702465 10197915
-0.62492514 0.099008448 2.5697265 10197915
-0.57477242 0.098988436 2.569207 10197915
-0.54383641 0.098976091 2.5688868 10197915
-0.36158219 0.098903313 2.566998 1059654
-0.32537711 0.098888852 2.5666225 5135210
-0.2753453 0.098868892 2.5661044 10197915
-0.22533388 0.098848909 2.5655859 10197915
-0.17534252 0.098828971 2.565068 10197915
-0.12537144 0.098808996 2.5645499 10197915
-0.075420402 0.098789081 2.5640326 10197915
-0.02548968 0.098769128 2.5635152 10197915
0.025482683 0.098748773 2.5629871 10197915
0.075372845 0.09872885 2.5624702 10197915
0.13853444 0.08291284 2.5825763 8289918
0.17545588 0.074840955 2.5824559 7039851
0.21523108 0.075284131 2.5594335 6974058
0.073457025 -1.1647179 2.6362672 6447714
0.11540017 -1.1591989 2.611161 6447714
0.075370319 -1.1249038 2.635385 6447714
0.11686408 -1.1249865 2.6105089 6447714
0.075735033 -1.075176 2.6354964 6447714
0.11791123 -1.0750287 2.6102133 6447714
0.07643003 -1.024971 2.6354117 6447714
0.11782423 -1.0250291 2.6105978 6447714
0.076411672 -0.97501671 2.6357541 6447714
0.11789772 -0.97501868 2.6108847 6447714
0.076446705 -0.92509943 2.6360636 6447714
0.11812909 -0.92485458 2.6110799 6447714
0.076869525 -0.87535959 2.6361423 6447714
0.11895557 -0.87506467 2.6109157 6447714
0.077589348 -0.82499856 2.6360445 6447714
0.11902332 -0.82499075 2.6112058 6447714
0.077554502 -0.77496266 2.6363978 6447714
0.11897245 -0.77496284 2.6115689 6447714
0.077537246 -0.72496516 2.636739 6447714
0.11934332 -0.72472227 2.6116791 6447714
0.078012548 -0.67525357 2.6367831 6447714
0.12006939 -0.67501432 2.6115744 6447714
0.078653179 -0.6249429 2.6367347 6447714
0.12017479 -0.6249249 2.6118441 6447714
-1.7329667 -0.55215722 2.6454642 2039583
0.07871712 -0.57503849 2.6370273 6447714
0.12008474 -0.57487863 2.6122291 6447714
-1.7354964 -0.52504063 2.6413944 2039583
0.078616224 -0.52512139 2.6374171 6447714
0.12055078 -0.52467853 2.6122825 6447714
-1.7355856 -0.48740622 2.6414561 2039583
0.079163805 -0.47539791 2.6374185 6447714
0.12119882 -0.47503567 2.6122224 6447714
0.079756036 -0.42497903 2.6373978 6447714
0.12123653 -0.42498201 2.6125329 6447714
-1.7363446 -0.35175598 2.6409473 2039583
0.079820693 -0.37505192 2.6376908 6447714
0.12127417 -0.37491673 2.6128423 6447714
-1.7358904 -0.3249574 2.6418557 2039583
0.079775788 -0.3251701 2.6380506 6447714
0.12172585 -0.32462779 2.612906 6447714
-1.7359368 -0.27484235 2.6420562 2039583
0.08029405 -0.27543014 2.6380689 6447714
0.12227923 -0.2750017 2.6129029 6447714
-1.7362988 -0.22548012 2.6417277 2039583
0.080836907 -0.22501744 2.6380773 6447714
0.12232467 -0.22497711 2.6132073 6447714
-1.7366496 -0.17496511 2.6414247 2039583
0.080880746 -0.17506877 2.6383817 6447714
0.12240891 -0.17483854 2.6134899 6447714
-1.7362667 -0.12535322 2.642339 2039583
0.081056967 -0.12535624 2.638607 6447714
0.1230888 -0.12439465 2.6134162 6447714
-1.7363075 -0.075539388 2.6425483 2039583
0.081423558 -0.075789973 2.638716 6447714
0.12339353 -0.074710496 2.6135631 6447714
-1.7363961 -0.02518093 2.6426823 2039583
0.081963904 -0.025142923 2.6387284 6447714
0.12340869 -0.024906212 2.6138856 6447714
-1.7364842 0.025182623 2.6428173 2039583
0.081974119 0.025147084 2.6390553 6447714
0.12342387 0.02491031 2.6142051 6447714
-1.7349344 0.076630145 2.641772 2763306
-1.674129 0.099118844 2.6291327 4745615
-1.6247922 0.099099204 2.6286116 2119051
-1.5842406 0.099083073 2.6281831 1787769
-1.3105917 0.098974138 2.625294 1390945
-1.2952855 0.098968066 2.625133 1125447
-1.2067631 0.098932832 2.6241987 1987209
-1.1750861 0.098920219 2.6238639 1390426
-1.124855 0.098900206 2.6233332 1124933
-1.097563 0.098889343 2.6230447 10000536
-0.97319245 0.098839849 2.621732 10000536
-0.86637712 0.098797344 2.6206048 993606
-0.82498384 0.098780878 2.6201673 1126226
-0.77598304 0.098761365 2.6196504 8751244
-0.72591317 0.098741435 2.6191213 10000536
-0.67586344 0.098721512 2.6185927 10066329
-0.62583405 0.098701604 2.6180649 10197915
-0.5758248 0.098681711 2.6175365 10197915
-0.54974025 0.098671325 2.6172619 10197915
-0.36513731 0.098597832 2.6153128 1125447
-0.32499605 0.098581858 2.6148884 6252917
-0.27402365 0.098561577 2.6143501 10197915
-0.22415619 0.098541729 2.6138239 10197915
-0.17430879 0.098521896 2.6132972 10197915
-0.12448144 0.098502055 2.6127715 10197915
-0.074674174 0.098482236 2.612246 10197915
-0.024886938 0.098462425 2.6117208 10197915
0.024880264 0.098442607 2.6111948 10197915
0.081557855 0.075750224 2.6377115 7105644
0.12416809 0.074947931 2.6138306 6974058
-0.023450436 -1.2026135 2.694108 6447714
-0.016718965 -1.1749486 2.6902568 6447714
0.024005156 -1.1713765 2.6658671 6447714
-0.016133761 -1.1254092 2.6902337 6447714
0.025408378 -1.1251025 2.6653342 6447714
-0.015625209 -1.0749708 2.6902657 6447714
0.025415266 -1.075066 2.6656613 6447714
0.051600892 -1.0594649 2.6500676 6447714
-0.015587953 -1.0250245 2.6905711 6447714
0.025410244 -1.024968 2.665997 6447714
0.051605366 -1.024421 2.6502972 6447714
-0.015550977 -0.97506404 2.6908822 6447714
0.025438732 -0.97495419 2.666311 6447714
0.051611658 -0.97513044 2.6506205 6447714
-0.015145788 -0.92541045 2.6909685 6447714
0.025323886 -0.92497599 2.6667118 6447714
0.051617954 -0.92582804 2.650944 6447714
-0.01448527 -0.87487096 2.6909077 6447714
0.02546647 -0.87503386 2.6669583 6447714
0.052282672 -0.8709718 2.6509097 6447714
-0.014479108 -0.82497668 2.6912353 6447714
0.025414312 -0.82503116 2.667321 6447714
0.052716177 -0.82479227 2.6509559 6447714
-0.01451186 -0.77498597 2.691587 6447714
0.025425952 -0.77496797 2.6676459 6447714
0.052722748 -0.77436888 2.6512868 6447714
-0.01401886 -0.72546458 2.6916196 6447714
0.025437623 -0.72494018 2.6679721 6447714
0.052729186 -0.72502947 2.6516099 6447714
-0.01334857 -0.67509222 2.6915514 6447714
0.025432553 -0.67499608 2.6683049 6447714
0.053317245 -0.6730451 2.6516025 6447714
-0.013412538 -0.6250807 2.6919243 6447714
0.025389211 -0.6250397 2.6686623 6447714
0.053827364 -0.62506449 2.6516147 6447714
-1.712154 -0.56023145 2.6801391 2039583
-0.013381053 -0.57497048 2.6922362 6447714
0.025421729 -0.57502335 2.6689751 6447714
0.053834081 -0.57460362 2.6519451 6447714
-1.71545 -0.52499145 2.6748378 2039583
-0.012901641 -0.52550638 2.6922765 6447714
0.025450239 -0.52499449 2.6692896 6447714
0.053808287 -0.52485454 2.6522913 6447714
-1.7154801 -0.48757091 2.6749978 2568765
-0.012307444 -0.47504172 2.6922553 6447714
0.025466202 -0.47499913 2.6696107 6447714
0.054479238 -0.4736335 2.6522286 6447714
-0.012281433 -0.42500377 2.6925709 6447714
0.025393385 -0.42504337 2.6699874 6447714
0.054938924 -0.42523724 2.6522739 6447714
-1.7161335 -0.35186455 2.674664 2039584
-0.012219624 -0.37505621 2.692867 6447714
0.025446929 -0.37502426 2.6702869 6447714
0.054945774 -0.37473887 2.6526051 6447714
-1.7157629 -0.32495484 2.6754327 2438987
-0.011994894 -0.32553416 2.6930597 6447714
0.025483927 -0.32494715 2.6705964 6447714
0.054904312 -0.32476819 2.6529615 6447714
-1.7158712 -0.27497298 2.6755311 2506586
-0.011045737 -0.27489606 2.692827 6447714
0.025466215 -0.27494898 2.6709392 6447714
0.055640094 -0.27396512 2.6528571 6447714
-1.7165705 -0.22507313 2.6746423 2374999
-0.01124759 -0.22515795 2.6932786 6447714
0.025368065 -0.22499323 2.6713295 6447714
0.056050856 -0.2253107 2.6529343 6447714
-1.7170869 -0.17499527 2.6740596 2309205
-0.011089693 -0.17497867 2.6935163 6447714
0.025501711 -0.17506856 2.6715801 6447714
0.056057859 -0.17477489 2.6532648 6447714
-1.71726 -0.12487269 2.6740491 2243411
-0.010838263 -0.12553898 2.6936934 6447714
0.025571793 -0.12489548 2.6718709 6447714
0.056007158 -0.1246556 2.6536276 6447714
-1.7171286 -0.075018279 2.6745486 2177619
-0.010050585 -0.074765347 2.6935573 6447714
0.025250735 -0.075084426 2.6723931 6447714
0.056754045 -0.074098371 2.6535156 6447714
-1.7174765 -0.025094889 2.6742475 2111569
-0.010051832 -0.024552545 2.6938908 6447714
0.025578061 -0.025278507 2.6725285 6447714
0.057163168 -0.025284586 2.6535943 6447714
-1.7175634 0.025096562 2.6743813 2045519
-0.01005305 0.024556512 2.6942182 6447714
0.025611022 0.025235537 2.6728449 6447714
0.05717032 0.025288794 2.6539257 6447714
-1.7174064 0.07475163 2.6748075 2242641
-1.6751417 0.098798893 2.6795368 2249866
-1.6248592 0.098778956 2.6789956 1920642
-1.599166 0.098768756 2.678719 993861
-1.3302757 0.098662078 2.6758258 1258584
-1.2188731 0.098617889 2.6746273 1854075
-1.1754535 0.098600656 2.6741602 1059655
-1.1331612 0.098583892 2.6737051 2373711
-0.99192071 0.098527826 2.6721852 10000536
-0.87526953 0.098481558 2.6709301 1126225
-0.82530934 0.09846174 2.6703925 2636884
-0.77536929 0.098441936 2.6698554 10000536
-0.72544932 0.098422118 2.6693182 10000536
-0.67554945 0.098402314 2.668781 10000536
-0.62456137 0.098382093 2.6682324 10132122
-0.5791328 0.098364085 2.6677434 10197915
-0.36772302 0.098280191 2.6654689 1059398
-0.32460019 0.098263077 2.6650047 7633281
-0.27486148 0.098243363 2.6644695 10197915
-0.22514261 0.098223634 2.6639349 10197915
-0.17544384 0.09820392 2.6634002 10197915
-0.12466115 0.098183766 2.6628535 10197915
-0.075002551 0.098164074 2.6623194 10197915
-0.011477027 0.07583908 2.6909287 7237230
0.025227036 0.075043656 2.6728477 7039851
0.057177298 0.074774906 2.6542494 6974058
-0.10819082 -1.2139666 2.744832 6447714
-0.077385187 -1.2099435 2.7263906 6447714
-0.041890889 -1.2051824 2.7051456 6447714
-0.1080406 -1.1749098 2.7450001 6447714
-0.074546389 -1.1750222 2.7249212 6447714
-0.041498948 -1.1751183 2.7051096 6447714
-0.10805397 -1.1250114 2.7453401 6447714
-0.074457161 -1.1249766 2.725199 6447714
-0.040810693 -1.1242228 2.7050352 6447714
-0.10792818 -1.0755225 2.7455926 6447714
-0.074572362 -1.0749722 2.7256007 6447714
-0.040312439 -1.0750152 2.7050629 6447714
-0.10692333 -1.0249444 2.7453251 6447714
-0.07456699 -1.0250041 2.7259283 6447714
-0.04037448 -1.0251296 2.7054315 6447714
-0.10692785 -0.97483134 2.7456608 6447714
-0.074515052 -0.97502381 2.7262287 6447714
-0.040335439 -0.97495615 2.7057405 6447714
-0.10694106 -0.9248957 2.7459996 6447714
-0.074543655 -0.92492986 2.7265792 6447714
-0.039773967 -0.9241361 2.7057414 6447714
-0.10695429 -0.87494802 2.74634 6447714
-0.074571043 -0.87492478 2.7269275 6447714
-0.039252315 -0.87496752 2.7057538 6447714
-0.10580158 -0.82500547 2.7459788 6447714
-0.074627504 -0.82501012 2.7272935 6447714
-0.039223582 -0.8248781 2.7060695 6447714
-0.10581466 -0.77504563 2.7463191 6447714
-0.07453797 -0.77498144 2.727572 6447714
-0.039262004 -0.77489793 2.7064242 6447714
-0.10582772 -0.72507381 2.7466581 6447714
-0.074572921 -0.72499114 2.7279236 6447714
-0.038731243 -0.72438288 2.7064409 6447714
-0.10584079 -0.67508906 2.7469981 6447714
-0.074626923 -0.67498815 2.7282872 6447714
-0.038086053 -0.674869 2.7063835 6447714
-1.6707385 -0.60019028 2.7490077 2577804
-0.10481756 -0.62575984 2.7467117 6447714
-0.074647911 -0.62497282 2.7286305 6447714
-0.038156226 -0.6248275 2.7067578 6447714
-1.6839852 -0.57095695 2.7270749 2907537
-0.10470106 -0.57527798 2.7469757 6447714
-0.074572355 -0.57499683 2.7289164 6447714
-0.038094893 -0.57499528 2.707051 6447714
-1.685451 -0.52497733 2.7248809 2842257
-0.10471401 -0.52526915 2.7473161 6447714
-0.0746217 -0.52495754 2.7292781 6447714
-0.037614822 -0.52429575 2.7070999 6447714
-1.6855326 -0.48770168 2.7249556 2908307
-0.10472696 -0.47524807 2.7476563 6447714
-0.074661352 -0.47500697 2.729635 6447714
-0.03706729 -0.47490633 2.707099 6447714
-0.10384043 -0.42674065 2.7474463 6447714
-0.07462126 -0.42504478 2.7299421 6447714
-0.037006978 -0.42499974 2.7073929 6447714
-1.7000557 -0.35142693 2.7014875 2579858
-1.6851102 -0.35205823 2.7264171 2579858
-0.1035871 -0.37564227 2.747633 6447714
-0.074632831 -0.37496865 2.7302794 6447714
-0.036919389 -0.37498155 2.7076733 6447714
-1.7001019 -0.32457483 2.7015607 2711444
-1.6852119 -0.32503662 2.7264004 2645395
-0.10359993 -0.3255969 2.7479732 6447714
-0.074679762 -0.32493123 2.7306387 6447714
-0.036713805 -0.32453251 2.7078848 6447714
-1.7001859 -0.27534261 2.7016947 2778006
-1.6853163 -0.27500474 2.7265043 2580114
-0.10361275 -0.27553904 2.7483132 6447714
-0.074721925 -0.27498266 2.7309971 6447714
-0.035943963 -0.27502051 2.707751 6447714
-1.7006729 -0.22089328 2.701185 2250894
-1.6858456 -0.22509614 2.725899 2580114
-0.10299749 -0.22789043 2.74826 6447714
-0.074707381 -0.22502221 2.7313211 6447714
-0.035767719 -0.22485492 2.7079782 6447714
-1.7009038 -0.17456633 2.7010581 2185100
-1.6859953 -0.17499438 2.7259274 2448272
-0.10247299 -0.17534165 2.7482946 6447714
-0.074643709 -0.17489657 2.7316144 6447714
