# .PCD v0.7 - Point Cloud Data file format
VERSION 0.7
FIELDS x y z rgb
SIZE 4 4 4 4
TYPE F F F U
COUNT 1 1 1 1
WIDTH 1160
HEIGHT 1
VIEWPOINT 0 0 0 1 0 0 0
POINTS 1160
DATA ascii
-0.30191302 -0.31824198 0.75213438 6447714
-0.28018197 -0.32318071 0.77762586 6447714
-0.30198139 -0.27500534 0.75223178 6447714
-0.28120863 -0.27500486 0.77662021 6447714
-0.30203635 -0.22501126 0.75237292 6447714
-0.28132784 -0.22506157 0.77668154 6447714
-0.30225515 -0.17449395 0.7523241 6447714
-0.28153661 -0.17500338 0.77664238 6447714
-0.30216596 -0.1248014 0.75263339 6447714
-0.2813831 -0.12502952 0.77703398 6447714
-0.30220863 -0.074962288 0.75278771 6447714
-0.28141233 -0.075006209 0.7772004 6447714
-0.30230394 -0.024596956 0.75288373 6447714
-0.28158674 -0.025080306 0.7772001 6447714
-0.30252594 0.024951736 0.75282705 6447714
-0.2817426 0.025004152 0.77722836 6447714
-0.30258885 0.074971333 0.75295842 6776679
-0.28180003 0.075000517 0.77736402 6842472
-0.30260402 0.10674845 0.75305754 10197915
-0.27856418 0.10833218 0.77554268 10197915
-0.22473034 0.11332024 0.77454793 10197915
-0.17499033 0.11336967 0.77302772 10197915
-0.12497263 0.11341383 0.77333254 10197915
-0.07496921 0.11345805 0.77360135 10197915
-0.024980931 0.11350205 0.77393812 10197915
0.024993904 0.11354616 0.77423906 10197915
0.075006463 0.11359043 0.77449507 10197915
0.12500502 0.11363449 0.7748304 10197915
0.17498834 0.11367854 0.77514595 10197915
0.22498409 0.11372282 0.77539754 10197915
0.27461576 0.11377132 0.77415186 10197915
0.32510304 0.11381762 0.7738961 10132122
0.37508956 0.11386182 0.77417958 10000536
0.42499697 0.11390583 0.77448952 10000536
0.47550097 0.11395268 0.77403647 10000536
0.52501297 0.11400067 0.77293915 10000536
0.57487631 0.11404424 0.77337956 10000536
0.61189771 0.11404457 0.78417778 10000536
-0.2550545 -0.35553056 0.80699009 6447714
-0.23248781 -0.36144975 0.83345997 6447714
-0.25560087 -0.32499072 0.80647445 6447714
-0.23451702 -0.32499838 0.83122599 6447714
-0.25564167 -0.27498254 0.8066324 6447714
-0.23471014 -0.27509326 0.83120388 6447714
-0.25577593 -0.22475415 0.80668092 6447714
-0.23486347 -0.2249992 0.83122981 6447714
-0.25598547 -0.17499943 0.80664027 6447714
-0.23490538 -0.17499451 0.83138764 6447714
-0.25602716 -0.12500651 0.80679613 6447714
-0.23494442 -0.12499473 0.83154696 6447714
-0.25608006 -0.074981429 0.80694085 6447714
-0.23513728 -0.075099319 0.83152437 6447714
-0.25623047 -0.0246282 0.80697089 6447714
-0.23527047 -0.025043955 0.83157396 6447714
-0.25617248 0.02498051 0.80724335 6447714
-0.2350859 0.024997121 0.83199847 6447714
-0.25622427 0.074978702 0.80738801 6974058
-0.23511861 0.074996747 0.83216655 7039851
-0.25612271 0.10702152 0.80729568 10197915
-0.23033023 0.10890114 0.82788098 10197915
-0.17500633 0.11321648 0.8231498 10197915
-0.1250283 0.11326059 0.8234393 10197915
-0.075011611 0.11330463 0.82377744 10197915
-0.024990069 0.11334871 0.82409668 10197915
0.02500304 0.11339279 0.82441705 10197915
0.074965596 0.11343685 0.82472283 10197915
0.12496734 0.11348082 0.82507163 10197915
0.17500795 0.11352502 0.82537711 10197915
0.22501892 0.11356909 0.82568467 10197915
0.27544996 0.11361931 0.82413721 10197915
0.32513896 0.11366477 0.82389927 10197915
0.37512043 0.11370889 0.82421494 10066329
0.42498296 0.11375272 0.82455409 10000536
0.47500959 0.11379685 0.82486135 10000536
0.52499884 0.11384832 0.82277012 10000536
0.57498741 0.11389238 0.82308918 10000536
0.62388474 0.1139326 0.82434028 10000536
0.65820104 0.11392241 0.83779222 10000536
-0.17761302 -0.4008157 0.89771616 6447714
-0.20888416 -0.36764523 0.86114216 6447714
-0.18768817 -0.37305796 0.88600218 6447714
-0.20932999 -0.32499433 0.86079401 6447714
-0.18820746 -0.324999 0.88559085 6447714
-0.20954387 -0.27481091 0.86075032 6447714
-0.18824941 -0.27500108 0.88574779 6447714
-0.20969029 -0.22500114 0.86078233 6447714
-0.18830198 -0.22502735 0.88589162 6447714
-0.20972651 -0.17500269 0.8609454 6447714
-0.18861143 -0.17498805 0.88573366 6447714
-0.20976292 -0.12500712 0.8611089 6447714
-0.18864478 -0.1249869 0.88590127 6447714
-0.20996496 -0.074834749 0.86107796 6447714
-0.18867779 -0.074985534 0.88606733 6447714
-0.20998044 -0.02483907 0.86126518 6447714
-0.18857108 -0.025154011 0.88639712 6447714
-0.20988937 0.024997234 0.86157751 6447714
-0.18869495 0.02489478 0.8864575 6447714
-0.20991735 0.075002655 0.86175025 7171437
-0.18878409 0.074995399 0.88655931 7237230
-0.20967618 0.10720219 0.86129326 10197915
-0.18165603 0.1095104 0.87917006 10197915
-0.12499508 0.11311132 0.87227654 10197915
-0.074993327 0.11315524 0.87264353 10197915
-0.024993483 0.11319934 0.87295544 10197915
0.025006434 0.11324336 0.87329453 10197915
0.075043991 0.11328736 0.87364459 10197915
0.1250401 0.1133313 0.8740077 10197915
0.17499489 0.11337531 0.87432182 10197915
0.22498827 0.11341944 0.87463397 10197915
0.27497998 0.11346327 0.87502635 10197915
0.32488987 0.11350749 0.87527627 10197915
0.37491825 0.11355123 0.87570441 10132122
0.42498636 0.11359533 0.87604374 10000536
0.47497162 0.11363934 0.87636656 10000536
0.52501148 0.11369176 0.87397349 10000536
0.57498312 0.11373578 0.87431097 10000536
0.62485462 0.11378014 0.87450188 10000536
0.67159057 0.11382095 0.87492746 10000536
0.70437425 0.11380047 0.89128804 10000536
-0.16014402 -0.40540922 0.91820502 6447714
-0.14108419 -0.41040564 0.94055951 6447714
-0.16331118 -0.37499341 0.91460913 6447714
-0.14174402 -0.37500888 0.9399305 6447714
-0.1633428 -0.32499141 0.91478133 6447714
-0.14178528 -0.32504439 0.94008744 6447714
-0.1633684 -0.27499822 0.91495836 6447714
-0.14212617 -0.27499974 0.93989366 6447714
-0.16312419 -0.22493197 0.91544765 6447714
-0.14183691 -0.22505087 0.94043839 6447714
-0.16343412 -0.17499293 0.91528857 6447714
-0.141854 -0.17500357 0.94062412 6447714
-0.16346447 -0.12501553 0.91546118 6447714
-0.14187229 -0.12498362 0.94080836 6447714
-0.16348906 -0.075019345 0.91563934 6447714
-0.142084 -0.075263493 0.94076443 6447714
-0.16352762 -0.025005169 0.91579592 6447714
-0.14225419 -0.025028374 0.940772 6447714
-0.16380677 0.025106698 0.91567618 6447714
-0.14227761 0.025017651 0.94095081 6447714
-0.1638968 0.075017355 0.91577685 7368816
-0.1423184 0.074995749 0.94110793 7434609
-0.16339919 0.10734646 0.91492069 10197915
-0.13137092 0.11029638 0.93034774 10197915
-0.075031407 0.11299638 0.92459017 10197915
-0.025673535 0.1130459 0.92294252 10197915
0.024980087 0.11309366 0.92224765 10197915
0.074964881 0.11313763 0.92259479 10197915
0.12498899 0.11318158 0.92296439 10197915
0.17500401 0.1132256 0.92330414 10197915
0.22500977 0.11326957 0.92366385 10197915
0.27500698 0.11331347 0.92403972 10197915
0.3248502 0.11335727 0.92440099 10197915
0.37487742 0.11340135 0.92472738 10197915
0.42499045 0.11344534 0.92510152 10066329
0.47495013 0.11348922 0.92547864 10000536
0.52494872 0.11353319 0.92582983 10000536
0.57498586 0.11357718 0.92619586 10000536
0.62519616 0.1136219 0.92636096 10000536
0.6749025 0.11367439 0.92384857 10000536
0.71915543 0.1136973 0.92938691 10000536
0.75239927 0.11366616 0.94936007 10197915
-0.11539829 -0.41713846 0.9706853 6579300
-0.09507452 -0.42248616 0.99452347 7829367
-0.11684015 -0.37498823 0.96916813 6447714
-0.095181286 -0.37502569 0.99459267 6447714
-0.11687478 -0.32496226 0.9693312 6447714
-0.095425919 -0.32551047 0.99450946 6447714
-0.11723909 -0.27499643 0.96910924 6447714
-0.095589072 -0.27502277 0.99452579 6447714
-0.11725507 -0.22501056 0.96929795 6447714
-0.095606878 -0.225004 0.99471039 6447714
-0.11728618 -0.17499764 0.96946645 6447714
-0.095622621 -0.17503552 0.99489719 6447714
-0.11729042 -0.12499142 0.96966666 6447714
-0.095645495 -0.12504837 0.99507672 6447714
-0.11753061 -0.07486634 0.96959174 6447714
-0.095979415 -0.075278848 0.99488932 6447714
-0.11769418 -0.024995046 0.96960235 6447714
-0.096054785 -0.025033157 0.99500734 6447714
-0.11771257 0.024976552 0.96978873 6447714
-0.096072719 0.025039345 0.99519247 6447714
-0.11774769 0.074981399 0.96995205 7566195
-0.096077137 0.075053021 0.99539238 7631988
-0.11688387 0.10724933 0.96942794 10197915
-0.080792859 0.1110045 0.98148322 10197915
-0.024294287 0.11289033 0.97423059 10197915
0.024959194 0.1129367 0.97358054 10197915
0.074952029 0.11298046 0.97399503 10197915
0.12498456 0.11302451 0.97433728 10197915
0.17500533 0.11306846 0.97470367 10197915
0.22501446 0.11311237 0.97508752 10197915
0.27482152 0.11315662 0.97529286 10197915
0.32489797 0.11321036 0.97247165 10197915
0.37488687 0.11325418 0.97286564 10197915
0.42502829 0.11329849 0.97315031 10132122
0.4750362 0.11334202 0.97365189 10000536
0.52502447 0.11338609 0.97396594 10000536
0.57505202 0.11342985 0.97440612 10000536
0.62500209 0.11347388 0.97471809 10000536
0.67487395 0.11351765 0.97511137 10000536
0.72490227 0.11356164 0.97545773 10132122
0.76534814 0.11357981 0.981435 10197915
-0.062188677 -0.45607129 1.0329906 11711154
-0.049065646 -0.45966348 1.0483818 11711154
-0.070733182 -0.42492062 1.0230889 8882055
-0.049084626 -0.42511377 1.0485021 9474192
-0.070793569 -0.37500101 1.0232228 6447714
-0.049093749 -0.37494043 1.0486975 6447714
-0.071051054 -0.32488257 1.0231259 6447714
-0.049107678 -0.32489288 1.048887 6447714
-0.071203709 -0.2749972 1.0231526 6447714
-0.0493972 -0.27698576 1.0487443 6447714
-0.071231999 -0.22500531 1.0233253 6447714
-0.049533311 -0.22507244 1.048798 6447714
-0.071237296 -0.17501114 1.0235239 6447714
-0.049538955 -0.17491861 1.0489976 6447714
-0.071248271 -0.12499812 1.0237182 6447714
-0.049555317 -0.12496702 1.0491841 6447714
-0.071627557 -0.07494925 1.023478 6447714
-0.049557365 -0.074991345 1.0493871 6447714
-0.071657591 -0.025004534 1.0236474 6447714
-0.049860381 -0.028153442 1.0492241 6447714
-0.071671121 0.025010642 1.0238384 6447714
-0.049991459 0.025213866 1.0492899 6447714
-0.071478069 0.075114317 1.0242712 7763574
-0.049998064 0.060867339 1.0494288 6447714
-0.070128508 0.10741672 1.023239 10197915
-0.025785511 0.11273184 1.0256383 10197915
0.025018105 0.11278435 1.023436 10197915
0.075008571 0.11282802 1.0238866 10197915
0.12496696 0.11287212 1.0241768 10197915
0.17496426 0.11291569 1.0246603 10197915
0.22500092 0.11295965 1.0250161 10197915
0.27526677 0.11300435 1.0252221 10197915
0.32490104 0.11305878 1.0220557 10197915
0.37489256 0.11310237 1.0225255 10197915
0.42498168 0.1131466 1.022831 10197915
0.47498867 0.1131901 1.0233366 10066329
0.52497399 0.11323415 1.0236597 10000536
0.57499772 0.11327782 1.0241294 10000536
0.6249994 0.11332199 1.0243969 10066329
0.67491728 0.11336561 1.0248657 10132122
0.72493625 0.11340955 1.0252265 10197915
0.77487266 0.11345278 1.0257851 10197915
0.81228459 0.1134534 1.0366163 10197915
-0.0244605 -0.46607968 1.0772406 11711154
-0.027148154 -0.42500398 1.0742546 10132122
-0.027155189 -0.37501055 1.074452 6447714
-0.02715428 -0.32501617 1.074658 6447714
-0.02750578 -0.27492058 1.0744534 6447714
-0.027797671 -0.22513352 1.0743161 6447714
-0.028037699 -0.17501052 1.0742376 6447714
-0.028042557 -0.12500721 1.0744377 6447714
-0.028054608 -0.074994318 1.0746289 6447714
-0.028402645 -0.024914386 1.0744281 6447714
-0.02860021 0.024876647 1.074402 6447714
-0.028937401 0.074976072 1.0742121 7895160
-0.025894282 0.1076602 1.0733062 10197915
0.024338171 0.11263008 1.0736934 10197915
0.074976586 0.11268443 1.070838 10197915
0.12500852 0.11272819 1.0712764 10197915
0.17500567 0.11277196 1.0717051 10197915
0.22496675 0.11281597 1.0720239 10197915
0.27496693 0.11285938 1.0725604 10197915
0.32493132 0.11290331 1.0729151 10197915
0.3749361 0.11294697 1.0733685 10197915
0.42497784 0.11299086 1.0737722 10197915
0.47498435 0.11303468 1.0741644 10132122
0.52503008 0.11307842 1.0746052 10066329
0.57503957 0.1131222 1.0750326 10132122
0.62501371 0.11316627 1.0753493 10197915
0.67495066 0.11320969 1.0758518 10197915
0.72500312 0.11325361 1.0762438 10197915
0.77501774 0.11329751 1.0766212 10197915
0.82407075 0.11333777 1.077913 10197915
0.85888952 0.11332938 1.090921 10197915
0.028613981 -0.50488865 1.1393875 11711154
-0.0026243001 -0.47111678 1.1028544 11711154
0.018425602 -0.47466388 1.1275516 11711154
-0.002745881 -0.42501166 1.102901 10790052
0.01822613 -0.42500123 1.1275216 11382189
-0.0027408367 -0.37497279 1.1031128 6447714
0.018222766 -0.37499425 1.1277221 6447714
-0.0027399629 -0.32499087 1.1033201 6447714
0.018216552 -0.32500446 1.1279227 6447714
-0.0027460363 -0.27506694 1.1035187 6447714
0.018226484 -0.27499598 1.1281399 6447714
-0.002975428 -0.22405256 1.103458 6447714
0.017967578 -0.22515908 1.1280394 6447714
-0.003201131 -0.17501248 1.1033953 6447714
0.017747853 -0.17500944 1.1279879 6447714
-0.0031921838 -0.12501317 1.1036115 6447714
0.017778989 -0.12500507 1.1282309 6447714
-0.0032095036 -0.075126797 1.1037959 6447714
0.017734498 -0.074994631 1.1283833 6447714
-0.0031981161 -0.025155136 1.1040156 6447714
0.017788364 -0.024990737 1.1286526 6447714
-0.0033423172 0.025780823 1.1040559 6447714
0.017738461 0.024932668 1.1287997 6447714
-0.0036591901 0.075059667 1.1038864 8026746
0.017265145 0.075006083 1.128451 8092539
-0.0036047664 0.10622618 1.1040787 10197915
0.021494577 0.10802533 1.1264503 10197915
0.075019345 0.11252722 1.1222796 10197915
0.12497693 0.11257029 1.1229107 10197915
0.17497273 0.11261426 1.1232644 10197915
0.22500734 0.11265837 1.1235876 10197915
0.2750034 0.11270148 1.1242335 10197915
0.32495931 0.11274562 1.1245009 10197915
0.37495655 0.11278936 1.1249368 10197915
0.42499021 0.11283259 1.1255419 10197915
0.47498518 0.11287694 1.125766 10197915
0.52494121 0.11292027 1.1263136 10197915
0.57478213 0.11296404 1.12669 10197915
0.62492257 0.11302182 1.1225798 10197915
0.67494929 0.11306513 1.123148 10197915
0.72492391 0.11310883 1.1235824 10197915
0.77502757 0.11315305 1.1238834 10197915
0.82507896 0.11319631 1.1244861 10197915
0.87198573 0.11323112 1.1269343 10197915
0.90414375 0.11321454 1.1418281 10197915
0.044491816 -0.50903261 1.15801 11711154
0.066523746 -0.51485556 1.1838509 11711154
0.043620706 -0.47496 1.1571277 11711154
0.065154307 -0.47504029 1.1824074 11711154
0.043625746 -0.42499843 1.1573396 11711154
0.064675055 -0.42508176 1.1820498 11711154
0.043638371 -0.37505513 1.1575593 6842472
0.064660251 -0.37499803 1.1822388 7434609
0.043653835 -0.32501975 1.1577837 6447714
0.064661182 -0.32499549 1.182445 6447714
0.043657571 -0.27500224 1.1579939 6447714
0.064668693 -0.27500972 1.1826594 6447714
0.043364279 -0.22455418 1.1578573 6447714
0.064694099 -0.22500515 1.182897 6447714
0.043170385 -0.17497848 1.1578332 6447714
0.064575307 -0.17516811 1.182961 6447714
0.043173347 -0.12501243 1.1580423 6447714
0.064164966 -0.12499952 1.1826855 6447714
0.043176178 -0.07499405 1.1582521 6447714
0.064216338 -0.074998438 1.1829509 6447714
0.043211587 -0.024956727 1.1584983 6447714
0.064207733 -0.024998693 1.1831474 6447714
0.043158364 0.025140515 1.1586426 6447714
0.064219564 0.025004858 1.1833664 6447714
0.04268726 0.074990071 1.1582943 8224125
0.064252131 0.075005554 1.1836089 8289918
0.042874601 0.10664491 1.1583022 10197915
0.069627218 0.10856239 1.1788826 10197915
0.1250665 0.11241224 1.1746385 10197915
0.17506251 0.112456 1.1750538 10197915
0.22500117 0.11249974 1.1754707 10197915
0.27497685 0.11254289 1.1760821 10197915
0.32499176 0.11258697 1.176422 10197915
0.37504733 0.11263065 1.1768785 10197915
0.42494372 0.1126742 1.1773331 10197915
0.47497809 0.11271766 1.1778686 10197915
0.52514857 0.11276161 1.1782867 10197915
0.57525384 0.11280616 1.1784784 10197915
0.62504995 0.11286368 1.1743234 10197915
0.67493224 0.11290777 1.1746147 10197915
0.72492433 0.11296614 1.1702511 10197915
0.77496755 0.11300949 1.1708188 10197915
0.82495242 0.1130536 1.1711174 10197915
0.87487769 0.11309709 1.1716079 10197915
0.91801465 0.11312016 1.1767737 10197915
0.11722112 -0.55311936 1.2432091 11711154
0.090769172 -0.52116746 1.2122875 11711154
0.1117649 -0.52486777 1.2369193 11711154
0.090396009 -0.47495559 1.2120397 11711154
0.11145644 -0.47534642 1.2367622 11711154
0.089874014 -0.42489541 1.2116321 11711154
0.11115262 -0.42501232 1.236612 11711154
0.08987239 -0.37502789 1.2118357 8158332
0.11119532 -0.37498274 1.2368701 8750469
0.089887999 -0.32501566 1.2120605 6447714
0.11123078 -0.32501471 1.2371156 6447714
0.089888349 -0.27498496 1.2122657 6447714
0.11122441 -0.27502805 1.2373134 6447714
0.089923568 -0.22498883 1.212513 6447714
0.11126479 -0.22502309 1.2375661 6447714
0.089786939 -0.17475069 1.2125597 6447714
0.11094257 -0.17534319 1.2373937 6447714
0.089379996 -0.12500797 1.2122862 6447714
0.11070219 -0.12499253 1.237317 6447714
0.089431107 -0.074998535 1.2125517 6447714
0.11076317 -0.074997529 1.237594 6447714
0.089430265 -0.024996053 1.212757 6447714
0.11076328 -0.025013717 1.2378007 6447714
0.088899732 0.025008772 1.2123406 6447714
0.110208 0.024985341 1.2373545 6447714
0.088933893 0.075009808 1.2125852 8355711
0.11025976 0.074992754 1.2376207 8487297
0.089208975 0.10678058 1.212152 10197915
0.11850319 0.10913602 1.2308079 10197915
0.17490275 0.11229847 1.2265458 10197915
0.2249908 0.11234199 1.2270683 10197915
0.27501652 0.1123859 1.227455 10197915
0.32413316 0.11243154 1.2269944 10197915
0.37496668 0.11248945 1.2230358 10197915
0.42504108 0.11253297 1.2235662 10197915
0.47502974 0.11257651 1.2240654 10197915
0.52492785 0.11261999 1.2245405 10197915
0.57499319 0.11266404 1.2248778 10197915
0.62496835 0.11270698 1.2255697 10197915
0.675107 0.11275159 1.2257491 10197915
0.72502714 0.11281096 1.2210469 10197915
0.77500314 0.1128543 1.2216054 10197915
0.82501793 0.11289816 1.2219909 10197915
0.87507224 0.1129417 1.222506 10197915
0.92496049 0.11298533 1.2229331 10197915
0.96461743 0.11299585 1.2311648 10197915
0.13822934 -0.55861193 1.2678492 11711154
0.15817395 -0.56384522 1.2912412 11711154
0.13633294 -0.52498966 1.2657619 11711154
0.15777428 -0.52498263 1.2909317 11711154
0.13605778 -0.47470683 1.265645 11711154
0.15741338 -0.47546998 1.2907116 11711154
0.13578942 -0.4249993 1.2655348 11711154
0.15720196 -0.42500579 1.2906722 11711154
0.13581811 -0.37501034 1.2657732 9408399
0.15723789 -0.37499094 1.2909197 10000536
0.13585225 -0.32500193 1.2660195 6447714
0.15727156 -0.32504651 1.2911648 6447714
0.13586418 -0.27499858 1.2662392 6447714
0.15730196 -0.27503878 1.2914065 6447714
0.13589166 -0.22499911 1.2664778 6447714
0.15731217 -0.22501273 1.2916237 6447714
0.13555618 -0.17472918 1.2662908 6447714
0.15707837 -0.17560694 1.2915534 6447714
0.1353381 -0.12498299 1.2662388 6447714
0.15676071 -0.12504444 1.291388 6447714
0.13537706 -0.074986085 1.2664908 6447714
0.15677518 -0.075108401 1.2916099 6447714
0.1353877 -0.024992906 1.2667089 6447714
0.15681638 -0.025105843 1.2918648 6447714
0.13541009 0.024977207 1.2669407 6447714
0.15683596 0.02506371 1.2920933 6447714
0.1354617 0.074941836 1.2672062 8553090
0.15687488 0.075054251 1.2923453 8618883
0.13603316 0.10668372 1.2669353 10197915
0.16815992 0.10965738 1.2827058 10197915
0.22490646 0.11218778 1.27748 10197915
0.27489075 0.1122319 1.2777593 10197915
0.32604149 0.1122805 1.276957 10197915
0.37509114 0.11233683 1.2729979 10197915
0.42504224 0.11237992 1.2736387 10197915
0.47503096 0.11242399 1.2739347 10197915
0.5249542 0.11246716 1.2745254 10197915
0.57502151 0.11251064 1.2750703 10197915
0.62502211 0.1125545 1.2754632 10197915
0.67495352 0.11259795 1.2759571 10197915
0.72380793 0.11265134 1.2729036 10197915
0.77509522 0.11270287 1.2711285 10197915
0.8250519 0.11274574 1.2718331 10197915
0.87491155 0.11278977 1.2721397 10197915
0.92507643 0.11283328 1.2726943 10197915
0.97501564 0.11287687 1.2731827 10197915
1.0103742 0.11287764 1.2833202 10197915
0.18303737 -0.56848508 1.32041 11711154
0.20392697 -0.56898552 1.3449318 11711154
0.18269125 -0.52500784 1.320183 11711154
0.20397033 -0.52496016 1.3451639 11711154
0.18228601 -0.47478858 1.3199149 11711154
0.20400819 -0.4748928 1.3454146 11711154
0.18209733 -0.42499489 1.3198981 11711154
0.20403095 -0.42499247 1.3456465 11711154
0.18212809 -0.37498084 1.32014 10724259
0.20401961 -0.37549224 1.3458371 11382189
0.18214199 -0.32498819 1.320361 6447714
0.20344248 -0.3249447 1.3453677 6447714
0.18219987 -0.27501768 1.3206342 6447714
0.20346831 -0.27494437 1.3456029 6447714
0.18221621 -0.22500806 1.3208601 6447714
0.20352413 -0.22503676 1.3458737 6447714
0.18195018 -0.17474544 1.3207548 6447714
0.20355587 -0.17499851 1.3461176 6447714
0.1816484 -0.12497388 1.3206049 6447714
0.20358776 -0.12505408 1.3463603 6447714
0.18166232 -0.074947402 1.3208286 6447714
0.20361926 -0.075203352 1.3466023 6447714
0.18170978 -0.024961274 1.3210886 6447714
0.20320149 -0.026252037 1.3463134 6447714
0.18174349 0.024967413 1.3213334 6447714
0.20302796 0.0251002 1.3463209 6447714
0.18176475 0.074971206 1.3215649 8684676
0.20305435 0.075174861 1.3465575 8816262
0.18274412 0.1069582 1.3206357 10197915
0.22099866 0.11089958 1.3295089 10197915
0.27499104 0.11208376 1.326285 10197915
0.3251158 0.11212762 1.326732 10197915
0.3750053 0.11217114 1.3271738 10197915
0.42493013 0.11221427 1.3277587 10197915
0.47503486 0.11225777 1.3283094 10197915
0.52503842 0.11230166 1.3286833 10197915
0.57494158 0.11234436 1.3294407 10197915
0.62488639 0.11238849 1.3297105 10197915
0.67500472 0.11243162 1.3303665 10197915
0.7249344 0.11249726 1.3236415 10197915
0.77506107 0.11255671 1.318949 10197915
0.8249625 0.11260071 1.3192858 10197915
0.87490487 0.11264385 1.319899 10197915
0.92488462 0.11268717 1.3204424 10197915
0.97490484 0.1127308 1.3209182 10197915
1.0230681 0.11276843 1.3227779 10197915
1.0565863 0.11275519 1.3369824 10197915
0.22885939 -0.5690524 1.3742015 11711154
0.22893374 -0.52499712 1.3744708 11711154
0.22893399 -0.47499582 1.3746756 11711154
0.22898345 -0.42499539 1.3749386 11711154
1.0491544 -0.41850248 1.3991312 11711154
1.0687039 -0.41869187 1.3824782 11711154
0.22895662 -0.37491181 1.375114 11645361
1.0492001 -0.37504542 1.3991923 11711154
1.0687704 -0.37499949 1.3825228 11711154
0.22801471 -0.32522598 1.374213 6776679
1.049252 -0.32521003 1.3992612 11711154
1.0688293 -0.32498434 1.382586 11711154
0.22768122 -0.27502435 1.3740289 6447714
1.0493045 -0.27536976 1.3993312 5197647
1.0688838 -0.27497378 1.382655 5329233
0.22774617 -0.22500977 1.3743095 6447714
1.0493529 -0.2252319 1.399405 2894892
1.0689421 -0.22499074 1.3827188 2894892
0.22780754 -0.17501473 1.3745884 6447714
1.049414 -0.17480765 1.3994688 2894892
1.0689826 -0.17499211 1.3828 2894892
0.22781701 -0.12500098 1.3748058 6447714
1.0494627 -0.1246597 1.3995423 2894892
1.0690324 -0.12499902 1.3828729 2894892
0.22788261 -0.074968465 1.375087 6447714
1.0495149 -0.074799478 1.3996119 2894892
1.0690653 -0.075000927 1.3829575 2894892
0.22737597 -0.024816312 1.3746982 6447714
1.0496163 -0.027655542 1.3996338 2894892
1.0691738 -0.024999015 1.3829789 2894892
0.22661151 0.024906421 1.3740059 6447714
1.049973 0.024930544 1.3994499 2894892
1.0692282 0.025000649 1.3830491 2894892
0.22659269 0.074978247 1.3741907 8882055
1.0499998 0.050441738 1.3994855 2960685
1.0688939 0.074998021 1.3834467 9474192
0.22828999 0.10705622 1.3732426 10197915
0.27510279 0.11192486 1.37827 10197915
0.32519355 0.11196794 1.3789593 10197915
0.37353358 0.11202264 1.3753085 10197915
0.42497876 0.11207508 1.3733133 10197915
0.47484475 0.11211874 1.37374 10197915
0.52494335 0.11216252 1.3741723 10197915
0.57508081 0.11220577 1.3748068 10197915
0.625063 0.11224887 1.375442 10197915
0.67508626 0.11229262 1.3758707 10197915
0.72674054 0.11234872 1.3727477 10197915
0.77487832 0.11239996 1.3701786 10197915
0.82501215 0.11244315 1.3708217 10197915
0.87504071 0.11248704 1.3712003 10197915
0.92510837 0.11253009 1.3718814 10197915
0.97507137 0.11257358 1.3723725 10197915
1.0247846 0.11261667 1.3729376 10197915
1.0683347 0.1070544 1.3816282 10197915
0.27140316 -0.56910235 1.4241449 11711154
0.2714521 -0.5250228 1.424383 10592673
0.27148783 -0.4750362 1.424631 4802889
0.27155969 -0.42501071 1.4249231 4802889
0.99507785 -0.41885117 1.4451946 3750201
1.0247234 -0.41876799 1.4199455 7171437
0.27160329 -0.37498698 1.4251783 4802889
0.99481791 -0.37530428 1.4455156 2894892
1.0244938 -0.37495133 1.4202397 6381921
0.24999107 -0.3149538 1.400054 6447714
0.27128643 -0.32513216 1.4250119 3881787
0.99479663 -0.32502663 1.4456488 2894892
1.0244731 -0.32498625 1.4203625 6381921
0.27017447 -0.27500391 1.423912 3750201
0.99484628 -0.27500731 1.4457207 2894892
1.0245292 -0.27498209 1.4204295 3750201
0.27022192 -0.22498757 1.4241742 3750201
0.99491721 -0.2250299 1.4457755 2894892
1.0245849 -0.22500016 1.4205061 2829099
0.27029508 -0.17499468 1.4244658 3750201
0.99493319 -0.17495531 1.4458761 2894892
1.0246336 -0.17500381 1.4205811 2894892
0.2703402 -0.12498283 1.4247248 3750201
0.99497074 -0.12492026 1.4459597 2894892
1.0246663 -0.12501146 1.4206618 2894892
0.27036849 -0.075016282 1.424963 3750201
0.99507052 -0.075161353 1.4459878 2894892
1.0247045 -0.075014003 1.4207408 2894892
0.27043569 -0.025031483 1.4252484 3750201
0.9950906 -0.02516182 1.4460856 2894892
1.0248965 -0.024932085 1.4206936 2894892
0.24884188 0.027843053 1.400115 6447714
0.27009201 0.024807146 1.4250468 3750201
0.99546093 0.02490432 1.4458845 2894892
1.025227 0.025004514 1.4205343 2894892
0.24888529 0.074840412 1.4003596 8947848
0.26976746 0.075036116 1.4248747 5460819
0.99559546 0.075129509 1.4458848 2894892
1.0252316 0.075005576 1.4206442 5658198
0.24891374 0.1055998 1.4005195 10197915
0.27279142 0.10712801 1.4246612 10197915
0.3251994 0.11181788 1.4280461 10197915
0.3766228 0.11187892 1.4232457 10197915
0.4250271 0.11192645 1.421939 10197915
0.47513825 0.11196982 1.4225341 10197915
0.52498984 0.11201323 1.4230371 10197915
0.57488036 0.11205634 1.423633 10197915
0.62495965 0.1121003 1.4240122 10197915
0.67507404 0.11214324 1.424737 10197915
0.72508371 0.11218701 1.4251573 10197915
0.77498043 0.1122295 1.4259653 10197915
0.82491457 0.11227382 1.4261715 10197915
0.87503844 0.11231663 1.4269404 10197915
0.92505085 0.11236006 1.4274883 9737364
0.98358101 0.10955599 1.434552 5395026
1.0246636 0.10673217 1.4201039 6052956
0.93996447 -0.61890239 1.4916826 11711154
0.96096146 -0.61884856 1.4792695 11711154
0.29622418 -0.56926274 1.4532831 11711154
0.31716442 -0.5691734 1.4778659 11711154
0.94031 -0.57520252 1.4914894 11711154
0.96106535 -0.57495242 1.4794519 11711154
0.29626828 -0.52494657 1.4535172 8355711
0.31719992 -0.52500999 1.4780897 6381921
0.94043756 -0.52501237 1.4914956 11711154
0.96087307 -0.52523273 1.4794613 11711154
0.29631871 -0.47490337 1.4537821 2894892
0.31724119 -0.47499642 1.4783434 2894892
0.94049871 -0.47503719 1.4915581 11711154
0.96019506 -0.47501737 1.4790299 11711154
0.29639271 -0.42499185 1.4540745 2894892
0.31733122 -0.4249925 1.4786543 2894892
0.94055164 -0.42503181 1.4916275 5000268
0.96894568 -0.42165613 1.4677345 4210752
0.29642889 -0.37506339 1.4543222 2894892
0.31736505 -0.37499705 1.4789016 2894892
0.94058669 -0.37499481 1.4917113 2894892
0.9702329 -0.37500453 1.4664578 2894892
0.29616493 -0.32367951 1.454224 2894892
0.31745386 -0.32501164 1.4792109 2894892
0.94063699 -0.32503083 1.4917833 2894892
0.97028154 -0.32499987 1.466532 2894892
0.29575059 -0.27503297 1.4539378 2894892
0.31725746 -0.27524701 1.4791845 2894892
0.94068503 -0.27501014 1.4918568 2894892
0.97033179 -0.27500257 1.4666026 2894892
0.29579034 -0.22507882 1.4541895 2894892
0.31671733 -0.22498411 1.478757 2894892
0.94073248 -0.22495842 1.4919322 2829099
0.97039157 -0.22498849 1.466666 2894892
0.29589108 -0.17498684 1.4545143 2894892
0.31682029 -0.17501348 1.4790835 2894892
0.94074798 -0.17507727 1.4920323 2894892
0.97037697 -0.17494793 1.4667958 2894892
0.29590029 -0.12499757 1.4547307 2894892
0.31682557 -0.12505308 1.479295 2894892
0.94064671 -0.12534691 1.4922324 2894892
0.97009283 -0.12498947 1.4671513 2894892
0.29600105 -0.074985042 1.4550545 2894892
0.31692511 -0.07501661 1.479617 2894892
0.94081759 -0.074995182 1.4922026 2894892
0.97017193 -0.074988157 1.4671977 2894892
0.29601023 -0.024962375 1.4552706 2894892
0.31697142 -0.024991417 1.4798775 2894892
0.94095552 -0.024955401 1.4921991 2894892
0.97015524 -0.024994409 1.4673257 2894892
0.29561326 0.026148099 1.4550152 2894892
0.31703019 0.024997588 1.4801533 2894892
0.94100231 0.024957087 1.4922737 2894892
0.97054166 0.025059661 1.4671117 2894892
0.29538161 0.075040974 1.4549451 4079166
0.31694254 0.074818023 1.4802552 3684408
0.94095832 0.075006828 1.4924264 2894892
0.97070009 0.07500156 1.4670923 2894892
0.29537767 0.10609314 1.4550329 10197915
0.32066283 0.107807 1.4762511 10197915
0.37526345 0.11172365 1.4736208 10197915
0.4248766 0.11176663 1.4741875 10197915
0.47473541 0.1118094 1.4748845 10197915
0.52503967 0.11185373 1.4752073 10197915
0.57518083 0.11189678 1.4759048 10197915
0.62515175 0.11193968 1.4766041 10197915
0.67516387 0.1119834 1.4770465 10197915
0.72501183 0.11202653 1.4776157 10197915
0.77489448 0.11206976 1.4781858 10197915
0.82502449 0.11211317 1.4787591 9934743
0.87498426 0.11215645 1.479329 6974058
0.93506885 0.10822391 1.4875772 3092271
0.97056103 0.10651895 1.4667553 2960685
0.88605624 -0.61901397 1.5376041 11711154
0.91508502 -0.61896831 1.5128762 11711154
0.99448091 -0.61904675 1.5078226 11711154
1.0141944 -0.61901516 1.5309663 11711154
0.34303176 -0.56916654 1.5082322 3684408
0.36470109 -0.56922662 1.533671 2894892
0.88611293 -0.5749898 1.5376573 11711154
0.91543841 -0.57487965 1.5126749 11711154
0.99501008 -0.57499969 1.5086255 11711154
1.0147347 -0.57492208 1.531782 11711154
0.34311292 -0.52495736 1.5085101 3026478
0.36476982 -0.52499455 1.5339342 2894892
0.88616878 -0.52497941 1.5377197 11711154
0.91558552 -0.52500629 1.5126655 11711154
0.99446714 -0.52261758 1.508204 11711154
1.015262 -0.52485383 1.5326071 11711154
0.34249184 -0.47538269 1.5079851 2894892
0.36399743 -0.47501934 1.5332332 2894892
0.88619697 -0.47494537 1.5378175 11711154
0.91560817 -0.4750472 1.5127597 11711154
0.99340743 -0.47516894 1.5071543 11711154
1.0152234 -0.47888801 1.5327507 11711154
0.34236631 -0.42491955 1.5080456 2894892
0.36311615 -0.42504549 1.5324036 2894892
0.8862536 -0.42496419 1.5378765 4276545
0.915685 -0.42503327 1.5128093 4671303
0.98825216 -0.44903594 1.5012102 11711154
0.34243011 -0.37500811 1.5083252 2894892
0.36321247 -0.37500024 1.5327232 2894892
0.88628477 -0.3750166 1.5379665 2894892
0.91571635 -0.37501428 1.5128963 2894892
0.34249637 -0.32499975 1.5086091 2894892
0.36330944 -0.3250156 1.5330433 2894892
0.88633329 -0.32504499 1.5380437 2894892
0.91576719 -0.3250241 1.5129688 2894892
0.34230053 -0.27440837 1.5085872 2894892
0.36332554 -0.27501217 1.5332682 2894892
0.88637847 -0.27504835 1.5381109 2894892
0.91579908 -0.27502871 1.5130539 2894892
0.34178156 -0.22500314 1.5081818 2894892
0.3634361 -0.2249905 1.5336022 2894892
0.8862192 -0.22522277 1.5383682 2894892
0.91566026 -0.22484584 1.5132879 2829099
0.34182611 -0.1749806 1.50844 2894892
0.36347884 -0.17498976 1.5338585 2894892
0.8863259 -0.17517248 1.5383903 2894892
0.91551071 -0.17501156 1.5135307 2894892
0.34188008 -0.12500994 1.5087087 2894892
0.36353227 -0.12496995 1.5341269 2894892
0.88648486 -0.12497602 1.5383646 2894892
0.91574097 -0.12479951 1.5134475 2894892
0.34198141 -0.075020127 1.5090324 2894892
0.36292562 -0.075175807 1.5336198 2894892
0.88659501 -0.074878722 1.5383943 2894892
0.9160344 -0.07502681 1.5133117 2894892
0.34204498 -0.025010845 1.5093126 2894892
0.36277619 -0.024992725 1.5336505 2894892
0.88657832 -0.024878936 1.5385183 2894892
0.91598904 -0.025080219 1.5134653 2894892
0.34210846 0.025017025 1.5095934 2894892
0.36285248 0.024956467 1.5339456 2894892
0.88661063 0.02485982 1.5386043 2894892
0.91603434 0.025081899 1.5135427 2894892
0.34198815 0.075485155 1.5096601 3421236
0.36296999 0.074919224 1.5342892 3026478
0.8867383 0.074870035 1.5386144 2894892
0.91617173 0.075038388 1.5135399 2894892
0.34146044 0.10639985 1.5084448 10197915
0.36927375 0.10826167 1.5279787 10197915
0.42525086 0.1116203 1.5221652 10197915
0.47525606 0.11166354 1.5227538 10197915
0.52508581 0.11170622 1.5234816 10197915
0.57495397 0.11174978 1.5239305 10197915
0.62486351 0.11179294 1.5245188 10197915
0.67501998 0.11183632 1.5251104 10197915
0.72521901 0.11187975 1.5257033 10066329
0.77503127 0.11192242 1.5264308 7566195
0.82487953 0.11196639 1.5267367 3947580
0.88296556 0.10754282 1.5351622 2894892
0.91590196 0.10625399 1.5135556 2894892
0.83148801 -0.61909968 1.5840859 11711154
0.86094999 -0.6190294 1.5589899 10855845
1.0404464 -0.61899036 1.5617851 11711154
1.0614004 -0.61868805 1.5863861 11711154
0.38911077 -0.56952029 1.5623261 2894892
0.41045266 -0.56906062 1.5873816 2894892
0.83153081 -0.57499552 1.5841494 11711154
0.86098921 -0.57500553 1.5590572 11711154
1.0401572 -0.57667756 1.5616193 11711154
1.0609825 -0.57320166 1.5860823 11711154
0.38900778 -0.52506381 1.5623882 2894892
0.41039416 -0.52493691 1.5874949 2894892
0.83156079 -0.52498281 1.5842407 11711154
0.86102182 -0.52503967 1.5591434 11711154
1.0385187 -0.5251956 1.5599077 11711154
1.0595676 -0.52503341 1.5846195 11711154
0.38891363 -0.47473466 1.5624838 2894892
0.40978974 -0.47535646 1.5869899 2894892
0.83160907 -0.4749653 1.5843136 11711154
0.86107022 -0.4749648 1.559216 11711154
1.038862 -0.48339388 1.5604826 11711154
1.0593035 -0.48751038 1.5844635 11711154
0.38826177 -0.42502287 1.5619243 2894892
0.40959087 -0.42496029 1.5869632 2894892
0.83185905 -0.42512292 1.584213 3552822
0.86112142 -0.42493615 1.5592879 3947580
0.38832834 -0.37499765 1.5622089 2894892
0.40968043 -0.37494317 1.5872734 2894892
0.83215541 -0.37499064 1.5840757 2894892
0.86115241 -0.37495482 1.559375 2894892
0.38837501 -0.32495424 1.5624679 2894892
0.40976101 -0.32496697 1.5875742 2894892
0.83218729 -0.32496658 1.5841649 2894892
0.86119801 -0.32499462 1.559451 2894892
0.38848034 -0.27499956 1.5627974 2894892
0.40981022 -0.27497274 1.5878365 2894892
0.83223295 -0.27497032 1.5842382 2894892
0.86124837 -0.27500299 1.5595232 2894892
0.38855085 -0.22502649 1.5630858 2894892
0.40991342 -0.22501956 1.588165 2894892
0.8322497 -0.22500172 1.5843393 2894892
0.86127162 -0.22498092 1.5596173 2829099
0.38860908 -0.17503528 1.5633605 2894892
0.4099941 -0.17498712 1.5884649 2894892
0.8323313 -0.17499568 1.5843846 2894892
0.86162162 -0.17481101 1.5594342 2894892
0.3886613 -0.12507889 1.563627 2894892
0.4098247 -0.12533127 1.5884706 2894892
0.832353 -0.12503327 1.5844802 2894892
0.86179072 -0.12503271 1.5594045 2894892
0.38800645 -0.074849419 1.5630654 2894892
0.4092114 -0.074996635 1.5879577 2894892
0.83245385 -0.074985139 1.5845088 2894892
0.86186939 -0.075117782 1.5594504 2894892
0.38788018 -0.025058031 1.5631216 2894892
0.40928733 -0.025002992 1.5882523 2894892
0.83237898 -0.024947435 1.5846884 2894892
0.86190301 -0.02512433 1.5595381 2894892
0.38794532 0.025014542 1.5634034 2894892
0.40936333 0.025009178 1.5885469 2894892
0.83218431 0.024796156 1.5849664 2894892
0.86171514 0.025345096 1.5598129 2894892
0.38810846 0.075049914 1.5638008 2894892
0.40941691 0.074974075 1.5888147 2894892
0.83239472 0.074858166 1.584902 2894892
0.86155081 0.07511685 1.5600663 2894892
0.38846365 0.10654 1.5630903 9408399
0.41871682 0.10884903 1.5795118 9145227
0.47493833 0.11150667 1.5739698 10197915
0.52491635 0.11154938 1.5747315 10197915
0.5749346 0.11159352 1.5750326 10197915
0.62498897 0.11163581 1.5759516 10066329
0.67508459 0.11167954 1.5764093 7631988
0.72500157 0.11172268 1.5770144 4079166
0.77495384 0.11176579 1.5776271 2960685
0.83028483 0.10712023 1.582502 2894892
0.86135823 0.10613678 1.5601584 2894892
0.77735817 -0.61921507 1.6301937 11711154
0.80621403 -0.61914814 1.6056136 11711154
1.0863787 -0.61904556 1.6157078 11711154
1.1090256 -0.61914378 1.6422943 11711154
0.43528935 -0.5693174 1.6165377 2894892
0.45619294 -0.56935221 1.6410772 2894892
0.77737206 -0.57501072 1.6302828 11711154
0.80622357 -0.57498574 1.6057093 11711154
1.086362 -0.5757497 1.6158661 11711154
1.1086842 -0.57332689 1.6420822 11711154
0.43542373 -0.52501005 1.616879 2894892
0.45627272 -0.52505285 1.6413538 2894892
0.77744287 -0.52498597 1.6303401 11711154
0.806301 -0.52502573 1.6057566 11711154
1.0845084 -0.52485049 1.6138998 11711154
1.1069621 -0.52506763 1.6402587 11711154
0.43467644 -0.47471678 1.6162082 2894892
0.45637348 -0.47501558 1.6416774 2894892
0.77745408 -0.47498363 1.6304432 11579568
0.80631721 -0.47501296 1.6058551 11711154
1.0835594 -0.49200344 1.6129209 11711154
1.1059997 -0.49643421 1.6392468 11711154
0.43460578 -0.42506942 1.6163293 2894892
0.4564268 -0.4249596 1.641946 2894892
0.77752042 -0.42499149 1.6305002 2960685
0.80660331 -0.42457443 1.6057302 3223857
0.43466949 -0.37509635 1.6166102 2894892
0.45655084 -0.37498283 1.6422975 2894892
0.77751499 -0.3749944 1.63062 2894892
0.80686218 -0.3750321 1.6056216 2894892
0.43471909 -0.32506099 1.6168735 2894892
0.4566125 -0.32488999 1.6425757 2894892
0.77760392 -0.32497749 1.6306581 2894892
0.80692279 -0.32498214 1.6056867 2894892
0.43482766 -0.27500653 1.6172073 2894892
0.45611683 -0.27577776 1.6421961 2894892
0.77760178 -0.27498528 1.6307738 2894892
0.80694824 -0.27497047 1.6057779 2894892
0.43489781 -0.22497785 1.6174958 2894892
0.45579389 -0.22493902 1.6420263 2894892
0.77766728 -0.22500128 1.6308339 2829099
0.80698377 -0.22499999 1.6058607 2894892
0.43500313 -0.17502023 1.6178243 2894892
0.4558467 -0.17497326 1.642293 2894892
0.77777046 -0.17504567 1.630863 2894892
0.80703491 -0.17506739 1.6059285 2894892
0.43483192 -0.12471414 1.6178305 2894892
0.45597267 -0.12498653 1.642647 2894892
0.77818906 -0.12498815 1.6306187 2894892
0.80709434 -0.12495406 1.6059964 2894892
0.43419939 -0.074914172 1.6172924 2894892
0.45599687 -0.075212292 1.6428797 2894892
0.77836627 -0.075003281 1.6305819 2894892
0.80706769 -0.075008795 1.6061341 2894892
0.43422636 -0.024963239 1.6175295 2894892
0.4561232 -0.0251878 1.6432348 2894892
0.77821267 -0.024998231 1.6308277 2894892
0.80718082 -0.025110876 1.6061493 2894892
0.43430698 0.024969406 1.6178313 2894892
0.45620856 0.025194073 1.6435419 2894892
0.778247 0.024999863 1.6309109 2894892
0.80722129 0.025112532 1.6062311 2894892
0.43444115 0.074957386 1.6181924 2894892
0.45625603 0.07514216 1.6438035 2894892
0.7784819 0.074985608 1.6308256 2894892
0.80748385 0.075382583 1.6061258 2894892
0.43515879 0.10647202 1.6176034 6842472
0.4698261 0.10946553 1.6327432 8421504
0.52496088 0.1113818 1.6295536 9868950
0.57490993 0.1114254 1.6300111 7237230
0.6235742 0.11147188 1.6291549 4013373
0.67529237 0.1115405 1.6219493 2960685
0.72529715 0.11158364 1.6225759 2960685
0.77727759 0.10650102 1.6297996 2894892
0.80771482 0.10578987 1.6059959 2960685
0.74262601 -0.61925459 1.6597798 11711154
0.75204682 -0.61929327 1.6517557 11711154
1.132399 -0.61924571 1.6697328 11711154
1.1530443 -0.61897898 1.6939713 11711154
0.48190042 -0.56944281 1.6712558 2894892
0.50381231 -0.57144743 1.6969717 2894892
0.74244207 -0.57458019 1.6600385 11711154
0.75208563 -0.57497549 1.6518233 11711154
1.1329786 -0.57500619 1.6705958 11711154
1.1536562 -0.57507032 1.6948702 11711154
0.48145929 -0.52535462 1.6709201 2894892
0.50261438 -0.52238226 1.695767 2894892
0.74220008 -0.52502346 1.6603593 11711154
0.75211781 -0.52490866 1.6519105 11711154
1.1328604 -0.52658248 1.6706567 11711154
1.1542689 -0.53111678 1.6957704 11711154
0.48104209 -0.47499329 1.6706364 2894892
0.50224364 -0.47484577 1.6955278 2894892
0.74224639 -0.47501728 1.6604342 11250603
0.75215536 -0.47497362 1.6519927 11382189
1.1205639 -0.49886706 1.6563344 11711154
0.48113534 -0.42495495 1.6709526 2894892
0.50233686 -0.42505157 1.695842 2894892
0.74228317 -0.4250046 1.6605152 2894892
0.75219285 -0.42503387 1.6520753 2894892
0.48117977 -0.37497962 1.6712093 2894892
0.50241005 -0.37500438 1.6961335 2894892
0.74231869 -0.37498811 1.6606011 2894892
0.75223041 -0.37508866 1.6521578 2894892
0.48129681 -0.32502627 1.6715535 2894892
0.50254381 -0.32494009 1.6964967 2894892
0.74234098 -0.32496572 1.6606967 2894892
0.75227886 -0.32500306 1.6522315 2894892
0.48074961 -0.27467537 1.6711183 2894892
0.50259644 -0.27509061 1.6967634 2894892
0.74239826 -0.27493978 1.6607617 2894892
0.75229466 -0.27504542 1.6523321 2894892
0.4803991 -0.22501881 1.6709105 2894892
0.50271058 -0.22498789 1.697103 2894892
0.74242264 -0.22495282 1.6608573 2829099
0.75235367 -0.22508861 1.6523963 2894892
0.48053828 -0.17501681 1.67128 2894892
0.50252157 -0.17715612 1.6970789 2894892
0.74250156 -0.17500821 1.6609025 2894892
0.75244421 -0.17441557 1.6524352 2894892
0.48057941 -0.12503502 1.6715338 2894892
0.50181836 -0.1251023 1.696467 2894892
0.74245983 -0.12510277 1.6610531 2894892
0.75292885 -0.12503172 1.6521358 2894892
0.48063105 -0.074996352 1.6717997 2894892
0.50191134 -0.075215571 1.6967816 2894892
0.74256259 -0.074874803 1.6610801 2894892
0.75293022 -0.075062953 1.6522484 2894892
0.48083326 -0.024978699 1.6722437 2894892
0.50200438 -0.025310319 1.6970959 2894892
0.74256718 -0.024775418 1.6611902 2894892
0.7530036 -0.025103077 1.6523004 2894892
0.48092285 0.024984885 1.672554 2894892
0.50209862 0.025316663 1.6974149 2894892
0.74251628 0.025005979 1.6613473 2894892
0.75304163 0.025104757 1.6523838 2894892
0.48087782 0.075001165 1.6727073 2894892
0.50219178 0.075259104 1.6977297 2894892
0.74218792 0.074828498 1.6617428 2894892
0.75304317 0.075074613 1.6524955 2894892
0.48216826 0.10638005 1.6727999 4144959
0.52100599 0.11018206 1.681667 3684408
0.57516295 0.11127654 1.678794 2894892
0.62688255 0.11132961 1.6766778 2894892
0.67504805 0.11139333 1.6700301 2894892
0.73383659 0.10810661 1.6651763 2960685
0.75309187 0.10600489 1.652406 2960685
1.1779095 -0.6190607 1.7231617 11711154
0.52782965 -0.56919527 1.7251755 2894892
1.178648 -0.57498372 1.7242091 11711154
0.52675802 -0.52532709 1.7240989 2894892
1.17689 -0.53517199 1.7223099 11711154
0.52627933 -0.47502181 1.7237432 2894892
0.52647114 -0.42503545 1.7241739 2894892
0.52651191 -0.3750301 1.724429 2894892
0.52662045 -0.32500628 1.7247598 2894892
0.52669084 -0.27500102 1.7250497 2894892
0.52687603 -0.22501554 1.7254721 2894892
0.52647382 -0.1746935 1.7252082 2894892
0.52566636 -0.12521185 1.7244647 2894892
0.5247528 -0.074982882 1.7235968 2894892
0.52508414 -0.025000149 1.7241931 2894892
0.52518171 0.025006345 1.7245117 2894892
0.52506167 0.074988544 1.7245762 2894892
0.52713251 0.1067717 1.7230668 2894892
0.57499486 0.11115167 1.7195963 2960685
0.62510908 0.11119386 1.7205639 2894892
0.67526764 0.11123702 1.7212317 2894892
0.72510719 0.11128037 1.7217429 2960685
0.75517255 0.11128525 1.729004 2960685
1.2225966 -0.61951715 1.7756215 11711154
0.57087409 -0.5695551 1.7757064 2894892
1.2232064 -0.57519227 1.7765199 11711154
0.54885477 -0.51405263 1.7500851 2894892
0.57077116 -0.52521849 1.7757689 2894892
1.217165 -0.54274416 1.7695608 11711154
0.54893464 -0.47496906 1.7503397 2894892
0.56984502 -0.47498113 1.7748883 2894892
0.54903668 -0.4250131 1.7506651 2894892
0.56998777 -0.42497101 1.7752616 2894892
0.54913878 -0.37503842 1.7509905 2894892
0.5701102 -0.37498569 1.7756104 2894892
0.54924077 -0.32504535 1.751316 2894892
0.57018381 -0.32498127 1.7759022 2894892
0.54934287 -0.2750335 1.7516415 2894892
0.57031751 -0.27500233 1.7762643 2894892
0.54944503 -0.22500321 1.7519675 2894892
0.5704363 -0.22500373 1.7766094 2894892
0.54954731 -0.17495418 1.7522936 2894892
0.57050538 -0.17503095 1.7768965 2894892
0.54917711 -0.12105465 1.7520806 2894892
0.570665 -0.12503825 1.7772895 2894892
0.54860431 -0.074742846 1.7515984 2894892
0.56984437 -0.075342752 1.7765306 2894892
0.54870635 -0.024676487 1.751924 2894892
0.5697341 -0.025024153 1.7766086 2894892
0.54877067 0.023977367 1.7521999 2894892
0.56976759 0.025114326 1.7768531 2894892
0.54776055 0.074728407 1.7512227 2894892
0.56858402 0.074998312 1.7756697 2894892
0.54799324 0.10650283 1.751451 2894892
0.57278723 0.10735018 1.7726427 2894892
0.62499505 0.1110286 1.7745615 2894892
0.67525214 0.11107044 1.7756917 2894892
0.72531009 0.11111411 1.7761562 2894892
0.76705968 0.11113536 1.7815129 2960685
1.2498348 -0.62753785 1.8075647 11711154
1.2680923 -0.61799395 1.8290383 11711154
0.59609348 -0.56941479 1.8053129 2894892
0.61713469 -0.56958991 1.8300147 2894892
1.265605 -0.57717216 1.8262856 11711154
0.59591854 -0.52393544 1.805295 2894892
0.61726731 -0.52494574 1.8303529 2894892
1.2431245 -0.54736257 1.8000171 11711154
1.2510151 -0.54942727 1.8092718 11711154
0.59510237 -0.47509098 1.8045379 2894892
0.61666763 -0.47535598 1.8298523 2894892
0.59517688 -0.42508212 1.8048304 2894892
0.6161896 -0.42491829 1.8295002 2894892
0.59532398 -0.3750523 1.8052096 2894892
0.61632752 -0.37502211 1.8298664 2894892
0.59539837 -0.32500854 1.8055027 2894892
0.61643654 -0.32498974 1.830201 2894892
0.59549093 -0.27494138 1.8058175 2894892
0.61657494 -0.27493912 1.8305688 2894892
0.59566522 -0.22504531 1.8062277 2894892
0.6166473 -0.22498678 1.8308593 2894892
0.59572178 -0.17494404 1.8064994 2894892
0.61680919 -0.17501545 1.8312548 2894892
0.59585935 -0.1250093 1.8068668 2894892
0.61691254 -0.12496697 1.8315828 2894892
0.59512472 -0.0737902 1.8062143 2894892
0.61695027 -0.075018764 1.8318313 2894892
0.59483349 -0.024843765 1.8060746 2894892
0.61616951 -0.025342263 1.8311195 2894892
0.59494323 0.024849875 1.8064079 2894892
0.61603975 0.025035687 1.8311749 2894892
0.59483641 0.073939189 1.8064846 2894892
0.615731 0.075413704 1.8310189 2894892
0.59392834 0.1054704 1.8055477 2960685
0.62019384 0.10715166 1.8296758 2894892
0.67523921 0.11089385 1.8334606 2894892
0.72527295 0.11093732 1.8339859 2894892
0.77533931 0.11097968 1.8348802 2894892
0.80605972 0.1109776 1.8446225 2894892
1.2950138 -0.6189791 1.8606387 11711154
1.3163799 -0.61950362 1.8857194 11711154
0.64265215 -0.56957209 1.8599691 2894892
0.66365963 -0.56965911 1.8846309 2894892
1.2952778 -0.58330858 1.861095 11711154
1.3159095 -0.58645111 1.8853036 11711154
0.6427533 -0.52509588 1.8602717 2894892
0.66375518 -0.52492905 1.8849275 2894892
0.64210629 -0.4743101 1.8597212 2894892
0.6639365 -0.47488332 1.8853468 2894892
0.64169204 -0.42511928 1.859437 2894892
0.66396338 -0.42504954 1.885583 2894892
0.64181161 -0.3748976 1.859784 2894892
0.66284472 -0.37508288 1.8844755 2894892
0.64194226 -0.32498544 1.8601427 2894892
0.66292238 -0.3250052 1.8847723 2894892
0.64206141 -0.27505583 1.8604881 2894892
0.66307312 -0.27499518 1.8851546 2894892
0.64169466 -0.22579043 1.8602605 2894892
0.66262877 -0.22440343 1.8848423 2894892
0.64101207 -0.17488715 1.8596683 2894892
0.66196543 -0.17501703 1.8842657 2894892
0.64107746 -0.12509044 1.8599503 2894892
0.66207141 -0.12508056 1.8845943 2894892
0.6413027 -0.075012833 1.8604201 2894892
0.66222352 -0.075047694 1.884981 2894892
0.64022088 -0.024410425 1.8593585 2894892
0.66238397 -0.024994044 1.8853741 2894892
0.64013034 0.024986858 1.8594551 2894892
0.66246933 0.024923138 1.88568 2894892
0.64038575 0.075068429 1.8599617 2894892
0.66129458 0.074950717 1.8845065 2894892
0.6405794 0.10567785 1.8602819 2960685
0.66934294 0.10777546 1.8822101 2894892
0.72518903 0.11078716 1.8830881 2894892
0.77502573 0.11082923 1.8840141 2894892
0.81522751 0.11085638 1.8869861 2894892
1.3382058 -0.61965311 1.9113419 11711154
1.3608609 -0.619798 1.9379373 11711154
0.68800479 -0.56959099 1.9132118 4868682
0.70882779 -0.56971991 1.9376558 6447714
1.3383451 -0.59166473 1.9116203 11711154
1.3592277 -0.59551764 1.9361202 11711154
0.68811494 -0.5249933 1.9135242 4671303
0.70893639 -0.52496856 1.9379675 5658198
0.68818307 -0.47503984 1.9138101 2894892
0.70909387 -0.47504842 1.9383583 2894892
0.68833333 -0.42497209 1.9141922 2894892
0.70917445 -0.42510962 1.938657 2894892
0.68713498 -0.37503654 1.912991 2894892
0.70937061 -0.3750385 1.9390949 2894892
0.68721461 -0.32499233 1.9132901 2894892
0.70946395 -0.3250632 1.9394087 2894892
0.68737102 -0.27501762 1.9136802 2894892
0.70958292 -0.2750693 1.939755 2894892
0.68754756 -0.22502396 1.9140913 2894892
0.70865375 -0.22563897 1.9388678 2894892
0.68759793 -0.17501251 1.9143575 2894892
0.70846486 -0.17497137 1.9388542 2894892
0.68768692 -0.12498083 1.914669 2894892
0.70854485 -0.12479386 1.9391543 2894892
0.68800843 -0.075018048 1.9152502 2894892
0.70873636 -0.074729107 1.9395852 2894892
0.68794221 -0.025043873 1.915378 2894892
0.70886749 -0.02491379 1.9399444 2894892
0.68802243 0.025048615 1.915678 2894892
0.70899838 0.024919946 1.9403028 2894892
0.68699992 0.075034112 1.9146837 2894892
0.70912993 0.07477212 1.9406612 2894892
