# .PCD v0.7 - Point Cloud Data file format
VERSION 0.7
FIELDS x y z rgb
SIZE 4 4 4 4
TYPE F F F U
COUNT 1 1 1 1
WIDTH 1160
HEIGHT 1
VIEWPOINT 0 0 0 1 0 0 0
POINTS 1160
DATA ascii
-0.12498809 0.11495891 0.57451761 10197915
-0.074992739 0.11499073 0.574646 10197915
-0.024702672 0.11502405 0.57418519 10197915
0.025005151 0.11505657 0.57380086 10197915
0.075011909 0.11508846 0.57396966 10197915
0.12501389 0.11512032 0.57411271 10197915
0.17494732 0.11515404 0.57319337 10197915
0.22501267 0.11518601 0.57326257 10197915
0.27500817 0.11521786 0.57342333 10197915
0.32491791 0.11524958 0.57358438 10197915
0.3749122 0.11528151 0.57373607 10197915
0.42406723 0.11531103 0.57470804 10197915
0.45887521 0.11530825 0.58803952 10197915
-0.505409 0.11458579 0.64215487 10197915
-0.47203901 0.11463826 0.62575829 10197915
-0.42500108 0.11467317 0.6234144 10197915
-0.37505782 0.11470499 0.62356561 10197915
-0.32504299 0.11473659 0.62377357 10197915
-0.2750009 0.11476856 0.62393832 10197915
-0.22500283 0.11480039 0.6241011 10197915
-0.17499131 0.11483213 0.62427503 10197915
-0.12502399 0.11486381 0.62445217 10197915
-0.075028948 0.11489564 0.62462229 10197915
-0.025006441 0.11492738 0.624798 10197915
0.024986843 0.11495921 0.624973 10197915
0.074978441 0.11499103 0.62514496 10197915
0.12477482 0.11502322 0.62504709 10197915
0.17507957 0.11505982 0.62279654 10197915
0.22499476 0.11509166 0.62287706 10197915
0.27498966 0.11512356 0.62305564 10197915
0.32494 0.11515526 0.62323064 10197915
0.37494758 0.11518712 0.62340301 10197915
0.42499658 0.11521883 0.62356496 10197915
0.47214857 0.11524422 0.62613553 10197915
0.50557339 0.11523449 0.64260077 10197915
-0.55252808 0.11444969 0.69781899 10197915
-0.51948076 0.11450709 0.67875338 10197915
-0.47500771 0.11454402 0.67437232 10197915
-0.42502981 0.11457595 0.67452228 10197915
-0.37526181 0.11460973 0.67353475 10197915
-0.32499638 0.11464274 0.67323059 10197915
-0.27501237 0.11467414 0.67348999 10197915
-0.22500095 0.11470611 0.67365193 10197915
-0.17499961 0.11473772 0.67384332 10197915
-0.12498879 0.11476959 0.67403007 10197915
-0.074987464 0.11480131 0.67425168 10197915
-0.024996078 0.1148333 0.67439032 10197915
0.024986617 0.11486509 0.67459321 10197915
0.074996099 0.11489658 0.67479277 10197915
0.12525998 0.11492931 0.67462325 10197915
0.17497487 0.11496332 0.67351991 10197915
0.2250022 0.114995 0.67373443 10197915
0.27500448 0.11502685 0.67389631 10197915
0.32498187 0.1150587 0.67410374 10197915
0.37498796 0.11509027 0.67427409 10197915
0.42500275 0.11512212 0.67446619 10197915
0.47499338 0.11515395 0.67463762 10197915
0.51888758 0.11517576 0.67795742 10197915
0.55185378 0.11516285 0.69591379 10197915
-0.56555843 0.11437886 0.73065311 10197915
-0.52497679 0.1144159 0.72487134 10197915
-0.47498065 0.11444771 0.72504395 10197915
-0.42500344 0.11447941 0.72527635 10197915
-0.37463099 0.11451419 0.72397453 10197915
-0.32493967 0.11454646 0.72380388 10197915
-0.27500352 0.11457814 0.7240026 10197915
-0.22499658 0.11460998 0.72419608 10197915
-0.17498387 0.1146417 0.72440016 10197915
-0.12500745 0.11467347 0.72457778 10197915
-0.075448118 0.11470686 0.72374356 10197915
-0.025002824 0.11474044 0.72312629 10197915
0.025012007 0.11477219 0.72332692 10197915
0.075007714 0.11480396 0.7235257 10197915
0.12500799 0.11483569 0.72372675 10197915
0.17503616 0.11486739 0.72393632 10197915
0.22502288 0.11489916 0.72412944 10197915
0.27499047 0.11493091 0.72431523 10197915
0.32500872 0.11496266 0.72454703 10197915
0.37500936 0.11499449 0.72471523 10197915
0.42499053 0.11502613 0.72494286 10197915
0.47499916 0.11505792 0.72511226 10197915
0.52536613 0.11509246 0.72397131 10197915
0.56560218 0.11510567 0.7306326 10197915
-0.61223942 0.11424513 0.78520072 10197915
-0.57492292 0.11428856 0.77498442 10197915
-0.52503717 0.11432039 0.77510488 10197915
-0.47504708 0.11435203 0.77533579 10197915
-0.42545739 0.11438467 0.77491271 10197915
-0.37501678 0.11441959 0.77362573 10197915
-0.32502022 0.11445121 0.77386004 10197915
-0.274997 0.11448304 0.77405035 10197915
-0.22500406 0.11451477 0.77424973 10197915
-0.1750126 0.11454643 0.77448875 10197915
-0.12496401 0.11457817 0.77470404 10197915
-0.07442563 0.11461274 0.77358097 10197915
-0.025004549 0.11464562 0.77300084 10197915
0.025013778 0.11467738 0.77321464 10197915
0.075005196 0.11470917 0.77339143 10197915
0.12497143 0.11474076 0.77363676 10197915
0.17496507 0.11477248 0.77383685 10197915
0.22498646 0.11480419 0.77406079 10197915
0.27500859 0.11483598 0.77426302 10197915
0.32505813 0.1148677 0.77449811 10197915
0.37505612 0.11489949 0.77467859 10197915
0.42497346 0.11493108 0.77490938 10197915
0.47497198 0.11496275 0.77514321 10197915
0.52499813 0.11499455 0.7753287 10197915
0.57494652 0.11502608 0.77560055 10197915
0.61107892 0.11503283 0.78427976 10197915
-0.65857869 0.11411359 0.83871228 10197915
-0.62406641 0.11416019 0.82590133 10197915
-0.57503176 0.11419287 0.82523996 10197915
-0.52498734 0.11422453 0.82549053 10197915
-0.47494933 0.11425635 0.82569504 10197915
-0.42443618 0.11428984 0.82513386 10197915
-0.3750819 0.11432418 0.82374352 10197915
-0.32509807 0.11435582 0.82399207 10197915
-0.27499476 0.11438762 0.82419544 10197915
-0.22498748 0.11441932 0.82441187 10197915
-0.17498313 0.11445103 0.82467002 10197915
-0.12526049 0.11448305 0.82460064 10197915
-0.075015582 0.11451899 0.82268441 10197915
-0.024989013 0.11455067 0.82291669 10197915
0.024998223 0.11458239 0.82314467 10197915
0.075012073 0.11461405 0.82337981 10197915
0.12501954 0.11464579 0.8235898 10197915
0.17502083 0.11467742 0.82381719 10197915
0.22501558 0.11470905 0.82406807 10197915
0.27500364 0.11474086 0.8242898 10197915
0.32508743 0.11477263 0.82451111 10197915
0.3750976 0.11480431 0.82474113 10197915
0.42503107 0.11483593 0.82495558 10197915
0.47499242 0.11486758 0.82520789 10197915
0.52498144 0.11489927 0.82542449 10197915
0.57503235 0.11493104 0.8256346 10197915
0.62428951 0.11496289 0.82552105 10197915
0.65888387 0.1149587 0.8394143 10197915
-0.70503932 0.1139815 0.89249611 10197915
-0.67192531 0.11403336 0.87639523 10197915
-0.62501854 0.11406791 0.87407738 10197915
-0.57504439 0.11409955 0.8743214 10197915
-0.52504289 0.11413119 0.87456304 10197915
-0.47505322 0.11416287 0.8748157 10197915
-0.42503613 0.11419457 0.87503928 10197915
-0.37507114 0.11422601 0.87537044 10197915
-0.32503983 0.11425797 0.87547201 10197915
-0.2749792 0.11428958 0.87577593 10197915
-0.22501193 0.11432122 0.87600136 10197915
-0.17501719 0.11435281 0.87627918 10197915
-0.12468268 0.11438547 0.87611639 10197915
-0.075024404 0.11442135 0.8740238 10197915
-0.025026791 0.11445308 0.87424719 10197915
0.024999851 0.1144848 0.87446123 10197915
0.074382432 0.11451848 0.87343109 10197915
0.12503423 0.11455327 0.87223971 10197915
0.17499104 0.11458486 0.87251532 10197915
0.22497559 0.11461651 0.87273031 10197915
0.27498809 0.11464819 0.8729893 10197915
0.32510805 0.11467996 0.87322372 10197915
0.37509614 0.11471161 0.87347966 10197915
0.42498931 0.11474327 0.8737033 10197915
0.4750323 0.11477496 0.87392807 10197915
0.52498043 0.11480653 0.87418491 10197915
0.57495701 0.11483812 0.87444448 10197915
0.6249606 0.11486991 0.87466639 10197915
0.672019 0.11489526 0.87720716 10197915
0.70505273 0.11488624 0.89313298 10197915
-0.75041676 0.11385363 0.9443903 10197915
-0.71857494 0.11390662 0.92727602 10197915
-0.67500591 0.11394295 0.92289126 10197915
-0.6249941 0.11397459 0.92313671 10197915
-0.57500291 0.11400609 0.92345536 10197915
-0.52498424 0.11403783 0.92370689 10197915
-0.474985 0.11406947 0.92393941 10197915
-0.42500612 0.11410104 0.92420089 10197915
-0.37485662 0.11413276 0.92448235 10197915
-0.3248685 0.11416434 0.92475963 10197915
-0.2750465 0.114196 0.92494476 10197915
-0.225052 0.11422757 0.92522019 10197915
-0.17503019 0.11425921 0.92552888 10197915
-0.12502839 0.11429081 0.92576158 10197915
-0.075047038 0.11432253 0.9259631 10197915
-0.025038268 0.11435412 0.92627406 10197915
0.024999574 0.11438578 0.92651266 10197915
0.075718887 0.114421 0.9251104 10197915
0.12496154 0.11445481 0.92397451 10197915
0.1749855 0.11448657 0.92420787 10197915
0.22499464 0.1145181 0.92449546 10197915
0.27498862 0.1145498 0.92472875 10197915
0.32445186 0.11458451 0.92319524 10197915
0.37514004 0.11461895 0.92220879 10197915
0.42497218 0.11465044 0.9224931 10197915
0.47497627 0.1146822 0.92269033 10197915
0.52500808 0.11471377 0.92299116 10197915
0.57501906 0.11474537 0.92323804 10197915
0.6250096 0.11477705 0.92348266 10197915
0.67483568 0.11480858 0.92374593 10197915
0.7188195 0.11482841 0.92818928 10197915
0.75119966 0.11481559 0.94586873 10197915
-0.76547122 0.113773 0.981695 10197915
-0.72500449 0.11381326 0.97419572 10197915
-0.6749934 0.11384481 0.97449911 10197915
-0.62505805 0.1138765 0.97470754 10197915
-0.57504237 0.11390807 0.97499335 10197915
-0.52505052 0.11393974 0.97524148 10197915
-0.47577098 0.11397301 0.97439879 10197915
-0.42495877 0.11400929 0.97247922 10197915
-0.37487832 0.11404113 0.97265673 10197915
-0.32488391 0.11407261 0.97298729 10197915
-0.27497786 0.11410439 0.97313166 10197915
-0.22498655 0.1141357 0.97355759 10197915
-0.17496723 0.11416747 0.97376466 10197915
-0.124978 0.11419904 0.97405028 10197915
-0.07496091 0.11423077 0.9742716 10197915
-0.024974436 0.11426228 0.97458899 10197915
0.024983635 0.11429385 0.97485828 10197915
0.07496772 0.11432548 0.97511113 10197915
0.12498002 0.11435702 0.97539759 10197915
0.17501989 0.11438885 0.97558933 10197915
0.22502983 0.11442026 0.97596818 10197915
0.2750093 0.11445199 0.97615856 10197915
0.32597935 0.11448835 0.97425479 10197915
0.3751713 0.11452172 0.97335041 10197915
0.42498776 0.11455326 0.97360617 10197915
0.47503415 0.11458489 0.97389072 10197915
0.52505791 0.11461648 0.97416413 10197915
0.57500762 0.11464813 0.97437048 10197915
0.62498522 0.11467965 0.97470105 10197915
0.67483753 0.11471117 0.9749679 10197915
0.72487116 0.11474282 0.97521991 10197915
0.76596791 0.11475469 0.98286521 10197915
-0.81081241 0.11364685 1.0327071 10197915
-0.77508974 0.11368641 1.0239772 10197915
-0.72516394 0.11371803 1.0242084 10197915
-0.67513901 0.11374963 1.0245144 10197915
-0.62501734 0.11378141 1.0247259 10197915
-0.57500839 0.1138128 1.0251265 10197915
-0.52504289 0.11384443 1.0253466 10197915
-0.4741126 0.11387953 1.0241146 10197915
-0.4250468 0.11391458 1.022249 10197915
-0.37499952 0.11394642 1.0224253 10197915
-0.32498366 0.11397788 1.0227797 10197915
-0.27500203 0.11400963 1.0229739 10197915
-0.22499223 0.11404108 1.0233276 10197915
-0.17501538 0.11407267 1.0235935 10197915
-0.12501064 0.11410423 1.0238957 10197915
-0.074978158 0.11413591 1.0241233 10197915
-0.024979267 0.11416744 1.0244621 10197915
0.024988471 0.11419898 1.0247455 10197915
0.074982062 0.11423057 1.0250087 10197915
0.12500389 0.11426213 1.0253121 10197915
0.17499243 0.11429378 1.0255578 10197915
0.22500899 0.11432528 1.0258616 10197915
0.27505314 0.11435707 1.0261064 10197915
0.32488164 0.1143885 1.0263876 10197915
0.37485871 0.11441988 1.026782 10197915
0.42406785 0.11445494 1.0249716 10197915
0.47499475 0.11449042 1.0235147 10197915
0.52496427 0.11452202 1.0237848 10197915
0.57496095 0.11455358 1.0240794 10197915
0.62498534 0.11458509 1.0244145 10197915
0.67482358 0.11461663 1.024673 10197915
0.72483325 0.11464824 1.0249363 10197915
0.77493972 0.11467998 1.0251858 10197915
0.81107879 0.11468674 1.0338373 10197915
-0.61711222 -0.46144429 1.0568986 6513507
-0.57460964 -0.46260872 1.0621357 6513507
-0.52446026 -0.46399504 1.0683228 6513507
-0.474558 -0.46536759 1.0744804 6513507
-0.42448261 -0.46675453 1.0806603 6513507
-0.37473318 -0.46813837 1.0867988 6513507
-0.32481769 -0.46951443 1.0929576 6513507
-0.28368911 -0.47069302 1.0980331 6513507
-0.61741966 -0.4249787 1.0569335 6513507
-0.57512331 -0.42499349 1.0621455 6447714
-0.52494282 -0.42501512 1.0683407 6513507
-0.47499689 -0.42498028 1.074507 6513507
-0.42490011 -0.42502052 1.0806906 6513507
-0.37507504 -0.42500311 1.0868423 6513507
-0.32510865 -0.42503363 1.0930102 6513507
-0.28412163 -0.42513579 1.0980692 6513507
-0.61745811 -0.37495857 1.0570275 6513507
-0.57519668 -0.37501374 1.0622361 6447714
-0.52497363 -0.37499732 1.0684364 6513507
-0.47500768 -0.37497467 1.0746038 6513507
-0.42491916 -0.37503085 1.0807879 6513507
-0.37511662 -0.37500131 1.0869359 6513507
-0.32516414 -0.37501433 1.0931029 6513507
-0.28453028 -0.37514564 1.0981183 6513507
-0.61749947 -0.3249912 1.057122 6513507
-0.57520556 -0.32501864 1.0623343 6447714
-0.5249933 -0.32498541 1.0685323 6513507
-0.47505733 -0.3249903 1.0746979 6513507
-0.42494506 -0.3250162 1.0808831 6513507
-0.37470666 -0.32498088 1.0870848 6513507
-0.32475764 -0.32502776 1.0932521 6513507
-0.28493783 -0.32513791 1.0981669 6513507
-0.61755794 -0.27501571 1.0572132 6513507
-0.57526708 -0.27499226 1.0624257 6447714
-0.52509314 -0.27503082 1.0686196 6513507
-0.47513258 -0.27496678 1.0747881 6513507
-0.42499873 -0.27501595 1.0809747 6513507
-0.37476254 -0.27500373 1.0871786 6513507
-0.32477263 -0.27499479 1.0933483 6513507
-0.28535122 -0.27513015 1.0982149 6513507
-0.61716425 -0.22502363 1.057358 6513507
-0.57506347 -0.22511224 1.0625492 6447714
-0.52511162 -0.22499354 1.0687162 6513507
-0.47512519 -0.22496511 1.0748876 6513507
-0.42504671 -0.22503808 1.0810691 6513507
-0.37477562 -0.22500452 1.0872751 6513507
-0.32481313 -0.22497438 1.0934424 6513507
-0.28577086 -0.22510889 1.098262 6513507
-0.61688197 -0.17492919 1.057487 6513507
-0.57491851 -0.17503481 1.0626665 6447714
-0.52510732 -0.17496262 1.0688163 6513507
-0.47516927 -0.17499216 1.0749804 6513507
-0.42503235 -0.17502765 1.0811697 6513507
-0.37475017 -0.17500538 1.0873771 6513507
-0.32478896 -0.17498429 1.0935456 6513507
-0.28621948 -0.17513697 1.0983063 6513507
-0.61690897 -0.1248918 1.0575825 6513507
-0.57498312 -0.1250113 1.0627584 6447714
-0.52528059 -0.12504151 1.0688937 6513507
-0.47526646 -0.12493525 1.0750679 6513507
-0.42509151 -0.12503161 1.0812608 6513507
-0.37492523 -0.12501274 1.0874548 6513507
-0.32485962 -0.12496223 1.0936353 6513507
-0.2866146 -0.12521537 1.0983558 6513507
-0.61694896 -0.074928865 1.0576768 6513507
-0.57514668 -0.075112544 1.0628364 6513507
-0.52512395 -0.074991845 1.069011 6513507
-0.47529528 -0.074884996 1.0751631 6513507
-0.42522267 -0.075118788 1.0813447 6513507
-0.37473354 -0.074993901 1.0875771 6513507
-0.32495087 -0.0748844 1.0937238 6513507
-0.28702363 -0.075238593 1.0984039 6513507
-0.6170035 -0.02497823 1.0577689 6513507
-0.57509011 -0.025100404 1.0629423 6447714
-0.52536756 -0.024951551 1.0690806 6513507
-0.47528893 -0.024945872 1.0752636 6513507
-0.42515931 -0.025089486 1.0814512 6513507
-0.37498933 -0.024986221 1.0876447 6513507
-0.32489178 -0.024923408 1.0938292 6513507
-0.28743252 -0.025233306 1.0984526 6513507
-0.61705661 0.024981128 1.0578607 6513507
-0.57514095 0.025103316 1.0630355 6447714
-0.52540749 0.02493963 1.0691748 6513507
-0.47533137 0.024948785 1.0753567 6513507
-0.42519036 0.025092375 1.0815462 6513507
-0.37502012 0.024973517 1.0877399 6513507
-0.32492021 0.024926361 1.0939244 6513507
-0.28783441 0.024802953 1.0985025 6513507
-0.61711061 0.074949205 1.0579538 6513507
-0.57529998 0.075110942 1.0631151 6513507
-0.52526724 0.074997373 1.0692905 6513507
-0.47540116 0.074882559 1.0754471 6513507
-0.42534074 0.075108945 1.0816268 6513507
-0.37483424 0.074998796 1.0878614 6513507
-0.32501844 0.074872717 1.0940114 6513507
-0.28824493 0.074876845 1.0985509 6513507
-0.85694903 0.11351562 1.0861288 10000536
-0.82323277 0.11356361 1.072291 10197915
-0.77498698 0.11359701 1.0710392 10197915
-0.72497129 0.1136283 1.0714699 10197915
-0.67553765 0.11366079 1.0710846 10197915
-0.61878955 0.10772625 1.0577935 9145227
-0.5748319 0.10758329 1.0624541 9211020
-0.52535743 0.10789477 1.0678785 9474192
-0.47513917 0.10803346 1.0732565 9605778
-0.4247807 0.1082954 1.078387 9803157
-0.37498677 0.10854507 1.0833613 9934743
-0.3248038 0.10868282 1.0882496 10066329
-0.28225222 0.11018524 1.0871903 10132122
-0.22499385 0.11394398 1.074384 10197915
-0.17496909 0.11397559 1.0746691 10197915
-0.12499116 0.11400721 1.0749183 10197915
-0.074985392 0.11403867 1.075264 10197915
-0.024952194 0.11407036 1.0755371 10197915
0.024961391 0.11410178 1.075834 10197915
0.074975729 0.11413323 1.076193 10197915
0.12501766 0.11416494 1.0764292 10197915
0.17501329 0.11419647 1.0767521 10197915
0.22496167 0.11422794 1.0770603 10197915
0.2749384 0.11425959 1.0773216 10197915
0.32479209 0.11429112 1.0775788 10197915
0.37482521 0.1143226 1.0779409 10197915
0.42596883 0.11435962 1.075725 10197915
0.47499898 0.11439366 1.0744011 10197915
0.52432048 0.11442675 1.0736718 10197915
0.57506073 0.11446466 1.0708755 10197915
0.62499624 0.11449613 1.0712068 10197915
0.67481071 0.11452758 1.0715132 10197915
0.72487736 0.11455929 1.071738 10197915
0.77504367 0.11459088 1.0720686 10197915
0.82364404 0.11461905 1.0736599 10197915
0.85771561 0.11461385 1.0879248 10197915
-0.10853492 -0.50047827 1.119596 6513507
-0.071730644 -0.50148368 1.1241372 6513507
-0.02331949 -0.50281656 1.1301109 6513507
0.026283773 -0.50418037 1.1362317 6513507
0.075809352 -0.50554484 1.1423432 6513507
0.11938365 -0.50676799 1.1477196 6513507
-0.25899589 -0.47119287 1.1010801 6513507
-0.22501317 -0.47225195 1.1052729 6513507
-0.17471613 -0.47364601 1.111479 6513507
-0.12489989 -0.47487324 1.1176269 6513507
-0.075395659 -0.47498125 1.123737 6513507
-0.025255213 -0.47500539 1.1299276 6513507
0.024948096 -0.4749895 1.1361245 6513507
0.074771672 -0.47498673 1.1422752 6513507
0.1184274 -0.47505549 1.1476644 6513507
-0.25937364 -0.42470056 1.1011263 6513507
-0.22531568 -0.42501265 1.1053298 6513507
-0.17500657 -0.4249742 1.1115391 6513507
-0.12501027 -0.42501473 1.1177123 6513507
-0.075427644 -0.42498848 1.1238332 6513507
-0.025284983 -0.42499799 1.1300226 6513507
0.024960585 -0.42501006 1.1362256 6513507
0.074760206 -0.42501611 1.1423725 6513507
0.11803547 -0.42511573 1.1477159 6513507
-0.25978738 -0.37469625 1.1011732 6513507
-0.22529656 -0.37501612 1.1054304 6513507
-0.17497976 -0.3749688 1.1116424 6513507
-0.12502503 -0.3750118 1.1178082 6513507
-0.075418405 -0.37500519 1.1239321 6513507
-0.025276531 -0.37499887 1.1301224 6513507
0.024945026 -0.3750127 1.1363223 6513507
0.074791312 -0.37501863 1.1424763 6513507
0.11768617 -0.37515351 1.1477714 6513507
-0.26021123 -0.32480022 1.1012201 6513507
-0.22537801 -0.32500347 1.1055199 6513507
-0.17505001 -0.32497913 1.1117321 6513507
-0.12504426 -0.32499984 1.1179055 6513507
-0.075428791 -0.32500383 1.1240301 6513507
-0.025308779 -0.32503387 1.1302173 6513507
0.024932224 -0.32498059 1.1364192 6513507
0.074811295 -0.32498509 1.1425786 6513507
0.11729508 -0.32516623 1.1478233 6513507
-0.26061809 -0.2748943 1.1012691 6513507
-0.22532658 -0.27498212 1.1056244 6513507
-0.17502774 -0.27500573 1.1118345 6513507
-0.12506853 -0.27497131 1.1180007 6513507
-0.075466804 -0.27502021 1.124125 6513507
-0.025263172 -0.27501732 1.1303225 6513507
0.024978193 -0.2749832 1.1365246 6513507
0.074782811 -0.27499652 1.1426727 6513507
0.11688095 -0.27510217 1.1478693 6513507
-0.26100418 -0.22488399 1.1013201 6513507
-0.22537826 -0.2249932 1.1057177 6513507
-0.17506647 -0.22503939 1.1119287 6513507
-0.12509586 -0.22495097 1.1180975 6513507
-0.075439572 -0.22500136 1.1242272 6513507
-0.025271328 -0.22499223 1.1304204 6513507
0.024972953 -0.22501297 1.1366227 6513507
0.074798174 -0.22502849 1.1427737 6513507
0.11653692 -0.22497173 1.1479259 6513507
-0.26141739 -0.17482801 1.1013682 6513507
-0.22538076 -0.17501965 1.1058167 6513507
-0.17504692 -0.17503297 1.1120298 6513507
-0.12510237 -0.17499898 1.1181951 6513507
-0.075539164 -0.17498298 1.1243145 6513507
-0.025353845 -0.17497522 1.130509 6513507
0.02494877 -0.17498988 1.1367192 6513507
0.074855037 -0.1750138 1.1428782 6513507
0.11605048 -0.17505777 1.1479659 6513507
-0.26185894 -0.12491138 1.1014117 6513507
-0.22548775 -0.12494849 1.1059017 6513507
-0.17501004 -0.1250243 1.1121336 6513507
-0.12509154 -0.12506451 1.1182959 6513507
-0.075367302 -0.12493791 1.1244329 6513507
-0.025263064 -0.12505387 1.1306192 6513507
0.024906805 -0.1249052 1.1368119 6513507
0.074833684 -0.12502697 1.1429762 6513507
0.11564277 -0.12513939 1.1480143 6513507
-0.26231286 -0.075021721 1.1014555 6513507
-0.22531624 -0.075005278 1.1060226 6513507
-0.17518833 -0.074893862 1.1122102 6513507
-0.12507847 -0.075060457 1.1183956 6513507
-0.075525098 -0.075101316 1.1245136 6513507
-0.025295535 -0.074924529 1.1307144 6513507
0.024986262 -0.074890666 1.136921 6513507
0.074738085 -0.075133123 1.1430626 6513507
0.11534478 -0.075258568 1.1480757 6513507
-0.26268524 -0.02488856 1.1015086 6513507
-0.22553056 -0.025065307 1.1060946 6513507
-0.17508802 -0.024884041 1.1123222 6513507
-0.12509011 -0.025022101 1.1184942 6513507
-0.075455546 -0.025159158 1.124621 6513507
-0.025291882 -0.024846857 1.1308131 6513507
0.024988545 -0.024965506 1.1370218 6513507
0.074851483 -0.025100624 1.1431761 6513507
0.1148831 -0.02532962 1.1481172 6513507
-0.26293775 0.025510132 1.1015774 6513507
-0.22541152 0.024951417 1.1062082 6513507
-0.17510334 0.024886942 1.1124185 6513507
-0.1251003 0.02502501 1.1185912 6513507
-0.075462155 0.025162086 1.1247189 6513507
-0.025285799 0.024840936 1.1309134 6513507
0.024990616 0.024968399 1.1371198 6513507
0.074858062 0.025103578 1.1432778 6513507
0.11449543 0.024982406 1.1481687 6513507
-0.26310855 0.075335398 1.1016544 6513507
-0.22492455 0.075010046 1.1063676 6513507
-0.17523417 0.074881263 1.112502 6579300
-0.12511097 0.075080842 1.1186893 6645093
-0.07515984 0.075171709 1.1248558 6710886
-0.024968317 0.074830309 1.1310517 6776679
0.024992824 0.074910976 1.1372193 6776679
0.074750789 0.075126253 1.1433616 6842472
0.11419538 0.075049475 1.148232 6842472
-0.90447336 0.11337784 1.1425246 6579300
-0.87117898 0.11343136 1.1256261 6579300
-0.8250367 0.11346707 1.1224517 7237230
-0.77502984 0.11349838 1.1228471 8224125
-0.72491693 0.11353012 1.12309 9079434
-0.68566763 0.11356561 1.1176982 9934743
-0.2631399 0.1070914 1.1017139 10197915
-0.22503844 0.10723662 1.1062682 10197915
-0.1747753 0.10753905 1.1121023 10197915
-0.12510046 0.10788748 1.1175882 10197915
-0.074839704 0.10797814 1.1231076 10197915
-0.024683859 0.10837869 1.128248 10197915
0.025002029 0.10846366 1.1333228 10197915
0.075218536 0.10875537 1.1382543 10197915
0.11799621 0.10971709 1.1389148 10197915
0.17493248 0.11410607 1.1242356 10197915
0.22492249 0.11413774 1.1244805 10197915
0.27493927 0.11416916 1.1248572 10197915
0.32479659 0.11420072 1.1250982 10197915
0.37477654 0.11423224 1.1254113 10197915
0.42496982 0.11426371 1.1258231 10197915
0.47500348 0.11429547 1.1260319 10197915
0.525967 0.11433011 1.1250393 10197915
0.57501322 0.11436722 1.1220976 10197915
0.62500811 0.11439854 1.1225065 10197915
0.67487383 0.11443003 1.1228265 10197915
0.7248472 0.11446149 1.123138 10197915
0.7750023 0.11449324 1.1233908 10197915
0.82502943 0.1145247 1.1237584 10197915
0.87168145 0.11454824 1.1271454 10197915
0.9052887 0.11453675 1.1445407 10197915
0.14406018 -0.50741166 1.1507642 6513507
0.17580722 -0.50831968 1.1546805 6513507
0.22559527 -0.50970781 1.1608287 6513507
0.27506408 -0.51103604 1.1669328 6513507
0.32512015 -0.51242703 1.1731045 6513507
0.37512141 -0.51383263 1.1792761 6513507
0.42516747 -0.51519275 1.1854502 6513507
0.47525409 -0.51657206 1.1916306 6513507
0.52158833 -0.5178526 1.197348 6513507
0.14350758 -0.47488475 1.150761 6513507
0.17460646 -0.47501406 1.154598 6513507
0.22460827 -0.47500917 1.1607693 6513507
0.27461407 -0.47497031 1.1669472 6513507
0.32464641 -0.47499731 1.1731219 6513507
0.37473527 -0.47502074 1.1793044 6513507
0.42484349 -0.47498599 1.1854894 6513507
0.47492215 -0.47501764 1.1916722 6513507
0.52107328 -0.47514224 1.1973687 6513507
0.14318493 -0.42464837 1.1508198 6513507
0.17462049 -0.42497742 1.1546996 6513507
0.22460781 -0.42501321 1.160872 6513507
0.27461177 -0.42499977 1.1670403 6513507
0.32466471 -0.42499489 1.1732229 6513507
0.37476423 -0.42499447 1.1794075 6513507
0.42487574 -0.42498761 1.1855941 6513507
0.47500187 -0.4250268 1.1917809 6513507
0.52078271 -0.42513859 1.1974324 6513507
0.14273684 -0.37453836 1.1508646 6513507
0.17461398 -0.37498641 1.1548024 6513507
0.22462317 -0.37500095 1.1609696 6513507
0.27467567 -0.37500989 1.1671557 6513507
0.32475314 -0.37499326 1.1733334 6513507
0.37482411 -0.37498891 1.1795137 6513507
0.42490086 -0.37501076 1.1856955 6513507
0.47498107 -0.37501702 1.191878 6513507
0.52038413 -0.37500378 1.1974831 6513507
0.14241858 -0.32465807 1.150924 6513507
0.17462137 -0.32499725 1.1548988 6513507
0.22463359 -0.32497934 1.1610742 6513507
0.27466252 -0.32502159 1.1672566 6513507
0.32470611 -0.32499281 1.1734251 6513507
0.37483168 -0.32498476 1.1796131 6513507
0.42492121 -0.32504514 1.1857967 6513507
0.47507444 -0.32497832 1.1919882 6513507
0.51995486 -0.32498491 1.197529 6513507
0.14198187 -0.27476507 1.1509683 6513507
0.17465547 -0.27503568 1.1550013 6513507
0.22463174 -0.2749491 1.1611725 6513507
0.27470094 -0.27502438 1.167354 6513507
0.32477418 -0.27501199 1.1735317 6513507
0.37484109 -0.2749626 1.1797144 6513507
0.42500499 -0.27504033 1.1859061 6513507
0.47509584 -0.27499241 1.1920898 6513507
0.51952386 -0.27512288 1.1975745 6513507
0.14162855 -0.22507535 1.1510242 6513507
0.17463629 -0.22502819 1.1550976 6513507
0.22467257 -0.22494814 1.1612688 6513507
0.27471942 -0.22498941 1.1674536 6513507
0.32482627 -0.22501394 1.1736385 6513507
0.37493584 -0.2249704 1.1798238 6513507
0.42504114 -0.22500704 1.18601 6513507
0.47519207 -0.22502799 1.1922016 6513507
0.51929343 -0.22516838 1.1976438 6513507
0.14116538 -0.17498586 1.1510632 6513507
0.17475291 -0.17501234 1.1552123 6513507
0.22466737 -0.17501384 1.1613746 6513507
0.27466857 -0.17496552 1.1675447 6513507
0.32480004 -0.1749579 1.1737343 6513507
0.3749508 -0.17498986 1.1799245 6513507
0.42506427 -0.17501493 1.1861117 6513507
0.47512236 -0.17504504 1.1922917 6513507
0.51878858 -0.17508163 1.1976813 6513507
0.14077441 -0.12474126 1.1511151 6513507
0.17474753 -0.12500583 1.1553094 6513507
0.22470947 -0.12508036 1.1614723 6513507
0.27487749 -0.1249216 1.1676714 6513507
0.32480961 -0.12505908 1.1738347 6513507
0.37490469 -0.12490164 1.18002 6513507
0.42502829 -0.12511507 1.1862063 6513507
0.47521088 -0.1249405 1.1924022 6513507
0.51852411 -0.12508544 1.1977482 6513507
0.14039963 -0.074567258 1.151171 6513507
0.17462014 -0.07487984 1.1553936 6513507
0.22475608 -0.075071484 1.1615858 6513507
0.27472505 -0.075103946 1.1677502 6513507
0.32496297 -0.074965075 1.1739525 6513507
0.3749817 -0.074843839 1.1801263 6513507
0.42512125 -0.075165868 1.1863173 6513507
0.47533557 -0.07504198 1.192516 6513507
0.51807529 -0.074930519 1.1977919 6513507
0.14001557 -0.024504291 1.1512214 6513507
0.17475252 -0.024892733 1.1555076 6513507
0.22477566 -0.025025757 1.1616795 6513507
0.2748377 -0.025158906 1.1678602 6513507
0.32487342 -0.024874682 1.17404 6513507
0.37505078 -0.024936484 1.1802365 6513507
0.42518693 -0.025067208 1.1864232 6513507
0.47528487 -0.025147175 1.1926079 6513507
0.51768166 -0.02491294 1.1978422 6513507
0.13963865 0.025009369 1.1512709 6513507
0.17476682 0.024895627 1.1556071 6513507
0.22479545 0.025028674 1.161781 6513507
0.2748619 0.025161849 1.1679624 6513507
0.32491639 0.024857866 1.1741438 6513507
0.37508389 0.024939356 1.1803373 6513507
0.42522404 0.025070144 1.1865283 6513507
0.4753122 0.025129758 1.1927111 6513507
0.51734006 0.024627332 1.1978981 6513507
0.13926353 0.074927963 1.1513238 6908265
0.17467214 0.074871972 1.1556959 6908265
0.22481506 0.075091846 1.1618896 6974058
0.27482024 0.075085379 1.1680607 7039851
0.32503292 0.07496614 1.1742572 7105644
0.37511629 0.07482399 1.1804411 7105644
0.4250581 0.07505358 1.1866059 7171437
0.47531787 0.075147629 1.1928096 7237230
0.51697916 0.074758381 1.1979535 7303023
-0.918607 0.1133005 1.1784301 6513507
-0.87497824 0.11333674 1.1740952 6513507
-0.82500857 0.11336807 1.1744967 6513507
-0.77491361 0.1133998 1.1747487 6513507
-0.72791153 0.11343361 1.1728573 6513507
-0.69719505 0.11348573 1.1558208 6579300
0.13880493 0.10732009 1.1513206 10197915
0.17518635 0.10742375 1.1555641 10197915
0.22487772 0.10777976 1.1612746 10197915
0.27513582 0.10789736 1.1668261 10197915
0.32498625 0.10831118 1.1721621 10197915
0.37509733 0.10834755 1.1773648 10197915
0.42495939 0.10876633 1.1822709 10197915
0.47495288 0.10876599 1.1874032 10197915
0.51976073 0.10981271 1.1888548 10197915
0.57504195 0.11426903 1.1737535 10197915
0.62510425 0.11430074 1.174 10197915
0.67490029 0.11433209 1.1743213 10197915
0.72482324 0.11436339 1.174723 10197915
0.77496696 0.11439507 1.1750079 10197915
0.82494324 0.1144267 1.1752546 10197915
0.87494844 0.11445813 1.1756169 10197915
0.91929424 0.11447783 1.1802419 10197915
0.95092696 0.11446802 1.1961063 10197915
0.79510438 -0.55029941 1.2310487 11711154
0.8299613 -0.55134958 1.2353494 11711154
0.87707305 -0.55266643 1.2411629 11711154
0.92562342 -0.55398089 1.2471538 11711154
0.54655886 -0.51870817 1.2004288 6645093
0.57538396 -0.51931375 1.2039855 7105644
0.62546831 -0.52073067 1.2101662 7895160
0.67548597 -0.52209127 1.2163383 8553090
0.72550529 -0.52349591 1.2225105 9145227
0.77537507 -0.5247494 1.2286645 9605778
0.82514447 -0.52502614 1.2348065 10000536
0.87502784 -0.52498257 1.2409655 10395294
0.9239946 -0.52512771 1.2470099 10790052
0.54633307 -0.47424942 1.2004894 6513507
0.57515347 -0.4749727 1.2040455 6513507
0.62521148 -0.47502264 1.2102259 6513507
0.67526996 -0.4749873 1.2164049 6513507
0.72530752 -0.47499859 1.2225819 6513507
0.77531075 -0.47499561 1.2287549 6513507
0.82524192 -0.47503638 1.2349181 6513507
0.87508613 -0.47499174 1.2410715 6513507
0.92361039 -0.47509879 1.2470613 6513507
0.54594731 -0.42427316 1.2005408 6513507
0.57520062 -0.4250108 1.2041507 6513507
0.62523907 -0.42505395 1.2103274 6513507
0.6753096 -0.42494339 1.2165085 6513507
0.72485363 -0.42500022 1.2226249 6513507
0.77482963 -0.42497748 1.2287942 6513507
0.82531077 -0.42501467 1.235026 6513507
0.87522548 -0.42501512 1.2411873 6513507
0.92334354 -0.42501482 1.2471275 6513507
0.54563093 -0.37498054 1.2005993 6513507
0.57522875 -0.37499833 1.204253 6513507
0.62480056 -0.37499151 1.2103726 6513507
0.67485839 -0.3750101 1.2165519 6513507
0.72485811 -0.37500206 1.2227242 6513507
0.77485538 -0.37497652 1.2288957 6513507
0.82530117 -0.37506518 1.2351234 6513507
0.87513959 -0.37495899 1.2412764 6513507
0.92282981 -0.37503949 1.2471629 6513507
0.54518855 -0.32510573 1.2006427 6513507
0.57528079 -0.32496625 1.2043589 6513507
0.6248486 -0.3250173 1.2104772 6513507
0.67490333 -0.32500303 1.2166569 6513507
0.72498369 -0.32502648 1.2228386 6513507
0.7749505 -0.32496709 1.2290075 6513507
0.82486463 -0.32502127 1.2351688 6513507
0.87477994 -0.32500568 1.2413304 6513507
0.92254794 -0.32514217 1.2472274 6513507
0.54476392 -0.27449656 1.2006911 6513507
0.57536554 -0.27497801 1.204468 6513507
0.62488979 -0.27504539 1.2105811 6513507
0.67497802 -0.27497488 1.2167648 6513507
0.72501224 -0.27499825 1.2229413 6513507
0.77503788 -0.2749933 1.2291169 6513507
0.82496381 -0.27504829 1.2352802 6513507
0.8748281 -0.27498564 1.2414354 6513507
0.92216873 -0.2751596 1.2472792 6513507
0.54413128 -0.22483705 1.2007115 6513507
0.57509768 -0.22487505 1.2045336 6513507
0.62499732 -0.225032 1.2106937 6513507
0.6748454 -0.22512382 1.216848 6513507
0.7248683 -0.22484984 1.2230223 6513507
0.7748692 -0.22513095 1.2291942 6513507
0.82483339 -0.22488464 1.2353634 6513507
0.87498569 -0.22500274 1.2415555 6513507
0.92197347 -0.22500767 1.247355 6513507
0.5435577 -0.17464095 1.2007403 6513507
0.57489687 -0.1749706 1.2046081 6513507
0.62504488 -0.17500961 1.2107984 6513507
0.674523 -0.17504983 1.2169067 6513507
0.72449905 -0.1750024 1.2230757 6513507
0.77457464 -0.17495017 1.2292577 6513507
0.82457352 -0.17499712 1.2354304 6513507
0.87494636 -0.17504527 1.2416478 6513507
0.92131883 -0.17493612 1.2473726 6513507
0.54324377 -0.12499872 1.2007999 6513507
0.57490075 -0.12487905 1.2047079 6513507
0.62503874 -0.12508802 1.210897 6513507
0.67457008 -0.12496401 1.2170111 6513507
0.72475553 -0.12507959 1.2232066 6513507
0.77461046 -0.1248726 1.2293618 6513507
0.82457042 -0.12510048 1.2355278 6513507
0.8750456 -0.12495392 1.2417588 6513507
0.92109418 -0.12520091 1.2474433 6513507
0.54273337 -0.074893676 1.2008359 6513507
0.57472944 -0.074997388 1.2047859 6513507
0.62476164 -0.075036466 1.2109621 6513507
0.67477316 -0.075031579 1.2171355 6513507
0.72466928 -0.074918665 1.2232951 6513507
0.77475119 -0.074875221 1.229478 6513507
0.82465059 -0.075183168 1.2356375 6513507
0.87488568 -0.075187497 1.2418386 6513507
0.92041498 -0.074944369 1.2474599 6513507
0.54236734 -0.024633953 1.2008898 6513507
0.57455337 -0.024957651 1.2048635 6513507
0.62466574 -0.025085773 1.2110486 6513507
0.67467338 -0.025116377 1.2172216 6513507
0.72481191 -0.024835041 1.2234122 6513507
0.77482331 -0.024960354 1.2295852 6513507
0.82478315 -0.02508557 1.235752 6513507
0.87463415 -0.025152946 1.2419058 6513507
0.91988003 -0.024893435 1.2474927 6513507
0.54202127 0.025292557 1.2009462 6513507
0.57460272 0.024960557 1.2049686 6513507
0.62472034 0.025088733 1.2111546 6513507
0.67472577 0.025108472 1.2173285 6513507
0.72486871 0.024837898 1.2235178 6513507
0.77488637 0.024963267 1.2296923 6513507
0.82485491 0.025088506 1.2358606 6513507
0.87469381 0.025132766 1.2420129 6513507
0.9194718 0.024808755 1.2475407 6513507
0.54162335 0.075223796 1.2009962 7368816
0.57465357 0.074887447 1.2050725 7303023
0.6246835 0.075155377 1.2112495 7368816
0.67495668 0.075040907 1.2174555 7434609
0.72484362 0.074906118 1.223613 7500402
0.77495712 0.074895546 1.2298 7500402
0.82484472 0.07516975 1.2359585 7631988
0.87490714 0.075048856 1.2421384 7631988
0.91906643 0.074854203 1.2475897 7697781
-0.96518123 0.11316758 1.2325824 6513507
-0.92504787 0.11320713 1.2253375 6513507
-0.87503314 0.11323832 1.2258108 6513507
-0.8248899 0.11327033 1.2259345 6513507
-0.77482021 0.11330156 1.2264498 6513507
-0.74013966 0.11334395 1.2158675 6513507
0.54150194 0.10718852 1.2010444 10197915
0.57470417 0.1073541 1.2050359 10197915
0.6250903 0.10775772 1.2108684 10197915
0.67489511 0.1079099 1.2164662 10197915
0.72523975 0.10827098 1.2219176 10197915
0.77497578 0.1083914 1.2271498 10197915
0.82522309 0.1087447 1.2322539 10197915
0.87494254 0.10881838 1.2371999 10197915
0.92116046 0.10959938 1.2403184 10197915
0.96588129 0.11440508 1.2342339 10197915
0.94929385 -0.5546611 1.2500743 11711154
0.9755801 -0.5553894 1.2533177 11711154
0.94897968 -0.52095878 1.2501023 10724259
0.97453934 -0.52501237 1.2532489 11119017
0.94869912 -0.47306898 1.2501622 6513507
0.97463679 -0.47499508 1.2533606 6513507
0.94836658 -0.4247185 1.2502172 6513507
0.97474444 -0.42500234 1.2534724 6513507
0.94792426 -0.37441355 1.2502621 6513507
0.97481 -0.37500143 1.2535801 6513507
0.94758737 -0.32400802 1.2503203 6513507
0.97485888 -0.32494387 1.2536856 6513507
0.94726294 -0.27401909 1.2503794 6513507
0.9750089 -0.27494964 1.2538025 6513507
0.94696975 -0.22474596 1.2504405 6513507
0.97509152 -0.22499438 1.2539119 6513507
0.94649458 -0.17510362 1.2504802 6513507
0.97514731 -0.17497064 1.2540172 6513507
0.94584459 -0.12538286 1.250499 6513507
0.97479951 -0.12471243 1.254074 6513507
0.9452256 -0.074136376 1.2505237 6513507
0.97476381 -0.074820198 1.2541687 6513507
0.94493723 -0.024488475 1.2505865 6513507
0.97485006 -0.024942027 1.2542782 6513507
0.94453913 0.024870275 1.250635 6513507
0.97493386 0.02494487 1.2543876 6513507
0.94409645 0.075189233 1.2506796 7697781
0.9750194 0.074840516 1.2544971 7697781
-1.0107836 0.11303942 1.2845764 6513507
-0.97491544 0.11307973 1.2754761 6513507
-0.92497319 0.11311127 1.2757674 6513507
-0.87500316 0.11314256 1.2761849 6513507
-0.82513839 0.11317389 1.2765698 6513507
-0.78275198 0.11320653 1.2737173 6513507
0.94420928 0.10699324 1.250757 10197915
0.97507417 0.10706902 1.254567 10197915
-1.0573523 0.11290687 1.3385367 6513507
-1.0234641 0.11295458 1.3248862 6513507
-0.97506523 0.1129877 1.3238267 6513507
-0.92499882 0.11301872 1.3244354 6513507
-0.87490487 0.11305062 1.324564 6513507
-0.82576656 0.11308271 1.3243027 6513507
-0.79372114 0.11312903 1.3107554 6513507
-1.1051173 0.11276709 1.395871 6513507
-1.0718491 0.11282139 1.3785651 6513507
-1.0251129 0.1128566 1.3758286 6513507
-0.97494203 0.11288828 1.3761338 6513507
-0.92502654 0.11291916 1.3767474 6513507
-0.87508279 0.11295099 1.3768981 6513507
-0.83692634 0.11298648 1.3711321 6513507
-1.1177776 0.11269812 1.4278853 6513507
-1.0747898 0.11273211 1.4245323 6513507
-1.0247071 0.11276332 1.425041 6513507
-0.97479635 0.11279462 1.4254371 6513507
-0.92485505 0.11282595 1.4258327 6513507
-0.87835783 0.11285826 1.4245584 6513507
-0.84938776 0.11290072 1.4120075 6513507
-1.1621603 0.11257802 1.4760276 6513507
-1.1251284 0.11261457 1.4693179 6513507
-1.0749065 0.11264606 1.4697287 6513507
-1.0248545 0.11267742 1.4701381 6513507
-0.97497892 0.11270847 1.4706701 6513507
-0.92507571 0.11274021 1.4708281 6513507
-0.89015806 0.11277269 1.4655446 6513507
-1.2080269 0.11244707 1.5293797 6513507
-1.1740389 0.11249126 1.5176368 6513507
-1.1250212 0.11252332 1.5173382 6513507
-1.0750322 0.11255465 1.5177573 6513507
-1.025012 0.11258596 1.5181829 6513507
-0.97496724 0.11261731 1.5186023 6513507
-0.9304952 0.11265051 1.5161754 6513507
-1.25577 0.11230998 1.5853306 6513507
-1.2223797 0.11236032 1.5701697 6513507
-1.1750528 0.11239454 1.568162 6513507
-1.1251218 0.11242575 1.568598 6513507
-1.0751641 0.11245675 1.5691881 6513507
-1.0251825 0.11248833 1.5694706 6513507
-0.97555828 0.11252058 1.5692796 6513507
-0.9426105 0.112564 1.5575826 6513507
-1.3025794 0.11217412 1.6409914 6513507
-1.2705903 0.11222268 1.6262546 6513507
-1.2249876 0.11225903 1.6225445 6513507
-1.1749017 0.11229034 1.622997 6513507
-1.1250063 0.11232156 1.6234478 6513507
-1.0748645 0.11235289 1.6239011 6513507
-1.0249138 0.11238381 1.6245209 6513507
-0.98633701 0.11241993 1.618556 6513507
-1.3156408 0.11210448 1.6731707 6513507
-1.2750165 0.11213496 1.670859 6513507
-1.2248273 0.11216632 1.6713262 6513507
-1.1749588 0.11219773 1.6716527 6513507
-1.1250567 0.11222866 1.6722549 6513507
-1.0751317 0.11226011 1.672582 6513507
-1.0276128 0.11229193 1.6719062 6513507
-0.99990767 0.11232594 1.6633747 6513507
-1.3646073 0.1119578 1.7337666 6513507
-1.3250419 0.11200562 1.721993 6513507
-1.2752192 0.11203634 1.7226713 6513507
-1.2251312 0.11206798 1.7229522 6513507
-1.1747819 0.11209942 1.7234352 6513507
-1.1248722 0.11213017 1.724115 6513507
-1.0751806 0.11216198 1.724185 6513507
-1.0394025 0.11220792 1.7121247 6513507
-1.4092727 0.11183394 1.7838025 6513507
-1.3748215 0.11186981 1.7765818 6513507
-1.3247762 0.11190132 1.7769127 6513507
-1.2747027 0.11193226 1.7775729 6513507
-1.2249652 0.11196328 1.7780657 6513507
-1.1748397 0.11199484 1.7783977 6513507
-1.1246792 0.1120258 1.7790591 6513507
-1.0836424 0.11205654 1.7767595 6513507
-1.4544946 0.11170884 1.8342891 6513507
-1.4228343 0.11174904 1.8238624 6513507
-1.3749816 0.11178149 1.8229765 6513507
-1.325129 0.1118122 1.8236622 6513507
-1.2752371 0.11184363 1.8239903 6513507
-1.2249539 0.11187427 1.8248585 6513507
-1.1746373 0.11190632 1.8250127 6513507
-1.1257547 0.11193752 1.8251184 6513507
-1.0949835 0.11197841 1.8140351 6513507
-1.4702923 0.11162271 1.8742656 6513507
-1.4251746 0.11165653 1.8717145 6513507
-1.375155 0.11168766 1.8722364 6513507
-1.3247256 0.11171942 1.8725693 6513507
-1.2750378 0.11175001 1.8732812 6513507
-1.2253213 0.1117813 1.8736064 6513507
-1.1748083 0.11181242 1.8743275 6513507
-1.1365471 0.11184425 1.8705209 6513507
-1.5163265 0.11149246 1.9271927 6513507
-1.4749448 0.1115275 1.922754 6513507
-1.424762 0.11155832 1.9235035 6513507
-1.3749403 0.11158931 1.9240379 6513507
-1.3254893 0.11162047 1.9243571 6513507
-1.2752187 0.11165136 1.9251076 6513507
-1.2249192 0.11168304 1.9254355 6513507
-1.17782 0.11171662 1.923685 6513507
-1.5640221 0.11135482 1.9834685 6513507
-1.5250889 0.11139187 1.9771287 6513507
-1.474719 0.11142319 1.9776843 6513507
-1.4247319 0.11145468 1.9780051 6513507
-1.3747134 0.11148535 1.9787874 6513507
-1.324669 0.11151686 1.9791087 6513507
-1.2745965 0.11154755 1.979892 6513507
-1.2244942 0.11157914 1.9802138 6513507
-1.1911405 0.11162174 1.9690714 6513507
-1.6123726 0.11120952 2.043519 6513507
-1.5747904 0.11125138 2.0342174 6513507
-1.5286155 0.11128594 2.0316494 6513507
-1.4750603 0.11134122 2.0207002 6513507
-1.4252275 0.11137214 2.0212617 6513507
-1.3753664 0.11140312 2.0218239 6513507
-1.325478 0.11143409 2.0223858 6513507
-1.2755619 0.11146509 2.0229485 6513507
-1.2331117 0.11149146 2.0234272 6513507
-1.6521003 0.11111624 2.0791481 6513507
-1.6247832 0.1111332 2.0794652 6513507
-1.5743977 0.11116444 2.0800502 6513507
-1.5205576 0.1112139 2.0722349 6513507
-1.4749879 0.11125579 2.0655947 6513507
-1.4253223 0.11128611 2.066427 6513507
-1.3751969 0.11131721 2.0670044 6513507
-1.3246219 0.11134911 2.067327 6513507
-1.2752885 0.11137974 2.0678864 6513507
-1.2418823 0.11142917 2.0531714 6513507
-1.6712949 -0.95260817 2.1347389 6513507
-1.6240276 -0.95381904 2.1405706 6513507
-1.573766 -0.9552893 2.1467726 6513507
-1.548851 -0.95567405 2.1498475 6513507
-1.6731603 -0.92497224 2.1345625 6513507
-1.6254171 -0.92495239 2.1404564 6513507
-1.5750216 -0.9250592 2.1466777 6513507
-1.548892 -0.92452526 2.149904 6513507
-1.6731551 -0.87488735 2.1346622 6513507
-1.6255221 -0.87507224 2.1405423 6513507
-1.5751232 -0.87494957 2.146765 6513507
-1.548943 -0.88536483 2.1499753 6513507
-1.6732982 -0.82501787 2.1347435 6513507
-1.6255811 -0.82507402 2.1406341 6513507
-1.5751505 -0.82489222 2.1468601 6513507
-1.6734387 -0.77501863 2.1348255 6513507
-1.6256552 -0.77495927 2.1407237 6513507
-1.5753616 -0.77508128 2.1469326 6513507
-1.6728427 -0.72476953 2.1349983 6513507
-1.625163 -0.72515529 2.1408839 6513507
-1.5760874 -0.72499174 2.1469424 6513507
-1.6726555 -0.67500454 2.1351202 6513507
-1.6249604 -0.67500079 2.1410081 6513507
-1.5761788 -0.67500204 2.1470296 6513507
-1.6728733 -0.62497836 2.1351924 6513507
-1.6250989 -0.62500209 2.1410899 6513507
-1.5770892 -0.62497002 2.1470165 6513507
-1.6728438 -0.57503855 2.1352942 6513507
-1.6252362 -0.57499838 2.1411724 6513507
-1.5772116 -0.5749079 2.1471002 6513507
-1.6727498 -0.5250932 2.1354051 6513507
-1.6247079 -0.52486122 2.1413364 6513507
-1.5774707 -0.52528775 2.1471667 6513507
-1.6730057 -0.47496319 2.1354735 6513507
-1.6243193 -0.4751007 2.1414828 6513507
-1.5772469 -0.47504517 2.147294 6513507
-1.6731844 -0.424891 2.1355507 6513507
-1.6244845 -0.42500743 2.1415615 6513507
-1.5777429 -0.42546919 2.1473312 6513507
-1.6731036 -0.37514585 2.1356585 6513507
-1.6247438 -0.374798 2.1416292 6513507
-1.578143 -0.37535459 2.1473811 6513507
-1.6729705 -0.32521111 2.1357744 6513507
-1.6246582 -0.3247804 2.1417387 6513507
-1.5784498 -0.32554507 2.1474411 6513507
-1.673448 -0.27479661 2.1358154 6513507
-1.6246983 -0.27507386 2.1418328 6513507
-1.5790982 -0.27511802 2.1474614 6513507
-1.6733168 -0.22476208 2.1359308 6513507
-1.6247659 -0.22539257 2.1419227 6513507
-1.5794013 -0.22483735 2.1475246 6513507
-1.673386 -0.17521539 2.1360195 6513507
-1.6246164 -0.17530049 2.1420398 6513507
-1.5801734 -0.17449467 2.1475282 6513507
-1.6732526 -0.12520048 2.1361358 6513507
-1.6251222 -0.12473508 2.1420777 6513507
-1.5801644 -0.12456289 2.1476283 6513507
-1.6737336 -0.074773893 2.1361759 6513507
-1.6249741 -0.07454861 2.1421955 6513507
-1.5809563 -0.074841015 2.1476288 6513507
-1.6735997 -0.024780964 2.1362915 6513507
-1.6250421 -0.024850477 2.1422849 6513507
-1.5811139 -0.024913397 2.1477084 6513507
-1.6736693 0.024782332 2.1363809 6513507
-1.6251105 0.024851888 2.1423757 6513507
-1.581726 0.024670282 2.1477311 6513507
-1.6739403 0.074722491 2.1364467 6513507
-1.6251783 0.0745584 2.1424658 6513507
-1.5820632 0.074743621 2.1477883 6513507
-1.6721915 0.10610961 2.134506 6513507
-1.6252751 0.10622805 2.1388748 6513507
-1.5800251 0.10685346 2.1417704 6513507
-1.5250387 0.11110453 2.1282604 6513507
-1.4751825 0.11113543 2.1288521 6513507
-1.424871 0.11116607 2.1297359 6513507
-1.3749613 0.111197 2.1303284 6513507
-1.3254652 0.11122824 2.1306303 6513507
-1.2880591 0.11126573 2.1235545 6513507
-1.5234772 -0.95663565 2.1529779 6513507
-1.4740856 -0.95803756 2.1590714 6513507
-1.4238558 -0.95939839 2.1652699 6513507
-1.3739483 -0.96080381 2.1714289 6513507
-1.3298688 -0.96194428 2.1768672 6513507
-1.524307 -0.92499882 2.1529388 6513507
-1.4749767 -0.92507368 2.159029 6513507
-1.424497 -0.92496848 2.1652594 6513507
-1.3746263 -0.92511296 2.1714158 6513507
-1.3303413 -0.92491692 2.1768825 6513507
-1.5247298 -0.87481409 2.1529851 6513507
-1.4750403 -0.8750785 2.1591198 6513507
-1.4245768 -0.87492013 2.1653492 6513507
-1.3745943 -0.87510216 2.1715183 6513507
-1.3302307 -0.87496006 2.176996 6513507
-1.5252599 -0.82501215 2.1530173 6513507
-1.4751312 -0.82510817 2.1592057 6513507
-1.4246546 -0.8248986 2.1654379 6513507
-1.374684 -0.8249976 2.1716061 6513507
-1.3302966 -0.82499826 2.1770866 6513507
-1.5507493 -0.75533342 2.1500099 6513507
-1.5253261 -0.77500504 2.1531096 6513507
-1.4751209 -0.77513379 2.1593075 6513507
-1.4246773 -0.77493149 2.1655338 6513507
-1.3747869 -0.77491796 2.1716931 6513507
-1.3304629 -0.7750321 2.1771646 6513507
-1.550789 -0.72506714 2.1500647 6513507
-1.5253921 -0.72502398 2.1531999 6513507
-1.4752017 -0.72509646 2.1593969 6513507
-1.4247634 -0.72502172 2.165622 6513507
-1.3748921 -0.72492486 2.1717796 6513507
-1.3305812 -0.72502398 2.1772494 6513507
-1.5508544 -0.67521387 2.1501555 6513507
-1.5251412 -0.67481816 2.1533313 6513507
-1.4749311 -0.67524654 2.1595261 6513507
-1.4247342 -0.67504627 2.1657255 6513507
-1.3747995 -0.67498875 2.1718895 6513507
-1.3304006 -0.67492956 2.1773703 6513507
-1.5517379 -0.62532693 2.1501453 6513507
-1.5247049 -0.62500238 2.1534827 6513507
-1.474502 -0.62499827 2.159682 6513507
-1.424812 -0.62500697 2.1658154 6513507
-1.3748438 -0.62501669 2.1719825 6513507
-1.3305234 -0.6249519 2.1774545 6513507
-1.5518032 -0.57546759 2.1502364 6513507
-1.5247895 -0.57497942 2.1535714 6513507
-1.4745526 -0.57494724 2.1597729 6513507
-1.4248873 -0.57499349 2.1659043 6513507
-1.3749744 -0.57501024 2.1720662 6513507
-1.3308026 -0.57516778 2.1775186 6513507
-1.5525401 -0.52388424 2.1502471 6513507
-1.5248615 -0.5249238 2.1536622 6513507
-1.4746075 -0.5249517 2.1598659 6513507
-1.4249858 -0.52503586 2.1659913 6513507
-1.3751684 -0.52509141 2.1721413 6513507
-1.3306874 -0.52506095 2.1776314 6513507
-1.5527521 -0.47571406 2.1503167 6513507
-1.5249596 -0.47483516 2.1537502 6513507
-1.4746826 -0.47495213 2.1599557 6513507
-1.4250959 -0.47510442 2.1660762 6513507
-1.3751719 -0.47507679 2.1722395 6513507
-1.3305047 -0.47472662 2.1777546 6513507
-1.55329 -0.42360231 2.1503532 6513507
-1.5249798 -0.42477027 2.1538458 6513507
-1.4747434 -0.42494822 2.1600468 6513507
-1.4252343 -0.42519921 2.1661582 6513507
-1.3750937 -0.42484733 2.172348 6513507
-1.3299916 -0.4250522 2.1779153 6513507
-1.5537317 -0.37462398 2.1503956 6513507
-1.5250161 -0.37478751 2.1539409 6513507
-1.4748175 -0.37500015 2.1601348 6513507
-1.4251517 -0.37513754 2.1662676 6513507
-1.375047 -0.37482259 2.1724534 6513507
-1.3301378 -0.37518123 2.1779971 6513507
-1.554106 -0.32297564 2.1504521 6513507
-1.5250797 -0.32482961 2.154031 6513507
-1.4749092 -0.32510763 2.1602249 6513507
-1.4252125 -0.32489324 2.1663589 6513507
-1.3753575 -0.32512912 2.1725137 6513507
-1.3300741 -0.32485032 2.1781044 6513507
-1.5546525 -0.27440271 2.150481 6513507
-1.5251451 -0.27486739 2.1541228 6513507
-1.4750443 -0.27530193 2.1603062 6513507
-1.4252723 -0.27464554 2.1664519 6513507
-1.3754476 -0.27527934 2.1726007 6513507
-1.3299485 -0.27481276 2.1782188 6513507
-1.5548214 -0.2240524 2.1505592 6513507
-1.5252091 -0.22490098 2.154213 6513507
-1.4750793 -0.22546031 2.1604021 6513507
-1.4251896 -0.22456911 2.1665602 6513507
-1.3753816 -0.22503164 2.1727083 6513507
-1.3303677 -0.22520144 2.178266 6513507
-1.5556014 -0.17462638 2.1505609 6513507
-1.5252738 -0.17493041 2.1543033 6513507
-1.4750632 -0.17543353 2.160502 6513507
-1.4253609 -0.17497267 2.1666384 6513507
-1.3754404 -0.17463204 2.1728015 6513507
-1.3302416 -0.17508028 2.1783795 6513507
