# .PCD v0.7 - Point Cloud Data file format
VERSION 0.7
FIELDS x y z rgb
SIZE 4 4 4 4
TYPE F F F U
COUNT 1 1 1 1
WIDTH 1175
HEIGHT 1
VIEWPOINT 0 0 0 1 0 0 0
POINTS 1175
DATA ascii
0.71101683 -0.92501348 3.8055849 2039583
1.0315496 -0.92534524 3.8247058 2039583
0.63875026 -0.87519991 3.8438687 2039583
0.67511493 -0.87501705 3.8246744 2039583
0.71106577 -0.87504166 3.8056948 2039583
1.0315975 -0.87468112 3.8248851 2039583
0.63861006 -0.82494384 3.8440797 2039583
0.67512649 -0.82504439 3.8248012 2039583
0.71111476 -0.82506728 3.8058054 2039583
1.0313959 -0.82464445 3.8245885 2039583
0.63846982 -0.77468181 3.8442912 2039583
0.67504108 -0.77497756 3.8249855 2039583
0.7112425 -0.77531958 3.8058727 2039583
1.0316932 -0.77492851 3.8252394 2039583
0.63873202 -0.72511858 3.8442867 2039583
0.67494601 -0.72490686 3.8251722 2039583
0.71207571 -0.72446275 3.8055723 2039583
1.0295073 -0.72615409 3.8211815 2039583
0.63875127 -0.67508662 3.8444123 2039583
0.67511636 -0.67501235 3.8252146 2039583
0.71259212 -0.67476135 3.8054342 2039583
1.028537 -0.67486113 3.8194327 2039583
0.63856 -0.62480855 3.8446505 2039583
0.67517382 -0.62511653 3.8253207 2039583
0.71253645 -0.62452525 3.8055999 2039583
1.0284308 -0.62464899 3.8193183 2039583
0.63876766 -0.57523698 3.8446751 2039583
0.67506778 -0.57503617 3.8255131 2039583
0.71254754 -0.57468212 3.8057296 2039583
1.0287857 -0.5748328 3.8200765 2039583
0.63881367 -0.52542454 3.8447871 2039583
0.67521727 -0.52495241 3.8255727 2039583
0.71266145 -0.52503979 3.8058045 2039583
1.0286283 -0.52501285 3.8198647 2039583
0.63875532 -0.47468987 3.8449557 2039583
0.67540282 -0.47495618 3.8256085 2039583
0.71277571 -0.47539571 3.8058801 2039583
1.0287273 -0.47478354 3.8201392 2039583
0.63861346 -0.42462409 3.8451664 2039583
0.67503762 -0.42495686 3.8259375 2039583
0.71278673 -0.42554507 3.8060088 2039583
1.0286702 -0.42495492 3.8201175 2039583
0.63895786 -0.37528652 3.8451188 2039583
0.6750384 -0.37495109 3.8260729 2039583
0.71273106 -0.37529081 3.806175 2039583
1.0288216 -0.3751145 3.8204908 2039583
0.63914299 -0.32568118 3.845156 2039583
0.67524862 -0.32503369 3.8260989 2039583
0.71275407 -0.32484218 3.8063002 2039583
1.0288187 -0.32487473 3.8205717 2039583
0.64017975 -0.27447513 3.8447483 2039583
0.67561609 -0.27529708 3.8260393 2039583
0.71277767 -0.27439025 3.8064244 2039583
1.0287627 -0.27502981 3.8205512 2039583
0.64045221 -0.22514239 3.8447387 2039583
0.67526746 -0.22510038 3.8263588 2039583
0.71280116 -0.22393504 3.8065505 2039583
1.0289644 -0.22478621 3.8210196 2039583
0.64034557 -0.17521979 3.8449309 2039583
0.67528999 -0.17437929 3.8264868 2039583
0.71274066 -0.17484656 3.8067155 2039583
1.0291657 -0.17452659 3.8214879 2039583
0.64036685 -0.12425083 3.8450575 2039583
0.67493331 -0.12469386 3.8268111 2039583
0.71350425 -0.12526877 3.8064463 2039583
1.02906 -0.1250647 3.8213735 2039583
0.64038724 -0.07487148 3.8451805 2039583
0.67570347 -0.075586528 3.8265355 2039583
0.7143032 -0.075688496 3.8061612 2039583
1.0289521 -0.075609833 3.8212543 2039583
0.64040774 -0.025488883 3.8453047 2039583
0.6753552 -0.025366614 3.8268559 2039583
0.71432668 -0.025230233 3.8062837 2039583
1.0291539 -0.025332514 3.8217235 2039583
0.64042908 0.025490006 3.8454316 2039583
0.67537761 0.025367716 3.8269832 2039583
0.71434999 0.025231335 3.8064101 2039583
1.0292022 0.025334088 3.8219028 2039583
0.64044964 0.074879006 3.8455555 3223857
0.67478657 0.075263262 3.8274291 3355443
0.71335405 0.076267622 3.807075 3487029
1.0290959 0.075620756 3.8217871 2500134
-0.76714027 0.10663565 3.8417156 2894892
-0.72565383 0.10662007 3.8411546 2894892
-0.67460942 0.10660088 3.8404639 2894892
-0.62517768 0.10658234 3.8397946 2894892
-0.57576334 0.10656378 3.8391271 2894892
-0.52477282 0.10654463 3.8384361 2894892
-0.47539321 0.10652608 3.837769 9934743
-0.42603096 0.10650755 3.8371003 10197915
-0.37509432 0.10648844 3.836412 10197915
-0.32417595 0.10646931 3.8357232 10197915
-0.27486613 0.1064508 3.8350563 10197915
-0.22557364 0.10643229 3.8343897 10197915
-0.17470898 0.10641319 3.8337016 10197915
-0.12386253 0.10639409 3.8330138 10197915
-0.074622363 0.1063756 3.8323472 10197915
-0.025399469 0.10635711 3.8316817 10197915
0.025393404 0.10633804 3.8309941 10197915
0.07616806 0.10631897 3.8303065 10197915
0.12533875 0.1063005 3.8296423 10197915
0.17449218 0.10628206 3.8289771 10197915
0.22521339 0.10626301 3.8282912 10197915
0.2759164 0.10624397 3.8276045 10197915
0.32501775 0.10622552 3.8269401 10197915
0.37410188 0.10620712 3.8262763 10197915
0.42475155 0.10618807 3.8255916 10197915
0.4753831 0.10616907 3.8249063 10197915
0.52599651 0.10615006 3.8242211 10197915
0.57501119 0.10613165 3.8235588 10197915
0.63105959 0.10433524 3.8326359 10197915
0.67167997 0.10385198 3.8264744 10197915
0.71294963 0.10410478 3.807363 10197915
1.0339164 0.10465385 3.8192947 10197915
1.0752491 0.10594372 3.8167875 10197915
1.1256469 0.10592472 3.8161035 10197915
1.1760279 0.10590579 3.8154216 10197915
1.2263906 0.10588689 3.8147404 10197915
1.2751625 0.10586858 3.8140805 10197915
1.3239175 0.10585027 3.813421 10197915
1.3742276 0.10583138 3.8127406 10197915
1.4245197 0.1058125 3.8120604 10197915
1.4747938 0.10579361 3.8113799 10197915
1.5250502 0.10577474 3.8106997 10197915
1.5752884 0.10575588 3.8100209 10197915
1.6255088 0.10573702 3.809341 10197915
1.6757112 0.10571818 3.8086619 10197915
1.7258958 0.10569933 3.8079836 10197915
1.7760623 0.1056805 3.8073041 10197915
1.826211 0.10566165 3.8066263 10197915
1.8763422 0.10564283 3.8059478 10197915
1.926455 0.10562402 3.80527 10197915
1.9749852 0.10560579 3.8046134 10197915
2.0234985 0.10558759 3.8039572 10197915
2.073559 0.10556878 3.8032801 10197915
2.1236022 0.10554998 3.8026028 10197915
2.1579967 0.10553706 3.8021376 10197915
0.53858405 -1.7212739 3.8944454 2039583
0.57418114 -1.7172207 3.8756645 2039583
0.61060619 -1.7121984 3.8564496 2039583
0.53936541 -1.6757866 3.894156 2039583
0.57481062 -1.6749952 3.8754478 2039583
0.61045158 -1.6750737 3.8566318 2039583
0.54039478 -1.6251121 3.8937509 2039583
0.57480615 -1.6250769 3.8755853 2039583
0.61036527 -1.624994 3.8568151 2039583
0.54041237 -1.5751643 3.893877 2039583
0.57480073 -1.5751524 3.8757241 2039583
0.61050206 -1.5747267 3.856879 2039583
0.54051256 -1.5249666 3.8939593 2039583
0.5749622 -1.5250251 3.8757749 2039583
0.6118983 -1.5250126 3.856276 2039583
0.54036409 -1.4750128 3.8941748 2039583
0.57474297 -1.4748955 3.8760266 2039583
0.61183465 -1.4749968 3.8564475 2039583
0.54054773 -1.4250399 3.8942146 2039583
0.5749532 -1.4249629 3.8760514 2039583
0.61195934 -1.4249848 3.856518 2039583
0.54039925 -1.3750765 3.8944285 2039583
0.57486361 -1.375025 3.8762367 2039583
0.61195838 -1.3749717 3.8566527 2039583
0.5405829 -1.3250995 3.8944669 2039583
0.57498443 -1.3249855 3.8763077 2039583
0.61197799 -1.3247695 3.8567798 2039583
0.54043436 -1.2751282 3.8946819 2039583
0.57487702 -1.2749443 3.8764994 2039583
0.61201984 -1.2749225 3.8568909 2039583
0.54061794 -1.2251464 3.8947196 2039583
0.57494384 -1.2249943 3.8766005 2039583
0.61193472 -1.2250776 3.8570724 2039583
0.54049796 -1.1749357 3.8949203 2039583
0.57496828 -1.1751497 3.8767235 2039583
0.61207944 -1.1748649 3.8571341 2039583
0.54062635 -1.1249499 3.8949876 2039583
0.57511204 -1.1250919 3.8767831 2039583
0.612037 -1.1250117 3.8572907 2039583
0.54053301 -1.0749613 3.8951735 2039583
0.57489848 -1.0750399 3.8770318 2039583
0.61199373 -1.0751542 3.85745 2039583
0.54190403 -1.0257146 3.8945827 2039583
0.57504219 -1.0249786 3.8770921 2039583
0.61213875 -1.0249336 3.8575087 2039583
0.54200006 -0.97507763 3.8946702 2039583
0.5751031 -0.97491586 3.8771958 2039583
0.61209691 -0.97489196 3.8576677 2039583
0.54227626 -0.92510283 3.8946595 2039583
0.57499588 -0.92505056 3.8773882 2039583
0.61312407 -0.92445296 3.8572636 2039583
0.54203534 -0.87509674 3.8949237 2039583
0.57518178 -0.87508351 3.8774257 2039583
0.61374992 -0.87488443 3.8570669 2039583
0.54231155 -0.82511866 3.8949134 2039583
0.5749917 -0.82500625 3.8776634 2039583
0.61351568 -0.82489711 3.8573272 2039583
0.54207069 -0.77510256 3.8951776 2039583
0.57518965 -0.77503783 3.8776939 2039583
0.61364859 -0.77506316 3.8573937 2039583
0.54234666 -0.72512156 3.8951681 2039583
0.57511854 -0.7249518 3.8778675 2039583
0.61386615 -0.72506994 3.8574133 2039583
1.0447507 -0.71776754 3.8500729 2039583
0.54210585 -0.67509568 3.8954306 2039583
0.57518578 -0.67497522 3.8779683 2039583
0.61349171 -0.67490578 3.8577485 2039583
1.0447922 -0.67472816 3.8502264 2039583
0.542382 -0.62511146 3.8954206 2039583
0.57515544 -0.62498802 3.8781209 2039583
0.61375612 -0.62506652 3.8577433 2039583
1.0448399 -0.62530851 3.8504014 2039583
0.54219002 -0.5748117 3.8956587 2039583
0.57527143 -0.5749985 3.878195 2039583
0.61387813 -0.57506472 3.857815 2039583
1.0448891 -0.57428998 3.8505833 2039583
0.54236919 -0.52481449 3.8957002 2039583
0.57505012 -0.52500814 3.8784478 2039583
0.61352187 -0.52488285 3.8581386 2039583
1.0449368 -0.52486116 3.8507588 2039583
0.54222518 -0.47477928 3.8959129 2039583
0.57558936 -0.47491404 3.8782992 2039583
0.61399806 -0.47536805 3.8580222 2039583
1.0449843 -0.47542787 3.8509347 2039583
0.54275393 -0.42558756 3.895767 2039583
0.57485408 -0.42491108 3.878824 2039583
0.61378831 -0.42518345 3.8582683 2039583
1.0450337 -0.42439517 3.8511159 2039583
0.54376817 -0.3747088 3.8953691 2039583
0.57562953 -0.37512016 3.8785505 2039583
0.6135819 -0.37467167 3.8585155 2039583
1.0450815 -0.37495267 3.8512917 2039583
0.54394084 -0.32471791 3.8954155 2039583
0.57498473 -0.32500246 3.8790264 2039583
0.61446255 -0.3246778 3.8581884 2039583
1.0451292 -0.32550564 3.8514676 2039583
0.54380327 -0.27467072 3.8956232 2039583
0.57557976 -0.2752105 3.8788471 2039583
0.61532062 -0.27490219 3.8578696 2039583
1.0451784 -0.27445883 3.8516486 2039583
0.54397631 -0.22467546 3.8956692 2039583
0.57530588 -0.22499055 3.8791285 2039583
0.61513013 -0.22491224 3.8581059 2039583
1.0452261 -0.22500271 3.851825 2039583
0.54383874 -0.17461969 3.8958759 2039583
0.57532412 -0.17517686 3.8792536 2039583
0.61556518 -0.1753995 3.8580103 2039583
1.0452738 -0.17554194 3.8520002 2039583
0.54401171 -0.12461998 3.8959222 2039583
0.57534295 -0.12535995 3.8793795 2039583
0.61538106 -0.12467702 3.8582458 2039583
1.045323 -0.124481 3.8521824 2039583
0.54387414 -0.074555628 3.8961294 2039583
0.57536161 -0.075539827 3.8795059 2039583
0.61540073 -0.075128287 3.858371 2039583
1.0453707 -0.075011156 3.8523583 2039583
0.54404718 -0.024551494 3.896174 2039583
0.57538021 -0.025716418 3.8796306 2039583
0.61542064 -0.02557631 3.8584938 2039583
1.0454184 -0.025536738 3.8525333 2039583
0.54364616 0.023214784 3.8965161 2039583
0.57500875 0.025967071 3.8799679 2039583
0.61544096 0.025577439 3.8586233 2039583
1.0454677 0.025538342 3.8527157 2039583
0.54249996 0.07427121 3.8972597 3421236
0.57383031 0.075462975 3.8807251 3355443
0.61546063 0.075135864 3.8587501 3223857
1.0455155 0.0750219 3.8528922 2171169
0.54251027 0.1033356 3.8973334 10197915
0.57393396 0.10289574 3.880744 10197915
0.61547166 0.10231432 3.8588159 10197915
1.0455418 0.10215981 3.8529885 10197915
0.44090948 -1.757814 3.9459064 2039583
0.46909338 -1.7542375 3.9310391 2039583
0.44132617 -1.7251272 3.9457753 2039583
0.47514135 -1.7249234 3.9279258 2039583
0.51289028 -1.7242261 3.9080002 2039583
0.44166887 -1.6757551 3.9457288 2039583
0.47518772 -1.6750394 3.9280379 2039583
0.51383001 -1.6744237 3.9076395 2039583
0.442893 -1.6249686 3.9452214 2039583
0.47519043 -1.6248521 3.9281723 2039583
0.51468086 -1.6250532 3.9073243 2039583
0.44298804 -1.5750059 3.9453065 2039583
0.47530603 -1.5748571 3.9282467 2039583
0.51483452 -1.5749249 3.9073789 2039583
0.44296181 -1.5250396 3.945456 2039583
0.47520274 -1.5249664 3.9284368 2039583
0.51478279 -1.524953 3.907542 2039583
0.44293559 -1.4750689 3.9456065 2039583
0.47516865 -1.4749686 3.928591 2039583
0.51482898 -1.4749781 3.9076533 2039583
0.44303071 -1.4250983 3.9456913 2039583
0.47533324 -1.4249687 3.9286404 2039583
0.51487541 -1.4250025 3.9077656 2039583
0.44308624 -1.375124 3.9457984 2039583
0.47523683 -1.3749624 3.9288266 2039583
0.51470619 -1.3750174 3.9079912 2039583
0.44289914 -1.3251382 3.9460325 2039583
0.47526461 -1.3249555 3.9289477 2039583
0.51496774 -1.3250397 3.907989 2039583
0.44307396 -1.2748345 3.9460773 2039583
0.47532377 -1.2750496 3.9290528 2039583
0.51479828 -1.2750444 3.908215 2039583
0.44312963 -1.2248516 3.9461834 2039583
0.47532031 -1.2251326 3.9291897 2039583
0.51495171 -1.2249001 3.9082701 2039583
0.44298148 -1.1751812 3.9463971 2039583
0.47535431 -1.1750177 3.9293091 2039583
0.51490009 -1.1748979 3.908433 2039583
0.44303697 -1.1251903 3.9465032 2039583
0.4753578 -1.124995 3.9294429 2039583
0.51492655 -1.1249084 3.9085548 2039583
0.44321185 -1.0748791 3.9465482 2039583
0.47543478 -1.0749705 3.9295371 2039583
0.51496327 -1.0750651 3.9086707 2039583
0.44374135 -1.0264587 3.9464004 2039583
0.47526374 -1.024946 3.929764 2039583
0.51622933 -1.0246373 3.9081395 2039583
0.444565 -0.97514576 3.946105 2039583
0.4754104 -0.97501624 3.9298224 2039583
0.51644319 -0.9748432 3.9081626 2039583
0.44477874 -0.92452461 3.9461298 2039583
0.47554451 -0.9250859 3.9298875 2039583
0.5165838 -0.92482483 3.9082239 2039583
0.44469362 -0.87467635 3.9463108 2039583
0.47525427 -0.875148 3.9301763 2039583
0.51640493 -0.87481141 3.9084542 2039583
0.44463208 -0.82523471 3.9464774 2039583
0.47558641 -0.82501084 3.9301379 2039583
0.51670837 -0.82508004 3.9084299 2039583
0.44479597 -0.77459997 3.946528 2039583
0.47543505 -0.77506739 3.9303524 2039583
0.51636869 -0.77505946 3.9087446 2039583
0.44473705 -0.72433543 3.9466965 2039583
0.47540635 -0.72511882 3.9305038 2039583
0.51674086 -0.72488302 3.9086852 2039583
0.44475129 -0.67530477 3.9468219 2039583
0.47549051 -0.67497498 3.9305952 2039583
0.51645404 -0.67499888 3.9089725 2039583
0.44466618 -0.62543553 3.9470022 2039583
0.47557509 -0.625018 3.9306872 2039583
0.51664978 -0.62496597 3.9090047 2039583
0.44487992 -0.57480085 3.947027 2039583
0.47555158 -0.57496339 3.9308364 2039583
0.51668501 -0.57507658 3.9091227 2039583
0.44479465 -0.52492505 3.9472084 2039583
0.47535607 -0.52490473 3.9310749 2039583
0.51650691 -0.52503085 3.9093513 2039583
0.44473314 -0.47545755 3.9473748 2039583
0.4757517 -0.47494364 3.9310021 2039583
0.51686287 -0.47499767 3.9092999 2039583
0.44489726 -0.42480686 3.9474256 2039583
0.47554222 -0.42508122 3.9312496 2039583
0.51681852 -0.42467037 3.9094601 2039583
0.44599596 -0.37568495 3.9469793 2039583
0.47534186 -0.3751094 3.9314909 2039583
0.51848459 -0.37490091 3.908716 2039583
0.44639656 -0.32539579 3.9469051 2039583
0.47596434 -0.32484636 3.9312973 2039583
0.51798505 -0.32509378 3.9091151 2039583
0.44641128 -0.27471504 3.9470351 2039583
0.47558922 -0.27527159 3.9316304 2039583
0.5184418 -0.27492121 3.9090111 2039583
0.44642586 -0.22403099 3.947165 2039583
0.47531343 -0.22518103 3.9319131 2039583
0.51824224 -0.22511825 3.9092519 2039583
0.44644016 -0.1749786 3.9472914 2039583
0.47592127 -0.17471494 3.9317288 2039583
0.51825911 -0.17491758 3.909379 2039583
0.44645438 -0.1259232 3.9474173 2039583
0.4756355 -0.12543182 3.9320145 2039583
0.51827592 -0.12471382 3.9095063 2039583
0.44646907 -0.075229235 3.9475472 2039583
0.47565114 -0.07493569 3.9321425 2039583
0.51829284 -0.074506737 3.9096344 2039583
0.44648379 -0.024531998 3.9476769 2039583
0.47566673 -0.024436273 3.9322722 2039583
0.51830989 -0.024296379 3.9097629 2039583
0.44649816 0.024533045 3.947803 2039583
0.47568193 0.024437295 3.9323971 2039583
0.5183261 0.024297407 3.9098849 2039583
0.44651285 0.075236894 3.9479325 3684408
0.47569752 0.074943312 3.9325259 3552822
0.51834309 0.074514233 3.910012 3421236
-0.76254141 0.10636307 3.9497995 2894892
-0.72480947 0.10634891 3.9492745 2894892
-0.67560834 0.10633048 3.94859 2894892
-0.62478513 0.10631148 3.9478836 2894892
-0.57397974 0.10629242 3.9471765 2894892
-0.52483088 0.10627402 3.9464929 4539717
-0.47569892 0.10625561 3.9458094 10197915
-0.4249472 0.10623659 3.9451039 10197915
-0.37421349 0.1062176 3.9443979 10197915
-0.32513374 0.10619923 3.9437153 10197915
-0.27607089 0.10618085 3.9430327 10197915
-0.22539057 0.10616187 3.942328 10197915
-0.17472823 0.10614289 3.9416234 10197915
-0.12571745 0.10612454 3.9409418 10197915
-0.075090885 0.10610556 3.9402373 10197915
-0.024482226 0.1060866 3.9395335 10197915
0.024476591 0.10606826 3.9388528 10197915
0.075049497 0.10604933 3.938149 10197915
0.12560453 0.10603037 3.9374459 10197915
0.17451148 0.10601208 3.9367654 10197915
0.22503084 0.10599316 3.9360631 10197915
0.27553231 0.10597421 3.9353604 10197915
0.32438746 0.10595594 3.9346807 10197915
0.37485334 0.10593706 3.9339793 10197915
0.42883793 0.10543902 3.9357316 10197915
0.47552255 0.10422817 3.9310222 10197915
0.51835304 0.10367373 3.9100869 10197915
1.0827305 0.10567192 3.9241345 10197915
1.1248307 0.10565615 3.9235482 10197915
1.1750118 0.10563735 3.9228508 10197915
1.2251745 0.10561857 3.9221528 10197915
1.2753199 0.10559978 3.9214559 10197915
1.325447 0.105581 3.9207582 10197915
1.3755566 0.10556224 3.9200613 10197915
1.4256482 0.10554348 3.9193649 10197915
1.475722 0.10552471 3.9186683 10197915
1.5257779 0.10550598 3.9179716 10197915
1.5758164 0.10548723 3.9172754 10197915
1.6242236 0.10546911 3.9166031 10197915
1.6742268 0.10545036 3.9159069 10197915
1.7242123 0.10543166 3.9152117 10197915
1.7741803 0.10541295 3.9145169 10197915
1.8257411 0.10539363 3.9137998 10197915
1.8756731 0.10537492 3.913105 10197915
1.9255871 0.10535623 3.9124105 10197915
1.9754833 0.10533753 3.9117169 10197915
2.0253618 0.10531885 3.9110234 10197915
2.075223 0.10530018 3.9103296 10197915
2.1250663 0.10528152 3.9096365 10197915
2.1748917 0.10526285 3.9089434 10197915
2.2134545 0.10524841 3.908407 10197915
0.34427378 -1.7692533 3.9968886 2039583
0.37435922 -1.7655703 3.9810159 2039583
0.41573951 -1.760851 3.9591851 2039583
0.3444474 -1.7250134 3.9969165 2039583
0.37593362 -1.7249377 3.9802949 2039583
0.4165844 -1.7252203 3.9588361 2039583
0.34443262 -1.6749766 3.9970605 2039583
0.37603018 -1.6750069 3.9803789 2039583
0.41682664 -1.67469 3.9588463 2039583
0.34452176 -1.6249417 3.997149 2039583
0.37602258 -1.6250733 3.9805198 2039583
0.41820836 -1.6249578 3.9582508 2039583
0.34445497 -1.5748959 3.9973214 2039583
0.37597644 -1.5749316 3.9806812 2039583
0.41822225 -1.5750664 3.9583788 2039583
0.34471616 -1.5262594 3.9973161 2039583
0.37601492 -1.5248872 3.9807982 2039583
0.41817975 -1.5251738 3.9585376 2039583
0.34606192 -1.4753202 3.9967432 2039583
0.3759689 -1.4749444 3.9809558 2039583
0.41817525 -1.4751283 3.9586763 2039583
0.34607309 -1.4256924 3.9968722 2039583
0.37601328 -1.4249978 3.9810696 2039583
0.41817015 -1.4250787 3.9588151 2039583
0.34601548 -1.3754977 3.9970396 2039583
0.3760772 -1.374946 3.9811716 2039583
0.41836858 -1.3750284 3.9588463 2039583
0.34609568 -1.3253229 3.9971335 2039583
0.37612176 -1.3247871 3.9812837 2039583
0.4181605 -1.3249705 3.9590924 2039583
0.34610698 -1.2751338 3.9972646 2039583
0.37609586 -1.2749323 3.9814346 2039583
0.41821083 -1.2750611 3.9592006 2039583
0.34618726 -1.2244025 3.9973595 2039583
0.37608826 -1.2251788 3.9815724 2039583
0.41829857 -1.2250007 3.9592922 2039583
0.34612972 -1.1741943 3.9975264 2039583
0.37602282 -1.1751115 3.9817436 2039583
0.41834968 -1.1749371 3.9593999 2039583
0.34614086 -1.1245468 3.9976552 2039583
0.37627399 -1.1249416 3.9817472 2039583
0.41830769 -1.1251638 3.9595582 2039583
0.34615204 -1.0748961 3.9977844 2039583
0.37603384 -1.0749729 3.9820108 2039583
0.41822883 -1.0750889 3.9597349 2039583
0.34616321 -1.0252421 3.9979146 2039583
0.37607241 -1.025102 3.9821243 2039583
0.41916716 -1.0243949 3.9593785 2039583
0.34617442 -0.97558486 3.9980428 2039583
0.37612343 -0.97502285 3.982234 2039583
0.41990632 -0.9749769 3.9591224 2039583
0.34618562 -0.9259246 3.9981716 2039583
0.37625846 -0.92483902 3.9823003 2039583
0.41989446 -0.92511356 3.9592645 2039583
0.34650546 -0.87800288 3.9981339 2039583
0.37622577 -0.8748576 3.9824522 2039583
0.42003545 -0.87524712 3.9593258 2039583
0.34774145 -0.82557249 3.9976239 2039583
0.3761602 -0.824974 3.9826238 2039583
0.41986269 -0.82497561 3.9595535 2039583
0.34785515 -0.7743001 3.9977026 2039583
0.37619191 -0.77519011 3.9827416 2039583
0.41986725 -0.77483219 3.9596872 2039583
0.34781551 -0.72378814 3.9978611 2039583
0.37616497 -0.72529906 3.9828913 2039583
0.41997468 -0.72495723 3.9597659 2039583
0.34782678 -0.67412192 3.9979906 2039583
0.37632567 -0.67509931 3.9829445 2039583
0.42014113 -0.6749447 3.9598145 2039583
0.34783798 -0.62445253 3.9981194 2039583
0.37617666 -0.62489778 3.9831581 2039583
0.41997617 -0.62506646 3.960037 2039583
0.34784922 -0.57477987 3.9982483 2039583
0.37614331 -0.57489419 3.9833114 2039583
0.41981164 -0.57518089 3.9602597 2039583
0.34786046 -0.52510393 3.9983778 2039583
0.37620777 -0.52499092 3.9834144 2039583
0.42000392 -0.52502286 3.9602957 2039583
0.34787166 -0.47542495 3.9985061 2039583
0.37630424 -0.47498268 3.9835 2039583
0.42028755 -0.47473106 3.9602799 2039583
0.3478829 -0.42574272 3.9986358 2039583
0.37643254 -0.4248701 3.9835672 2039583
0.42003107 -0.42496935 3.9605534 2039583
0.34789413 -0.37605724 3.998765 2039583
0.37645176 -0.37485725 3.9836936 2039583
0.42106995 -0.37499925 3.9601402 2039583
0.34790543 -0.32636854 3.9988942 2039583
0.37628248 -0.3251462 3.9839189 2039583
0.42153203 -0.32508174 3.9600308 2039583
0.34791699 -0.27502024 3.999028 2039583
0.37619647 -0.27553412 3.9840984 2039583
0.42193359 -0.274629 3.9599564 2039583
0.34840983 -0.22768851 3.9988956 2039583
0.37604904 -0.22550176 3.9843125 2039583
0.42163673 -0.22477362 3.960248 2039583
0.34952399 -0.1739336 3.9984543 2039583
0.37631977 -0.17496647 3.9843073 2039583
0.4216502 -0.17555863 3.9603755 2039583
0.34953526 -0.12424228 3.9985833 2039583
0.37668425 -0.12433475 3.984252 2039583
0.42138997 -0.1251861 3.9606483 2039583
0.34954658 -0.074547701 3.9987128 2039583
0.37634373 -0.07428401 3.9845688 2039583
0.42195866 -0.074361838 3.9604881 2039583
0.34955785 -0.024849949 3.9988418 2039583
0.37635595 -0.024762053 3.9846961 2039583
0.42169157 -0.024613325 3.9607646 2039583
0.34956917 0.024851019 3.9989707 2039583
0.37636808 0.024763109 3.9848244 2039583
0.42170507 0.024614383 3.9608917 2039583
0.34958047 0.074555203 3.9990997 3487029
0.37638009 0.074291483 3.9849524 3355443
0.42199957 0.074369274 3.9608715 3355443
-0.80192482 0.10637778 3.9503465 2894892
-0.78715503 0.10637228 3.9501419 2894892
0.34958684 0.10272221 3.9991734 10197915
0.376387 0.10235879 3.9850249 10197915
0.41918564 0.10207628 3.9624319 10197915
0.24817176 -1.8059554 4.0475183 2039583
0.26550055 -1.8033813 4.0383787 2039583
0.24817662 -1.775807 4.0475984 2039583
0.27566561 -1.7750049 4.0330901 2039583
0.31831318 -1.7722143 4.0105848 2039583
0.24818476 -1.7255574 4.0477304 2039583
0.27567461 -1.7249353 4.0332212 2039583
0.31897202 -1.7249899 4.0103655 2039583
0.24819285 -1.6753039 4.0478635 2039583
0.27569789 -1.6749743 4.0333438 2039583
0.31907025 -1.6749258 4.0104489 2039583
0.24820098 -1.6250476 4.0479956 2039583
0.27577913 -1.6251214 4.0334373 2039583
0.31900138 -1.6249948 4.0106211 2039583
0.24820913 -1.5747885 4.0481277 2039583
0.27570158 -1.5751529 4.0336142 2039583
0.31910855 -1.5750598 4.0107007 2039583
0.24821725 -1.5245254 4.0482607 2039583
0.27571046 -1.5250704 4.0337448 2039583
0.31928885 -1.5245491 4.0107427 2039583
0.24822532 -1.4742595 4.0483923 2039583
0.27582043 -1.4750963 4.0338235 2039583
0.32072181 -1.4747787 4.0101209 2039583
0.24823347 -1.4239899 4.0485249 2039583
0.27572846 -1.4251187 4.0340075 2039583
0.32065102 -1.4247292 4.0102963 2039583
0.24818544 -1.3745362 4.0486851 2039583
0.27576616 -1.3751379 4.0341239 2039583
0.32064509 -1.3748028 4.0104342 2039583
0.24824946 -1.3251166 4.0487852 2039583
0.27574641 -1.3251528 4.0342712 2039583
0.32065547 -1.3250016 4.0105634 2039583
0.24831344 -1.2756951 4.0488858 2039583
0.27575532 -1.2750542 4.0344005 2039583
0.32069856 -1.2750692 4.0106773 2039583
0.2482654 -1.2262313 4.049046 2039583
0.27580747 -1.2250632 4.0345092 2039583
0.32061133 -1.2250063 4.0108595 2039583
0.24935633 -1.1791329 4.0485978 2039583
0.27577335 -1.1750698 4.0346627 2039583
0.32073557 -1.1749399 4.0109305 2039583
0.24990667 -1.1254184 4.0484538 2039583
0.27578229 -1.1249609 4.0347948 2039583
0.32069719 -1.124998 4.0110855 2039583
0.24991485 -1.0751369 4.0485864 2039583
0.27584881 -1.07496 4.0348964 2039583
0.3207728 -1.0750527 4.0111809 2039583
0.24992302 -1.024852 4.0487185 2039583
0.27580029 -1.0249566 4.035058 2039583
0.32075042 -1.0248499 4.0113306 2039583
0.24993116 -0.97456372 4.048851 2039583
0.27588132 -0.97494924 4.0351496 2039583
0.32072863 -0.97476995 4.011477 2039583
0.24993935 -0.9242723 4.0489836 2039583
0.27577487 -0.92505103 4.0353408 2039583
0.32083637 -0.92481619 4.0115557 2039583
0.24994756 -0.87397754 4.0491157 2039583
0.27591372 -0.87514979 4.0354052 2039583
0.32127199 -0.87428313 4.0114641 2039583
0.24995573 -0.82367933 4.0492482 2039583
0.27593705 -0.82524478 4.0355287 2039583
0.32235134 -0.82468611 4.0110292 2039583
0.24996363 -0.77505481 4.049376 2039583
0.27584508 -0.77522379 4.0357151 2039583
0.3223618 -0.77485949 4.0111589 2039583
0.24997155 -0.72642708 4.0495043 2039583
0.27582505 -0.72520101 4.0358596 2039583
0.32234967 -0.72491157 4.0113015 2039583
0.24997967 -0.67611945 4.0496364 2039583
0.27586293 -0.67517376 4.0359764 2039583
0.32238266 -0.67495948 4.0114193 2039583
0.24998786 -0.62580842 4.0497694 2039583
0.27587193 -0.62503254 4.0361071 2039583
0.32238564 -0.62500453 4.0115542 2039583
0.24999604 -0.57549411 4.0499015 2039583
0.27586642 -0.57499933 4.0362463 2039583
0.32241133 -0.57492775 4.0116758 2039583
0.27543774 -0.52528894 4.0366087 2039583
0.3224141 -0.52496636 4.0118113 2039583
0.27589878 -0.47492307 4.0365009 2039583
0.32244736 -0.4750019 4.01193 2039583
0.27592215 -0.42499202 4.036624 2039583
0.32247281 -0.42491606 4.0120506 2039583
0.27598906 -0.37517017 4.036725 2039583
0.32256597 -0.37471032 4.0121384 2039583
0.27598336 -0.32534435 4.0368629 2039583
0.32263649 -0.32438353 4.0122385 2039583
0.27619669 -0.27563414 4.0368853 2039583
0.32246661 -0.27428204 4.0124655 2039583
0.27594358 -0.22579341 4.0371547 2039583
0.32324705 -0.22396949 4.0121894 2039583
0.27595264 -0.17562278 4.0372872 2039583
0.32407874 -0.17451784 4.0118852 2039583
0.27596167 -0.12544893 4.037416 2039583
0.32408926 -0.12465964 4.0120149 2039583
0.27597058 -0.07527177 4.0375476 2039583
0.32409978 -0.074798137 4.0121455 2039583
0.27597955 -0.025091318 4.0376797 2039583
0.32411039 -0.024933428 4.0122752 2039583
0.27598858 0.025092404 4.0378165 2039583
0.32412079 0.02493451 4.0124063 2039583
0.27599758 0.075279377 4.0379477 3618615
0.32413134 0.074805677 4.0125351 3487029
0.24160355 0.1057016 4.0498471 10197915
0.27600208 0.10371975 4.0380101 10197915
0.32413724 0.1030673 4.0126085 10197915
1.0989749 0.10538115 4.0375695 10197915
1.1256312 0.10537121 4.0371881 10197915
1.1755997 0.10535253 4.0364728 9211020
1.2255505 0.10533388 4.035758 7763574
1.2754836 0.10531522 4.0350432 10197915
1.325399 0.10529657 4.0343289 10197915
1.375297 0.10527793 4.0336146 10197915
1.4251767 0.10525931 4.0329008 10197915
1.4750391 0.10524068 4.032187 10197915
1.524884 0.10522205 4.0314736 10197915
1.5747113 0.10520343 4.0307608 10197915
1.6245207 0.10518483 4.0300479 10197915
1.6743127 0.10516625 4.0293355 10197915
1.7240868 0.10514764 4.0286231 10197915
1.7738435 0.10512906 4.0279107 10197915
1.8235829 0.10511048 4.0271993 10197915
1.8749611 0.1050913 4.0264635 10197915
1.9263211 0.10507212 4.0257287 10197915
1.9760063 0.10505355 4.0250177 10197915
2.0256741 0.10503499 4.0243068 10197915
2.0753241 0.10501645 4.0235958 10197915
2.1249568 0.1049979 4.0228858 10197915
2.174572 0.10497937 4.0221758 10197915
2.2241695 0.10496085 4.0214658 10197915
2.2704451 0.10494356 4.0208039 10197915
0.17256206 -1.8143697 4.0874085 2039583
0.21984632 -1.8087409 4.0624638 2039583
0.17444278 -1.7748406 4.086525 2039583
0.22214037 -1.7748762 4.0613446 2039583
0.17443499 -1.7248943 4.0866628 2039583
0.22202185 -1.7249374 4.0615435 2039583
0.17429049 -1.6750625 4.0868769 2039583
0.22212316 -1.6749923 4.061625 2039583
0.17441523 -1.6248856 4.086947 2039583
0.22200467 -1.6250443 4.0618238 2039583
0.1744817 -1.5749303 4.0870461 2039583
0.22217675 -1.5749756 4.0618701 2039583
0.1744568 -1.5250878 4.0871964 2039583
0.22213715 -1.5250219 4.062026 2039583
0.17435765 -1.4750139 4.0873842 2039583
0.2222465 -1.4751871 4.0621042 2039583
0.1743338 -1.4249356 4.087533 2039583
0.22207303 -1.4251056 4.0623312 2039583
0.17447424 -1.3749702 4.0875959 2039583
0.22217427 -1.3749024 4.0624146 2039583
0.17554751 -1.3253264 4.087163 2039583
0.22215801 -1.3248146 4.0625601 2039583
0.17606962 -1.2749791 4.0870256 2039583
0.22219674 -1.2748446 4.0626755 2039583
0.17621151 -1.2250694 4.0870862 2039583
0.22223552 -1.2248715 4.0627899 2039583
0.17607351 -1.1750362 4.0872936 2039583
0.22351345 -1.1748061 4.0622516 2039583
0.1760309 -1.1249998 4.0874529 2039583
0.22375955 -1.1252064 4.0622573 2039583
0.1761167 -1.0749586 4.087544 2039583
0.22385466 -1.0750901 4.0623431 2039583
0.17616281 -1.0250372 4.0876541 2039583
0.22381814 -1.0249699 4.0624986 2039583
0.17617616 -0.97511286 4.0877833 2039583
0.22385484 -0.97495967 4.0626154 2039583
0.17614156 -0.9249388 4.0879388 2039583
0.22399497 -0.92505997 4.0626774 2039583
0.17601936 -0.87488323 4.0881386 2039583
0.22382534 -0.87504184 4.062902 2039583
0.17625897 -0.82519495 4.0881486 2039583
0.22386177 -0.82490814 4.0630188 2039583
0.17606322 -0.77525544 4.0883861 2039583
0.22388384 -0.77477175 4.0631437 2039583
0.17613266 -0.72494835 4.0884862 2039583
0.22386199 -0.72474259 4.0632915 2039583
0.17713018 -0.67525446 4.0880957 2039583
0.22394314 -0.67493939 4.0633845 2039583
0.17780381 -0.62492186 4.0878768 2039583
0.22384714 -0.62513345 4.0635695 2039583
0.17765383 -0.57504427 4.0880914 2039583
0.22383983 -0.5750941 4.0637112 2039583
0.17781471 -0.5250349 4.0881424 2039583
0.22384681 -0.52494127 4.0638418 2039583
0.2500053 -0.51846737 4.0500517 2039583
0.17816935 -0.4752894 4.0880899 2039583
0.22394215 -0.4750104 4.0639277 2039583
0.2500124 -0.47485563 4.0501666 2039583
0.17782649 -0.42513835 4.0884075 2039583
0.22408231 -0.42519096 4.0639892 2039583
0.25002059 -0.42453146 4.0502996 2039583
0.17764379 -0.37459144 4.0886426 2039583
0.22410384 -0.37525603 4.064115 2039583
0.25002879 -0.37420404 4.0504322 2039583
0.17767993 -0.32482812 4.0887575 2039583
0.22392009 -0.32497537 4.0643487 2039583
0.25003698 -0.32387325 4.0505648 2039583
0.17819254 -0.27547514 4.0886211 2039583
0.22392738 -0.27447006 4.0644813 2039583
0.25004515 -0.27353919 4.0506968 2039583
0.17784956 -0.22530164 4.0889387 2039583
0.22366981 -0.22428679 4.064754 2039583
0.25005308 -0.22487982 4.0508256 2039583
0.17785539 -0.17448746 4.0890746 2039583
0.22380702 -0.17478813 4.064816 2039583
0.25006098 -0.17621733 4.0509534 2039583
0.17750677 -0.12468905 4.089395 2039583
0.22435287 -0.12564823 4.064662 2039583
0.25006914 -0.12587361 4.0510859 2039583
0.17821576 -0.075608552 4.0891538 2039583
0.22395644 -0.075783625 4.0650067 2039583
0.25007737 -0.075526573 4.051219 2039583
0.17839649 -0.025858408 4.0891914 2039583
0.22396375 -0.025261944 4.0651407 2039583
0.25008553 -0.025176259 4.0513511 2039583
0.17953737 0.025408819 4.0887303 2039583
0.22397107 0.025263064 4.0652742 2039583
0.25009373 0.025177358 4.0514841 2039583
0.17987449 0.075546786 4.0886874 3750201
0.22397846 0.075791374 4.0654073 3750201
0.25010189 0.075534262 4.0516167 3618615
-0.8150894 0.10609633 4.0649705 2894892
-0.77625018 0.10608182 4.0644145 2894892
-0.72560573 0.1060629 4.0636897 2894892
-0.67497915 0.10604398 4.0629649 2894892
-0.62437069 0.10602509 4.0622411 2894892
-0.57378024 0.10600619 4.0615168 2894892
-0.52489322 0.10598792 4.0608172 6776679
-0.4760232 0.10596966 4.0601177 10197915
-0.42548567 0.1059508 4.0593939 10197915
-0.37496611 0.10593192 4.0586715 10197915
-0.32446453 0.10591305 4.0579486 10197915
-0.27398095 0.10589419 4.0572257 10197915
-0.22519715 0.10587597 4.0565276 10197915
-0.17643033 0.10585776 4.05583 10197915
-0.12599947 0.10583892 4.0551081 10197915
-0.075586513 0.10582008 4.0543866 10197915
-0.025191521 0.10580126 4.0536656 10197915
0.025185553 0.10578244 4.0529442 10197915
0.075544715 0.10576364 4.0522237 10197915
0.12588595 0.10574482 4.0515027 10197915
0.17617078 0.10394914 4.0720077 10197915
0.2211598 0.10385477 4.0597515 10197915
0.25010628 0.1023925 4.0516872 10197915
0.063527055 -1.8518575 4.1446242 11711154
0.077044643 -1.8245345 4.1376534 11711154
0.1231759 -1.820348 4.1134644 8487297
0.076993734 -1.7750036 4.1378169 11711154
0.12433047 -1.77517 4.112978 8092539
0.077265017 -1.7250856 4.1378098 11711154
0.12448651 -1.7250146 4.1130309 8092539
0.077124223 -1.6748985 4.1380196 11711154
0.12436913 -1.6750867 4.1132288 8158332
0.077073216 -1.6248392 4.1381841 11711154
0.12432779 -1.6250397 4.1133857 8158332
0.077165179 -1.5749128 4.1382704 11711154
0.12442306 -1.5749903 4.1134715 8092539
0.077185944 -1.5249742 4.1383967 11711154
0.12451781 -1.5250515 4.1135583 8092539
0.077098832 -1.4750439 4.138577 11711154
0.12429421 -1.4748808 4.1138124 8158332
0.077208266 -1.4249693 4.1386561 10329501
0.12440474 -1.4249356 4.1138906 8092539
0.077211268 -1.3748945 4.1387916 2829099
0.12446956 -1.375102 4.1139913 2236962
0.077034049 -1.3249507 4.1390181 2697513
0.12448835 -1.3250313 4.1141167 2039583
0.15117548 -1.3181143 4.1000481 2039583
0.077359132 -1.2749995 4.1389847 2697513
0.12441719 -1.27508 4.1142893 2039583
0.15117969 -1.2756845 4.1001616 2039583
0.077004023 -1.2249167 4.1393085 2697513
0.12434468 -1.2251211 4.1144629 2039583
0.15118466 -1.2247657 4.1002975 2039583
0.078715116 -1.1752635 4.1385455 2631720
0.12447017 -1.1749301 4.1145358 2039583
0.1511897 -1.1738434 4.1004333 2039583
0.078775853 -1.1250442 4.1386528 2631720
0.12449016 -1.1248516 4.1146617 2039583
0.15119453 -1.1246153 4.1005645 2039583
0.078855768 -1.0750717 4.1387429 2631720
0.12434131 -1.0748839 4.1148758 2039583
0.15119937 -1.0753841 4.1006961 2039583
0.078935295 -1.0250986 4.1388402 2631720
0.12451363 -1.0250254 4.1149206 2039583
0.15120436 -1.024452 4.1008315 2039583
0.078812443 -0.97496808 4.1390414 2631720
0.12451639 -0.97493756 4.1150556 2039583
0.15120922 -0.97521436 4.1009631 2039583
0.078911975 -0.92499399 4.1391225 2631720
0.12424598 -0.92484123 4.115334 2039583
0.15121405 -0.92597371 4.1010942 2039583
0.078942865 -0.8748585 4.139246 2631720
0.12466396 -0.87509209 4.1152463 2039583
0.15121906 -0.87503147 4.1012297 2039583
0.078868948 -0.82487017 4.1394181 2697513
0.12439217 -0.82499367 4.1155281 2039583
0.15122408 -0.82408607 4.101366 2039583
0.078822166 -0.7750212 4.1395802 2631720
0.12448762 -0.77477211 4.1156135 2039583
0.15122892 -0.77483559 4.1014972 2039583
0.079077765 -0.72502315 4.1395802 2631720
0.12444644 -0.72501534 4.1157713 2039583
0.15123376 -0.72558212 4.1016288 2039583
0.078633428 -0.67502475 4.1399469 2697513
0.12441919 -0.67513132 4.115922 2039583
0.15239826 -0.67039227 4.1011643 2039583
0.079121254 -0.62502372 4.139832 2631720
0.1246666 -0.62490356 4.1159267 2039583
0.15290986 -0.62523276 4.1010165 2039583
0.07872732 -0.5748716 4.1401706 2697513
0.12432082 -0.57490611 4.1162453 2039583
0.15291476 -0.57598007 4.1011481 2039583
0.079862528 -0.52562147 4.1397138 2631720
0.12438536 -0.52501374 4.1163468 2039583
0.1529198 -0.52502573 4.1012845 2039583
0.080690973 -0.47488356 4.1394172 2631720
0.12488028 -0.47512347 4.1162224 2039583
0.15292487 -0.47406811 4.1014199 2039583
0.080330208 -0.42483875 4.1397419 2631720
0.12419835 -0.42499286 4.1167178 2039583
0.15292975 -0.42480582 4.1015511 2039583
0.080844253 -0.37513739 4.1396103 2631720
0.12436584 -0.37497896 4.1167665 2039583
0.15293469 -0.37554029 4.1016827 2039583
0.080299966 -0.32476157 4.1400285 2631720
0.12486013 -0.32520166 4.1166391 2039583
0.15293975 -0.32457274 4.1018186 2039583
0.080898568 -0.27506498 4.1398544 2631720
0.12437771 -0.27471372 4.1170321 2039583
0.15294465 -0.27530092 4.1019502 2039583
0.080600433 -0.22469275 4.1401463 2631720
0.12439136 -0.22502978 4.1171598 2039583
0.15294954 -0.22602583 4.1020818 2039583
0.080603026 -0.17495725 4.1402807 2631720
0.12468652 -0.17547028 4.1171398 2039583
0.15295462 -0.17504835 4.1022177 2039583
0.080605626 -0.12521851 4.1404133 2631720
0.1244946 -0.12452184 4.1173792 2039583
0.15295967 -0.12406746 4.1023531 2039583
0.080608271 -0.075476557 4.1405468 2631720
0.12449858 -0.075056665 4.1175127 2039583
0.15296459 -0.074782737 4.1024847 2039583
0.080610834 -0.025731385 4.1406803 2631720
0.1245026 -0.025588224 4.1176419 2039583
0.15368368 -0.023065992 4.1022463 2039583
0.080613554 0.025732523 4.1408205 3158064
0.1245067 0.025589349 4.1177812 2368548
0.15464051 0.025490493 4.1018729 2039583
0.080616139 0.075484216 4.1409531 10197915
0.1245107 0.075064212 4.1179128 7763574
0.15464547 0.074774228 4.1020045 3487029
0.080617584 0.10293471 4.1410275 10197915
0.12451293 0.10236195 4.1179862 10197915
0.15464818 0.10196649 4.102077 10197915
1.6470616 0.10487553 4.1499414 10197915
1.6744069 0.10486536 4.1495385 10197915
1.7239574 0.10484691 4.1488085 10197915
1.7751981 0.10482783 4.1480536 10197915
1.8247135 0.10480937 4.1473231 10197915
1.874211 0.10479095 4.146594 10197915
1.9253972 0.10477187 4.1458392 10197915
1.9748595 0.10475345 4.1451106 10197915
2.0243039 0.10473503 4.1443815 10197915
2.0754361 0.104716 4.1436286 10197915
2.1248453 0.10469759 4.1429 10197915
2.1742375 0.10467919 4.1421719 10197915
2.2253146 0.10466018 4.1414194 10197915
2.2746713 0.10464178 4.1406922 10197915
2.3240106 0.10462341 4.1399641 10197915
2.3546276 0.10461202 4.1395135 10197915
-0.022169985 -1.8623435 4.1898327 11711154
0.021930279 -1.857193 4.1665664 11711154
0.053298403 -1.8534091 4.1500192 11711154
-0.020874841 -1.8250685 4.1892509 11711154
0.025804559 -1.8250564 4.1646085 11711154
0.053299423 -1.8242153 4.1500978 11711154
-0.020765522 -1.7749439 4.1893263 11711154
0.025995674 -1.7749621 4.1646442 11711154
0.053301152 -1.774412 4.1502328 11711154
-0.020805432 -1.7249535 4.1894841 11711154
0.025853543 -1.7249849 4.1648555 11711154
0.05330288 -1.7246056 4.1503673 11711154
-0.020847039 -1.674965 4.1896429 11711154
0.025854632 -1.6749992 4.1649914 11711154
0.053304605 -1.674796 4.1505013 11711154
-0.020887746 -1.6249731 4.1898012 11711154
0.025855223 -1.6250136 4.1651263 11711154
0.053306337 -1.6249831 4.1506362 11711154
-0.019535596 -1.5756154 4.1892209 11711154
0.02601457 -1.5750232 4.1651793 11711154
0.053308059 -1.5751668 4.1507711 11711154
-0.019171607 -1.525193 4.189168 11711154
0.02569937 -1.52503 4.1654811 11711154
0.053309791 -1.5253474 4.1509051 11711154
-0.019018808 -1.4750675 4.1892238 6710886
0.026047183 -1.4749209 4.1654339 11250603
0.053311519 -1.475525 4.1510401 11711154
-0.019107064 -1.4249413 4.1894059 2960685
0.025842981 -1.4249167 4.1656766 4342338
0.053313244 -1.425699 4.1511745 7566195
-0.019151693 -1.3749684 4.1895652 2960685
0.025875207 -1.3749189 4.1657963 2960685
0.053315036 -1.3741517 4.1513138 2960685
-0.018976927 -1.3249948 4.1896071 2960685
0.025844676 -1.3249075 4.1659474 2960685
0.053316765 -1.3243195 4.1514482 2960685
-0.019241113 -1.2750108 4.1898832 2960685
0.025876908 -1.2749034 4.1660676 2960685
0.053318493 -1.2744836 4.1515827 2960685
-0.018979065 -1.2248775 4.1898804 2960685
0.02595799 -1.2250013 4.1661601 2960685
0.053320222 -1.2246448 4.1517172 2960685
-0.019087652 -1.175045 4.1900735 2960685
0.025831006 -1.1751037 4.1663623 2960685
0.054907776 -1.1729708 4.1510205 2960685
-0.019176206 -1.1252122 4.1902566 2960685
0.025990268 -1.1249675 4.1664147 2960685
0.055031482 -1.1247132 4.1510859 2960685
-0.019067239 -1.0750685 4.1903362 2960685
0.025737515 -1.0749459 4.1666846 2960685
0.055033267 -1.0748755 4.1512203 2960685
-0.019177733 -1.025064 4.1905293 2960685
0.026008267 -1.025035 4.166677 2960685
0.055035051 -1.0250345 4.1513553 2960685
-0.019047018 -0.97491848 4.190598 2960685
0.025802774 -0.97512048 4.1669202 2960685
0.055036835 -0.97519022 4.1514897 2960685
-0.018705713 -0.92542773 4.1905518 2960685
0.026039844 -0.92497587 4.1669335 2960685
0.05503862 -0.92534292 4.1516242 2960685
-0.017311482 -0.87504494 4.1899514 2960685
0.025836434 -0.87493587 4.1671758 2960685
0.0550404 -0.87549204 4.1517587 2960685
-0.017468128 -0.82490641 4.1901717 2960685
0.025899917 -0.82490259 4.1672788 2960685
0.054983314 -0.82475495 4.151927 2960685
-0.017082414 -0.77493793 4.1901045 2960685
0.025950246 -0.77497083 4.167387 2960685
0.055102903 -0.77494502 4.1519995 2960685
-0.017662907 -0.72496253 4.1905484 2960685
0.025822714 -0.72504431 4.1675906 2960685
0.054986879 -0.7250365 4.1521964 2960685
-0.017193224 -0.67481792 4.1904354 2960685
0.02591978 -0.6749934 4.1676755 2960685
0.055106472 -0.6752218 4.1522684 2960685
-0.017374236 -0.62501043 4.1906638 2960685
0.025871469 -0.62505758 4.1678376 2960685
0.055049382 -0.62447053 4.1524367 2960685
-0.017517295 -0.57502389 4.1908774 2960685
0.025873721 -0.57500255 4.167973 2960685
0.05505117 -0.5746004 4.1525707 2960685
-0.017119728 -0.52487767 4.190805 2960685
0.025936572 -0.52505952 4.168076 2960685
0.056131463 -0.5221222 4.152144 2960685
-0.017665775 -0.4750424 4.191226 2960685
0.025812257 -0.47499734 4.1682768 2960685
0.056762263 -0.47474715 4.1519399 2960685
-0.01709011 -0.42472795 4.1910615 2960685
0.026115146 -0.42516661 4.168252 2960685
0.056764115 -0.424878 4.1520743 2960685
-0.017376805 -0.37506762 4.1913476 2960685
0.025642205 -0.37509087 4.1686387 2960685
0.056765959 -0.37500578 4.1522088 2960685
-0.017565347 -0.32505745 4.1915812 2960685
0.02623079 -0.32514855 4.1684637 2960685
0.056767792 -0.32513013 4.1523438 2960685
-0.017182019 -0.27473238 4.1915174 2960685
0.025535671 -0.2750538 4.1689663 2960685
0.056769632 -0.27525142 4.1524787 2960685
-0.016274437 -0.22605775 4.1911707 2960685
0.026232501 -0.22500028 4.168735 2960685
0.05677148 -0.22536939 4.1526122 2960685
-0.015532605 -0.17517905 4.1909175 2960685
0.025600938 -0.17477824 4.1692057 2960685
0.056773316 -0.17548411 4.1527481 2960685
-0.015637079 -0.12501533 4.1911077 2960685
0.026171187 -0.12472104 4.1690397 2960685
0.056775156 -0.12559558 4.1528821 2960685
-0.01563759 -0.074664325 4.1912465 2960685
0.025602605 -0.074602425 4.1694765 2960685
0.056776993 -0.075703867 4.1530166 2960685
-0.015638104 -0.024310028 4.1913819 2960685
0.026172886 -0.024545996 4.1693125 2960685
0.056778844 -0.025808869 4.153152 2960685
-0.015638595 0.024311053 4.1915159 2960685
0.026173735 0.024547042 4.1694446 3026478
0.056780752 0.025810029 4.1532917 3355443
-0.015639115 0.074671835 4.1916528 9803157
0.025605096 0.074609973 4.1698809 10000536
0.056782596 0.075711563 4.1534262 10197915
-0.85165489 0.10580641 4.1867762 2894892
-0.825562 0.10579673 4.1863933 2894892
-0.77512753 0.10577795 4.1856494 2894892
-0.724711 0.10575917 4.1849065 2894892
-0.67604989 0.10574105 4.1841893 2894892
-0.62566859 0.10572228 4.1834469 2894892
-0.57530499 0.10570351 4.1827044 2894892
-0.5249595 0.10568476 4.1819625 8947848
-0.47463158 0.105666 4.1812205 10197915
-0.4243218 0.10564729 4.1804795 10197915
-0.37402967 0.10562854 4.179738 10197915
-0.32548863 0.10561045 4.1790223 10197915
-0.27523169 0.10559174 4.1782813 10197915
-0.22499239 0.10557302 4.1775413 10197915
-0.17477106 0.10555433 4.1768012 10197915
-0.12456731 0.10553561 4.1760607 10197915
-0.07438156 0.10551692 4.1753211 10197915
-0.020858349 0.10430873 4.1812906 10197915
0.025883259 0.10362992 4.1690087 10197915
0.056783605 0.10324473 4.1535001 10197915
1.1402063 0.10506434 4.1574125 4079166
1.1745101 0.10505155 4.1569066 2171169
1.2242368 0.10503304 4.1561732 2039583
1.2756597 0.10501388 4.155416 2631720
1.325351 0.10499538 4.1546831 8882055
1.3750243 0.10497688 4.1539512 10197915
1.4246801 0.10495838 4.1532187 10197915
1.4743189 0.1049399 4.1524878 10197915
1.5256505 0.10492077 4.151732 10197915
1.5752535 0.10490228 4.151 10197915
1.6214199 0.1048851 4.1503201 10197915
-0.072859712 -1.8683143 4.2165747 11711154
-0.045262355 -1.864445 4.2020168 11711154
-0.071521319 -1.8249823 4.2159848 11711154
-0.045263533 -1.824453 4.2021251 11711154
-0.071579993 -1.7749254 4.2161531 11711154
-0.045325372 -1.774878 4.2022934 11711154
-0.071639225 -1.7249966 4.2163177 11711154
-0.0452061 -1.7244805 4.2023668 11711154
-0.071698025 -1.6749343 4.2164869 11711154
-0.04526794 -1.6748992 4.2025347 11711154
-0.071548611 -1.6250029 4.2165442 11711154
-0.045329787 -1.6253139 4.2027025 11711154
-0.071683824 -1.5750622 4.2167497 11711154
-0.043783318 -1.5729458 4.2020273 11711154
-0.071516685 -1.5248573 4.2167993 8421504
-0.043522198 -1.5249819 4.2020216 11711154
-0.071746022 -1.4749146 4.2170553 2960685
-0.043603163 -1.4751136 4.2021999 3552822
-0.071577102 -1.4250993 4.2171025 2960685
-0.043443624 -1.424698 4.2022529 2960685
-0.071655922 -1.3750181 4.2172785 2960685
-0.04352643 -1.3754029 4.2024298 2960685
-0.071676701 -1.3250668 4.2174249 2960685
-0.043527864 -1.3249568 4.2025681 2960685
-0.071528092 -1.2751081 4.217484 2960685
-0.043529283 -1.2745078 4.2027054 2960685
-0.071681581 -1.2250158 4.2177014 2960685
-0.043612126 -1.2252002 4.2028842 2960685
-0.071721286 -1.1749182 4.2178583 2960685
-0.04345252 -1.1747732 4.2029362 2960685
-0.07159131 -1.1248194 4.2179246 2960685
-0.043533523 -1.12488 4.203115 2960685
-0.071574129 -1.0749859 4.2180524 2960685
-0.043614522 -1.0749813 4.2032933 2960685
-0.071766153 -1.0250083 4.2182894 2960685
-0.043454938 -1.0245481 4.2033453 2960685
-0.071636304 -0.97490275 4.2183566 2960685
-0.043537766 -0.975223 4.2035241 2960685
-0.071619481 -0.9249267 4.2184834 2960685
-0.043166947 -0.92411578 4.2034674 2960685
-0.07156416 -0.87507194 4.2185903 2960685
-0.041670013 -0.87496948 4.2028108 2960685
-0.071681686 -0.82495701 4.2187886 2960685
-0.041792087 -0.82535553 4.2030101 2960685
-0.071797617 -0.77483571 4.2189865 2960685
-0.041793454 -0.77488458 4.2031474 2960685
-0.07162828 -0.72510928 4.2190313 2960685
-0.041794818 -0.72441018 4.2032862 2960685
-0.071462184 -0.67511398 4.21908 2960685
-0.041796144 -0.67567343 4.2034197 2960685
-0.071955971 -0.62498337 4.2194777 2960685
-0.041797511 -0.62519252 4.2035575 2960685
-0.071654461 -0.57498097 4.2194548 2960685
-0.041798886 -0.57470828 4.2036958 2960685
-0.071353987 -0.52498078 4.2194304 2960685
-0.041892398 -0.52550942 4.2038784 2960685
-0.071983799 -0.47509891 4.2199006 2960685
-0.041712552 -0.47505248 4.2039213 2960685
-0.071755543 -0.42495549 4.2199154 2960685
-0.041802961 -0.42497721 4.2041049 2960685
-0.071360938 -0.37468404 4.2198439 2960685
-0.041893326 -0.37489697 4.2042885 2960685
-0.071704417 -0.32519516 4.22016 2960685
-0.041713566 -0.32443348 4.2043304 2960685
-0.072098762 -0.27529088 4.2205038 2960685
-0.041807029 -0.27521691 4.2045131 2960685
-0.071315013 -0.22462946 4.2202277 2960685
-0.040453117 -0.22359334 4.2039385 2960685
-0.071711466 -0.17485319 4.2205715 2960685
-0.040060125 -0.17416106 4.2038665 2960685
-0.071713723 -0.1258982 4.2207074 2960685
-0.040061399 -0.12539989 4.203999 2960685
-0.0717161 -0.075191632 4.2208462 2960685
-0.040062711 -0.074893981 4.2041378 2960685
-0.071718469 -0.024481714 4.2209835 2960685
-0.040064026 -0.024384806 4.2042761 2960685
-0.071720727 0.024482755 4.2211189 2960685
-0.040065307 0.02438584 4.2044082 2960685
-0.071723126 0.075199276 4.2212586 9605778
-0.040066611 0.074901573 4.2045469 9737364
-0.071724415 0.10318208 4.2213354 10197915
-0.040067345 0.10277359 4.2046232 10197915
1.1821926 0.1047288 4.2846141 2039583
1.2246095 0.10471304 4.2839694 2039583
1.2740802 0.10469468 4.2832179 2039583
1.3235334 0.10467631 4.2824664 2565927
1.374735 0.1046573 4.2816896 6974058
1.4259176 0.10463829 4.2809114 10197915
1.4753177 0.10461994 4.2801604 10197915
1.5247009 0.10460161 4.2794104 10197915
1.5740663 0.10458328 4.2786603 10197915
1.6251765 0.1045643 4.277884 10197915
1.6762682 0.10454532 4.2771077 10197915
1.7255806 0.10452701 4.2763586 10197915
1.7748759 0.10450871 4.27561 10197915
1.8241539 0.10449041 4.2748613 10197915
1.8751734 0.10447147 4.274086 10197915
1.9261748 0.10445253 4.2733111 10197915
1.9753996 0.10443425 4.2725639 10197915
2.0246072 0.10441597 4.2718158 10197915
