# .PCD v0.7 - Point Cloud Data file format
VERSION 0.7
FIELDS x y z rgb
SIZE 4 4 4 4
TYPE F F F U
COUNT 1 1 1 1
WIDTH 1164
HEIGHT 1
VIEWPOINT 0 0 0 1 0 0 0
POINTS 1164
DATA ascii
0.52434528 0.074984893 1.9745983 2894892
-0.55036896 0.10544243 1.9772098 1257033
-0.52546686 0.11088201 1.9678398 7896452
-0.47506893 0.11082135 1.9670001 10000536
-0.42472309 0.11076201 1.9657102 10000536
-0.37525308 0.11070243 1.9648902 10000536
-0.32925081 0.11063721 1.9675622 10000536
-0.27513334 0.11054377 1.9765058 10000536
-0.22506265 0.11048418 1.9754399 10000536
-0.17504562 0.1104246 1.9743754 10000536
-0.12508279 0.11036512 1.9733118 10000536
-0.073084846 0.11029586 1.9747669 10000536
-0.02508861 0.11020628 1.9850389 10000536
0.025070498 0.11014661 1.9839638 10000536
0.074756376 0.11008679 1.9831294 10000536
0.12480547 0.11002723 1.9820561 10000536
0.17520706 0.10996789 1.9807451 10000536
0.22514948 0.10990846 1.9796746 10000536
0.27502713 0.1098478 1.9790658 10000536
0.32485735 0.10978975 1.9775372 10000536
0.37504536 0.1097294 1.9766914 10000536
0.42517233 0.10967037 1.9753865 10000536
0.47524956 0.10961013 1.9745423 9934743
0.52009863 0.10648781 1.9740143 3026478
0.52234316 -0.90623736 2.0389843 2894892
0.52253127 -0.8741895 2.0262082 2894892
0.52263004 -0.82566345 2.023052 2894892
0.52270907 -0.77495122 2.0218368 2894892
-0.90524602 -0.7066282 2.0360026 1714742
-0.87467855 -0.70886356 2.0251615 1717580
-0.82493341 -0.70892704 2.0251093 1782861
-0.77497089 -0.70899093 2.0251713 2702418
-0.72499961 -0.70905578 2.025563 3885658
-0.67490894 -0.70911336 2.0233297 3162710
-0.62493098 -0.70917696 2.0233741 2112082
-0.57006222 -0.71174544 2.0239575 1586771
0.52276886 -0.72498614 2.0222292 2894892
-0.90618914 -0.67500162 2.0366523 2039583
0.52283061 -0.67500848 2.0224409 2894892
-0.90612292 -0.62503421 2.036449 2039583
0.52289081 -0.62501812 2.0227847 2894892
-0.90606141 -0.57451367 2.0367701 2039583
0.5229547 -0.57533485 2.0227962 2894892
-0.90602243 -0.53184122 2.0381327 2039583
0.52301461 -0.52542192 2.023155 2894892
0.52307755 -0.47508481 2.0233293 2894892
0.52313793 -0.42494544 2.023658 2894892
0.5231992 -0.37489676 2.0239229 2894892
-0.5514673 -0.30465612 2.0223832 1918573
0.52326155 -0.32494107 2.0240946 2894892
-0.90562689 -0.27047417 2.0393026 1909028
-0.87501329 -0.28886682 2.0271075 1717324
-0.82542288 -0.28893059 2.0273094 1782861
-0.77499664 -0.28899655 2.0279183 2768211
-0.72496378 -0.28906116 2.028224 3819865
-0.67490739 -0.2891266 2.0288322 2965333
-0.62504017 -0.28919092 2.0290825 2046290
-0.56801546 -0.29077303 2.0254781 1323083
0.52332252 -0.27497458 2.0243716 2894892
-0.90564042 -0.22500317 2.0391934 2039583
0.52338588 -0.22489144 2.0244544 2894892
-0.9055742 -0.1750045 2.0390348 2039583
0.52344561 -0.17490055 2.0248613 2894892
-0.90550828 -0.12487501 2.0388641 2039583
0.52350742 -0.12500434 2.0250461 2894892
-0.90544319 -0.075029671 2.0388269 2039583
0.52356893 -0.075094514 2.0252845 2894892
-0.90537661 -0.025199445 2.0385678 2039583
0.52363032 -0.025071224 2.0255351 2894892
-0.90530986 0.025196984 2.0384181 2039583
0.52369207 0.025075162 2.0257733 2894892
-0.90525031 0.070932955 2.0383368 2039583
-0.87478769 0.091158271 2.0186789 2311274
-0.82490259 0.091098376 2.0173526 2583221
-0.7750836 0.09103857 2.0160279 2846907
-0.72032243 0.090944685 2.0246947 2979521
-0.67479169 0.090868928 2.0310676 3045827
-0.62516123 0.090810239 2.0294366 3045057
-0.56584406 0.092573673 2.0265787 2449820
0.52375376 0.075016871 2.0259855 2894892
-0.55092973 0.10553931 2.0242958 1190983
-0.52465445 0.11071838 2.0244701 8093830
-0.4749082 0.11065921 2.0233881 10000536
-0.42480791 0.11059893 2.0225458 10000536
-0.37517017 0.1105399 2.021466 10000536
-0.32558596 0.11048093 2.0203872 10000536
-0.27521521 0.11042102 2.0192921 10000536
-0.22532919 0.11036241 2.0179608 10000536
-0.17506531 0.1103026 2.0168757 10000536
-0.12444256 0.11024172 2.0160129 10000536
-0.075914204 0.11018252 2.0154753 10000536
-0.025211923 0.1100821 2.0283504 10000536
0.025193632 0.11002217 2.0272462 10000536
0.075544342 0.10996231 2.0261436 10000536
0.12500262 0.10990351 2.0250602 10000536
0.17440774 0.10984479 2.023978 10000536
0.22459631 0.1097851 2.0228782 10000536
0.27473032 0.10972551 2.0217803 10000536
0.32736155 0.10965288 2.0241241 10000536
0.37504476 0.10956354 2.0344393 10000536
0.4249582 0.10950495 2.0330863 10000536
0.47482261 0.10944497 2.0322378 9868950
0.51920223 0.10649183 2.0279441 3026478
0.52188158 -0.9148289 2.0781336 2894892
0.5219624 -0.87501329 2.0755394 2894892
0.52204812 -0.82432026 2.0737588 2894892
0.52212209 -0.77502429 2.0728381 2894892
-0.90591341 -0.70649409 2.0747526 1648436
-0.87548697 -0.70900136 2.0749667 1454410
-0.82509279 -0.70906466 2.0746586 1848654
-0.77493203 -0.70912886 2.0747321 2834259
-0.72476387 -0.70919347 2.0749586 4149084
-0.67481929 -0.70925099 2.0727882 3228503
-0.62489974 -0.70931435 2.072716 1980240
-0.57082534 -0.71165854 2.0733223 1454928
0.52218276 -0.72498047 2.0731509 2894892
-0.90662307 -0.67499328 2.0743244 2039583
0.52224439 -0.67503035 2.0733671 2894892
-0.90655673 -0.62497246 2.0741756 2039583
0.52230614 -0.62507081 2.0735834 2894892
-0.90649486 -0.5752331 2.0743346 2039583
0.52236801 -0.57542247 2.0737524 2894892
-0.90645629 -0.53192025 2.0758233 2039583
0.52243024 -0.5253253 2.0739613 2894892
0.52248967 -0.47501233 2.0744135 2894892
0.52255213 -0.42511001 2.0745595 2894892
0.52261299 -0.37509093 2.0748305 2894892
-0.55213207 -0.30465901 2.0758624 1918573
0.52267647 -0.32505912 2.0749059 2894892
-0.90602326 -0.2704865 2.0751679 1908771
-0.87539631 -0.2890026 2.0760882 1585995
-0.82525951 -0.28906778 2.0765631 1848397
-0.77489436 -0.28913367 2.0771914 2899795
-0.72493243 -0.28919825 2.0774987 4148827
-0.67494696 -0.28926367 2.078126 3096918
-0.62493837 -0.28932855 2.0785382 1914448
-0.56867468 -0.29100397 2.0778918 1257033
0.52273524 -0.27512473 2.0753882 2894892
-0.90605187 -0.22500859 2.0749569 2039583
0.52279758 -0.22506858 2.0755494 2894892
-0.90598655 -0.17499432 2.0748405 2039583
0.52286047 -0.17500278 2.0757086 2894892
-0.90591913 -0.12505855 2.07459 2039583
0.52292025 -0.12503114 2.0760784 2894892
-0.90585321 -0.074988216 2.0744479 2039583
0.52298415 -0.074943371 2.0760994 2894892
-0.90578926 -0.024923483 2.0744514 2039583
0.52304274 -0.024948638 2.0766082 2894892
-0.90572393 0.024921075 2.0743005 2039583
0.52310389 0.024952531 2.0768526 2894892
-0.90564233 0.070816033 2.0740013 2039583
-0.87532854 0.091009952 2.0722637 2112868
-0.82497996 0.09094955 2.0709007 2186412
-0.77469796 0.090889335 2.0695174 2318513
-0.72884393 0.090820178 2.073375 2913470
-0.6747697 0.090717711 2.0854528 2913214
-0.62511283 0.09065824 2.0840857 2713526
-0.5611012 0.093474783 2.0774662 1986181
0.52320349 0.074875817 2.0737782 2894892
-0.55156493 0.10545502 2.0736127 1125190
-0.52103925 0.11056252 2.0771348 8422537
-0.47518548 0.11048725 2.0833652 10000536
-0.42531875 0.11042728 2.08252 10000536
-0.375516 0.11036891 2.0811341 10000536
-0.3253248 0.11030929 2.0800192 9934743
-0.27476528 0.11024851 2.0791483 10000536
-0.22468482 0.11018903 2.0780277 10000536
-0.17509231 0.11013091 2.0766461 10000536
-0.12555325 0.11007132 2.0758066 10000536
-0.075204507 0.11001229 2.074419 10000536
-0.024914635 0.10995183 2.0735533 10000536
0.024896774 0.10989269 2.072438 10000536
0.075077906 0.10983384 2.0710542 10000536
0.12520915 0.10977357 2.0701911 10000536
0.17528349 0.10971485 2.0688097 10000536
0.22530431 0.10965471 2.0679498 10000536
0.27527222 0.1095961 2.0665717 10000536
0.32360396 0.10953473 2.0668828 10000536
0.37482804 0.10943323 2.0799031 10000536
0.42457631 0.10937417 2.0787807 10000536
0.47512692 0.10931417 2.0776401 9803157
0.52030236 0.10588457 2.0745635 2894892
0.52107686 -0.95446062 2.1436329 2894892
0.52131349 -0.92400241 2.1264687 2894892
0.5214231 -0.87502563 2.1224134 2894892
0.52148348 -0.82487726 2.1227677 2894892
0.52154684 -0.77484202 2.1228459 2894892
-0.90636247 -0.70673543 2.1263652 1582901
-0.87456644 -0.70913923 2.1241591 1322825
-0.82499611 -0.70920217 2.1240008 1914446
-0.77508789 -0.70926601 2.1241572 2965589
-0.72491032 -0.70932996 2.1241918 4345948
-0.67489022 -0.70939445 2.124429 3294038
-0.62513381 -0.70945883 2.1246946 1914191
-0.57133567 -0.7118296 2.1244361 1323086
0.52160662 -0.72492182 2.1232319 2894892
-0.90721822 -0.6750558 2.1260393 2039583
0.5216682 -0.67498964 2.1234469 2894892
-0.90715182 -0.6250248 2.1258523 2039583
0.52173102 -0.62504518 2.1235595 2894892
-0.90708667 -0.57500166 2.1257904 2039583
0.52178806 -0.57520932 2.1241884 2894892
-0.9070282 -0.53196263 2.1255195 2039583
0.52185363 -0.52512598 2.1240947 2894892
0.52191567 -0.47488862 2.1243105 2894892
0.52197528 -0.42489776 2.124697 2894892
0.52203631 -0.3748953 2.1249809 2894892
-0.55278462 -0.30479166 2.1283405 1852523
0.52209932 -0.32488066 2.1250935 2894892
-0.90655488 -0.27057064 2.1247995 1908772
-0.87537402 -0.2891469 2.1279569 1388617
-0.82530928 -0.28921202 2.1284368 1979983
-0.77478594 -0.28927711 2.1286879 3097173
-0.7246787 -0.28934261 2.1292834 4280412
-0.67569774 -0.28940395 2.1288817 3096917
-0.62495214 -0.28945374 2.1235414 1848398
-0.56845182 -0.29130477 2.1253071 1190984
0.52215999 -0.27485278 2.1254127 2894892
-0.90662354 -0.22496921 2.1246326 2039583
0.52221948 -0.22494055 2.1258001 2894892
-0.90655798 -0.17493099 2.1245043 2039583
0.5222829 -0.17501685 2.1258774 2894892
-0.9064911 -0.12489943 2.1242869 2039583
0.52234399 -0.1249545 2.1261618 2894892
-0.90642703 -0.074875034 2.1243167 2039583
0.52240413 -0.074879602 2.126514 2894892
-0.90635842 -0.024935916 2.1239336 2039583
0.52246743 -0.024924144 2.1265919 2894892
-0.90629244 0.024933483 2.1237781 2039583
0.52252865 0.024928033 2.1268418 2894892
-0.90621573 0.070677996 2.1238639 2039583
-0.8749997 0.090851508 2.129082 2048616
-0.82506168 0.090791747 2.1276827 2183567
-0.77518946 0.090732083 2.1262836 2710166
-0.72538275 0.090672508 2.1248877 3367835
-0.67564136 0.090613 2.1234934 3696797
-0.62507892 0.090552516 2.1220756 2577297
-0.56203651 0.093242317 2.1238871 1919095
0.52262551 0.075001098 2.1240194 2894892
-0.55214679 0.10542535 2.1255536 1124932
-0.52820337 0.1104506 2.119242 7764866
-0.47495076 0.11035049 2.1308944 10000536
-0.42528662 0.11029159 2.1297569 10000536
-0.37479016 0.11023171 2.1286006 10000536
-0.32434827 0.11017187 2.1274452 9934743
-0.27484471 0.11011319 2.1263118 10000536
-0.22539386 0.11005453 2.1251791 10000536
-0.17511421 0.1099949 2.1240275 10000536
-0.12488873 0.10993534 2.1228774 10000536
-0.074717917 0.10987584 2.1217287 10000536
-0.024601052 0.10981641 2.1205809 10000536
0.024583636 0.10975807 2.1194544 10000536
0.074592829 0.10969875 2.118309 10000536
0.12802647 0.1095972 2.1303861 10000536
0.17489457 0.10953306 2.1322973 10000536
0.22512496 0.1094735 2.1311386 10000536
0.27530104 0.109414 2.1299803 10000536
0.32497483 0.10935596 2.1285486 10000536
0.37504426 0.10929659 2.1273942 10000536
0.42505655 0.10923567 2.1268094 10000536
0.47500315 0.1091781 2.125087 9737364
0.51834476 0.10626736 2.1236138 2960685
0.52062809 -0.96340883 2.1816263 2894892
0.52075797 -0.92499149 2.1746266 2894892
0.52085942 -0.87503833 2.1713827 2894892
0.52092022 -0.82514429 2.171675 2894892
0.52098304 -0.77510905 2.1718199 2894892
-0.90651417 -0.70678055 2.1762156 1518914
-0.87491053 -0.70928109 2.17535 1323083
-0.82491583 -0.70934594 2.1756823 1914705
-0.77491367 -0.70940977 2.175699 2965333
-0.72480011 -0.70947462 2.1760993 4345947
-0.67477369 -0.70953816 2.1760709 3294294
-0.62494856 -0.70960313 2.1765158 1980240
-0.57113695 -0.71215934 2.175895 1323342
0.52104282 -0.72493529 2.1722233 2894892
-0.90779215 -0.67496401 2.1759241 2042421
0.52110565 -0.67500502 2.1723297 2894892
-0.90772808 -0.62500989 2.1759412 1976629
0.52116495 -0.6249367 2.1727715 2894892
-0.90765983 -0.57498085 2.1755943 1976372
0.52122837 -0.57447195 2.1729217 2894892
-0.90760368 -0.53192806 2.1755168 2042421
0.52129018 -0.52462918 2.1730983 2894892
0.52134776 -0.47504222 2.1736119 2894892
0.52141255 -0.42505363 2.1736081 2894892
0.52147216 -0.37505326 2.1740134 2894892
-0.55336815 -0.30492949 2.1752682 1522268
0.52153403 -0.32504141 2.1741941 2894892
-0.90714133 -0.2707389 2.174778 1911349
-0.87534815 -0.28927818 2.1751373 1322569
-0.82566279 -0.28934327 2.1757927 1980239
-0.77535939 -0.2894088 2.1762846 3096917
-0.72533727 -0.28947341 2.1766071 4411740
-0.67413098 -0.28953624 2.1757348 3097174
-0.62503231 -0.28958535 2.1708994 1848655
-0.57074469 -0.29095662 2.1720819 1125447
0.52159494 -0.27501833 2.1744869 2894892
-0.90719765 -0.22497791 2.1745281 2042162
0.52165723 -0.22498259 2.1746686 2894892
-0.90713221 -0.1750059 2.1744134 2042162
0.52171725 -0.17506321 2.1750355 2894892
-0.90706635 -0.1250428 2.1742706 2042162
0.52177936 -0.12500575 2.1752172 2894892
-0.90699941 -0.075167492 2.1740246 1976113
0.52184063 -0.075062729 2.1754723 2894892
-0.90693408 -0.025138114 2.1739388 1975856
0.52190179 -0.025112027 2.1757269 2894892
-0.90686768 0.025135662 2.1737809 1976113
0.52196336 0.025115982 2.1759841 2894892
-0.90678507 0.070810556 2.173532 1976113
-0.8750754 0.090741619 2.1686165 1854336
-0.8251183 0.090681918 2.1671896 1787007
-0.77522737 0.090622298 2.165765 2051718
-0.7244963 0.090561688 2.1643159 1986181
-0.6747371 0.090502247 2.1628957 1919618
-0.62504351 0.090442851 2.1614766 1655421
-0.56254023 0.09321858 2.1697183 2245738
0.52202469 0.075090192 2.1762402 2894892
-0.55279118 0.10549875 2.1774614 2373969
-0.52558297 0.11026858 2.1814859 9474451
-0.4751634 0.11020795 2.1806114 10000536
-0.42479551 0.11014919 2.1791236 10000536
-0.37448719 0.11008874 2.1782525 10000536
-0.3246797 0.11002974 2.1770852 9934743
-0.27538341 0.10997222 2.1756225 9934743
-0.22523202 0.10991193 2.1747546 10000536
-0.1751366 0.10985348 2.1732736 10000536
-0.12509567 0.10979333 2.1724074 10000536
-0.07510598 0.109735 2.1709299 10000536
-0.025175188 0.10967498 2.1700661 10000536
0.025156941 0.10961535 2.1688859 10000536
0.074979924 0.10955724 2.1674132 10000536
0.12083949 0.1094752 2.1759784 10000536
0.17538194 0.10938912 2.1821594 10000536
0.22498362 0.10933042 2.1809881 10000536
0.27453172 0.10927177 2.1798179 10000536
0.32492632 0.1092121 2.1786275 10000536
0.37526584 0.1091525 2.177439 10000536
0.42555049 0.10909297 2.1762512 10000536
0.47578028 0.1090335 2.1750648 9539985
0.51939595 0.10561918 2.1759179 2894892
0.5198819 -1.0016804 2.2421982 2894892
-0.71546096 -0.97193182 2.2067618 3763101
-0.67486155 -0.9684003 2.2072761 3235990
-0.62474316 -0.96867359 2.2078991 2578063
-0.57481635 -0.96903771 2.2098451 3693961
0.52009624 -0.9723829 2.2268369 2894892
-0.7053377 -0.94397497 2.2069645 3434394
-0.67207181 -0.9268235 2.2074261 3038611
-0.62477762 -0.92481828 2.2080193 2644111
-0.57494032 -0.92501199 2.2098966 3562120
0.52020729 -0.92493093 2.2224817 2894892
-0.65902591 -0.88678288 2.2076995 2775440
-0.62444562 -0.87576944 2.2081597 2512526
-0.5750432 -0.87479371 2.2099512 3562889
0.52026939 -0.87505132 2.2226653 2894892
-0.61450589 -0.83193147 2.2084045 2446989
-0.57496345 -0.82453841 2.2100883 3628681
0.52033025 -0.82502973 2.222965 2894892
-0.60190022 -0.7973485 2.2086568 2908820
-0.56974661 -0.77880037 2.2106287 4220812
0.52039254 -0.77486408 2.2231507 2894892
-0.90606201 -0.70574254 2.2066185 2185103
-0.87536865 -0.705266 2.2052124 2514325
-0.82532889 -0.70549059 2.2057426 3435679
-0.77526236 -0.70561969 2.2063193 3435165
-0.72517043 -0.70584202 2.2068419 2973846
-0.6750555 -0.70597386 2.207428 2842003
-0.62399292 -0.70580465 2.2079978 3105683
-0.56806064 -0.71657413 2.2113783 5600401
0.52045298 -0.72481722 2.2234902 2894892
-0.90596902 -0.67502922 2.2066371 2250896
-0.87537229 -0.67526186 2.2055938 2448532
-0.82534856 -0.67545193 2.2062149 2909081
-0.77518505 -0.67485613 2.2068405 3567006
-0.72521722 -0.67491937 2.2074621 2973846
-0.67510879 -0.67510945 2.2080843 2775954
-0.62518764 -0.6749348 2.2087054 2974613
-0.57506478 -0.6746279 2.2103648 3761292
0.52051461 -0.67489159 2.2237122 2894892
-0.90577924 -0.62443691 2.2065868 2119054
-0.87533307 -0.62513268 2.2057331 2448532
-0.82540035 -0.62522078 2.2063534 2975130
-0.7754609 -0.62461764 2.2069767 3566750
-0.7252627 -0.62465954 2.2076004 2908310
-0.67515087 -0.62483579 2.2082231 2644882
-0.62501121 -0.62501222 2.2088463 2909076
-0.57503444 -0.62513882 2.2104688 3892620
0.52057409 -0.62495208 2.2241306 2894892
-0.9049561 -0.5748027 2.2063611 2184333
-0.87457258 -0.57482427 2.2058816 2316432
-0.82545233 -0.57498342 2.2064915 3040921
-0.77539361 -0.57514548 2.207114 3369628
-0.72530729 -0.57530755 2.2077363 2908822
-0.67519253 -0.57546979 2.2083588 2645395
-0.62485242 -0.57501572 2.2089863 2777490
-0.57519424 -0.57483065 2.21052 3234691
0.520639 -0.57461333 2.2241232 2894892
-0.90474719 -0.53117192 2.2063367 2185358
-0.87409204 -0.5260247 2.2060227 2382481
-0.82465678 -0.52468115 2.2066407 3238556
-0.77459878 -0.52495223 2.2072628 3304348
-0.72535294 -0.5250352 2.207875 2975385
-0.67523491 -0.5251832 2.2084978 2843799
-0.62528956 -0.52472872 2.2091203 2778004
-0.57513922 -0.52458107 2.2106462 2972033
0.52069902 -0.5245136 2.2244973 2894892
-0.8618241 -0.49407136 2.2062628 2646165
-0.82083493 -0.48151571 2.2068079 3369627
-0.77454811 -0.47465807 2.2074025 3303834
-0.7253983 -0.47475657 2.2080128 2777750
-0.67527729 -0.47489074 2.2086365 2711957
-0.62512821 -0.4750247 2.2092593 2843539
-0.5751636 -0.47514534 2.2107387 2905726
0.52075821 -0.47493702 2.2248769 2894892
-0.76567119 -0.44101831 2.2076056 3106457
-0.72291911 -0.42910126 2.2081709 2645651
-0.67531872 -0.42550635 2.2087722 2711700
-0.6249516 -0.42507672 2.209399 2646161
-0.57524365 -0.42485577 2.2108104 3563400
0.52082175 -0.42495266 2.2249434 2894892
-0.70440871 -0.3988159 2.2084842 2446990
-0.66940105 -0.38865981 2.2089479 2777492
-0.62400752 -0.37659669 2.2095451 2513549
-0.57519037 -0.37453267 2.2109551 3431301
0.52088207 -0.37495559 2.2252808 2894892
-0.60796016 -0.34535888 2.2098322 2183559
-0.57005686 -0.33324733 2.2114964 4351112
0.52094311 -0.32507882 2.2255433 2894892
-0.90554941 -0.27027801 2.2077963 2185353
-0.87492663 -0.27058792 2.2065649 2382732
-0.82487875 -0.27066335 2.2071822 2513806
-0.77480251 -0.27073908 2.2077987 2381964
-0.72469836 -0.27081469 2.2084148 2448269
-0.67456669 -0.27089036 2.2090328 2644620
-0.62527698 -0.27099633 2.2096331 2118277
-0.57439435 -0.27122951 2.2110622 3496322
0.52100396 -0.27505767 2.2258441 2894892
-0.90546548 -0.22485104 2.2077432 2251148
-0.87495422 -0.22490998 2.2068441 2448528
-0.82490176 -0.22497343 2.2074671 2514322
-0.77482176 -0.22503686 2.2080891 2316687
-0.72471279 -0.22510034 2.2087119 2250894
-0.67457598 -0.22516397 2.2093358 2513550
-0.62532288 -0.22522621 2.2099476 1986182
-0.57551628 -0.22477862 2.2112589 3233666
0.52106434 -0.22502562 2.2261848 2894892
-0.90549034 -0.17484741 2.2076685 2251147
-0.87500972 -0.17463608 2.2069826 2382991
-0.82495314 -0.17468533 2.2076049 2514065
-0.77487028 -0.17473456 2.2082276 2118540
-0.72475833 -0.17478397 2.2088504 2052747
-0.67461812 -0.17483318 2.2094736 2381708
-0.62536216 -0.17488164 2.2100866 2184842
-0.57530379 -0.17495127 2.2113953 3431813
0.52112699 -0.17498252 2.2263293 2894892
-0.9054656 -0.12514539 2.2076902 2185610
-0.87506324 -0.12527022 2.207118 2448783
-0.82500446 -0.12530553 2.2077413 2448271
-0.77491784 -0.12534088 2.2083631 2051977
-0.72480303 -0.12537624 2.208986 1986440
-0.67465967 -0.12541157 2.20961 2315658
-0.62540054 -0.12544635 2.2102222 2250378
-0.57533151 -0.12541875 2.2114913 2773370
0.52118862 -0.12505859 2.2265484 2894892
-0.90541524 -0.074845515 2.2075408 1788290
-0.8751179 -0.07498385 2.207257 2184586
-0.82505673 -0.075004965 2.2078798 2315916
-0.77496684 -0.075026125 2.2085021 2382478
-0.72484845 -0.075047314 2.2091253 2448527
-0.67470193 -0.075068459 2.2097485 2184330
-0.62543976 -0.075089291 2.210361 1986438
-0.57544458 -0.075066969 2.2115729 2443637
0.52125025 -0.074992336 2.2267735 2894892
-0.90540212 -0.024692968 2.2075226 1722754
-0.87517297 -0.024691172 2.2073953 2052744
-0.82510853 -0.024698164 2.2080178 2315659
-0.77501518 -0.024705093 2.2086406 2580626
-0.72489375 -0.024712088 2.2092638 2580625
-0.67474449 -0.024719059 2.2098877 1986183
-0.62547922 -0.024725903 2.2105 1721985
-0.57474923 -0.024660835 2.2123032 2244204
0.52131444 -0.025370874 2.2267396 2894892
-0.90537697 0.024692064 2.2074616 1723010
-0.87522697 0.024693221 2.207531 1854340
-0.82515889 0.024700159 2.2081537 2117511
-0.77506286 0.024707146 2.2087772 2382478
-0.72493863 0.024714116 2.2093995 2316685
-0.67478591 0.024721092 2.2100239 1655166
-0.62551755 0.024727946 2.2106364 1523323
-0.57469326 0.024748381 2.2124705 2375533
0.52141392 0.024874453 2.2237139 2894892
-0.90535355 0.070416555 2.2074063 1788802
-0.87527651 0.070424825 2.2076569 1722497
-0.8252005 0.070444085 2.2082644 1919363
-0.77507305 0.070460558 2.2088053 2117767
-0.72495896 0.070445731 2.2093439 2184329
-0.67481923 0.070492961 2.2098718 1589116
-0.62524456 0.07065206 2.2104032 1589371
-0.57385403 0.071095489 2.2123048 3231866
0.52147734 0.07493756 2.2237926 2894892
-0.55324292 0.10542645 2.220536 9934743
-0.52468067 0.11011771 2.2336118 9934743
-0.47445521 0.1100583 2.2324071 9934743
-0.42428383 0.10999895 2.2312036 9934743
-0.37416661 0.10993966 2.230001 9934743
-0.32410336 0.10988045 2.2287998 9934743
-0.27409402 0.10982129 2.2276001 9934743
-0.22413847 0.10976219 2.2264016 10000536
-0.17423669 0.10970317 2.2252042 10000536
-0.12438852 0.10964421 2.2240083 10000536
-0.074593917 0.10958531 2.2228136 10000536
-0.024852768 0.10952648 2.2216198 10000536
0.024834998 0.10946772 2.2204278 10000536
0.074469455 0.109409 2.2192369 10000536
0.12496822 0.10934929 2.2180254 10000536
0.17541219 0.1092896 2.2168152 10000536
0.22488533 0.1092311 2.2156281 10000536
0.27932033 0.1091397 2.2237251 10000536
0.32533213 0.109061 2.2310767 10000536
0.37504259 0.10900223 2.2298746 10000536
0.42515209 0.10894392 2.2283385 10000536
0.47521368 0.10888381 2.2274518 9539985
0.51665914 0.10646687 2.2250953 2894892
0.5194158 -1.0104138 2.2817256 2894892
0.51952904 -0.97493947 2.2758512 2894892
0.5196138 -0.92589831 2.2739568 2894892
0.51969439 -0.87494642 2.272649 2894892
0.51975805 -0.82498783 2.2726932 2894892
0.51981723 -0.77517587 2.2731073 2894892
0.51987821 -0.72519219 2.2734005 2894892
0.5199405 -0.67504364 2.2735705 2894892
0.52000338 -0.62503946 2.2737148 2894892
0.52006251 -0.57470846 2.2742071 2894892
0.52012354 -0.52483451 2.2744734 2894892
0.52018619 -0.47526297 2.2745414 2894892
0.52024561 -0.42505607 2.2750075 2894892
0.52030808 -0.37499186 2.2751508 2894892
0.52036977 -0.32491544 2.2753949 2894892
0.52042842 -0.27482831 2.2758849 2894892
0.52049142 -0.2248856 2.2760043 2894892
0.52055359 -0.17493236 2.2761719 2894892
0.52061534 -0.12496421 2.2763903 2894892
0.52067113 -0.074986577 2.277102 2894892
0.52074581 -0.024481414 2.276264 2894892
0.52084357 0.025031051 2.2732689 2894892
0.52090073 0.075087309 2.2739162 2894892
-0.5558992 0.1100511 2.2704194 9934743
-0.52468532 0.11001421 2.2696586 9934743
-0.47459444 0.10995502 2.2684374 9934743
-0.42455718 0.10989589 2.2672174 9934743
-0.37457398 0.10983682 2.2659988 9934743
-0.32464421 0.10977782 2.2647815 9934743
-0.27476832 0.10971887 2.2635653 9934743
-0.22397071 0.1096077 2.2801392 9934743
-0.17518514 0.10954895 2.2793326 9934743
-0.12505946 0.10948975 2.2781003 9934743
-0.075003318 0.10942862 2.2775691 9934743
-0.024990736 0.10937156 2.2756417 9934743
0.024972763 0.10931252 2.2744136 9934743
0.075341523 0.10925204 2.273524 9934743
0.12519458 0.10919316 2.2722991 9934743
0.17452013 0.1091359 2.2707381 9934743
0.2247315 0.1090756 2.2698529 9934743
0.27119026 0.10900965 2.2725725 9934743
0.32481691 0.10890441 2.2858369 9934743
0.37480462 0.1088454 2.2845984 9934743
0.42473781 0.10878646 2.283361 9934743
0.47461727 0.10872757 2.2821252 9408399
0.51798898 0.10551489 2.2754304 2894892
0.51884645 -1.0211707 2.3299987 2894892
0.51892579 -0.97499704 2.3282635 2894892
0.51901829 -0.92414731 2.3259127 2894892
0.51909697 -0.87501973 2.324533 2894892
0.51915556 -0.82503688 2.3250334 2894892
0.51925385 -0.77576774 2.3219931 2894892
0.51932514 -0.72513402 2.3214526 2894892
0.51938689 -0.67504251 2.3217006 2894892
0.51944906 -0.62478089 2.3219233 2894892
0.5195111 -0.57451105 2.3221471 2894892
0.5195722 -0.52453893 2.3224161 2894892
0.51963204 -0.474886 2.3227413 2894892
0.51969206 -0.42505735 2.3230927 2894892
0.51975501 -0.37489662 2.3232374 2894892
0.51981479 -0.32488313 2.3236141 2894892
0.51987684 -0.2751824 2.3237796 2894892
0.51993734 -0.22514477 2.3241065 2894892
0.51999784 -0.17493635 2.3244591 2894892
0.52006149 -0.12487858 2.324523 2894892
0.52012146 -0.074969783 2.3248723 2894892
0.520181 -0.025046214 2.3252776 2894892
0.52024227 0.025050145 2.325552 2894892
0.52030474 0.074997179 2.3256912 2894892
-0.56390804 0.10988805 2.3306651 9934743
-0.52517307 0.10985259 2.3261333 9934743
-0.47529998 0.10979483 2.3245101 9934743
-0.42546484 0.10973497 2.323642 9934743
-0.3747299 0.10967613 2.3220117 9934743
-0.32452089 0.10961691 2.3207438 9934743
-0.27486032 0.10955724 2.3198791 9934743
-0.22634552 0.10945274 2.3350995 9934743
-0.17521101 0.10938457 2.336551 9934743
-0.12577584 0.10932626 2.3353052 9934743
-0.075425431 0.10926688 2.3340368 9934743
-0.025129674 0.10920756 2.3327696 9934743
0.0251115 0.10914832 2.3315043 9934743
0.075298183 0.10908912 2.3302398 9934743
0.12543046 0.10903 2.3289771 9934743
0.17550844 0.10897096 2.3277152 9934743
0.22553222 0.10891194 2.3264546 9934743
0.27550179 0.10885301 2.3251963 9934743
0.32541737 0.10879414 2.3239386 9934743
0.37527895 0.10873533 2.3226824 9934743
0.42508671 0.10867659 2.3214278 9934743
0.47484061 0.10861791 2.3201742 9276813
0.51741105 0.10548531 2.3237257 2894892
0.51816022 -1.0587367 2.3854344 2894892
0.51831412 -1.0260987 2.3757074 2894892
0.51839453 -0.97481871 2.3744309 2894892
0.5184564 -0.92495793 2.3746402 2894892
0.51851827 -0.87488705 2.374855 2894892
0.51857942 -0.82480323 2.375134 2894892
0.51867884 -0.77412677 2.3721447 2894892
0.51875037 -0.72490603 2.3714418 2894892
0.5188098 -0.67504323 2.3718593 2894892
0.51887316 -0.62533307 2.3719141 2894892
0.51893216 -0.57495469 2.3724196 2894892
0.51899302 -0.52489042 2.3726983 2894892
0.51905632 -0.47514218 2.3727527 2894892
0.51911557 -0.42505777 2.3731987 2894892
0.51917553 -0.37512481 2.3735619 2894892
0.51923937 -0.32501602 2.3736181 2894892
0.51929897 -0.27489376 2.3740101 2894892
0.51935977 -0.22492306 2.3743153 2894892
0.51942211 -0.175108 2.3744829 2894892
0.51948196 -0.1251144 2.3748474 2894892
0.5195415 -0.074944705 2.3752916 2894892
0.51960599 -0.02493486 2.3752646 2894892
0.51966691 0.024938749 2.3755417 2894892
0.51972443 0.074972093 2.3761284 2894892
-0.5704332 0.10973642 2.386302 9934743
-0.52469975 0.10968255 2.3851304 9934743
-0.47503963 0.10962404 2.3838584 9934743
-0.42543256 0.10956559 2.382587 9934743
-0.37488782 0.10950603 2.3812921 9934743
-0.32439789 0.10944656 2.3799992 9934743
-0.2749511 0.10938829 2.3787317 9934743
-0.2255571 0.10933011 2.3774662 9934743
-0.1752294 0.10927081 2.3761771 9934743
-0.12495597 0.10921159 2.3748889 9934743
-0.074737333 0.10915241 2.3736024 9934743
-0.024572732 0.10909332 2.3723173 9934743
0.024555363 0.10903543 2.3710585 9934743
0.074612163 0.10897647 2.369776 9934743
0.12461521 0.10891756 2.3684952 9934743
0.17456385 0.1088587 2.3672152 9934743
0.22543655 0.10879877 2.365912 9934743
0.27527669 0.10874005 2.3646348 9934743
0.32506272 0.10868137 2.3633595 9934743
0.37479547 0.10862279 2.3620853 9934743
0.42447418 0.10856426 2.3608124 9934743
0.47885266 0.1084727 2.3689954 8684676
0.51530135 0.10611167 2.377419 2894892
0.51765418 -1.0679631 2.4283831 2894892
0.5177682 -1.0238113 2.4233932 2894892
0.51784122 -0.97513598 2.4224937 2894892
0.51790422 -0.92489904 2.4226329 2894892
0.51796389 -0.87481672 2.4230361 2894892
0.51802582 -0.82506001 2.4231982 2894892
0.51808518 -0.77512002 2.4236341 2894892
0.51814848 -0.72500378 2.4237425 2894892
0.51820922 -0.67504346 2.424057 2894892
0.51827025 -0.62490499 2.4243455 2894892
0.51832992 -0.57458466 2.4247789 2894892
0.51839244 -0.52458322 2.4249144 2894892
0.51845282 -0.4749133 2.4252276 2894892
0.51851207 -0.42506045 2.425631 2894892
0.51857489 -0.37502643 2.4257662 2894892
0.51863348 -0.32515183 2.4262328 2894892
0.51869774 -0.27509567 2.4262507 2894892
0.51875794 -0.22502914 2.4266217 2894892
0.51881701 -0.17495118 2.4270585 2894892
0.51887858 -0.12485829 2.4273152 2894892
0.51897442 -0.076013245 2.4244382 2894892
0.51905143 -0.025099425 2.4234259 2894892
0.51911283 0.025103362 2.423712 2894892
0.51917535 0.075117692 2.4238529 2894892
-0.60058033 0.1096537 2.4282556 10000536
-0.5752762 0.10962392 2.4275959 10000536
-0.52571607 0.10956559 2.4263043 10000536
-0.47519863 0.10950616 2.4249878 10000536
-0.42473599 0.10944674 2.4236724 10000536
-0.37432802 0.10938744 2.422359 10000536
-0.32498109 0.10932935 2.4210727 10066329
-0.27568683 0.10927135 2.4197881 10197915
-0.22544025 0.1092122 2.4184785 10197915
-0.1752481 0.10915314 2.4171703 10197915
-0.12511019 0.10909414 2.415864 10197915
-0.07502646 0.10903519 2.4145586 10197915
-0.02499681 0.1089763 2.4132545 10197915
0.024978828 0.10891748 2.4119523 10197915
0.074900553 0.10885873 2.4106514 10197915
0.12476846 0.10880005 2.4093516 10197915
0.1787976 0.1087099 2.4171884 10197915
0.22478016 0.10862292 2.4274385 10197915
0.27492526 0.1085639 2.4261377 10197915
0.32550734 0.1085032 2.4252217 10197915
0.37504137 0.10844619 2.4234896 10197915
0.42451179 0.10838673 2.4226179 10197915
0.47125643 0.10832025 2.425401 9539985
0.51606411 0.10543711 2.4299197 2894892
0.51691252 -1.1066215 2.4885092 2894892
0.5171116 -1.075978 2.4746389 2894892
0.517205 -1.0251951 2.4721882 2894892
0.51726711 -0.97492069 2.4724083 2894892
0.51732701 -0.92504311 2.4727724 2894892
0.51738954 -0.87515438 2.4729121 2894892
0.51744902 -0.82484543 2.4733572 2894892
0.51751083 -0.77493268 2.4735711 2894892
0.51757181 -0.72501069 2.4738631 2894892
0.51763457 -0.67486924 2.4740031 2894892
0.51769102 -0.625126 2.4746747 2894892
0.51775539 -0.5749675 2.4746621 2894892
0.51781434 -0.52499187 2.4751029 2894892
0.51787764 -0.47521162 2.4751658 2894892
0.517937 -0.42501456 2.4756105 2894892
0.51799619 -0.37501147 2.4760525 2894892
0.51805973 -0.32499179 2.4761147 2894892
0.51811898 -0.27496213 2.4765582 2894892
0.51818174 -0.22492048 2.4766982 2894892
0.51824158 -0.17507179 2.4770629 2894892
0.51830131 -0.12521356 2.4774318 2894892
0.51840228 -0.074089743 2.4743683 2894892
0.51847947 -0.024938136 2.4731505 2894892
0.5185402 0.024942029 2.4734397 2894892
0.51859713 0.074987337 2.4740777 2894892
-0.60604054 0.10953772 2.4710271 10000536
-0.5751403 0.1095014 2.4702077 10000536
-0.52471083 0.1094421 2.4688702 10000536
-0.47433546 0.1093829 2.4675343 10000536
-0.4250412 0.10932494 2.4662273 10000536
-0.37477401 0.10926586 2.4648941 10000536
-0.32456073 0.10920683 2.4635627 10066329
-0.27542499 0.10914905 2.4622595 10197915
-0.22531939 0.10909016 2.4609308 10197915
-0.17526744 0.10903132 2.4596033 10197915
-0.12526985 0.10897254 2.4582775 10197915
-0.07532572 0.10891382 2.4569528 10197915
-0.023751605 0.10879564 2.4756143 10197915
0.025132824 0.108734 2.4757671 10197915
0.074836738 0.1086743 2.4748843 10197915
0.12500912 0.10861532 2.473542 10197915
0.17259736 0.10855044 2.4753952 10197915
0.22512919 0.10843485 2.4927413 10197915
0.27455238 0.1083768 2.4914069 10197915
0.32495052 0.10831764 2.4900467 10197915
0.375294 0.10825852 2.4886882 10197915
0.42455664 0.10820068 2.4873579 10197915
0.47479114 0.10814168 2.4860015 8947848
0.51610285 0.10517592 2.4767876 2894892
0.51640892 -1.1162355 2.5312059 2894892
0.51651824 -1.0737728 2.5264444 2894892
0.51660693 -1.0250174 2.5241761 2894892
0.51666886 -0.97511154 2.5243754 2894892
0.51672673 -0.92502052 2.5249403 2894892
0.51678777 -0.87491316 2.5252383 2894892
0.51685381 -0.8251335 2.5250564 2894892
0.51696557 -0.77492726 2.5209692 2894892
0.51702815 -0.72509032 2.5211017 2894892
0.51708907 -0.6750353 2.5214028 2894892
0.51714826 -0.62475967 2.5218604 2894892
0.51720905 -0.57467812 2.5221562 2894892
0.51727003 -0.52458465 2.5224528 2894892
0.51733255 -0.47468761 2.5225861 2894892
0.51739216 -0.42499349 2.5229633 2894892
0.517452 -0.37507427 2.5233405 2894892
0.51751286 -0.32493383 2.5236382 2894892
0.51757747 -0.27499357 2.5236099 2894892
0.51763451 -0.22504194 2.524231 2894892
0.51769561 -0.17486617 2.5245285 2894892
0.5177573 -0.12488797 2.5247443 2894892
0.51781881 -0.07511209 2.5249579 2894892
0.51787764 -0.025109503 2.5254171 2894892
0.51793891 0.02511346 2.5257146 2894892
0.51800168 0.075139537 2.5258491 2894892
-0.61169618 0.10941745 2.5153298 9934743
-0.57499892 0.10937437 2.5143394 10000536
-0.52471584 0.10931533 2.5129817 10000536
-0.47448692 0.10925632 2.511626 10000536
-0.4243122 0.10919744 2.5102713 10000536
-0.37419161 0.10913858 2.508919 10000536
-0.32412508 0.10907979 2.5075672 10066329
-0.27411234 0.10902106 2.5062172 10197915
-0.22190113 0.10894522 2.5098705 10197915
-0.17477834 0.10883903 2.5263097 10197915
-0.12447304 0.10877999 2.5249393 10197915
-0.074746862 0.10872304 2.5231009 10197915
-0.027673669 0.10861562 2.5399861 10197915
0.025288343 0.10853899 2.5435846 10197915
0.074776031 0.10848095 2.5422244 10197915
0.12421045 0.10842297 2.5408657 10197915
0.17464234 0.10836384 2.53948 10197915
0.22501923 0.10830476 2.538095 10197915
0.27534124 0.10824574 2.5367122 10197915
0.32560843 0.1081868 2.5353305 10197915
0.37582088 0.10812789 2.5339506 10197915
0.42597878 0.10806907 2.5325725 10197915
0.47503898 0.10801154 2.5312235 8882055
0.51494616 0.10529439 2.5271649 2894892
0.5156675 -1.1544425 2.5913649 2894892
0.51585507 -1.1242504 2.5784323 2894892
0.51592207 -1.0749855 2.5781186 2894892
0.51597697 -1.0249152 2.578938 2894892
0.51604354 -0.97502905 2.5787232 2894892
0.51610243 -0.92492217 2.5792005 2894892
0.51616478 -0.87521946 2.5793238 2894892
0.5162856 -0.82484531 2.5744553 2894892
0.51639944 -0.77513117 2.5701332 2894892
0.5164625 -0.72496372 2.5702667 2894892
0.51652211 -0.67499185 2.5706527 2894892
0.51658159 -0.62522334 2.5710406 2894892
0.5166446 -0.57502306 2.5711741 2894892
0.51670545 -0.52500898 2.5714743 2894892
0.51676399 -0.47521126 2.5719459 2894892
0.51682597 -0.42496973 2.5721672 2894892
0.51688778 -0.37492716 2.5723827 2894892
0.51694649 -0.32509163 2.5728548 2894892
0.51700729 -0.27502662 2.5731592 2894892
0.51706821 -0.22494975 2.5734608 2894892
0.51713067 -0.17507878 2.573591 2894892
0.51719236 -0.12519129 2.5738077 2894892
0.5172475 -0.075077333 2.5746229 2894892
0.51731426 -0.024965186 2.5744131 2894892
0.51737493 0.024969086 2.5747156 2894892
0.51743156 0.074891984 2.5753596 2894892
-0.61755919 0.10929293 2.5612528 9934743
-0.574853 0.10924283 2.5600789 10000536
-0.52472162 0.10918406 2.5587013 10000536
-0.47464454 0.10912532 2.5573249 10000536
-0.42462084 0.10906665 2.5559499 10000536
-0.37465134 0.10900805 2.5545766 10000536
-0.32218882 0.10893086 2.5585923 10066329
-0.27473029 0.1088244 2.5749707 10197915
-0.2264695 0.10876169 2.575783 10197915
-0.17532991 0.10863865 2.5963342 10197915
-0.1257837 0.10858061 2.5949476 10197915
-0.075215235 0.10852138 2.5935316 10197915
-0.024701508 0.10846221 2.5921175 10197915
0.024683954 0.10840437 2.590735 10197915
0.075088449 0.10834532 2.5893242 10197915
0.12543844 0.10828635 2.5879145 10197915
0.17466392 0.10822869 2.5865366 10197915
0.22490524 0.10816983 2.5851302 10197915
0.2750923 0.10811105 2.5837257 10197915
0.32522449 0.10805232 2.5823219 10197915
0.37530255 0.10799366 2.58092 10197915
0.42532596 0.10793509 2.5795197 10197915
0.47529545 0.10787654 2.5781207 8684676
0.51473397 0.10508133 2.575598 2894892
0.51525337 -1.1626713 2.6264279 2894892
0.51532632 -1.1252389 2.6242826 2894892
0.51538676 -1.0753536 2.6245906 2894892
0.51544732 -1.0254569 2.6248994 2894892
0.5155102 -0.97527701 2.6250412 2894892
0.51556933 -0.92508799 2.6255198 2894892
0.51563418 -0.87464374 2.6254992 2894892
0.51575321 -0.82477003 2.6207702 2894892
0.51581365 -0.77491266 2.6210725 2894892
0.51587182 -0.725263 2.6215634 2894892
0.51593363 -0.67516541 2.6217821 2894892
0.51599574 -0.62484467 2.6220031 2894892
0.51605451 -0.57472324 2.6224918 2894892
0.51611513 -0.52480727 2.6227989 2894892
0.51617551 -0.47487971 2.6231079 2894892
0.51624048 -0.42494178 2.6230519 2894892
0.51629686 -0.3749963 2.623724 2894892
0.51635754 -0.32503355 2.6240313 2894892
0.51642036 -0.27506062 2.6241596 2894892
0.51647884 -0.2250762 2.6246476 2894892
0.51653963 -0.17507821 2.6249568 2894892
0.51660466 -0.12507349 2.6249032 2894892
0.51666111 -0.075053856 2.6255736 2894892
0.51672196 -0.02502057 2.6258826 2894892
0.5167827 0.025024485 2.6261916 2894892
0.51684326 0.075081319 2.6265004 2894892
-0.62364048 0.10916378 2.6088841 9934743
-0.5757885 0.10910773 2.6075447 10000536
-0.5258137 0.10904919 2.6061456 10000536
-0.47589228 0.10899072 2.604748 10000536
-0.42494127 0.10893103 2.6033218 10000536
-0.37404558 0.10887141 2.6018972 10000536
-0.32380128 0.10874778 2.6230476 10066329
-0.27537957 0.10861493 2.6482072 10197915
-0.22478947 0.10855576 2.6467643 10197915
-0.17425446 0.10849664 2.6453233 10197915
-0.12487108 0.10843888 2.6439142 10197915
-0.075540669 0.10838116 2.6425076 10197915
-0.025168046 0.10832224 2.6410706 10197915
0.025149824 0.10826337 2.6396356 10197915
0.075413041 0.10820457 2.638202 10197915
0.12562168 0.10814584 2.6367698 10197915
0.17577586 0.10808717 2.6353395 10197915
0.22587563 0.10802855 2.6339104 10197915
0.27592114 0.10797002 2.632483 10197915
0.32591239 0.10791156 2.631057 10197915
0.37584955 0.10785311 2.6296329 10197915
0.4257327 0.10779477 2.6282101 10197915
0.47556177 0.10773648 2.6267891 8487297
0.51440793 0.10505778 2.625155 2894892
0.51442945 -1.2029392 2.6935344 2894892
0.51469338 -1.1725889 2.6739872 2894892
0.51477754 -1.1252052 2.6719575 2894892
0.514835 -1.0750654 2.6725624 2894892
0.51489925 -1.024917 2.6725891 2894892
0.51495528 -0.97498626 2.6732881 2894892
0.51501805 -0.92503935 2.6734092 2894892
0.51507968 -0.87530047 2.673629 2894892
0.51513827 -0.82533026 2.6741371 2894892
0.51520115 -0.77512616 2.6742613 2894892
0.51526111 -0.7249099 2.6746738 2894892
0.51532048 -0.6749053 2.6750815 2894892
0.51538086 -0.62510693 2.6753976 2894892
0.51544362 -0.57508314 2.6755199 2894892
0.51550585 -0.52480793 2.675739 2894892
0.51555961 -0.47498819 2.6766319 2894892
0.51562661 -0.42514017 2.6763668 2894892
0.51568639 -0.37506151 2.6767786 2894892
0.51574492 -0.32497644 2.6772866 2894892
0.51580536 -0.27509633 2.6775992 2894892
0.51586574 -0.2252043 2.6779141 2894892
0.515966 -0.17637081 2.6746578 2894892
0.51605248 -0.12486113 2.6729088 2894892
0.51610851 -0.075030662 2.6735837 2894892
0.51617324 -0.025205186 2.6735346 2894892
0.51623452 0.025209164 2.673851 2894892
0.51629078 0.075058058 2.6745267 2894892
-0.65434963 0.10905825 2.6590161 10000536
-0.62440819 0.10902323 2.6581624 9934743
-0.57454437 0.10896491 2.6567402 10000536
-0.52473438 0.10890664 2.6553195 10000536
-0.47497711 0.10884843 2.6539006 10000536
-0.42527339 0.10879029 2.6524825 10000536
-0.37451991 0.1087309 2.6510348 10000536
-0.33175358 0.10863904 2.6643789 10000536
-0.27508628 0.10846815 2.699156 10197915
-0.22464414 0.10840921 2.6976898 10197915
-0.17425634 0.10835034 2.6962252 10197915
-0.12504132 0.10829284 2.6947942 10197915
-0.074762009 0.10823411 2.6933327 10197915
-0.024536794 0.10817543 2.6918731 10197915
0.024519475 0.10811811 2.6904466 10197915
0.074636735 0.10805956 2.6889892 10197915
0.12470011 0.10800107 2.6875341 10197915
0.17470896 0.10794266 2.6860802 10197915
0.22466412 0.10788431 2.6846275 10197915
0.27456492 0.107826 2.6831777 10197915
0.32551906 0.10776649 2.6816959 10197915
0.3753114 0.10770831 2.6802485 10197915
0.42504954 0.10765021 2.6788027 10197915
0.4747344 0.10759216 2.6773582 8487297
0.51324862 0.10504851 2.6742194 2894892
0.51397526 -1.2112037 2.7320707 2894892
0.51409864 -1.1762917 2.7252526 2894892
0.51420236 -1.125383 2.7219284 2894892
0.51426601 -1.0753204 2.7219987 2894892
0.51432317 -1.0249875 2.7226338 2894892
0.51438236 -0.97490692 2.7230833 2894892
0.51444751 -0.92481798 2.7230241 2894892
0.514507 -0.87471926 2.7234731 2894892
0.51456654 -0.82488614 2.7238567 2894892
0.51462907 -0.7750442 2.7239869 2894892
0.51468688 -0.72490925 2.7245598 2894892
0.51474905 -0.67475992 2.7247543 2894892
0.51481134 -0.62460542 2.7249506 2894892
0.51486945 -0.57471275 2.7254596 2894892
0.51492971 -0.5250926 2.7257781 2894892
0.51499224 -0.47517574 2.7259085 2894892
0.51505172 -0.42497459 2.726356 2894892
0.51511139 -0.37503836 2.7267406 2894892
0.51517111 -0.32508659 2.7271235 2894892
0.51523489 -0.27484959 2.7271931 2894892
0.51529318 -0.22487573 2.7277024 2894892
0.51540232 -0.17370602 2.7239428 2894892
0.51547867 -0.12497666 2.7227502 2894892
0.51554281 -0.074908711 2.7227702 2894892
0.51560003 -0.024821419 2.7233908 2894892
0.51566005 0.024825277 2.7237086 2894892
0.51572287 0.074709997 2.7238264 2894892
-0.66024625 0.10891809 2.7103534 10000536
-0.62407398 0.10887583 2.7093015 10000536
-0.57438064 0.10881779 2.7078571 10000536
-0.52474016 0.10875979 2.7064137 10000536
-0.47515252 0.10870185 2.7049723 10000536
-0.42561781 0.10864398 2.7035322 10000536
-0.37501201 0.10858487 2.7020612 10000536
-0.32670596 0.10852844 2.7006567 10066329
-0.20165026 0.10823037 2.7499394 10197915
-0.17539975 0.10819978 2.7491622 10197915
-0.12521841 0.10814121 2.7476742 10197915
-0.07509131 0.10808274 2.7461889 10197915
-0.025018407 0.10802434 2.7447042 10197915
0.025000401 0.10796598 2.7432215 10197915
0.074965201 0.1079077 2.7417407 10197915
0.12487607 0.10784947 2.7402613 10197915
0.17473312 0.1077913 2.7387831 10197915
0.2245364 0.10773318 2.7373073 10197915
0.27428606 0.10767515 2.7358325 10197915
0.32511076 0.10761587 2.7343259 10197915
0.37587988 0.10755663 2.7328215 10197915
0.42546663 0.10749877 2.7313511 10197915
0.47500011 0.10744102 2.729883 8289918
0.51338816 0.10471148 2.7251103 2894892
0.51340693 -1.2217897 2.7802932 2894892
0.51351243 -1.1733358 2.7765229 2894892
0.51361197 -1.1253508 2.7732382 2894892
0.51366836 -1.0756022 2.7738903 2894892
0.51372945 -1.0251597 2.774219 2894892
0.51379263 -0.97493666 2.7743323 2894892
0.51385212 -0.92493427 2.7747684 2894892
0.51391375 -0.87514496 2.7749851 2894892
0.51397163 -0.8251161 2.7755282 2894892
0.51403379 -0.77484375 2.7757502 2894892
0.514094 -0.72502226 2.7760718 2894892
0.51418155 -0.67662197 2.7738626 2894892
0.51428318 -0.62534946 2.7707577 2894892
0.51434159 -0.57519096 2.7712872 2894892
0.51440257 -0.52473634 2.7716162 2894892
0.51446617 -0.47483936 2.7716696 2894892
0.51452345 -0.42494345 2.7722652 2894892
0.51458329 -0.37473863 2.7726617 2894892
0.51464683 -0.32481197 2.7727163 2894892
0.51470572 -0.27487156 2.7731783 2894892
0.51476312 -0.22492176 2.7737718 2894892
0.51482821 -0.17496234 2.7736936 2894892
0.51488566 -0.12498429 2.7742896 2894892
0.51494968 -0.075292818 2.7742753 2894892
0.51500708 -0.02529061 2.7748709 2894892
0.51506817 0.025294621 2.7752004 2894892
0.51513195 0.07532043 2.7752562 2894892
-0.66752917 0.10877387 2.7637491 10000536
-0.6248799 0.10872412 2.7624853 10000536
-0.57421112 0.10866502 2.760983 10000536
-0.52474689 0.10860731 2.759517 10000536
-0.4753356 0.10854968 2.7580521 10000536
-0.42482921 0.10849076 2.7565553 10000536
-0.3743777 0.10843191 2.7550592 10000536
-0.32512537 0.10837444 2.7535999 10066329
-0.27592564 0.10831704 2.7521415 10197915
-0.22677764 0.1082597 2.7506847 10197915
-0.018557634 0.10785907 2.7994411 10197915
0.025500568 0.10780773 2.7981088 10197915
0.075306833 0.10774974 2.7966032 10197915
0.12505908 0.10769176 2.795099 10197915
0.17475824 0.10763387 2.793596 10197915
0.2244036 0.10757603 2.7920952 10197915
0.27514857 0.10751693 2.7905607 10197915
0.3246865 0.10745924 2.789063 10197915
0.3741709 0.10740159 2.7875669 10197915
0.42475146 0.10734265 2.7860377 10197915
0.47527647 0.10728379 2.7845099 8026746
0.51270884 0.10486992 2.7784891 2894892
0.51276666 -1.2584436 2.8318205 2894892
0.51287174 -1.2248036 2.826458 2894892
0.51293433 -1.1748887 2.8265781 2894892
0.51299161 -1.1255381 2.8271208 2894892
0.51305228 -1.075302 2.8274546 2894892
0.51311302 -1.0250542 2.8277912 2894892
0.51317638 -0.97537917 2.8278389 2894892
0.51323587 -0.92510837 2.8283174 2894892
0.51329339 -0.87483287 2.828933 2894892
0.5133577 -0.82482362 2.8289108 2894892
0.51341456 -0.7751087 2.8295276 2894892
0.51347899 -0.72507727 2.8295076 2894892
0.51357543 -0.67359257 2.8268702 2894892
0.51366615 -0.62482405 2.8244298 2894892
0.51372933 -0.57481861 2.8245351 2894892
0.51378918 -0.52525079 2.8248649 2894892
0.51384705 -0.47522271 2.825424 2894892
0.51395553 -0.42616114 2.8214772 2894892
0.51403809 -0.37501401 2.820009 2894892
0.51410073 -0.32510889 2.8201284 2894892
0.51415724 -0.27519187 2.8208115 2894892
0.51422113 -0.22497213 2.8208663 2894892
0.51428056 -0.17502891 2.821265 2894892
0.51434022 -0.12507696 2.8216703 2894892
0.5144009 -0.07481958 2.8220005 2894892
0.51446372 -0.024852796 2.8221214 2894892
0.51452392 0.024856662 2.8224511 2894892
0.51458192 0.074846871 2.8229928 2894892
-0.67392892 0.10862251 2.8192561 10000536
-0.62454271 0.10856498 2.8177629 10000536
-0.57520866 0.10850752 2.8162713 10000536
-0.52475435 0.10844874 2.8147457 10000536
-0.47435421 0.10839003 2.8132219 10000536
-0.42517903 0.10833275 2.8117347 10000536
-0.37488708 0.10827415 2.810214 10000536
-0.3246491 0.10821563 2.8086956 10066329
-0.27563196 0.10815853 2.8072133 10197915
-0.22550158 0.10810015 2.8056979 10197915
-0.17542486 0.10804181 2.804184 10197915
-0.12540258 0.10798354 2.8026717 10197915
-0.075433813 0.10792533 2.8011606 10197915
-0.044083763 0.1078888 2.8002126 10197915
0.19835559 0.10744262 2.8499207 10197915
0.22544302 0.10741109 2.8490849 10197915
0.27487025 0.10735361 2.8475602 10197915
0.3242445 0.10729619 2.8460364 10197915
0.37473944 0.10723744 2.8444786 10197915
0.42517948 0.10717878 2.8429222 10197915
0.47439316 0.10712155 2.8414044 7960953
0.51187491 0.10482452 2.8295245 2894892
0.51222235 -1.2686487 2.8779914 2894892
0.51230329 -1.2247616 2.8758574 2894892
0.51236361 -1.1748596 2.8761957 2894892
0.51242381 -1.1249458 2.8765335 2894892
0.51249093 -1.0750287 2.8762734 2894892
0.51254439 -1.0250933 2.8772092 2894892
0.51260489 -0.97514468 2.8775494 2894892
0.51266515 -0.92518413 2.8778894 2894892
0.51272559 -0.8752116 2.8782277 2894892
0.51278597 -0.8252272 2.878566 2894892
0.51284909 -0.77493501 2.8786857 2894892
0.51290721 -0.72463161 2.879247 2894892
0.51296979 -0.67491221 2.8793557 2894892
0.51302713 -0.62517971 2.879921 2894892
0.51308751 -0.5751366 2.88026 2894892
0.51314801 -0.52508146 2.8805988 2894892
0.5132156 -0.47583216 2.8802311 2894892
0.51340097 -0.42374218 2.8699324 2894892
0.51347351 -0.37500194 2.8690808 2894892
0.5135349 -0.32482362 2.8693459 2894892
0.51359475 -0.27462918 2.8697579 2894892
0.51365715 -0.22502069 2.8698664 2894892
0.51371747 -0.17510207 2.8702095 2894892
0.51377553 -0.12487867 2.8707683 2894892
0.51383579 -0.074935779 2.8711057 2894892
0.51389617 -0.024981201 2.8714428 2894892
0.51395637 0.024985112 2.8717794 2894892
0.51401687 0.074963145 2.8721156 2894892
-0.70701027 0.10849565 2.8778529 10000536
-0.67578745 0.10845934 2.8768897 10000536
-0.62539101 0.10840073 2.8753347 10000536
-0.57504922 0.10834219 2.8737817 10000536
-0.52476168 0.10828368 2.8722301 10000536
-0.47452846 0.10822526 2.8706801 10000536
-0.42434928 0.10816689 2.8691323 10000536
-0.37422428 0.10810859 2.8675854 10000536
-0.32415333 0.10805035 2.8660412 10066329
-0.27413625 0.10799217 2.8644977 10197915
-0.22417295 0.10793406 2.8629563 10197915
-0.17426349 0.107876 2.8614166 10197915
-0.12440763 0.10781804 2.8598783 10197915
-0.074605368 0.1077601 2.8583417 10197915
-0.024856582 0.10770223 2.8568072 10197915
0.024838805 0.10764442 2.855274 10197915
0.074480884 0.10758669 2.8537419 10197915
0.12406971 0.10752899 2.8522124 10197915
0.1724268 0.10747276 2.8507206 10197915
0.49737948 0.10692458 2.8999143 2894892
0.51168019 0.10465571 2.8814111 2894892
0.5115006 -1.307106 2.9364164 2894892
0.51165283 -1.2751968 2.926743 2894892
0.51171511 -1.2250222 2.9269311 2894892
