# .PCD v0.7 - Point Cloud Data file format
VERSION 0.7
FIELDS x y z rgb
SIZE 4 4 4 4
TYPE F F F U
COUNT 1 1 1 1
WIDTH 1148
HEIGHT 1
VIEWPOINT 0 0 0 1 0 0 0
POINTS 1148
DATA ascii
-0.32533142 0.11238724 0.62450892 10197915
-0.27463698 0.11250967 0.62350279 10197915
-0.22501658 0.11262517 0.62352133 10197915
-0.17500877 0.11273905 0.62414706 10197915
-0.12501398 0.11285289 0.62477219 10197915
-0.074973494 0.11297295 0.62396199 10197915
-0.025012923 0.11309242 0.62323189 10197915
0.024974665 0.11320625 0.62387168 10197915
0.074976064 0.11332009 0.62450176 10197915
0.12484564 0.11343455 0.62491399 10197915
0.17500339 0.11355964 0.6229763 10197915
0.22499709 0.11367352 0.6235801 10197915
0.27499023 0.11378732 0.62423301 10197915
0.32493842 0.1139011 0.62484586 10197915
0.37692434 0.10916253 0.62326658 6052956
0.35796493 -0.30431277 0.68976706 2894892
0.36331025 -0.27405488 0.67477137 2894892
0.36358669 -0.22502208 0.67406046 2894892
0.36360374 -0.17500412 0.67407829 2894892
0.36361647 -0.12497534 0.67411202 2894892
0.36363035 -0.074988149 0.67413557 2894892
0.36364558 -0.024997277 0.67415643 2894892
0.36366031 0.024998587 0.67418289 2894892
0.36367363 0.074997634 0.67421788 2894892
-0.55247205 0.11154739 0.69774824 10197915
-0.51956648 0.11170475 0.67872214 10197915
-0.47500798 0.11183222 0.67315018 10197915
-0.42503607 0.11194568 0.6738416 10197915
-0.37505418 0.1120593 0.67451638 10197915
-0.32464772 0.11217646 0.67458701 10197915
-0.27516177 0.11229381 0.67411011 10197915
-0.22501001 0.11241414 0.67329258 10197915
-0.17501409 0.11252768 0.67399395 10197915
-0.12500988 0.11264132 0.67466253 10197915
-0.074708365 0.11276098 0.67408258 10197915
-0.025170742 0.11287598 0.67420101 10197915
0.025003104 0.11299606 0.67345053 10197915
0.075001068 0.1131097 0.67413127 10197915
0.1251923 0.1132249 0.67456067 10197915
0.17497522 0.11334374 0.67386389 10197915
0.22478472 0.11345807 0.67428881 10197915
0.27499124 0.11357799 0.67359471 10197915
0.32495111 0.11369156 0.6742692 10197915
0.36276007 0.10795759 0.67346168 5131854
0.34279272 -0.31388423 0.73243898 2894892
0.35205057 -0.30808818 0.70640165 2894892
0.34350044 -0.27502924 0.73049968 2894892
0.35218489 -0.27506 0.70606452 2894892
0.34351051 -0.2249781 0.73054165 2829099
0.35220093 -0.22500063 0.70609337 2894892
0.34352615 -0.17500599 0.73056251 2894892
0.3522163 -0.17498571 0.70611393 2894892
0.34353897 -0.12504134 0.73060328 2894892
0.35222894 -0.1249669 0.70615304 2894892
0.34355471 -0.075025387 0.73062319 2894892
0.35224113 -0.074976608 0.7061767 2894892
0.34356377 -0.02501162 0.7306664 2894892
0.35225722 -0.024998706 0.70620453 2894892
0.34357703 0.025007013 0.73069328 2894892
0.35227028 0.025000036 0.70623225 2894892
0.34359512 0.074999087 0.73070663 2894892
0.35228616 0.074985944 0.70626158 2894892
-0.56560147 0.11137651 0.73082626 10197915
-0.52488655 0.11149502 0.725254 10197915
-0.47522429 0.11161634 0.72393739 10197915
-0.42498323 0.11173691 0.72311419 10197915
-0.37494481 0.11185051 0.72381258 10197915
-0.32494283 0.11196399 0.72452968 10197915
-0.274793 0.11207855 0.72508192 10197915
-0.22501436 0.11219857 0.72411704 10197915
-0.17528468 0.11231775 0.72335202 10197915
-0.1249758 0.11243345 0.72371632 10197915
-0.075003892 0.11254694 0.72440958 10197915
-0.024804454 0.11266173 0.72492194 10197915
0.025007579 0.11278159 0.72402483 10197915
0.074553646 0.11289771 0.72386932 10197915
0.12498866 0.11301656 0.72357208 10197915
0.17499669 0.11312984 0.72433537 10197915
0.22524224 0.11324525 0.72473609 10197915
0.27497545 0.11336457 0.7239244 10197915
0.33362263 0.10996464 0.72706091 7105644
0.35226789 0.10703557 0.70620382 4473924
0.32376745 -0.35076821 0.78592074 2894892
0.32963905 -0.32202452 0.76943648 2894892
0.32995781 -0.27490789 0.76860774 2894892
0.32994431 -0.2249883 0.76871037 2894892
0.32994741 -0.17499515 0.76877385 2894892
0.32996389 -0.12501088 0.76879215 2894892
0.32990494 -0.074881434 0.76902485 2894892
0.32984522 -0.025001341 0.76926184 2894892
0.32985935 0.025002666 0.76929194 2894892
0.3298772 0.075016141 0.76930445 2894892
-0.61232024 0.11103592 0.78547615 10197915
-0.57531959 0.11117108 0.77393544 10197915
-0.52500337 0.11128745 0.77413845 10197915
-0.47469664 0.11140301 0.77453655 10197915
-0.42501697 0.11152301 0.77354127 10197915
-0.37511006 0.11163599 0.77432102 10197915
-0.32524738 0.1117494 0.7749685 10197915
-0.27499801 0.11187174 0.77373582 10197915
-0.22498661 0.11198505 0.77449822 10197915
-0.17465864 0.11210635 0.77354985 10197915
-0.12501468 0.11222043 0.77392679 10197915
-0.075018495 0.1123336 0.77471316 10197915
-0.025501918 0.11244922 0.7746613 10197915
0.024990719 0.11256912 0.77412528 10197915
0.075545892 0.11268828 0.77381444 10197915
0.12498663 0.11280464 0.77355051 10197915
0.17499486 0.11291786 0.77432144 10197915
0.22499608 0.1130312 0.77507436 10197915
0.27455619 0.11314957 0.77438915 10197915
0.32494438 0.10879193 0.77034938 6184542
-0.65866351 0.11070074 0.83905292 10197915
-0.62407464 0.11083425 0.82657236 10197915
-0.57455641 0.11095805 0.82460219 10197915
-0.52528924 0.11108007 0.82290071 10197915
-0.47499812 0.11119558 0.82328582 10197915
-0.42501605 0.11130827 0.82418144 10197915
-0.37493286 0.11142167 0.82496643 10197915
-0.32473305 0.11153572 0.82565504 10197915
-0.27502716 0.11165768 0.82419878 10197915
-0.225363 0.11177804 0.82311493 10197915
-0.17496677 0.11189408 0.8234399 10197915
-0.12497924 0.11200708 0.82427573 10197915
-0.074993253 0.1121201 0.82508457 10197915
-0.024415174 0.11223865 0.82491034 10197915
0.024965674 0.11235625 0.82432783 10197915
0.074526452 0.11247588 0.82335252 10197915
0.12498181 0.11259262 0.82352942 10197915
0.17500527 0.11270552 0.82441258 10197915
0.225026 0.11281875 0.82519937 10197915
0.27552718 0.1129402 0.82429212 10197915
0.31898156 0.11303031 0.8269313 9408399
-0.70510501 0.11036396 0.89296287 10197915
-0.67202914 0.11050796 0.87717408 10197915
-0.62501514 0.11062472 0.87547439 10197915
-0.57498324 0.11073755 0.87636721 10197915
-0.52525711 0.11086657 0.8732605 10197915
-0.47499213 0.11098623 0.87266594 10197915
-0.42493117 0.11109942 0.87348384 10197915
-0.37500915 0.11121204 0.8743664 10197915
-0.32506451 0.11132441 0.87530595 10197915
-0.27505976 0.11143729 0.87616479 10197915
-0.22509651 0.11156179 0.87425941 10197915
-0.17501487 0.11168606 0.8724736 10197915
-0.12502088 0.11179904 0.8733086 10197915
-0.075046204 0.11191169 0.87419957 10197915
-0.025011402 0.11202454 0.87508804 10197915
0.025004691 0.11213737 0.87596083 10197915
0.075483248 0.11226021 0.87474203 10197915
0.12460749 0.11238299 0.87277263 10197915
0.17496207 0.11249875 0.87314737 10197915
0.22494566 0.11261155 0.87402433 10197915
0.27494833 0.11272445 0.87487149 10197915
0.32488951 0.11283682 0.87581617 9934743
0.35597935 0.11286544 0.88614869 6513507
-0.75105977 0.11003534 0.94519955 10197915
-0.71886349 0.11018272 0.92814666 10197915
-0.67501259 0.11030064 0.92442179 10197915
-0.62495184 0.11041328 0.92537093 10197915
-0.57493132 0.1105256 0.92637259 10197915
-0.52441519 0.11064856 0.92513531 10197915
-0.47509402 0.11077657 0.92205364 10197915
-0.42510271 0.11088931 0.9229424 10197915
-0.37500915 0.11100149 0.92400932 10197915
-0.32495853 0.11111489 0.92477715 10197915
-0.27494743 0.1112271 0.92579544 10197915
-0.22438817 0.11134413 0.92597783 10197915
-0.17555743 0.11146732 0.92375958 10197915
-0.12500976 0.11159073 0.92243469 10197915
-0.075022481 0.11170322 0.9233768 10197915
-0.025030328 0.11181572 0.92431784 10197915
0.025016082 0.11192837 0.92525542 10197915
0.075017877 0.11204106 0.92616045 10197915
0.12544693 0.11216535 0.92455798 10197915
0.17433035 0.11228424 0.92338765 10197915
0.22500439 0.11240454 0.92286718 10197915
0.27498233 0.11251719 0.92376965 10197915
0.32496333 0.11262964 0.92471474 10066329
0.36461756 0.11270698 0.92827469 8618883
-0.76619822 0.10984406 0.98199648 10197915
-0.72497058 0.10998051 0.97246867 10197915
-0.67495668 0.11009299 0.97343111 10197915
-0.6250115 0.11020532 0.97437483 10197915
-0.57507801 0.11031747 0.97538114 10197915
-0.52487952 0.11043107 0.97618115 10197915
-0.4749566 0.11055692 0.97392732 10197915
-0.42514437 0.11066925 0.97481167 10197915
-0.37497589 0.11079609 0.97247231 10197915
-0.32499984 0.11090817 0.97350198 10197915
-0.275038 0.11102041 0.97448939 10197915
-0.22503254 0.11113283 0.97545838 10197915
-0.17434183 0.11125127 0.97538465 10197915
-0.12503722 0.11137221 0.97395474 10197915
-0.075025469 0.11148421 0.97502655 10197915
-0.025195954 0.11160985 0.97278351 10197915
0.025011446 0.11172339 0.97359252 10197915
0.075042143 0.11183616 0.9744916 10197915
0.12500057 0.11194804 0.97556609 10197915
0.17584796 0.11207083 0.97455251 10197915
0.22503476 0.11218754 0.97406381 10197915
0.274997 0.1122997 0.97507429 10132122
0.32448938 0.11242265 0.97327745 10000536
0.37331742 0.11253057 0.97464257 9342606
0.40249002 0.11252671 0.99159324 3421236
-0.81088626 0.10952115 1.0335939 10197915
-0.77433217 0.1096428 1.0250111 10197915
-0.72500968 0.10976586 1.0230596 10197915
-0.6750232 0.10987854 1.023976 10197915
-0.62505394 0.10999016 1.0250931 10197915
-0.57515973 0.11010283 1.0259677 10197915
-0.52500403 0.11023054 1.0233935 10197915
-0.47503585 0.11034276 1.0244102 10197915
-0.42483762 0.11045636 1.0251877 10197915
-0.37508228 0.11058295 1.0226607 10197915
-0.3250522 0.11069515 1.0237348 10197915
-0.27498245 0.11080722 1.0247902 10197915
-0.22499156 0.11091953 1.0257913 10197915
-0.17597678 0.11103774 1.0248219 10197915
-0.12501475 0.11115972 1.024115 10197915
-0.074955724 0.11127213 1.025117 10197915
-0.024815436 0.11139938 1.0226158 10197915
0.025020804 0.11151187 1.023481 10197915
0.075006396 0.11162423 1.0244539 10197915
0.12497152 0.11173622 1.0255206 10197915
0.17464158 0.11184897 1.0261803 10197915
0.22494654 0.11197669 1.0237368 10197915
0.27498931 0.11208835 1.0248699 10132122
0.32550079 0.11221552 1.0226901 10000536
0.3749586 0.11232863 1.0231562 10000536
0.41016787 0.11238659 1.0288583 7631988
-0.85754037 0.10918299 1.0877036 10197915
-0.82348281 0.10932031 1.0740242 10197915
-0.77493382 0.10943457 1.0737786 10197915
-0.72503346 0.1095459 1.0749352 10197915
-0.67503136 0.10965808 1.0759714 10197915
-0.6250003 0.10976999 1.0770433 10197915
-0.57549459 0.10988409 1.0773615 10197915
-0.52500021 0.11002906 1.0709283 10197915
-0.47490528 0.11014133 1.0719702 10197915
-0.42485598 0.11025311 1.0731095 10197915
-0.37499779 0.11036439 1.0742683 10197915
-0.3250412 0.11047705 1.0751605 10197915
-0.27498081 0.11058858 1.0763719 10197915
-0.22504176 0.11070032 1.0774478 10197915
-0.17490509 0.11082893 1.0746852 10197915
-0.12493633 0.1109592 1.0714031 10197915
-0.074931823 0.11107185 1.0723252 10197915
-0.024975646 0.11118328 1.073514 10197915
0.024934743 0.11129511 1.0745554 10197915
0.074944288 0.11140686 1.0756978 10197915
0.12497959 0.11151911 1.0767056 10197915
0.17536381 0.11163384 1.0773461 10197915
0.22405864 0.1117669 1.0727224 10197915
0.27499253 0.11188973 1.0717471 10132122
0.3249715 0.1120016 1.0728309 10000536
0.37497777 0.11211358 1.0739037 10000536
0.42003995 0.11220603 1.0768762 8816262
-0.90516353 0.10883166 1.1443827 10197915
-0.87156707 0.10898085 1.1276619 10197915
-0.82499915 0.1090992 1.1253414 10197915
-0.77612519 0.10921812 1.1241512 10197915
-0.72509354 0.10934191 1.1230048 10197915
-0.67506593 0.10945305 1.1242869 10197915
-0.62502903 0.10956506 1.1253659 10197915
-0.57433152 0.10968195 1.1256708 10197915
-0.52499491 0.10980766 1.1231201 10197915
-0.47507128 0.10991935 1.1242321 10197915
-0.42504409 0.11003141 1.1252919 10197915
-0.37588167 0.1101475 1.1249297 10197915
-0.32486174 0.1102742 1.1230899 10197915
-0.27498147 0.11038536 1.1242914 10197915
-0.22499986 0.11049727 1.1253616 10197915
-0.17395836 0.11061861 1.1247945 10197915
-0.12508222 0.11073951 1.1231445 10197915
-0.075060785 0.11085173 1.1241648 10197915
-0.025017714 0.11096306 1.1253974 10197915
0.024287282 0.11107711 1.1256189 10197915
0.075010315 0.1112055 1.1232007 10197915
0.12501515 0.11131799 1.1241608 10197915
0.17502715 0.11142917 1.1254241 10197915
0.22618486 0.11155441 1.123998 10197915
0.27499601 0.11167191 1.1231165 10132122
0.3249518 0.11178342 1.1242653 10000536
0.37493148 0.11189509 1.1254028 10000536
0.42485929 0.11200783 1.126254 9803157
0.45601895 0.11206117 1.1308017 5723991
-0.95079637 0.10850672 1.195942 10197915
-0.91916198 0.10864531 1.1806419 10197915
-0.87487745 0.10876293 1.1772419 10197915
-0.82499689 0.10887405 1.1784441 10197915
-0.77477479 0.10901302 1.173267 10197915
-0.72487718 0.10914002 1.1707431 10197915
-0.6749233 0.10925084 1.1720502 10197915
-0.62496465 0.10936221 1.173246 10197915
-0.57500017 0.10947326 1.174515 10197915
-0.52502972 0.10958529 1.1755575 10197915
-0.47486171 0.10969677 1.1768339 10197915
-0.42497689 0.10980814 1.1779848 10197915
-0.37458688 0.10993291 1.1762425 10197915
-0.32497743 0.11007319 1.1704265 10197915
-0.27502009 0.11018411 1.171724 10197915
-0.2249613 0.11029638 1.1727599 10197915
-0.17499381 0.11040764 1.1739795 10197915
-0.12512062 0.11051867 1.175203 10197915
-0.075049132 0.11063015 1.1764274 10197915
-0.024974423 0.11074214 1.1775365 10197915
0.025803272 0.11086041 1.1775432 10197915
0.073878802 0.11099631 1.1719165 10197915
0.12490303 0.11111784 1.1712922 10197915
0.17486276 0.11122949 1.1724273 10197915
0.2249229 0.11134095 1.1736442 10197915
0.27498639 0.11145314 1.174704 10066329
0.32495257 0.11156426 1.1759562 10000536
0.37492335 0.11167592 1.1770922 10000536
0.42517743 0.11178864 1.1781257 10000536
0.46573803 0.11188311 1.1781342 8355711
-0.9669885 0.10831582 1.2320623 10197915
-0.92499554 0.10845132 1.2231873 10197915
-0.87508774 0.10856149 1.2246298 10197915
-0.82519996 0.10867313 1.2257174 10197915
-0.77398711 0.10880396 1.2230128 10197915
-0.72503966 0.10891873 1.2228378 10197915
-0.67506933 0.10903024 1.2239985 10197915
-0.62499499 0.10914128 1.2253363 10197915
-0.5750196 0.10925227 1.2266263 10197915
-0.52646512 0.10937113 1.2252716 10197915
-0.47524577 0.10949742 1.2236342 10197915
-0.42523643 0.10960893 1.2248243 10197915
-0.37423077 0.10972705 1.224992 10197915
-0.32510331 0.10985453 1.221929 10197915
-0.27506211 0.10996535 1.223297 10197915
-0.22512098 0.11007702 1.224401 10197915
-0.1750786 0.11018839 1.2256428 10197915
-0.12493417 0.11029998 1.2268808 10197915
-0.076351032 0.11042069 1.2251091 10197915
-0.025097089 0.1105448 1.2240041 10197915
0.025004406 0.11065622 1.2252663 10197915
0.076363571 0.11078697 1.2226595 10197915
0.12508589 0.11090177 1.2223526 10197915
0.17498873 0.11101288 1.2235787 10197915
0.2249926 0.1111242 1.224804 10197915
0.27499467 0.11123533 1.2260735 10066329
0.32499391 0.11134699 1.2272136 10000536
0.37385219 0.11147133 1.2247533 10000536
0.42494178 0.11159168 1.2244461 10000536
0.47415763 0.11169966 1.2260394 9276813
0.50322008 0.11171154 1.2392077 2894892
-1.0114768 0.1079824 1.2862408 10197915
-0.97349977 0.10811268 1.2763845 10197915
-0.92500192 0.108234 1.2744288 10197915
-0.87637323 0.10835092 1.2735806 10197915
-0.82518691 0.10848085 1.2710607 10197915
-0.77516073 0.10859165 1.2724249 10197915
-0.72503442 0.1087032 1.273666 10197915
-0.67493385 0.10881401 1.2750623 10197915
-0.62486237 0.10892519 1.2763625 10197915
-0.57494956 0.10903652 1.2775385 10197915
-0.52358264 0.10916373 1.2757653 10197915
-0.47503471 0.1092831 1.2742946 10197915
-0.4257223 0.10939611 1.2747414 10197915
-0.37518761 0.10952947 1.2710692 10197915
-0.32522616 0.10964069 1.272297 10197915
-0.27516711 0.10975159 1.2736466 10197915
-0.22513464 0.10986257 1.2749671 10197915
-0.17500271 0.10997407 1.2762285 10197915
-0.12503292 0.11008491 1.2775474 10197915
-0.073746867 0.11021595 1.2748312 10197915
-0.025019536 0.11033171 1.2743098 10197915
0.024947101 0.11044312 1.2754914 10197915
0.074427575 0.11057471 1.2716491 10197915
0.12492505 0.11068992 1.2722355 10197915
0.17504334 0.11080087 1.273608 10197915
0.2249978 0.11091251 1.274729 10197915
0.27491766 0.11102239 1.2762504 10132122
0.32493797 0.11113428 1.2773427 10132122
0.37601209 0.11126642 1.2742571 10000536
0.42494026 0.11138124 1.2740793 10000536
0.47492856 0.11149149 1.2755449 10000536
0.50991255 0.11156002 1.2786044 7697781
-1.0584795 0.10763755 1.3417432 10197915
-1.0239532 0.10777527 1.3282336 10197915
-0.97497499 0.10788738 1.3287107 10197915
-0.92616165 0.10800136 1.3286532 10197915
-0.87304169 0.10815343 1.3219867 10197915
-0.82517284 0.10827387 1.3198884 10197915
-0.77524334 0.10838407 1.3213414 10197915
-0.72494417 0.10849567 1.3226663 10197915
-0.67494708 0.10860676 1.3239459 10197915
-0.62498242 0.10871697 1.3254005 10197915
-0.57491571 0.10882866 1.3265785 10197915
-0.52501988 0.10893848 1.3280983 10197915
-0.47488627 0.10904957 1.3294543 10197915
-0.42534488 0.10918161 1.3255486 10197915
-0.3749783 0.10932424 1.3195802 10197915
-0.32502145 0.10943616 1.3206434 10197915
-0.27495784 0.1095468 1.3220508 10197915
-0.22493029 0.10965727 1.3234911 10197915
-0.17507583 0.10976794 1.32479 10197915
-0.12511943 0.10987914 1.3260247 10197915
-0.075064808 0.10998935 1.3275356 10197915
-0.025044305 0.11010057 1.3288039 10197915
0.024809768 0.11021198 1.3299242 10197915
0.075519264 0.11037537 1.319254 10197915
0.12498557 0.11048644 1.3202568 10197915
0.17493394 0.11059689 1.321649 10197915
0.22498254 0.11070816 1.3229073 10197915
0.2749956 0.11081956 1.3241278 10197915
0.32496747 0.1109298 1.3255913 10197915
0.37504357 0.11104085 1.3269187 10197915
0.42507812 0.111152 1.3282074 10132122
0.47507444 0.11126319 1.3294652 10066329
0.52003682 0.11137706 1.3273218 8684676
-1.1056675 0.10729025 1.3977247 8684676
-1.071678 0.10746496 1.3751911 10132122
-1.0251251 0.10757843 1.3740159 10197915
-0.97508788 0.10768946 1.3753252 10197915
-0.92357469 0.10781319 1.3744584 10197915
-0.87501907 0.10793959 1.3713338 10197915
-0.82515621 0.10804935 1.3728528 10197915
-0.77519464 0.10816126 1.373908 10197915
-0.72512913 0.10827115 1.375506 10197915
-0.67510003 0.10838182 1.3769118 10197915
-0.62497044 0.10849231 1.3783971 10197915
-0.57482088 0.10863271 1.3728435 10197915
-0.52492207 0.10874351 1.3741333 10197915
-0.47530156 0.1088524 1.3757273 10197915
-0.42356217 0.10898808 1.3721632 10197915
-0.3747575 0.10910398 1.3716453 10197915
-0.32479408 0.10921488 1.3729572 10197915
-0.27501556 0.10932403 1.3745735 10197915
-0.22499423 0.1094358 1.3756952 10197915
-0.17487043 0.10954621 1.3772054 10197915
-0.12507226 0.1096567 1.3785074 10197915
-0.074899271 0.10979627 1.3731679 10197915
-0.024863308 0.10990699 1.3745503 10197915
0.025262268 0.11001959 1.3755385 10197915
0.074956626 0.11015572 1.3707486 10197915
0.12504865 0.11026792 1.3718224 10197915
0.17510153 0.11037789 1.3733898 10197915
0.22496811 0.11048873 1.3746502 10197915
0.27493331 0.11059888 1.3761405 10197915
0.32499981 0.11070986 1.3774803 10197915
0.37461263 0.11082118 1.3784863 10197915
0.42487395 0.11095955 1.3734807 10197915
0.47485384 0.11107022 1.3748503 10197915
0.52668804 0.11119923 1.3729167 9868950
0.55668688 0.11124112 1.3795222 5592405
-1.118299 -0.62134165 1.4365118 6513507
-1.090058 -0.62373728 1.4465668 6513507
-1.1188563 -0.57498187 1.4365478 6513507
-1.0907055 -0.57502705 1.4465811 6513507
-1.1190214 -0.52498859 1.4367418 6513507
-1.0910568 -0.52533972 1.4467088 6513507
-1.1190023 -0.4748331 1.4370028 6513507
-1.0913386 -0.47538975 1.4468619 6513507
-1.1188792 -0.42496756 1.4373003 6513507
-1.0915012 -0.42533258 1.4470572 6513507
-1.1190157 -0.37500107 1.4375048 6513507
-1.0918325 -0.37503928 1.4471935 6513507
-1.1191695 -0.32503521 1.4377031 6513507
-1.0924177 -0.32496831 1.4472394 6513507
-1.1193161 -0.27502617 1.4379052 6513507
-1.0926949 -0.27533594 1.4473921 6513507
-1.1194957 -0.22497424 1.4380946 6513507
-1.0932246 -0.22511597 1.4474583 6513507
-1.1195713 -0.17484359 1.4383221 6513507
-1.0935638 -0.17575932 1.4475875 6513507
-1.119363 -0.12502216 1.4386485 6513507
-1.0934968 -0.12476529 1.4478698 6513507
-1.1194597 -0.075094834 1.4388677 6513507
-1.0941062 -0.07502944 1.4479053 6513507
-1.1196028 -0.025039377 1.4390703 6513507
-1.0943847 -0.025611242 1.4480566 6513507
-1.1197585 0.025043972 1.4392692 6513507
-1.0948945 0.025198229 1.448132 6513507
-1.119953 0.075084619 1.439453 6513507
-1.0953099 0.074424841 1.4482352 6513507
-1.1191045 0.10428584 1.4367714 6513507
-1.080197 0.10620305 1.4293032 7500402
-1.0251409 0.10736636 1.4240178 9079434
-0.97496891 0.10747723 1.4254433 10066329
-0.92587334 0.10758948 1.4259564 10197915
-0.87516946 0.10772891 1.4209383 10197915
-0.8248052 0.10784006 1.4224041 10197915
-0.77472192 0.10795059 1.4238595 10197915
-0.72492439 0.10806 1.4254243 10197915
-0.67502832 0.10817106 1.4266469 10197915
-0.62522209 0.1082805 1.4282106 10197915
-0.57510573 0.10842144 1.4225116 10197915
-0.52496469 0.10853324 1.4237076 10197915
-0.47501522 0.10864314 1.4252375 10197915
-0.42496189 0.10875396 1.4266033 10197915
-0.37572536 0.1088878 1.422098 10197915
-0.32485157 0.10900579 1.4222327 10197915
-0.27504659 0.10911575 1.4236674 10197915
-0.22513777 0.10922595 1.4251053 10197915
-0.17513134 0.10933637 1.4265459 10197915
-0.12482914 0.1094484 1.4277729 10197915
-0.074970394 0.10958812 1.4222188 10197915
-0.025062041 0.10969853 1.423607 10197915
0.025095785 0.10980934 1.4250447 10197915
0.075056486 0.10992007 1.4263879 10197915
0.12317123 0.11004052 1.4244146 10197915
0.17498195 0.11017076 1.4221766 10197915
0.22508828 0.11028194 1.4234931 10197915
0.27510101 0.11039294 1.4248033 10197915
0.32501018 0.11050222 1.4264561 10197915
0.37557128 0.11061674 1.4272356 10197915
0.42520055 0.11075504 1.4218887 10197915
0.47516137 0.11086477 1.4234747 10197915
0.52507067 0.11097523 1.4248519 10197915
0.56708938 0.11105426 1.4293158 8289918
-1.0575817 -0.65112942 1.4580036 6513507
-1.0206407 -0.65413135 1.4711559 6513507
-0.9727937 -0.65790749 1.4881927 6513507
-0.94460928 -0.66016513 1.4982281 6513507
-1.0650866 -0.62466747 1.4554627 6513507
-1.0249828 -0.62513691 1.4697556 6513507
-0.97495532 -0.62497747 1.4875897 6513507
-0.9449541 -0.62562454 1.4982806 6513507
-1.0655193 -0.57500505 1.4555601 6513507
-1.0249577 -0.57500088 1.4700187 6513507
-0.97510809 -0.57501435 1.4877884 6513507
-0.94543785 -0.57502824 1.4983647 6513507
-1.065881 -0.52482563 1.455686 6513507
-1.0251048 -0.52499038 1.470221 6513507
-0.97521675 -0.52502465 1.4880031 6513507
-0.94582731 -0.52573699 1.4984757 6513507
-1.0663292 -0.47498804 1.4557787 6513507
-1.0252508 -0.47497943 1.4704207 6513507
-0.97538078 -0.47500947 1.4881982 6513507
-0.94617647 -0.47503057 1.4986082 6513507
-1.06677 -0.42486209 1.4558753 6513507
-1.0253931 -0.42497805 1.470624 6513507
-0.97551239 -0.42501715 1.4884039 6513507
-0.94676888 -0.42531887 1.4986491 6513507
-1.0671111 -0.37497398 1.4560065 6513507
-1.0252986 -0.3748858 1.4709111 6513507
-0.9752003 -0.37500742 1.4887693 6513507
-0.9468044 -0.37642711 1.4988844 6513507
-1.0677106 -0.3249867 1.4560468 6513507
-1.0251969 -0.32502815 1.4712029 6513507
-0.97480178 -0.32498229 1.4891654 6513507
-0.94706559 -0.32517168 1.4990516 6513507
-1.0675113 -0.27487406 1.4563723 6513507
-1.0248088 -0.27500406 1.4715918 6513507
-0.97488558 -0.27499795 1.4893882 6513507
-0.94739848 -0.27620697 1.4991804 6513507
-1.0680199 -0.22496879 1.4564439 6513507
-1.0249593 -0.2249945 1.4717926 6513507
-0.97502524 -0.22501297 1.4895926 6513507
-0.94785023 -0.22484986 1.4992802 6513507
-1.068444 -0.17483012 1.4565462 6513507
-1.0251267 -0.17499562 1.4719869 6513507
-0.97520041 -0.17500149 1.4897833 6513507
-0.94825709 -0.17689681 1.4993784 6513507
-1.0688183 -0.12507576 1.4566654 6513507
-1.0253676 -0.12500781 1.472154 6513507
-0.97541887 -0.12499991 1.4899589 6513507
-0.94861865 -0.1248667 1.4995127 6513507
-1.0692838 -0.074968427 1.4567541 6513507
-1.0253652 -0.075017884 1.4724098 6513507
-0.97524494 -0.074996747 1.4902745 6513507
-0.94918233 -0.075614832 1.4995619 6513507
-1.0697433 -0.024808234 1.4568443 6513507
-1.0253494 -0.024912328 1.4726682 6513507
-0.97554326 -0.025101567 1.4904217 6513507
-0.94942391 -0.026565261 1.4997241 6513507
-1.0700506 0.025068073 1.4569879 6513507
-1.0249573 0.024907077 1.473061 6513507
-0.97496694 0.025086863 1.4908813 6513507
-0.94997901 0.0074557397 1.4996992 6513507
-1.0700403 0.075105228 1.4572453 6513507
-1.0248448 0.075031966 1.4733552 6513507
-0.97487861 0.07486967 1.4911656 6513507
-1.0701391 0.10373875 1.4572974 6513507
-1.0247148 0.10412096 1.4721068 6513507
-0.97520399 0.10451879 1.4867517 6645093
-0.9238193 0.10736861 1.4791667 8421504
-0.87498182 0.10750268 1.4743855 9868950
-0.82660204 0.10762511 1.4721019 10197915
-0.77478945 0.10775692 1.4694846 10197915
-0.7249977 0.10786664 1.4709806 10197915
-0.67490137 0.107977 1.4724854 10197915
-0.62490654 0.1080871 1.4739876 10197915
-0.57500732 0.10819701 1.4754863 10197915
-0.52501053 0.10830665 1.4771143 10197915
-0.47491011 0.10841754 1.4784931 10197915
-0.42511094 0.10852724 1.4799861 10197915
-0.374356 0.10866861 1.4745448 10197915
-0.32496309 0.10878093 1.4752005 10197915
-0.27567282 0.1089178 1.4700085 10197915
-0.22476612 0.10903466 1.4704263 10197915
-0.17499317 0.10914543 1.471653 10197915
-0.12512065 0.10925429 1.4733883 10197915
-0.074941859 0.10936541 1.4747548 10197915
-0.024868319 0.1094758 1.47624 10197915
0.02490155 0.10958551 1.4777195 10197915
0.074974485 0.10969532 1.4793364 10197915
0.12677082 0.10983079 1.4758536 10197915
0.17485347 0.10994874 1.4744636 10197915
0.2239363 0.11006228 1.4746592 10197915
0.27500215 0.11020213 1.4697465 10197915
0.32505059 0.11031306 1.4710922 10197915
0.37499613 0.11042321 1.4725612 10197915
0.42483291 0.1105331 1.4740269 10197915
0.47477263 0.11064325 1.4754955 10197915
0.52480811 0.11075362 1.4769675 10197915
0.57454336 0.11086223 1.4786853 9474192
0.60443813 0.11087945 1.4910555 4079166
-0.92166078 -0.66349739 1.5131342 5066061
-0.92279416 -0.62501681 1.5104293 5460819
-0.92090029 -0.57443655 1.5071671 6316128
-0.87481737 -0.57134444 1.5235564 6250335
-0.82515162 -0.57144672 1.5412602 6447714
-0.92089128 -0.52483559 1.5073662 6513507
-0.87494719 -0.524993 1.5237447 6513507
-0.82565397 -0.52501512 1.5413159 6513507
-0.92119706 -0.47501802 1.5075108 6513507
-0.87507147 -0.47499081 1.5239543 6513507
-0.82600254 -0.47516286 1.541445 6513507
-0.92178768 -0.42495853 1.5075564 6513507
-0.87518299 -0.42498782 1.5241678 6513507
-0.82641041 -0.42501909 1.5415534 6513507
-0.92203391 -0.37492898 1.5077164 6513507
-0.87530673 -0.37501112 1.5243772 6513507
-0.82689321 -0.37513223 1.5416348 6513507
-0.92260826 -0.32497799 1.5077703 6513507
-0.87540299 -0.32500684 1.5245962 6513507
-0.82714915 -0.32503143 1.5417973 6513507
-0.9224574 -0.27479917 1.5080791 6513507
-0.87507224 -0.27504906 1.5249686 6513507
-0.82773519 -0.27511728 1.5418414 6513507
-0.92286068 -0.22499104 1.5081903 6513507
-0.87514943 -0.22502649 1.5251937 6513507
-0.82795703 -0.2250234 1.5420158 6513507
-0.92333931 -0.17487766 1.5082682 6513507
-0.87525964 -0.17498492 1.5254083 6513507
-0.82855546 -0.17501332 1.5420569 6513507
-0.92372131 -0.12501125 1.508389 6513507
-0.87497693 -0.12490129 1.5257626 6513507
-0.8283608 -0.12514223 1.5423784 6513507
-0.92417681 -0.07494507 1.5084814 6513507
-0.87481159 -0.075007409 1.5260751 6513507
-0.82886332 -0.074881494 1.5424542 6513507
-0.92443317 -0.024932656 1.5086343 6513507
-0.87520504 -0.025030212 1.5261899 6513507
-0.82911599 -0.025080878 1.5426176 6513507
-0.92499238 0.025001945 1.5086968 6513507
-0.87532771 0.025021682 1.526399 6513507
-0.8295508 0.024926595 1.5427157 6513507
-0.95019388 0.089488603 1.5000385 6513507
-0.92512023 0.075015001 1.5089041 6513507
-0.87514693 0.07500004 1.5267156 6513507
-0.83004099 0.07469397 1.5427939 6513507
-0.95022982 0.10316428 1.500095 6513507
-0.92524564 0.10376143 1.5089383 6513507
-0.87529337 0.10417353 1.5253112 6579300
-0.82749009 0.10483991 1.5355099 7237230
-0.77486008 0.10754992 1.5182693 10066329
-0.72528201 0.10766009 1.5195287 10197915
-0.67518258 0.10776966 1.5212252 10197915
-0.62498415 0.10787941 1.5229214 10197915
-0.57489121 0.10799014 1.5243375 10197915
-0.52490175 0.10810009 1.5258859 10197915
-0.47481352 0.10821018 1.527444 10197915
-0.42482913 0.10832008 1.5289917 10197915
-0.37516588 0.1084293 1.530533 10197915
-0.32518885 0.10853916 1.5320834 10197915
-0.2743316 0.10871771 1.5179268 10197915
-0.22520421 0.10882948 1.5185692 10197915
-0.17505573 0.10894097 1.5198325 10197915
-0.12480614 0.10905039 1.521651 10197915
-0.074872263 0.10916083 1.5230438 10197915
-0.025051001 0.10927042 1.5245728 10197915
0.025084727 0.10938074 1.5261126 10197915
0.075106844 0.10949077 1.5276475 10197915
0.1250217 0.10960063 1.5291792 10197915
0.17503379 0.10971002 1.5308551 10197915
0.22628549 0.10983115 1.5304556 10197915
0.2749117 0.1099994 1.517498 10197915
0.3250927 0.11011107 1.5187429 10197915
0.37496576 0.11022086 1.5202571 10197915
0.42514655 0.11033128 1.521781 10197915
0.47521862 0.11044095 1.5234404 10197915
0.5249635 0.11055166 1.5246693 10197915
0.57480711 0.11066024 1.5264653 10197915
0.61256933 0.11073114 1.5305066 7500402
-0.9365716 -0.7054441 1.589432 2039583
-0.93204516 -0.67465794 1.5766634 2039583
-0.93121374 -0.63282913 1.5742347 2039583
-0.80077124 -0.55610895 1.5500282 6513507
-0.77509522 -0.57129931 1.5591034 6710886
-0.72517186 -0.57130438 1.5768996 6842472
-0.6803776 -0.5712533 1.5928669 6842472
-0.8008408 -0.52468824 1.5501629 6513507
-0.77519971 -0.52500093 1.5593022 6513507
-0.72525787 -0.52501696 1.5771034 6513507
-0.68086553 -0.52512646 1.5929281 6513507
-0.80130339 -0.47037098 1.5502734 6513507
-0.77531129 -0.47500119 1.559515 6513507
-0.7253415 -0.4750253 1.5773265 6513507
-0.68112046 -0.47498539 1.5930905 6513507
-0.80140829 -0.42236581 1.5504797 6513507
-0.77526581 -0.42511559 1.5597845 6513507
-0.72493947 -0.42494863 1.5777245 6513507
-0.68119603 -0.42518771 1.5933164 6513507
-0.80157053 -0.3730152 1.5506716 6513507
-0.77497321 -0.37501043 1.5601424 6513507
-0.7249974 -0.37499362 1.577957 6513507
-0.6812889 -0.37500277 1.5935379 6513507
-0.80181509 -0.32461452 1.5508301 6513507
-0.77508897 -0.32499972 1.5603547 6513507
-0.72507709 -0.32499143 1.5781829 6513507
-0.68197912 -0.32500312 1.593545 6513507
-0.80239826 -0.27420035 1.5508776 6513507
-0.77518839 -0.27498892 1.5605738 6513507
-0.72519159 -0.27499101 1.5783947 6513507
-0.68215162 -0.2751123 1.5937368 6513507
-0.80262196 -0.22516748 1.5510461 6513507
-0.77530903 -0.22495039 1.5607835 6513507
-0.7252751 -0.22499035 1.5786186 6513507
-0.68270642 -0.22502451 1.5937934 6513507
-0.8032409 -0.17542738 1.5510784 6513507
-0.77519816 -0.17481978 1.5610765 6513507
-0.72522706 -0.17509969 1.5788887 6513507
-0.68295437 -0.17516351 1.5939577 6513507
-0.80349386 -0.12460516 1.5512457 6513507
-0.77492929 -0.12495924 1.5614264 6513507
-0.72487676 -0.12497842 1.579268 6513507
-0.68352973 -0.12510803 1.5940057 6513507
-0.80400497 -0.075194247 1.5513139 6513507
-0.7750386 -0.075089283 1.5616398 6513507
-0.72513461 -0.074864939 1.5794296 6513507
-0.6838448 -0.075409673 1.5941461 6513507
-0.80435812 -0.024248833 1.5514467 6513507
-0.77522588 -0.025109677 1.5618271 6513507
-0.72507977 -0.0248686 1.5797037 6513507
-0.68423826 -0.025097769 1.5942601 6513507
-0.80476987 0.025069328 1.5515497 6513507
-0.77534115 0.025100347 1.562041 6513507
-0.72517884 0.024873126 1.5799199 6513507
-0.68462968 0.024872132 1.5943736 6513507
-0.80498058 0.076552697 1.5517356 6513507
-0.7750966 0.074939504 1.5623803 6513507
-0.72542787 0.074867286 1.580085 6513507
-0.68505353 0.075209923 1.5944778 6513507
-0.80498505 0.10409231 1.5517775 6513507
-0.77427399 0.10418749 1.561497 6645093
-0.72444278 0.10459318 1.5763075 7105644
-0.68027538 0.10541117 1.5850148 7895160
-0.62506843 0.10765821 1.5750732 10197915
-0.57519567 0.1077683 1.5765176 10197915
-0.52521819 0.10787787 1.5781217 10197915
-0.47535855 0.10798723 1.579722 10197915
-0.42712486 0.10810038 1.5795461 10197915
-0.37526754 0.10824513 1.5739062 10197915
-0.32506031 0.10835485 1.5756246 10197915
-0.27461219 0.10850362 1.5682651 10197915
-0.2248081 0.10861298 1.5698452 10197915
-0.17490704 0.10872247 1.5714293 10197915
-0.12512064 0.10883119 1.5731629 10197915
-0.075231865 0.10894144 1.5745927 10197915
-0.025028585 0.10905164 1.5761855 10197915
0.025062248 0.10916162 1.5777751 10197915
0.075034164 0.10927064 1.5795156 10197915
0.12488492 0.10938141 1.5807843 10197915
0.17339112 0.10951763 1.5753328 10197915
0.22482976 0.1096381 1.5751821 10197915
0.27521926 0.1097847 1.5683249 10197915
0.32491961 0.1098951 1.5695784 10197915
0.37515178 0.11000545 1.5711548 10197915
0.42504281 0.11011507 1.5727165 10197915
0.4748174 0.11022382 1.5744343 10197915
0.52490884 0.11033521 1.575698 10197915
0.57509995 0.11044418 1.5775819 10197915
0.62257332 0.11054254 1.5804811 8750469
0.6513055 0.11053661 1.5976706 2894892
-0.95372695 -0.71627569 1.6375834 2039583
-0.94535381 -0.7111674 1.6140821 2039583
-0.95356929 -0.67499995 1.6370466 2039583
-0.94515729 -0.67510587 1.613448 2039583
-0.95310521 -0.64422524 1.6356744 2039583
-0.94494176 -0.63974118 1.6127626 2039583
-0.65502506 -0.57125461 1.6019042 6776679
-0.62531662 -0.57127047 1.6124945 6776679
-0.57545775 -0.57121301 1.6302657 6710886
-0.53508765 -0.5714246 1.6446568 6710886
-0.65553236 -0.5244754 1.6019605 6513507
-0.62516075 -0.52487516 1.6127855 6513507
-0.57531589 -0.52511483 1.6305519 6513507
-0.53557712 -0.52503759 1.6447172 6513507
-0.65580618 -0.47503942 1.6021137 6513507
-0.6248889 -0.47497842 1.6131343 6513507
-0.57499456 -0.47499609 1.6309197 6513507
-0.5358485 -0.47526434 1.6448734 6513507
-0.65633953 -0.42472109 1.6021794 6513507
-0.62494183 -0.42502281 1.6133695 6513507
-0.57511413 -0.42497274 1.6311312 6513507
-0.53636122 -0.42500952 1.6449454 6513507
-0.65652788 -0.37500769 1.6023636 6513507
-0.62502414 -0.37503794 1.6135936 6513507
-0.57515204 -0.37500185 1.6313699 6513507
-0.53665686 -0.37522703 1.6450921 6513507
-0.65724385 -0.32506308 1.6023612 6513507
-0.62512565 -0.32499257 1.6138111 6513507
-0.57520467 -0.32503271 1.631605 6513507
-0.53709495 -0.32495955 1.6451912 6513507
-0.65734613 -0.274735 1.6025804 6513507
-0.62519008 -0.27499607 1.614041 6513507
-0.57529306 -0.2750009 1.6318291 6513507
-0.53743172 -0.27531096 1.6453223 6513507
-0.65794593 -0.22497313 1.6026192 6513507
-0.62534487 -0.22500096 1.6142393 6513507
-0.57489514 -0.22490746 1.6322228 6513507
-0.53733498 -0.22518919 1.6456109 6513507
-0.65825832 -0.17472899 1.6027625 6513507
-0.62539428 -0.17505355 1.6144756 6513507
-0.57492274 -0.17494076 1.6324672 6513507
-0.53771341 -0.17533873 1.6457293 6513507
-0.65827441 -0.12454232 1.6030113 6513507
-0.6249705 -0.12520346 1.6148787 6513507
-0.5750103 -0.12500747 1.6326904 6513507
-0.53798616 -0.12478194 1.6458881 6513507
-0.6584782 -0.074668325 1.6031911 6513507
-0.62495416 -0.074894287 1.6151402 6513507
-0.57498348 -0.075092368 1.632952 6513507
-0.53845978 -0.075307332 1.64597 6513507
-0.65890265 -0.025239941 1.6032907 6513507
-0.6250912 -0.024857828 1.6153456 6513507
-0.57506335 -0.025033845 1.6331776 6513507
-0.53874564 -0.025232263 1.6461216 6513507
-0.65930921 0.025622863 1.6034038 6513507
-0.62516516 0.024846295 1.6155705 6513507
-0.57514185 0.025038445 1.6334032 6513507
-0.53927624 0.024964435 1.6461868 6513507
-0.65966392 0.07506898 1.603528 6513507
-0.62524021 0.074878894 1.6157969 6513507
-0.57525253 0.075092487 1.6336169 6513507
-0.53950638 0.075027928 1.6463594 6513507
-0.65971601 0.10364251 1.6036545 6513507
-0.62449163 0.10416996 1.6155162 6842472
-0.57509464 0.10459882 1.630754 7303023
-0.53321958 0.10537749 1.6371471 8158332
-0.47495204 0.10779111 1.6262095 10197915
-0.42305481 0.10791936 1.6244875 10197915
-0.37537462 0.10804985 1.619907 10197915
-0.32536843 0.10815942 1.6215495 10197915
-0.27526468 0.10826921 1.6231948 10197915
-0.22505493 0.10837919 1.6248443 10197915
-0.17497081 0.10848823 1.6266584 10197915
-0.12500872 0.10859841 1.6281308 10197915
-0.074941523 0.10870885 1.6296016 10197915
-0.025781609 0.1088509 1.6231109 10197915
0.024892496 0.10896672 1.6236485 10197915
0.0750781 0.10907725 1.6251615 10197915
0.12536752 0.10918692 1.6269296 10197915
0.17611168 0.10933542 1.6198004 10197915
0.22493707 0.10944467 1.6208607 10197915
0.27490139 0.10955567 1.6221455 10197915
0.32495901 0.109664 1.6241081 10197915
0.37489828 0.1097742 1.6255587 10197915
0.42493457 0.10988318 1.6273546 10197915
0.47506803 0.10999454 1.6286423 10197915
0.52373278 0.11010604 1.6290944 10197915
0.5751372 0.11025316 1.6226456 10197915
0.62482494 0.11036111 1.6245059 10197915
0.65738541 0.11042365 1.627651 5329233
-0.97294599 -0.75359446 1.6915854 4605510
-0.96700937 -0.72357231 1.6748611 2631720
-0.96631628 -0.67658353 1.6728109 2434341
-0.96025437 -0.6474601 1.655737 2039583
-0.50994128 -0.57098663 1.6536219 6710886
-0.4749068 -0.57116556 1.6661109 6645093
-0.42486709 -0.57116991 1.6839468 6645093
-0.38993165 -0.57142013 1.6963989 6579300
-0.51037693 -0.52499032 1.6537005 6513507
-0.47492942 -0.5250026 1.6663357 6513507
-0.4249303 -0.52501369 1.6841578 6513507
-0.39008209 -0.52499759 1.6965809 6513507
-0.51071358 -0.47466871 1.6538357 6513507
-0.47503725 -0.47500136 1.666551 6513507
-0.42496377 -0.47502193 1.6844008 6513507
-0.39064449 -0.47532305 1.6966317 6513507
-0.51115859 -0.42501441 1.6539279 6513507
-0.47505561 -0.42498639 1.6667979 6513507
-0.42502251 -0.42499784 1.6846327 6513507
-0.39081261 -0.42504525 1.6968269 6513507
-0.51149833 -0.37467459 1.6540627 6513507
-0.47516805 -0.37497458 1.6670117 6513507
-0.42509767 -0.37501386 1.6848599 6513507
-0.39145258 -0.37539062 1.6968507 6513507
-0.51194477 -0.32501176 1.6541555 6513507
-0.4752121 -0.32496658 1.6672482 6513507
-0.42515832 -0.32503426 1.6850909 6513507
-0.39155349 -0.32503241 1.6970702 6513507
-0.51227844 -0.27467224 1.6542917 6513507
-0.47526664 -0.27497867 1.6674829 6513507
-0.42517778 -0.27502266 1.6853377 6513507
-0.39221871 -0.27545917 1.6970841 6513507
-0.51274842 -0.22508486 1.6543757 6513507
-0.47539374 -0.22494313 1.6676918 6513507
-0.42529944 -0.22505097 1.6855484 6513507
-0.39236221 -0.22501269 1.6972883 6513507
-0.51302403 -0.17475213 1.6545324 6513507
-0.47535294 -0.17494515 1.6679605 6513507
-0.42530096 -0.17504816 1.6858011 6513507
-0.39292702 -0.1754453 1.6973389 6513507
-0.51350892 -0.12502296 1.6546121 6513507
-0.47546124 -0.12496755 1.6681751 6513507
-0.42533883 -0.12501228 1.6860412 6513507
-0.39312103 -0.12518044 1.6975247 6513507
-0.51382959 -0.074713677 1.6547532 6513507
-0.47564408 -0.074857794 1.6683633 6513507
-0.42557111 -0.075163029 1.6862108 6513507
-0.39370432 -0.075594872 1.6975685 6513507
-0.51426911 -0.024933646 1.6548483 6513507
-0.47556454 -0.02488623 1.6686449 6513507
-0.42545941 -0.025152566 1.6865041 6513507
-0.39387974 -0.025320444 1.6977614 6513507
-0.51427752 0.02523922 1.6551005 6513507
-0.47509277 0.024817962 1.6690652 6513507
-0.42551827 0.025157237 1.6867379 6513507
-0.39448541 0.024990385 1.6977997 6513507
-0.51423216 0.074976698 1.6553683 6513507
-0.47518954 0.074851915 1.6692853 6513507
-0.42575228 0.075159483 1.6869091 6513507
-0.3946391 0.075270846 1.6979998 6513507
-0.51447517 0.10417812 1.65514 6974058
-0.47447538 0.1044308 1.6676744 7368816
-0.42462313 0.1048139 1.6822478 7763574
-0.38152602 0.10649151 1.6841758 9079434
-0.324898 0.10795387 1.6702826 10197915
-0.27465746 0.10806374 1.671982 10197915
-0.22466207 0.10817248 1.6738116 10197915
-0.17491013 0.10828128 1.6754953 10197915
-0.12471742 0.10839165 1.6770556 10197915
-0.074763112 0.10850089 1.6787415 10197915
-0.024479311 0.10865084 1.6710103 10197915
0.025175272 0.10876184 1.6721225 10197915
0.075126506 0.10887113 1.6737983 10197915
0.12495027 0.10897933 1.6756612 10197915
0.17510355 0.10909063 1.6769761 10197915
0.22512768 0.10919929 1.6788422 10197915
0.27511218 0.10935121 1.6704817 10197915
0.32491899 0.10945961 1.6722866 10197915
0.37517774 0.1095696 1.673967 10197915
0.42518404 0.10967964 1.6754988 10197915
0.47494465 0.10978854 1.6771623 10197915
0.52689487 0.10991273 1.6764271 10197915
0.57493424 0.11004926 1.670626 10197915
0.62469596 0.1101582 1.6722807 10197915
0.6674726 0.11023847 1.6768715 8092539
-0.36514625 -0.57098132 1.7052355 6579300
-0.3248333 -0.57114464 1.719605 6513507
-0.27491266 -0.57110327 1.737398 6513507
-0.24477372 -0.57114697 1.7481437 6513507
-0.36526808 -0.52498639 1.7054267 6513507
-0.32490906 -0.52499837 1.7198129 6513507
-0.27501881 -0.52502429 1.7375971 6513507
-0.24541552 -0.52537942 1.7481464 6513507
-0.36585233 -0.4747979 1.7054724 6513507
-0.32494843 -0.47498313 1.7200519 6513507
-0.27500209 -0.47501886 1.7378514 6513507
-0.2455152 -0.47494692 1.7483662 6513507
-0.36599052 -0.42501053 1.705675 6513507
-0.3249729 -0.42497244 1.720297 6513507
-0.27507958 -0.42499971 1.7380805 6513507
-0.24614881 -0.42561713 1.7483913 6513507
-0.36663583 -0.37479186 1.7056992 6513507
-0.32504392 -0.37498516 1.7205248 6513507
-0.27510199 -0.375007 1.7383263 6513507
-0.24627519 -0.37500536 1.7486024 6513507
-0.36678907 -0.3250117 1.7058979 6513507
-0.32510468 -0.3249661 1.7207565 6513507
-0.27514014 -0.32499945 1.7385648 6513507
-0.24685872 -0.32593521 1.7486436 6513507
-0.36737949 -0.27484655 1.7059418 6513507
-0.32511789 -0.27498877 1.7210068 6513507
-0.27521497 -0.27499959 1.738794 6513507
-0.24703617 -0.27502316 1.7488381 6513507
-0.36749753 -0.2249348 1.706153 6513507
-0.32517689 -0.22509195 1.7212377 6513507
-0.27520332 -0.22492503 1.7390487 6513507
-0.24758784 -0.22622423 1.7488892 6513507
-0.36823726 -0.17477928 1.7061429 6513507
-0.32521662 -0.17508683 1.721477 6513507
-0.27531144 -0.17493659 1.7392684 6513507
-0.24779867 -0.17498991 1.7490736 6513507
-0.3682529 -0.12507334 1.706389 6513507
-0.32532215 -0.12495675 1.7216935 6513507
-0.27515 -0.12497427 1.7395786 6513507
-0.24831168 -0.12660976 1.7491363 6513507
-0.36892191 -0.074759051 1.7064068 6513507
-0.32525897 -0.07490547 1.7219704 6513507
-0.2754494 -0.075201176 1.7397254 6513507
-0.24856395 -0.074882187 1.7493082 6513507
-0.36904475 -0.0247455 1.7066157 6513507
-0.3253037 -0.024971562 1.7222071 6513507
-0.27516904 -0.025107255 1.7400759 6513507
-0.2488918 -0.02967548 1.7494211 6513507
-0.3692776 0.025058428 1.7067858 6513507
-0.32497215 0.02481553 1.7225763 6513507
-0.27470106 0.025218939 1.7404991 6513507
-0.24864572 0.024647657 1.749784 6513507
-0.3692193 0.074849837 1.7070596 6513507
-0.324727 0.074947916 1.7229186 6513507
-0.27484539 0.075178482 1.7407001 6513507
-0.24866961 0.059448797 1.7499521 6513507
-0.36822718 0.10394321 1.7072289 7039851
-0.32480684 0.10467739 1.7196959 7763574
-0.27424595 0.10499604 1.7340757 8092539
-0.22519211 0.10795075 1.7258136 10197915
-0.17508696 0.10806093 1.7273604 10197915
-0.12529747 0.10821445 1.7185286 10197915
-0.075180359 0.10832449 1.7201173 10197915
-0.024965072 0.10843348 1.7220073 10197915
0.024998555 0.10854254 1.7237397 10197915
0.074701019 0.10865172 1.7253089 10197915
0.1245062 0.10875981 1.72719 10197915
0.17477117 0.10886954 1.7289325 10197915
0.22477067 0.10897937 1.7305118 10197915
0.27485964 0.10913345 1.7216983 10197915
0.32511419 0.10924323 1.7234247 10197915
0.37499487 0.10935219 1.7251434 10197915
0.42472965 0.10946083 1.7268567 10197915
0.4722015 0.10958358 1.7239975 10197915
0.5247547 0.10972419 1.7197113 10197915
0.57484543 0.10983299 1.7215787 10197915
0.62503797 0.10994332 1.7231456 10197915
0.67532742 0.11005255 1.7250202 9342606
0.70504236 0.11007292 1.7365475 2894892
-0.21984084 -0.57107764 1.7570318 6513507
-0.1755681 -0.57109457 1.7728131 6513507
-0.12540133 -0.57102591 1.7906946 6513507
-0.099178895 -0.58537918 1.7999698 6513507
-0.22043894 -0.5248912 1.7570518 6513507
-0.17554553 -0.52503687 1.773054 6513507
-0.12538467 -0.5249688 1.7909346 6513507
-0.22060093 -0.47498783 1.7572479 6513507
-0.17557564 -0.47502705 1.7732975 6513507
-0.12575638 -0.47515795 1.791055 6513507
-0.22119012 -0.42491549 1.7572916 6513507
-0.17561057 -0.42498216 1.7735384 6513507
-0.12613522 -0.42498145 1.7911743 6513507
-0.22134101 -0.37504715 1.7574908 6513507
-0.17562656 -0.37496608 1.7737862 6513507
-0.12645876 -0.37517989 1.7913115 6513507
-0.22187373 -0.32485083 1.757555 6513507
-0.17562935 -0.32497707 1.774039 6513507
-0.12688532 -0.32501939 1.7914134 6513507
-0.22213751 -0.27495611 1.7577138 6513507
-0.17568377 -0.27499565 1.7742729 6513507
-0.12718236 -0.27519545 1.791561 6513507
-0.22262855 -0.22482006 1.757792 6513507
-0.17507887 -0.22495605 1.7747418 6513507
-0.12699303 -0.22507133 1.7918824 6513507
-0.22297342 -0.17504258 1.7579228 6513507
-0.17513338 -0.17499682 1.7749761 6513507
-0.12720075 -0.17509693 1.7920609 6513507
-0.22321989 -0.124916 1.7580887 6513507
-0.17501841 -0.12501004 1.7752711 6513507
-0.12755714 -0.12490524 1.7921886 6513507
-0.22371499 -0.07482823 1.7581668 6513507
-0.17502211 -0.075028256 1.7755213 6513507
-0.1278702 -0.075240783 1.7923295 6513507
-0.22406873 -0.024599109 1.7582943 6513507
-0.17504635 -0.025012501 1.775768 6513507
-0.12843336 -0.025246544 1.7923818 6513507
-0.22433965 0.024769695 1.7584488 6513507
-0.17507058 0.025017131 1.7760125 6513507
-0.12847193 0.025226127 1.792624 6513507
-0.22494334 0.074988037 1.7584873 6513507
-0.17509472 0.075060531 1.776257 6513507
-0.12928456 0.075143434 1.7925869 6513507
-0.22409315 0.10394572 1.7589378 7434609
-0.1751477 0.10443309 1.7755226 7829367
-0.12695915 0.10532507 1.7841046 8553090
-0.074996352 0.1080936 1.7746572 10197915
-0.026796864 0.10820604 1.7746273 10197915
0.024898157 0.10835752 1.7673131 10197915
0.075124338 0.10846766 1.7689369 10197915
0.12545499 0.10857669 1.7708875 10197915
0.17514887 0.10868571 1.7724866 10197915
0.22494243 0.10879351 1.7744243 10197915
0.27483678 0.10890298 1.7760303 10197915
0.32482809 0.10901123 1.7779741 10197915
0.374924 0.10912111 1.7795871 10197915
0.42511433 0.10922979 1.7815398 10197915
0.47762412 0.10937578 1.7759726 10197915
0.52494371 0.10949539 1.7737726 10197915
0.57524496 0.10960411 1.7757714 10197915
0.62290817 0.10972728 1.7729191 10197915
0.6753391 0.10986998 1.7680864 10197915
0.71221125 0.10994104 1.7715896 6776679
-0.074700013 -0.57088631 1.8087689 6513507
-0.024983404 -0.57102948 1.8264911 6513507
0.020592684 -0.57098615 1.8427365 6513507
-0.074950516 -0.52498525 1.8089129 6513507
-0.024967076 -0.5250293 1.8267295 6513507
0.019901283 -0.52504599 1.8427219 6513507
-0.10067536 -0.46236077 1.8000603 6513507
-0.074964292 -0.47499382 1.8091614 6513507
-0.024977369 -0.47500896 1.8269804 6513507
0.019830117 -0.47502413 1.842952 6513507
-0.10068571 -0.42511687 1.8002454 6513507
-0.074973442 -0.42505521 1.8094113 6513507
-0.024993209 -0.42495218 1.8272278 6513507
0.01931363 -0.42518726 1.8430189 6513507
-0.10111403 -0.3709574 1.8003675 6513507
-0.074956603 -0.3750369 1.8096704 6513507
-0.024963699 -0.37494966 1.8274912 6513507
0.019082155 -0.37499475 1.8431927 6513507
-0.10144474 -0.3252196 1.8004812 6513507
-0.07494656 -0.32498321 1.8099279 6513507
-0.024965731 -0.32497981 1.827744 6513507
0.018617928 -0.3252708 1.8432789 6513507
-0.10174794 -0.27301034 1.8006383 6513507
-0.075055547 -0.2749593 1.8101432 6513507
-0.025003806 -0.27499571 1.8279833 6513507
0.018343164 -0.27499902 1.8434364 6513507
-0.10220387 -0.22529618 1.8007174 6513507
-0.074968159 -0.22498772 1.8104274 6513507
-0.025034858 -0.22502144 1.8282263 6513507
0.017873432 -0.22528744 1.8435216 6513507
-0.10237008 -0.17395361 1.8009187 6513507
-0.075122483 -0.17502382 1.810626 6513507
-0.025100544 -0.17501096 1.8284574 6513507
0.017609784 -0.17494532 1.8436819 6513507
-0.10297941 -0.12516372 1.800949 6513507
-0.074847125 -0.12504628 1.8109773 6513507
-0.02496154 -0.12500896 1.8287601 6513507
0.017469522 -0.12508409 1.843886 6513507
-0.10303625 -0.074506231 1.8011856 6513507
-0.075148046 -0.074815392 1.8111247 6513507
-0.02496496 -0.075015485 1.8290118 6513507
0.016698495 -0.075178318 1.8438618 6513507
-0.10374869 -0.02507722 1.801182 6513507
-0.075003333 -0.024764424 1.8114309 6513507
-0.024968391 -0.025008222 1.8292645 6513507
0.016714687 -0.025360152 1.8441219 6513507
-0.10378918 0.025081581 1.8014224 6513507
-0.0750136 0.024768943 1.8116778 6513507
-0.02497182 0.025012828 1.829517 6513507
0.016060753 0.025212793 1.8441447 6513507
-0.10444939 0.074999489 1.8014405 6513507
-0.075194784 0.074803397 1.8118668 6513507
