# .PCD v0.7 - Point Cloud Data file format
VERSION 0.7
FIELDS x y z rgb
SIZE 4 4 4 4
TYPE F F F U
COUNT 1 1 1 1
WIDTH 1157
HEIGHT 1
VIEWPOINT 0 0 0 1 0 0 0
POINTS 1157
DATA ascii
-0.27498522 0.11446139 0.82475102 10132122
-0.22528762 0.11430597 0.82283348 10132122
-0.19438583 0.10894339 0.81159639 10132122
-0.11318969 0.1146032 0.82442528 10197915
-0.07499098 0.11463809 0.82354903 10197915
-0.024982905 0.11468124 0.82385796 10197915
0.024995416 0.11472428 0.82416719 10197915
0.074976198 0.1147674 0.82444566 10197915
0.12499436 0.1148104 0.8248266 10197915
0.17501649 0.11485361 0.82506222 10197915
0.22500721 0.11489663 0.82541168 10197915
0.2751013 0.11493999 0.82561833 10197915
0.32507968 0.11498718 0.82360905 10197915
0.37509936 0.11503033 0.82391107 10197915
0.42503127 0.11507341 0.82422417 10197915
0.47500059 0.11511643 0.82451516 10197915
0.52497619 0.11515951 0.82484716 10197915
0.57444471 0.11520485 0.82361948 10197915
0.62385732 0.11524726 0.82401222 10197915
0.6580928 0.11525296 0.8375141 10197915
-0.36009943 -0.40060598 0.89700794 4329231
-0.3533788 -0.37344965 0.88756782 4329231
-0.34337693 -0.37420392 0.89045614 4329231
-0.35336518 -0.32501352 0.88756615 4329231
-0.34013382 -0.32078764 0.89204514 5052954
-0.3534064 -0.27498847 0.88765424 3022626
-0.33657533 -0.27500942 0.89375949 5717567
-0.35342845 -0.2249139 0.88771904 2571346
-0.33661553 -0.22500357 0.89385355 5002074
-0.35346049 -0.17491199 0.88779676 2374225
-0.33683884 -0.175136 0.89386261 3160127
-0.35348919 -0.12494203 0.887878 1979983
-0.33699775 -0.12500456 0.89390361 1778733
-0.35353065 -0.074963614 0.88796967 1519691
-0.33702859 -0.075008824 0.89400244 1713200
-0.35355115 -0.024976224 0.88803345 1257034
-0.33728138 -0.025147252 0.89399862 1648177
-0.3534041 0.025640894 0.88812435 1191497
-0.33729994 0.024842549 0.89410275 3424074
-0.35326463 0.074994355 0.88822633 1519177
-0.33713543 0.074987791 0.89428848 7633537
-0.70493644 0.11396484 0.89236587 10197915
-0.67190284 0.11402237 0.87634689 5597569
-0.62501538 0.11406753 0.87403935 1059399
-0.57497829 0.11411045 0.87441492 3490648
-0.52494371 0.11415355 0.87476176 10000536
-0.47499174 0.11419663 0.87502038 10132122
-0.4250021 0.11423963 0.87541157 10197915
-0.37034708 0.11253072 0.87808353 10132122
-0.33142245 0.11021215 0.88589382 10066329
-0.27504829 0.11436878 0.87636483 10000536
-0.23054302 0.11441361 0.87303573 10066329
-0.1175475 0.11450908 0.87481582 10197915
-0.07500039 0.11455071 0.87226689 10197915
-0.024982199 0.11459391 0.87255818 10197915
0.024994707 0.11463697 0.87288594 10197915
0.075007789 0.11467995 0.8732236 10197915
0.12497843 0.11472287 0.87357503 10197915
0.17494628 0.11476607 0.8738603 10197915
0.22499228 0.11480913 0.87419748 10197915
0.27503479 0.11485217 0.87455994 10197915
0.32511511 0.11489539 0.87486249 10197915
0.37507224 0.11493834 0.87520611 10197915
0.42498544 0.11498135 0.87549055 10197915
0.47501639 0.11502447 0.87587011 10197915
0.52500463 0.11506739 0.87617201 10197915
0.57560956 0.11511434 0.87466794 10197915
0.62500787 0.11515849 0.87411547 10197915
0.67193305 0.11519358 0.87735677 10197915
0.70589978 0.11519202 0.89479607 10197915
-0.37584496 -0.40843374 0.93175834 4329231
-0.37352452 -0.37496209 0.92663252 4329231
-0.37353575 -0.32490379 0.92665106 4263695
-0.31157485 -0.30785531 0.90501368 6566193
-0.27523017 -0.30785316 0.92148203 4796978
-0.23930603 -0.30784801 0.93776035 2039583
-0.37130383 -0.28181392 0.92183697 2564645
-0.31448868 -0.28500548 0.91365665 6442574
-0.27636451 -0.29044324 0.92603505 4736839
-0.23967129 -0.29154351 0.93881661 2039583
-0.36663914 -0.22504346 0.91141701 3622744
-0.32066894 -0.22510315 0.90107834 6052956
-0.36661479 -0.17519009 0.91135693 3162710
-0.3209103 -0.17430156 0.90108329 3750201
-0.36659035 -0.12496568 0.91129601 2440019
-0.32105884 -0.12506363 0.90112585 2039583
-0.36656594 -0.074748002 0.91123486 1717069
-0.3210932 -0.075046018 0.90122247 2039583
-0.36654159 -0.024914533 0.91117454 1322827
-0.321329 -0.024316125 0.90122944 2039583
-0.36651725 0.024912329 0.91111422 1125705
-0.32148314 0.025017247 0.9012695 4868682
-0.36649299 0.074732587 0.91105372 1191240
-0.32151753 0.07505887 0.901366 10000536
-0.75066507 0.11383196 0.94421053 10197915
-0.71866816 0.11389045 0.92718565 7372687
-0.67506117 0.11393623 0.92286074 1323088
-0.62497234 0.11397936 0.92319351 1321285
-0.57494068 0.11402238 0.92355829 8816780
-0.52496707 0.11406535 0.92392373 10000536
-0.47500318 0.11410838 0.92424875 10000536
-0.42500174 0.11415128 0.92466754 10066329
-0.38434553 0.11373691 0.9212296 10132122
-0.31673267 0.11155288 0.91788512 10132122
-0.27500963 0.1142805 0.92562461 10066329
-0.23717137 0.11431629 0.92410016 10000536
-0.12051898 0.11441402 0.92637211 10132122
-0.075027622 0.11445793 0.92400855 10197915
-0.025018079 0.11450099 0.92434746 10197915
0.025030637 0.11454406 0.92469454 10197915
0.074538544 0.11459083 0.9227224 10197915
0.12500203 0.11463553 0.92234445 10197915
0.17502975 0.11467863 0.92267948 10197915
0.22499913 0.11472156 0.92304623 10197915
0.27495819 0.11476453 0.92341179 10197915
0.32509837 0.11480775 0.92371255 10197915
0.37508523 0.11485071 0.92409098 10197915
0.42496434 0.11489362 0.92443252 10197915
0.47497746 0.11493669 0.92475927 10197915
0.52497959 0.11497969 0.92513055 10197915
0.57497144 0.11502275 0.9254458 10197915
0.62500083 0.11506579 0.92579973 10197915
0.67501831 0.1151088 0.92616785 10197915
0.71968782 0.11514023 0.93039554 10197915
0.7521174 0.11513606 0.94850874 10197915
-0.40338019 -0.42188412 0.99252892 4329231
-0.39217174 -0.41656613 0.9677918 4329231
-0.40335485 -0.37498456 0.99246657 4329231
-0.39169919 -0.37507576 0.96674311 4329231
-0.40332955 -0.3252129 0.99240422 3478548
-0.39167428 -0.32499155 0.9666816 3871250
-0.1258156 -0.30784631 0.98918462 6447714
-0.40296376 -0.28934807 0.99358886 2831935
-0.38926131 -0.28880727 0.971416 2368806
-0.32212725 -0.28585523 0.97603446 6447714
-0.27500114 -0.28581029 0.97445583 3421236
-0.2428135 -0.28577444 0.97058898 2039583
-0.1506698 -0.28573513 0.99398041 6447714
-0.12722266 -0.29168263 0.98973566 6447714
-0.7653957 0.11375207 0.98161614 8424086
-0.72497451 0.11380091 0.97405577 2178397
-0.67493695 0.11384376 0.97451174 993349
-0.62501305 0.11388692 0.97475523 6120817
-0.57500064 0.1139298 0.97518647 10000536
-0.52583075 0.1139748 0.97401667 10000536
-0.47502235 0.11402191 0.97249281 10000536
-0.42499208 0.11406484 0.97289085 10000536
-0.39352819 0.11410708 0.96465087 10000536
-0.32201564 0.1141508 0.97508645 10132122
-0.27502042 0.11419377 0.97399086 10197915
-0.24286093 0.11422744 0.97087377 10132122
-0.15095057 0.11427155 0.99102074 10132122
-0.12438077 0.11432269 0.97542554 10132122
-0.074991427 0.11436576 0.97545475 10197915
-0.025006045 0.11440871 0.9758383 10197915
0.025018569 0.11445172 0.97620523 10197915
0.075569056 0.11450008 0.97382885 10197915
0.12498144 0.11454378 0.97351241 10197915
0.17500852 0.11458676 0.97391427 10197915
0.22502296 0.11462986 0.97422165 10197915
0.27497402 0.11467263 0.97465581 10197915
0.32511327 0.11471584 0.97499055 10197915
0.37514013 0.11475881 0.97536629 10197915
0.42418736 0.1148039 0.97411168 10197915
0.47500551 0.11485084 0.97266978 10197915
0.52499962 0.11489366 0.9731276 10197915
0.57497305 0.11493678 0.9733972 10197915
0.62498409 0.11497969 0.9738251 10197915
0.67497385 0.11502267 0.9741717 10197915
0.72494465 0.11506567 0.974536 10197915
0.76498216 0.11508987 0.98053151 10197915
-0.42445949 -0.45746267 1.0390545 4329231
-0.41993448 -0.42504442 1.0290641 4329231
-0.41990823 -0.37513927 1.0289989 4329231
-0.41988143 -0.32495812 1.0289335 2955546
-0.10112388 -0.30793068 1.0003728 6447714
-0.075465783 -0.30784422 1.012001 6447714
-0.02529484 -0.30785573 1.0347325 5465723
0.0043426882 -0.30783302 1.0481615 3697050
-0.4172146 -0.28828311 1.0270734 4017239
-0.35681844 -0.28598574 1.0302927 6447714
-0.32497793 -0.28594574 1.0240037 6316128
-0.27538368 -0.2859008 1.0236079 3750201
-0.24755292 -0.28585023 1.0095738 2039583
-0.15342683 -0.28580096 1.0285256 6447714
-0.1240808 -0.2860173 1.0227654 6447714
-0.076336838 -0.28991988 1.0197914 6447714
-0.026619844 -0.29118368 1.0363719 5465464
0.0042854557 -0.29244882 1.0482543 3631258
-0.81073838 0.11362094 1.0326762 9869466
-0.77503401 0.1136681 1.0237797 3559792
-0.72511834 0.113711 1.0241449 1125191
-0.67509341 0.11375381 1.0246072 2898771
-0.62496161 0.11379711 1.0248677 9934743
-0.57493293 0.11383995 1.0253391 10000536
-0.52393401 0.11388736 1.023713 10000536
-0.47490948 0.11393254 1.0223917 9803415
-0.43040922 0.11397526 1.020236 7436933
-0.35693496 0.11402119 1.0303779 9934743
-0.32509977 0.11406139 1.0234569 10000536
-0.27551103 0.11410454 1.0235337 10132122
-0.24755049 0.11415432 1.00937 10197915
-0.15394333 0.11419941 1.0298117 10197915
-0.12503007 0.11423326 1.0249987 10197915
-0.075009257 0.11427616 1.0254179 10197915
-0.025012035 0.1143191 1.0258232 10197915
0.025024569 0.11436207 1.026209 10197915
0.07503622 0.11440504 1.0265931 10197915
0.12411353 0.11445057 1.0250794 10197915
0.17499928 0.11449771 1.0235678 10197915
0.22498195 0.11454058 1.0239742 10197915
0.27507281 0.11458353 1.024412 10197915
0.32520139 0.11462672 1.024744 10197915
0.37515581 0.11466959 1.0251466 10197915
0.42598447 0.11471695 1.0234921 10197915
0.47502095 0.1147622 1.0221233 10197915
0.52500606 0.11480495 1.0226144 10197915
0.57496762 0.11484806 1.0228873 10197915
0.6249671 0.1148909 1.0233439 10197915
0.67494196 0.11493392 1.0237067 10197915
0.72495604 0.11497691 1.0240537 10197915
0.77482986 0.1150193 1.0246882 10197915
0.81195402 0.11503206 1.0356495 10197915
-0.4430564 -0.46666947 1.080098 4329231
0.49384603 -0.4683857 1.0879165 6447714
0.52590424 -0.46836379 1.087841 6447714
0.55149758 -0.47089005 1.0992512 6447714
-0.44245052 -0.42497787 1.0787548 4329231
0.4941375 -0.42499679 1.0872402 6447714
0.52488232 -0.42501315 1.0875005 6447714
0.55153805 -0.42565894 1.0993886 6447714
-0.44233677 -0.37490207 1.0784973 4329231
0.4941228 -0.37497357 1.0872343 6447714
0.52495831 -0.37500912 1.0876662 6447714
0.5510745 -0.37482113 1.0993159 6513507
-0.44239298 -0.3248353 1.0786148 2434861
0.028981917 -0.30786243 1.0593268 2047066
0.052338008 -0.30775791 1.0699091 4739417
0.49390176 -0.32510719 1.0875947 6513507
0.52453846 -0.32493457 1.0876107 6513507
0.55115998 -0.32477373 1.0994862 6513507
-0.45090407 -0.28619441 1.0982674 3294038
-0.43794683 -0.28742951 1.075875 4083034
-0.36500719 -0.28607789 1.0764904 6447714
-0.32500586 -0.28603715 1.0737612 6447714
-0.28014654 -0.28599441 1.0722989 4802889
-0.15700823 -0.28589019 1.0754501 6381921
-0.1251491 -0.2858578 1.0732806 6447714
-0.074984372 -0.28581542 1.0745785 6447714
-0.024991842 -0.28577042 1.0744392 5268860
0.025491513 -0.27482519 1.0641563 2113634
0.052296728 -0.27497831 1.0699644 4804953
0.49384925 -0.27499542 1.0876538 6513507
0.52454871 -0.27501264 1.0877475 6513507
0.55123955 -0.27493578 1.0996532 6513507
0.025607998 -0.2250293 1.0657021 1718877
0.052323803 -0.22505881 1.0700874 4870489
0.49385113 -0.22499451 1.0876126 6513507
0.52462631 -0.22501616 1.0879142 6513507
0.55074316 -0.22503425 1.0995638 6513507
0.025596809 -0.17501193 1.0657672 1719391
0.052307986 -0.17498367 1.0701928 4870489
0.49383572 -0.17499487 1.0876106 6513507
0.52471632 -0.17501453 1.0880854 6513507
0.55082768 -0.17540771 1.0997324 6513507
0.025617134 -0.12497968 1.0658394 1654110
0.052324254 -0.12504332 1.0703118 5067866
0.49382836 -0.12501578 1.0875891 6513507
0.5247882 -0.12501794 1.0882506 6513507
0.55091304 -0.12531041 1.099903 6513507
0.025599223 -0.075013906 1.0659153 1653854
0.052329861 -0.074945115 1.0704262 5067866
0.49381778 -0.075019494 1.0875776 6513507
0.52489191 -0.075015828 1.088429 6513507
0.55095881 -0.098434329 1.0999943 6513507
0.025630269 -0.025033992 1.0659852 1456218
0.05233546 -0.024836279 1.0705417 5198938
0.49381781 -0.025006689 1.0875416 6513507
0.52492481 -0.025009317 1.0885756 6513507
0.02562586 0.025028059 1.066058 1324376
0.052341029 0.024839785 1.0706555 5791075
0.49380973 0.025006134 1.0875237 6513507
0.52474815 0.024862016 1.0886284 6513507
0.55001891 0.038733859 1.0999373 6513507
0.025609404 0.075013146 1.0661366 1783385
0.052346647 0.074970037 1.0707699 8356487
0.49379385 0.075015649 1.0875236 9539985
0.52455741 0.075006716 1.0886757 9408399
0.55004448 0.053774036 1.0999885 6513507
-0.8592428 0.11347257 1.0918236 10197915
-0.82384479 0.11353732 1.0729355 5598084
-0.77489549 0.11358371 1.0709139 1125706
-0.72488505 0.11362645 1.0714158 1124421
-0.67491102 0.11366948 1.0717351 8290951
-0.62497169 0.11371229 1.0721891 10000536
-0.57499546 0.11375523 1.0725665 10000536
-0.52498108 0.1137981 1.0729983 10000536
-0.47500333 0.11384099 1.0734128 6452618
-0.44034517 0.11387906 1.0690391 1256264
-0.36515382 0.113931 1.0766838 9934743
-0.32513776 0.11396963 1.0746161 10000536
-0.28034222 0.11401034 1.0737176 10132122
-0.1575799 0.11411002 1.0779032 10197915
-0.12498916 0.11414148 1.0762084 10197915
-0.075006507 0.11418426 1.0766745 10197915
-0.024986131 0.11422738 1.0770175 10197915
0.025000717 0.10787781 1.0659765 10197915
0.071077287 0.11267131 1.0756674 10197915
0.12602301 0.11436115 1.075904 10197915
0.17501341 0.11440651 1.0744368 10197915
0.22478436 0.11445606 1.0710585 10197915
0.27493367 0.11449944 1.0712508 10197915
0.32513019 0.11454261 1.0716442 10197915
0.37521797 0.11458555 1.0720558 10197915
0.42504475 0.11462834 1.0724446 10197915
0.48482195 0.11064 1.0804647 10197915
0.52533638 0.10942698 1.0833012 10197915
0.57497317 0.11475712 1.073599 10197915
0.62494922 0.11480007 1.074013 10197915
0.67488831 0.11484282 1.0744629 10197915
0.72494078 0.11488587 1.0748285 10197915
0.77502912 0.11492877 1.0752918 10197915
0.82396472 0.11496931 1.076508 10197915
0.85843539 0.11497559 1.0897895 10197915
-0.46720812 -0.50336397 1.1334044 4329231
0.47678104 -0.50197995 1.1261485 6447714
-0.46218917 -0.47414255 1.1223239 4329231
0.48156449 -0.47394094 1.1153954 6447714
0.55384558 -0.47133806 1.1002972 6447714
-0.46201327 -0.42505845 1.1219288 4329231
0.48175946 -0.42500719 1.1149069 6447714
0.553693 -0.43334973 1.1003294 6447714
-0.46193582 -0.37506735 1.121751 3805714
0.48160347 -0.37480801 1.1152036 6447714
0.55283511 -0.3750886 1.1001008 6513507
-0.46195361 -0.32508492 1.1217839 2436922
0.19111511 -0.30789199 1.1392295 6447714
0.21324924 -0.30790636 1.1437597 6447714
0.48149437 -0.32500389 1.1153953 6513507
0.55292082 -0.32500556 1.1002711 6513507
-0.46066412 -0.287514 1.1279297 3688536
-0.42688233 -0.28622043 1.1241455 5265502
-0.37320259 -0.28617638 1.126272 6447714
-0.32497662 -0.28613082 1.1248699 6054246
-0.28625458 -0.28609207 1.1226244 3031640
-0.16105369 -0.28598654 1.1259956 2565927
-0.12497943 -0.28595105 1.1242076 5460819
-0.075002737 -0.28590593 1.1239176 6447714
-0.025009261 -0.2858611 1.123808 5203325
0.00093122985 -0.28583807 1.1238924 3630744
0.19115715 -0.27500913 1.1392218 6447714
0.21323553 -0.27499253 1.1438251 6447714
0.48149261 -0.27498397 1.1153462 6513507
0.5529862 -0.27446559 1.1004338 6513507
0.19115028 -0.22503728 1.1392765 6447714
0.21327303 -0.22500424 1.1439518 6447714
0.48147148 -0.22499678 1.1153406 6513507
0.55250478 -0.22473933 1.1003504 6513507
0.19117209 -0.17498823 1.1392902 6447714
0.21328731 -0.17502335 1.1440685 6513507
0.48146355 -0.17499666 1.1153055 6513507
0.55259538 -0.17484768 1.1005225 6513507
0.19115955 -0.12491158 1.1393561 6513507
0.21283077 -0.12505713 1.1439713 6513507
0.48145512 -0.12498359 1.115272 6513507
0.55266958 -0.12517375 1.1006868 6513507
0.19118513 -0.074954368 1.1393818 6513507
0.21278499 -0.075096563 1.1440601 6513507
0.48143715 -0.075003654 1.115258 6513507
0.55220294 -0.074657023 1.1006122 6513507
0.19116905 -0.025019128 1.1394527 6447714
0.21284987 -0.025104322 1.1441979 6447714
0.48143116 -0.025011862 1.1152216 6513507
0.55168647 -0.025297392 1.100512 6513507
0.19117615 0.025020339 1.1394961 6513507
0.21285418 0.025070854 1.1443099 6447714
0.48137796 0.025123853 1.1152848 6513507
0.55175656 0.025080482 1.1006764 6513507
0.19120707 0.074963026 1.1395067 10132122
0.2123355 0.075094692 1.1441851 10132122
0.48116779 0.075013623 1.1157022 9474192
0.55131668 0.076327406 1.1006155 9474192
-0.90450871 0.11334191 1.1426603 10000536
-0.87223548 0.11339558 1.1284409 6715532
-0.82447135 0.11344713 1.1229581 1192016
-0.7750532 0.11349065 1.1227291 1125191
-0.72493923 0.11353371 1.1231253 5397611
-0.6750176 0.11357639 1.1235901 10000536
-0.62505972 0.11361928 1.1240009 10000536
-0.5749867 0.11366231 1.1243974 10000536
-0.52503049 0.1137052 1.1247914 9737879
-0.47703257 0.11374902 1.1237117 2573672
-0.4249059 0.11379031 1.1260688 5529967
-0.37340125 0.11383277 1.1274627 9934743
-0.32513827 0.11387663 1.1264883 10000536
-0.2867004 0.11391609 1.1231917 10000536
-0.16120863 0.11402339 1.1244475 10197915
-0.12504125 0.11405633 1.1236787 10197915
-0.075071417 0.11409901 1.1242013 10197915
-0.02506368 0.1141421 1.1245226 10197915
0.00093207543 0.11416409 1.1249104 10197915
0.078886405 0.11423153 1.1252503 10197915
0.12490616 0.11427075 1.1257889 10197915
0.18304995 0.11043744 1.1327962 10197915
0.21865699 0.11044338 1.1337707 10197915
0.27501348 0.11440749 1.1225947 10197915
0.32520813 0.11445058 1.1229892 10197915
0.37513077 0.11449344 1.1234055 10197915
0.42493343 0.1145361 1.1238558 10197915
0.4766914 0.10937171 1.1176454 10197915
0.57626903 0.11343522 1.1181493 10197915
0.6250658 0.1147079 1.1254689 10197915
0.67497718 0.11475066 1.1259291 10197915
0.72492778 0.11479353 1.1263098 10197915
0.77499157 0.11483632 1.1268427 10197915
0.82462454 0.11488622 1.1231655 10197915
0.87170792 0.11492314 1.1254987 10197915
0.90380406 0.11492419 1.140535 10197915
-0.48466209 -0.51229501 1.1719252 4329231
-0.48328903 -0.47529507 1.1688901 4329231
-0.48320407 -0.4251458 1.1686962 4329231
-0.48322463 -0.37500486 1.1687346 3086103
-0.48319444 -0.32511297 1.1686614 2307144
0.17276973 -0.30792612 1.1748948 6447714
0.23837325 -0.30789006 1.1550943 6447714
0.27472854 -0.307879 1.1714972 6447714
0.31887949 -0.30789486 1.1914144 6447714
-0.48064211 -0.28741041 1.1751571 3491415
-0.40822256 -0.28630614 1.1799588 6447714
-0.37499666 -0.28626767 1.1751131 5592405
-0.32504326 -0.28622288 1.1750073 3426396
-0.2922619 -0.28618726 1.1715608 2637654
-0.16504814 -0.28608069 1.1753778 2039583
-0.12498216 -0.28604278 1.1742034 2302755
-0.074985854 -0.2859979 1.174036 5658198
-0.02504367 -0.28595281 1.1737968 5072510
0.00096932042 -0.28592235 1.1698638 3565208
0.17595001 -0.28027081 1.1685009 6447714
0.23844498 -0.28872335 1.1620305 6447714
0.27362555 -0.29034495 1.1766468 6447714
0.31802729 -0.29174772 1.1920547 6447714
0.17930397 -0.22497523 1.1603481 6447714
0.2273144 -0.22493124 1.1502869 6447714
0.17930618 -0.17497675 1.1603098 6447714
0.22733815 -0.17491171 1.1504067 6513507
0.17929119 -0.12498024 1.160303 6513507
0.22684921 -0.12438971 1.1502968 6513507
0.17931263 -0.074986681 1.1602223 6513507
0.22686249 -0.074825995 1.1504111 6513507
0.17927641 -0.024995629 1.1602621 6447714
0.22685347 -0.026127784 1.1505136 6447714
0.17927243 0.024994839 1.1602365 6513507
0.22636679 0.025242047 1.1504064 6447714
0.17929968 0.074981213 1.1601382 10066329
0.22588706 0.074819542 1.1502982 10066329
-0.91843712 0.11326633 1.1780434 8489878
-0.8748824 0.1133118 1.1738768 1784413
-0.82490945 0.11335457 1.1743571 1191753
-0.77489692 0.11339755 1.1747255 2570321
-0.72504276 0.1134403 1.1751652 9803414
-0.67514861 0.11348305 1.1756113 10000536
-0.62502468 0.11352581 1.1761702 10000536
-0.57505608 0.11356882 1.1764966 10000536
-0.5250501 0.1136117 1.1769434 6978446
-0.48644796 0.11365017 1.1742682 1125452
-0.40867138 0.11370338 1.1824573 10000536
-0.37480545 0.11374041 1.1782774 10000536
-0.32484144 0.11378323 1.178717 8226449
-0.29171246 0.11382277 1.1728098 6779002
-0.16472742 0.11393631 1.1713047 10197915
-0.12493153 0.11397211 1.1707039 10197915
-0.075005218 0.11401518 1.1709913 10197915
-0.025043495 0.11405773 1.1715832 10197915
0.00097103184 0.11407981 1.1719263 10197915
0.080141552 0.11414853 1.1721456 10197915
0.12507239 0.1141864 1.1729051 10197915
0.17281362 0.11013585 1.1654273 10197915
0.23701762 0.11259523 1.1667877 10197915
0.27494133 0.11431499 1.1741467 10197915
0.32516691 0.11435803 1.1745919 10197915
0.37523714 0.11440094 1.1750287 10197915
0.42504978 0.11444364 1.1754676 10197915
0.47135815 0.11447988 1.1778131 10197915
0.50000966 0.11447198 1.1961477 10197915
0.59291577 0.11460593 1.1666795 10197915
0.62506592 0.1146151 1.1772259 10197915
0.67487121 0.11465777 1.1776668 10197915
0.72491032 0.11470066 1.1781081 10197915
0.77498412 0.11474358 1.1785481 10197915
0.82527065 0.11479471 1.1745093 10197915
0.87491071 0.11483798 1.174531 10197915
0.91696537 0.11486664 1.179028 10197915
-0.51252741 -0.55085194 1.2334279 4329231
-0.50708997 -0.52260518 1.2214237 4329231
-0.50638741 -0.47479695 1.2198666 4329231
-0.50635374 -0.42473686 1.2197856 4329231
-0.50625819 -0.37493604 1.219568 2301730
-0.50628865 -0.32514375 1.2196288 2045519
0.14456892 -0.30802619 1.2374048 6447714
0.15574566 -0.30796194 1.2126306 6447714
0.34382531 -0.30786481 1.2026682 6447714
0.37445584 -0.307859 1.2164872 6447714
0.42390278 -0.30785573 1.2387948 6513507
-0.50648332 -0.28807583 1.2303306 2834261
-0.49430984 -0.28644583 1.2142348 3754585
-0.41634521 -0.28639731 1.2256272 4868682
-0.37500516 -0.28635627 1.2233589 2236962
-0.32496625 -0.28631419 1.2247901 3296617
-0.29698008 -0.28626493 1.2115967 3754328
-0.16895059 -0.2861765 1.2257284 2039583
-0.12501563 -0.28613508 1.2245549 2039583
-0.074989468 -0.28609025 1.2244118 2434341
-0.0314878 -0.28604567 1.221257 4412260
0.14481473 -0.29201344 1.2380811 6447714
0.16341069 -0.28850865 1.2217541 6447714
0.24591699 -0.28588337 1.2205074 6447714
0.2750586 -0.28585997 1.225521 6447714
0.32885048 -0.28729674 1.2207686 6447714
0.37354878 -0.29020393 1.2224079 6513507
0.42256632 -0.29168969 1.2393993 6513507
-0.96510166 0.11312841 1.2322773 9409689
-0.92510033 0.11317633 1.2250073 3034222
-0.87508589 0.11321901 1.2255566 1191497
-0.82493198 0.11326218 1.2258915 1190470
-0.77484232 0.11330483 1.226486 8290695
-0.72491419 0.1133475 1.2269921 10000536
-0.67495239 0.11339066 1.2272367 10000536
-0.62541795 0.11343361 1.2274176 9934743
-0.57502639 0.11348574 1.2228532 9934743
-0.52506745 0.11352842 1.2233694 3297137
-0.49484098 0.11356838 1.2158122 1125447
-0.41633865 0.11361888 1.2258749 10000536
-0.37483963 0.11365703 1.2247826 10000536
-0.32497698 0.11370005 1.225076 4086138
-0.29747275 0.11374152 1.2153386 2045260
-0.16876058 0.11384148 1.2222414 10197915
-0.12511489 0.1138806 1.2216721 10197915
-0.07503593 0.11392347 1.2221289 10197915
-0.025021333 0.11396617 1.2226766 10197915
0.0010133877 0.11398822 1.223045 10197915
0.081405938 0.11405783 1.2233752 10197915
0.12494777 0.11409476 1.2239667 10197915
0.16635181 0.11412837 1.2253616 10197915
0.2452253 0.11420766 1.2195593 10197915
0.27494949 0.11422323 1.2253447 10197915
0.32522774 0.11426612 1.2258943 10197915
0.37524107 0.11430895 1.2263515 10197915
0.42498338 0.11435165 1.2267663 10197915
0.47496682 0.11439458 1.2271379 10197915
0.50828832 0.11441032 1.2345804 10197915
0.6316185 0.11454184 1.2212871 10197915
0.67490453 0.11457521 1.2237475 10197915
0.72486043 0.11461797 1.2242063 10197915
0.77510482 0.1146612 1.224557 10197915
0.82513469 0.11470388 1.225122 10197915
0.87507242 0.11474667 1.2255534 10197915
0.92638987 0.11479478 1.2237322 10197915
0.96396583 0.11481763 1.2292858 10197915
-0.53369939 -0.56118637 1.2801545 4329231
-0.53155637 -0.52475029 1.2754203 4329231
-0.53166157 -0.47504774 1.2756454 4329231
-0.5315569 -0.42508259 1.2754077 3740178
-0.5315215 -0.37486136 1.2753227 1911093
-0.53141749 -0.32491255 1.2750866 1848655
0.12777093 -0.30807742 1.2746391 6447714
0.4490318 -0.30815902 1.2501312 6513507
0.47454038 -0.30784094 1.2616402 6513507
0.52066875 -0.30784175 1.2824507 6513507
-0.51844734 -0.27045551 1.2635649 2965845
-0.45289114 -0.28655115 1.2917724 2039583
-0.42381704 -0.28649336 1.2744125 2039583
-0.37502503 -0.28644794 1.273294 2040100
-0.33001593 -0.28640893 1.2739999 3692665
-0.17276049 -0.28627121 1.2754809 2039583
-0.12500045 -0.28622732 1.2747548 2039583
-0.075031154 -0.28618205 1.2744629 2039583
-0.042029567 -0.2861405 1.2678653 2039583
0.13167688 -0.29043147 1.2758745 6447714
0.1699952 -0.2860581 1.27459 6447714
0.24922073 -0.28593668 1.2541312 6447714
0.27685612 -0.28594008 1.2740374 6447714
0.32504264 -0.28588977 1.2754936 6447714
0.37498042 -0.28583482 1.2753228 6513507
0.42567071 -0.28597227 1.2744052 6513507
0.47376806 -0.28988567 1.2696569 6513507
0.51992762 -0.29097205 1.2847421 6513507
-0.51832998 -0.22498746 1.2637774 2637140
-0.5183419 -0.17496806 1.2638628 2243154
-0.51837415 -0.12505931 1.2639008 1782862
-0.51845354 -0.075175107 1.263994 1586254
-0.51844716 -0.025107807 1.2640738 1520718
-0.51847649 0.025109803 1.2641481 1257290
-0.51854897 0.075160004 1.2642174 1125448
-1.0107958 0.11299501 1.284423 10197915
-0.9749949 0.11304314 1.2749715 4744065
-0.92502958 0.11308578 1.2755443 1125705
-0.875027 0.11312848 1.2760575 1125448
-0.8251183 0.1131712 1.2765394 5331819
-0.77503866 0.11321425 1.2769321 10066329
-0.72479159 0.11325713 1.2774769 10000536
-0.6748988 0.11329972 1.2779893 9934743
-0.6245153 0.1133444 1.2776147 9934743
-0.57509905 0.1133955 1.2731448 8095379
-0.52348906 0.10903538 1.2643307 1192016
-0.45314837 0.11346469 1.2939404 10000536
-0.42379138 0.11352334 1.2755171 10000536
-0.37492839 0.11356699 1.2749714 9474966
-0.3295213 0.11360873 1.2738137 1982569
-0.17237866 0.11374962 1.2717224 10066329
-0.1248524 0.11379143 1.2715546 10132122
-0.07496614 0.11383392 1.2721242 10197915
-0.025041336 0.11387672 1.2725712 8096152
0.0010547314 0.11389881 1.2729419 3759758
0.082569353 0.11396936 1.2732772 10132122
0.12482686 0.11400492 1.274004 10197915
0.17005603 0.11404247 1.2750915 10197915
0.24913202 0.11414208 1.2580539 10197915
0.27605179 0.11413528 1.2749348 10197915
0.32522085 0.1141766 1.2758276 10197915
0.37504566 0.11421893 1.2764884 10197915
0.42477936 0.11426174 1.2768096 10197915
0.47481537 0.11430442 1.2773819 10197915
0.51773864 0.11433754 1.2797873 10197915
0.64172876 0.1144783 1.2616401 10197915
0.67499238 0.11448637 1.2733381 10197915
0.72485924 0.11452866 1.274013 10197915
0.77497113 0.11457167 1.2744401 10197915
0.82501441 0.11461468 1.2748185 10197915
0.87509596 0.11465735 1.2753929 10197915
0.92500305 0.11470027 1.2757695 10197915
0.97405761 0.11474264 1.2760128 10197915
1.0095485 0.11476436 1.2811875 10197915
0.56609917 -0.60186464 1.3489031 6447714
-0.41512564 -0.59623063 1.3415138 4329231
-0.37501204 -0.59612948 1.3410491 4329231
-0.33773062 -0.59607732 1.3406391 4329231
-0.20220461 -0.59589249 1.3414079 6566193
-0.1750038 -0.59585297 1.3404107 6566193
-0.12509048 -0.59578395 1.3402319 6566193
-0.075030722 -0.59571493 1.3400924 6504512
-0.024523344 -0.59564543 1.3401783 5927046
0.025000967 -0.59557927 1.3410665 3166319
0.074994631 -0.59551013 1.340862 5002331
0.1249752 -0.59544086 1.3407204 6447714
0.1750149 -0.5953716 1.340589 6447714
0.22504309 -0.5953027 1.340409 6447714
0.27491978 -0.59523374 1.3402643 6447714
0.32492515 -0.59516484 1.3401122 6447714
0.37505651 -0.59509522 1.3399531 6447714
0.4236443 -0.59502763 1.339511 6447714
0.45050347 -0.59497339 1.3309866 6447714
0.56609505 -0.57503629 1.3488926 6447714
0.56608689 -0.52473414 1.3488736 6447714
0.56607908 -0.47611004 1.3488553 6447714
0.096806973 -0.30801156 1.3432724 6447714
0.10811416 -0.30806422 1.3182091 6447714
-0.45713034 -0.2866036 1.3183061 2039583
-0.42350647 -0.28658232 1.3230619 2039583
-0.37497592 -0.28654239 1.3249563 2963782
-0.33557212 -0.28650379 1.3230352 2968683
-0.20235316 -0.28640676 1.3349713 2039583
-0.17499991 -0.28636268 1.3242409 2039583
-0.12500411 -0.28631732 1.3238921 2039583
-0.079119928 -0.28627178 1.3213464 2039583
0.096961729 -0.29249012 1.343336 6447714
0.12071451 -0.28868711 1.3226148 6447714
0.17364217 -0.28613746 1.3237888 6447714
0.20024677 -0.28614649 1.3463831 6447714
0.28021109 -0.28601903 1.3228444 6447714
0.32488382 -0.28597346 1.324842 6447714
0.37500402 -0.2859183 1.3246838 6513507
0.42498383 -0.2858631 1.3244163 6513507
0.47500446 -0.28580779 1.3240983 6513507
0.5297507 -0.28247172 1.3276772 6513507
0.55256754 -0.26865125 1.3297815 6513507
0.54914832 -0.22497906 1.3375626 6513507
0.55261517 -0.22503583 1.3298793 6513507
0.54914463 -0.17473651 1.3375345 6513507
0.55260271 -0.17507933 1.3298684 6513507
0.54913265 -0.12467717 1.3375241 6513507
0.55259079 -0.12506373 1.3298596 6513507
0.5491246 -0.074805215 1.3375047 6513507
0.5525825 -0.074926645 1.3298395 6513507
0.54911697 -0.024934758 1.3374858 6513507
0.55258465 -0.024915587 1.3297995 6513507
0.54910874 0.024934275 1.3374665 6513507
0.55256575 0.024794225 1.3298048 6513507
0.54910082 0.074801899 1.3374472 8684676
0.55227673 0.074890755 1.3304081 8684676
-1.0569017 0.11285877 1.3379661 10197915
-1.023221 0.11291251 1.324363 6781583
-0.97493017 0.11295626 1.3234938 1192016
-0.92497045 0.11299871 1.324096 1191753
-0.8749733 0.11304154 1.3245649 2176334
-0.82493907 0.11308432 1.3250983 9869207
-0.7748642 0.11312729 1.3254979 8817811
-0.72489077 0.1131699 1.3260659 8357001
-0.67501348 0.11321243 1.3266 9934743
-0.62496495 0.11325555 1.3269646 9934743
-0.5773502 0.11329862 1.326092 4415360
-0.54833114 0.1133543 1.3091499 993605
-0.4603031 0.11338919 1.3325717 10000536
-0.42507085 0.11342626 1.3290023 10000536
-0.37483299 0.11346915 1.3295726 7307153
-0.33615565 0.11350548 1.3281626 1192022
-0.20182164 0.11361825 1.3306472 10197915
-0.17486405 0.11366261 1.3190316 10066329
-0.12504746 0.11370509 1.3195599 10000536
-0.074918717 0.1137482 1.3199574 10132122
-0.024890818 0.11379088 1.3205198 6059667
0.0010944802 0.11381281 1.3209143 2445446
0.084037408 0.11388466 1.3212098 10000536
0.12514889 0.11391918 1.3220085 10066329
0.17372689 0.11395945 1.3231345 10132122
0.28037438 0.11405353 1.3226324 10197915
0.3247177 0.1140899 1.3239182 10197915
0.37477463 0.11413278 1.3244193 10197915
0.42514062 0.11417566 1.3249853 10197915
0.47513437 0.11421836 1.325516 10197915
0.52902299 0.1129444 1.3282007 10197915
0.55221057 0.10746396 1.3303686 10197915
0.6823281 0.11440108 1.3245488 10197915
0.72482973 0.11443201 1.3279595 10197915
0.77490735 0.11447493 1.3283852 10197915
0.82488602 0.11451737 1.3289865 10197915
0.87490088 0.11456018 1.3294457 10197915
0.92495263 0.11460289 1.3299797 10197915
0.97573179 0.1146484 1.3293928 10197915
1.0213225 0.11469834 1.3237578 10197915
1.0555444 0.11470877 1.3345807 10197915
-0.45257658 -0.6117022 1.3932091 4329231
-0.4418366 -0.60621691 1.3691263 4329231
0.54619122 -0.6115939 1.3930377 6447714
0.55609053 -0.60678416 1.3710916 6447714
-0.45204067 -0.59700119 1.3947103 4329231
-0.42250827 -0.59629703 1.3762463 4329231
-0.37504786 -0.59619731 1.3744731 4329231
-0.34147096 -0.59614468 1.3712953 4329231
-0.2049866 -0.59596914 1.3772523 6566193
-0.1750652 -0.59592086 1.3738468 6566193
-0.12508348 -0.5958519 1.3736856 6502456
-0.07502348 -0.5957827 1.3735695 6446172
-0.025184894 -0.59571409 1.3735511 5861510
0.024993448 -0.59564698 1.3745222 3166320
0.075020082 -0.59558052 1.3756769 4870746
0.12501046 -0.59551138 1.3755325 6447714
0.17501879 -0.59544224 1.3753307 6447714
0.22501469 -0.59537363 1.3752624 6447714
0.27496958 -0.59530437 1.3750653 6447714
0.32497305 -0.59523499 1.3748869 6447714
0.37502441 -0.59516579 1.3747128 6447714
0.41652986 -0.59510261 1.3716886 6447714
0.546372 -0.57500547 1.3926094 6447714
0.5578658 -0.57501715 1.3671341 6447714
0.54636532 -0.52501279 1.3925879 6447714
0.55787355 -0.52500135 1.3670775 6447714
0.54634613 -0.47497034 1.3925943 6447714
0.55786854 -0.47500727 1.3670504 6447714
0.54635102 -0.42498136 1.3925471 6447714
0.5578447 -0.42499357 1.3670688 6447714
0.54633081 -0.3749935 1.3925549 6513507
0.55785388 -0.3750031 1.367016 6513507
0.083097823 -0.30816737 1.3736588 6447714
0.54702783 -0.34746358 1.3909888 6513507
0.55909634 -0.34255081 1.3642353 6513507
-0.40609652 -0.28662336 1.3539052 2039583
-0.37050089 -0.28660586 1.3616827 3625581
-0.34076032 -0.2865878 1.3663543 2571861
-0.20556961 -0.28648794 1.3776371 2039583
-0.17502528 -0.28645509 1.3746102 2039583
-0.12501617 -0.28641018 1.3744653 2039583
-0.089941688 -0.28636888 1.3690522 2039583
0.085479163 -0.29086497 1.375571 6447714
0.12495583 -0.28627539 1.3738189 6447714
0.17500654 -0.28622004 1.3734699 6447714
0.20288165 -0.28620005 1.3797287 6447714
0.2859585 -0.2860952 1.3715945 6447714
0.3251678 -0.28605419 1.3726724 6447714
0.37501371 -0.28599918 1.3724508 6513507
0.42496732 -0.28594396 1.3721309 6513507
0.47557244 -0.285891 1.3736819 6513507
0.52429855 -0.28584099 1.3756059 6513507
0.55704492 -0.28581583 1.3819466 6513507
-1.1046017 0.11271446 1.3952198 10197915
-1.0714017 0.11277442 1.3779907 8095894
-1.0249184 0.1128196 1.3754159 1587291
-0.9750033 0.1128623 1.3758942 1191753
-0.92504966 0.1129049 1.376456 1124934
-0.87505764 0.1129477 1.3768592 7962245
-0.8248868 0.11299051 1.3774612 9935002
-0.77495998 0.11303312 1.377977 2967140
-0.72528201 0.11307571 1.3784189 7107709
-0.67541587 0.11311849 1.3788191 10000536
-0.62501073 0.11317324 1.3728303 9080726
-0.58630466 0.11321011 1.3711098 1720944
-0.46768007 0.11330556 1.3756242 10000536
-0.42508608 0.11334428 1.3747991 10000536
-0.37510666 0.11338698 1.3753192 5269896
-0.34173045 0.11341875 1.3738329 993349
-0.20534985 0.11353789 1.3737696 10197915
-0.17503822 0.11356983 1.3707149 10132122
-0.12497152 0.11361296 1.3710393 10000536
-0.075011611 0.11365512 1.3718597 10000536
-0.025013136 0.1136982 1.3721462 5599376
0.001137343 0.11372013 1.3726447 1984898
0.085194729 0.11379281 1.3730559 10066329
0.12492543 0.11382633 1.3736922 10000536
0.17493264 0.11386885 1.374321 10000536
0.20292719 0.11388186 1.380707 10066329
0.28547031 0.11396637 1.3737764 10197915
0.32474905 0.11399685 1.3758662 10197915
0.37476572 0.11403962 1.3763843 10197915
0.42495915 0.11408253 1.3768607 10197915
0.4749051 0.11412519 1.3774147 10197915
0.52503151 0.11416826 1.3777788 10197915
0.55849618 0.11418476 1.3848617 10197915
0.69300532 0.11433412 1.3670385 10197915
0.72479361 0.11435062 1.3733088 10197915
0.77514666 0.11439396 1.3736225 10197915
0.82516026 0.1144366 1.374236 10197915
0.87501681 0.11447924 1.3747478 10197915
0.92510462 0.11452202 1.3752623 10197915
0.97522575 0.11456462 1.3758793 10197915
1.0272086 0.11461628 1.3723834 10197915
1.0708573 0.11465146 1.3740023 10197915
1.1032895 0.11464993 1.3906515 10197915
-0.46760216 -0.61323321 1.4268957 4329231
0.53074694 -0.61933267 1.427279 6447714
-0.46014628 -0.59653151 1.4307252 4329231
-0.42493784 -0.59636897 1.4252506 4329231
-0.37503052 -0.59629959 1.4250013 4329231
-0.34657234 -0.59623766 1.4137188 4329231
-0.20876843 -0.59607399 1.4263991 6566193
-0.17497171 -0.59602356 1.4244437 6502970
-0.12492768 -0.5959543 1.4242868 6446429
-0.075027265 -0.59588528 1.424065 6447714
-0.025040057 -0.59581596 1.4239323 5861512
0.025036182 -0.59574711 1.423768 3166577
0.07504642 -0.59568053 1.4249833 4673882
0.12507325 -0.59561175 1.4248483 6447714
0.17498553 -0.59554249 1.4246991 6447714
0.22495541 -0.59547329 1.424499 6447714
0.27501744 -0.59540433 1.4243768 6447714
0.32499939 -0.59533507 1.4241714 6447714
0.37520781 -0.5952664 1.4245175 6447714
0.40676749 -0.59520406 1.4151248 6447714
0.53182518 -0.5750193 1.4248575 6447714
0.53184026 -0.52500641 1.4247798 6447714
0.53182846 -0.47501183 1.4247702 6447714
0.53180832 -0.42500225 1.4247782 6447714
0.53260416 -0.37830046 1.4229807 6513507
0.54213893 -0.34932706 1.4018271 6513507
-0.20871076 -0.28657469 1.4234511 2039583
-0.16784298 -0.2793231 1.4290971 2368548
-0.13074638 -0.27198339 1.4326797 3092271
-0.098132186 -0.28644097 1.4043492 2039583
0.086600512 -0.28640398 1.4249519 6447714
0.12504095 -0.28636217 1.4251643 6447714
0.17506297 -0.28630698 1.4249367 6447714
0.20646407 -0.286277 1.4275222 6447714
0.29064131 -0.28617504 1.4218067 6447714
0.32488361 -0.28614137 1.424036 6447714
0.37502465 -0.28608605 1.4237735 6513507
0.425015 -0.28603092 1.4235618 6513507
0.47433898 -0.28597918 1.4250053 6513507
0.52442437 -0.28592521 1.4254769 6513507
0.5545792 -0.28586945 1.4120569 6513507
-0.15560588 -0.22510602 1.4390813 6447714
-0.13211344 -0.22499667 1.4366432 6447714
-0.1556104 -0.17502478 1.4390839 6447714
-0.13215315 -0.17499562 1.4367373 6447714
-0.15559886 -0.12485873 1.439052 6447714
-0.13263826 -0.12515475 1.4366285 6447714
-0.15559214 -0.074949406 1.4390314 6447714
-0.13269837 -0.074996591 1.4367139 6447714
-0.15561816 -0.025040179 1.4390801 6447714
-0.13270813 -0.025000533 1.4368209 6447714
-0.15561712 0.025039967 1.4390723 6710886
-0.13271815 0.025003033 1.4369291 6645093
-0.15559001 0.07494837 1.4390106 10066329
-0.13272813 0.075013958 1.4370365 10066329
-1.1174741 0.11264613 1.4270891 9540761
-1.0751605 0.11268841 1.4240947 2574446
-1.0252005 0.11273085 1.4247484 1191240
-0.97500986 0.11277387 1.4251752 1125704
-0.92517287 0.11281646 1.4257128 4674661
-0.87509906 0.11285939 1.4261409 10197915
-0.82498944 0.11290198 1.4267931 6452360
-0.77523619 0.11294422 1.427444 2833748
-0.72524333 0.11298687 1.4279845 10132122
-0.67465013 0.11303108 1.4279742 10000536
-0.62534034 0.11308605 1.4213011 5664650
-0.59424418 0.11313538 1.4089317 1126484
-0.50434494 0.11315793 1.4401311 10000536
-0.47443262 0.11321332 1.4238331 10000536
-0.42500627 0.11325621 1.4239329 10132122
-0.3751516 0.11329915 1.4242516 2837619
-0.34636566 0.1133466 1.4118072 1125191
-0.20946687 0.11343654 1.4282897 10000536
-0.16949433 0.1111718 1.429888 10000536
-0.1300609 0.10861132 1.4327935 10000536
-0.075103916 0.11355554 1.4273388 10000536
-0.024919102 0.11361095 1.4208738 5205133
0.0011776291 0.113633 1.4212652 1787520
0.086599216 0.1137067 1.4217598 10197915
0.12513508 0.113739 1.4224757 10132122
0.17509568 0.11378153 1.4231218 10000536
0.20631331 0.11380562 1.4248538 10000536
0.29036462 0.11388254 1.4228815 10132122
0.32480982 0.11390951 1.4246055 10197915
0.37472573 0.11395214 1.425141 10197915
0.42507058 0.11399511 1.4256784 10197915
0.47506076 0.1140376 1.4263256 10197915
0.52488905 0.11408053 1.4266281 10197915
0.56737572 0.11411341 1.4289747 10197915
0.73095304 0.1142756 1.4181751 10197915
0.77481163 0.11430673 1.422146 10197915
0.82490927 0.11434939 1.4227659 10197915
0.87504357 0.11439233 1.4232106 10197915
0.92491615 0.11443446 1.4239973 10197915
0.97483009 0.11447751 1.4242709 10197915
1.0250757 0.11452027 1.4248923 10197915
1.0750636 0.11456295 1.4254193 10197915
1.1189022 0.11459015 1.4316071 10197915
1.1506821 0.11458826 1.4481194 10197915
0.49925342 -0.65721881 1.4971123 6447714
0.50697166 -0.65573013 1.4800032 6447714
-0.48829788 -0.61325222 1.4732919 4329231
0.49927515 -0.62496704 1.4970405 6447714
0.51048791 -0.62496465 1.4721847 6447714
-0.47046787 -0.59657365 1.4774774 4329231
-0.42500859 -0.59647006 1.4751098 4329231
-0.37891981 -0.59640443 1.4738673 4329231
-0.21254669 -0.59617895 1.4756157 6506311
-0.17502815 -0.59612447 1.4743069 6446943
-0.12496749 -0.59605551 1.4741098 6447714
-0.074956357 -0.59598625 1.4739628 6447714
-0.024676774 -0.59591758 1.4741851 5796234
0.024985472 -0.59585094 1.4751025 3166578
0.07497979 -0.59578168 1.4749711 4542297
0.12503625 -0.59571284 1.4747826 6447714
0.17500889 -0.59564388 1.4746544 6447714
0.22497053 -0.59557438 1.4744363 6447714
0.27509907 -0.59550506 1.4742868 6447714
0.32510951 -0.59543604 1.4740839 6447714
0.36876416 -0.59537148 1.4718988 6447714
0.49926224 -0.57492739 1.4970325 6447714
0.51048207 -0.57496578 1.4721625 6447714
0.49925503 -0.52509713 1.4970112 6447714
0.51048303 -0.52498823 1.4721249 6447714
0.49924812 -0.47506136 1.49699 6447714
0.51046795 -0.47499186 1.4721229 6447714
0.49924108 -0.42482036 1.4969692 6447714
0.5104683 -0.42503855 1.4720814 6447714
0.49925423 -0.39153406 1.4969153 6513507
0.51148939 -0.38673502 1.4697921 6513507
-0.16816108 -0.27387574 1.4568127 2829099
0.087954685 -0.2864857 1.4741012 6447714
0.1258098 -0.28644651 1.4754572 6447714
0.17494217 -0.28639543 1.4771065 6447714
0.21021554 -0.28635907 1.4784346 6447714
0.2958315 -0.28625342 1.4714401 6447714
0.32514286 -0.28622952 1.4762681 6513507
0.37499142 -0.2861743 1.4759377 6513507
0.42505121 -0.28611916 1.4757298 6513507
0.47501487 -0.28606388 1.4754339 6513507
0.51618022 -0.28601313 1.4720836 6513507
-0.16433109 -0.22505577 1.4583374 6447714
-0.16433486 -0.17505856 1.4583387 6447714
-0.1643388 -0.12506272 1.45834 6447714
-0.16433774 -0.074915923 1.4583315 6447714
-0.16432206 -0.024923488 1.4582894 6447714
-0.16432109 0.024923293 1.4582818 6645093
-0.1643346 0.074914478 1.4583043 10066329
-1.1669538 0.11249967 1.4846907 10000536
-1.1248373 0.1125651 1.4686729 4875908
-1.0747445 0.11260787 1.4692305 1125449
-1.0248119 0.11265022 1.4699109 1191753
-0.97504503 0.11269289 1.4703398 1584713
-0.92503887 0.11273577 1.4707698 9474451
-0.87499487 0.11277821 1.4714533 9803674
-0.8251158 0.11282054 1.4721335 1981019
-0.77519578 0.11286335 1.4725636 7107453
-0.72483718 0.11290631 1.4731244 10197915
-0.67484182 0.11294895 1.4736779 9803674
-0.63251287 0.11298841 1.4722615 2247286
-0.51091027 0.11308416 1.4780753 10000536
-0.47510028 0.1131191 1.4760288 10132122
-0.42491624 0.11316208 1.4764618 8949655
-0.37905687 0.11320295 1.4760154 1456997
-0.21327561 0.11334071 1.4798898 10000536
-0.17690654 0.11089894 1.4709277 10000536
-0.10895822 0.11343071 1.4804686 10000536
-0.074833438 0.11346094 1.4802349 10000536
-0.025022304 0.11351728 1.4730668 4942220
0.0012210263 0.11353913 1.4736407 1590142
0.087793335 0.11361422 1.4739149 10197915
0.12494954 0.1136452 1.4747272 10197915
0.17496434 0.11368761 1.4754208 10132122
0.21017453 0.11371402 1.4778345 10132122
0.29445615 0.11380881 1.4660034 10000536
0.32464737 0.11382929 1.4692786 10066329
0.37470409 0.11387198 1.4698328 10132122
0.424795 0.11391474 1.4703817 10197915
0.47472256 0.11395709 1.4710577 10197915
0.52488965 0.11400036 1.4713603 10197915
0.5745163 0.11404154 1.4725406 10197915
0.60399169 0.11404589 1.4844717 10197915
0.74320674 0.1142005 1.4660045 10197915
0.77526975 0.11421373 1.4742411 10197915
0.82505047 0.11425622 1.4747889 10197915
0.87486452 0.11429871 1.4753379 10197915
0.92512786 0.11434136 1.4760184 10197915
0.97522509 0.11438434 1.4764431 10197915
1.0251518 0.11442694 1.4769931 10197915
1.0751181 0.11446957 1.4775432 10197915
1.125119 0.1145122 1.4780937 10197915
1.165186 0.11453737 1.4835696 10197915
0.4869568 -0.65728468 1.5243677 6447714
-0.5104515 -0.61333269 1.522956 4329231
0.48690239 -0.62498868 1.5244688 6447714
-0.50748223 -0.59685475 1.5309529 4329231
-0.47499603 -0.59663808 1.5239847 4460817
-0.42502666 -0.59656888 1.5238415 4329231
-0.38477734 -0.59650987 1.5219972 4329231
-0.21630208 -0.59628576 1.5257936 6447714
-0.17499223 -0.59622633 1.5244929 6447714
-0.12496303 -0.59615737 1.5243399 6447714
-0.07494577 -0.59608811 1.5242107 6447714
-0.025281558 -0.59602028 1.5243733 5664907
0.024984689 -0.59595346 1.5254259 3166579
0.074943237 -0.59588426 1.5252986 4345176
0.1248911 -0.59581512 1.5251107 6447714
0.17495368 -0.5957455 1.5249017 6447714
0.225005 -0.59567654 1.5247402 6447714
0.27500245 -0.59560728 1.5245138 6447714
0.32502958 -0.59553808 1.5244683 6447714
0.35878089 -0.59547931 1.5182838 6447714
0.48693505 -0.57500648 1.524362 6447714
0.48691043 -0.52498519 1.5243757 6447714
0.48691204 -0.47498608 1.5243305 6447714
0.48692876 -0.42504713 1.5242573 6447714
0.49170142 -0.39462787 1.5136591 6513507
0.089066938 -0.28656742 1.5230862 6447714
0.12427587 -0.28653112 1.5244367 6447714
0.17508499 -0.28647891 1.5264561 6447714
0.21388257 -0.28643775 1.527265 6447714
0.29878336 -0.28630808 1.5056309 6513507
0.32606831 -0.28631073 1.5248644 6513507
0.37499601 -0.28625795 1.525328 6513507
0.42501566 -0.28620258 1.5250094 6513507
0.47492671 -0.28614742 1.5246909 6513507
0.5063507 -0.28609684 1.5151728 6513507
-1.2126088 0.11236043 1.5401025 10000536
-1.1758373 0.11241481 1.5276709 5665165
-1.1249951 0.11247883 1.5167352 1192275
-1.0751328 0.11252132 1.5173115 1191497
-1.0250214 0.11256377 1.5180238 1059398
-0.97508353 0.11260685 1.5183213 6515831
-0.92510581 0.11264895 1.5191718 10197915
-0.87509018 0.11269208 1.5194708 5663618
-0.82503927 0.11273422 1.5203224 2636626
-0.77515554 0.11277699 1.5207554 10197915
-0.72502851 0.11281971 1.5213351 10197915
-0.67486012 0.11286248 1.5219084 6716306
-0.64174885 0.11290006 1.5170567 1324893
-0.51919442 0.11299222 1.5253152 10132122
-0.47486383 0.11303267 1.5243471 10197915
-0.42492551 0.11307547 1.5247804 6847634
-0.38506493 0.11311214 1.5237374 1192534
-0.21707645 0.11325089 1.5281327 10000536
-0.18727344 0.11327979 1.5265415 10000536
-0.11083679 0.11334175 1.5291853 10000536
-0.074946798 0.11337375 1.5288028 10000536
-0.024921417 0.1134164 1.5293775 3891338
0.0012675748 0.11343846 1.5298195 1524350
0.089405283 0.11351477 1.5301777 10066329
0.12517633 0.11354433 1.5311024 10132122
0.17514116 0.11358666 1.531817 10197915
0.21440518 0.11361878 1.5330188 10197915
0.29822946 0.11374322 1.5044225 10000536
0.32509139 0.11374488 1.5165652 10000536
0.37489119 0.11378679 1.5174208 10066329
0.42534268 0.11382981 1.5179906 10197915
0.47520453 0.11387233 1.5185578 10197915
0.52510023 0.11391488 1.5191246 10197915
0.57503647 0.11395744 1.5196929 10197915
0.61175954 0.1139824 1.5236528 10197915
0.78126615 0.11413793 1.5194381 10197915
0.82484692 0.1141704 1.5225327 10197915
0.87500405 0.11421317 1.5231029 10197915
0.92477643 0.11425537 1.5238073 10197915
0.97479963 0.11429825 1.5242374 10197915
1.0250696 0.11434111 1.5248098 10197915
1.075168 0.11438382 1.5253783 10197915
1.1250896 0.11442612 1.526085 10197915
1.175047 0.11446923 1.5263729 10197915
1.2114047 0.11448147 1.5372474 10197915
0.46437433 -0.6572988 1.5744234 6447714
-0.5340268 -0.6134882 1.5758084 4329231
0.46441188 -0.6250307 1.5743192 6447714
-0.51774967 -0.59684205 1.5773425 4658196
-0.47500089 -0.59673983 1.5741909 5710884
-0.42499527 -0.59667057 1.5739913 4329231
-0.3906455 -0.59661722 1.5709182 4329231
-0.2200429 -0.59639221 1.5757319 6447714
-0.1749468 -0.59632826 1.5748552 6447714
-0.12506774 -0.59625918 1.5746405 6447714
-0.075060278 -0.59619039 1.5745132 6447714
-0.025018694 -0.59612095 1.5742731 5665164
0.025014827 -0.59605181 1.5740901 3101043
0.075033151 -0.59598279 1.5739653 4213848
0.12499423 -0.59591347 1.5737273 6447714
0.1753822 -0.5958463 1.5748197 6447714
0.22508617 -0.5957787 1.5750982 6447714
0.27490851 -0.59570974 1.5749578 6447714
0.32139954 -0.59564102 1.5725586 6447714
0.35129172 -0.59555721 1.5515866 6447714
0.46437505 -0.57503271 1.5743601 6447714
0.46437964 -0.52503651 1.5743141 6447714
0.46437806 -0.47501892 1.5742813 6447714
0.46520534 -0.4303495 1.572418 6447714
0.09076681 -0.28663915 1.566582 6447714
0.12650113 -0.28661203 1.5737408 6447714
0.17493947 -0.2865622 1.575621 6447714
0.21758479 -0.28651646 1.5762321 6447714
0.33092406 -0.28638795 1.5736116 6513507
0.37504745 -0.28634083 1.5743753 6513507
0.42490929 -0.2862857 1.5740738 6513507
0.46885613 -0.28623283 1.5712489 6513507
-1.2550329 0.11224405 1.5843999 10000536
-1.2240871 0.11228597 1.576076 7767187
-1.1723287 0.11234014 1.5710607 1258585
-1.1247338 0.11238705 1.5680571 1125448
-1.0751176 0.11242932 1.5686481 1125704
-1.0252455 0.11247149 1.5693933 3294040
-0.97490859 0.11251491 1.5696877 10000536
-0.92496091 0.11255719 1.5704317 8949655
-0.87497926 0.11259946 1.5711783 1388882
-0.82474214 0.11264253 1.5716226 7699074
-0.77489638 0.11268497 1.572214 10197915
-0.72501636 0.11272745 1.572807 10066586
-0.67813259 0.11277096 1.5713664 3101820
-0.55497283 0.11285154 1.5863966 10132122
-0.52489781 0.11289787 1.5751842 10000536
-0.47504243 0.11294033 1.5757767 10066329
-0.42515492 0.11298253 1.5765231 4416134
-0.39115846 0.11301706 1.5738165 1059655
-0.22113751 0.11315496 1.57969 10000536
-0.19031402 0.11318534 1.5777308 10000536
-0.11283315 0.11324795 1.5805349 10000536
-0.075083956 0.11328063 1.5806834 10000536
-0.025109619 0.11332349 1.5811229 3431561
0.0013104718 0.11334568 1.5815911 1589886
0.090288728 0.11343805 1.5733851 10000536
0.1248826 0.11346719 1.5739843 10066329
0.1748306 0.11350951 1.5746896 10197915
