# .PCD v0.7 - Point Cloud Data file format
VERSION 0.7
FIELDS x y z rgb
SIZE 4 4 4 4
TYPE F F F U
COUNT 1 1 1 1
WIDTH 1172
HEIGHT 1
VIEWPOINT 0 0 0 1 0 0 0
POINTS 1172
DATA ascii
0.81277984 -1.0250696 2.8186748 6447714
0.79509008 -0.97507817 2.8432314 6447714
0.81273621 -0.97508568 2.8187706 6447714
0.79508179 -0.92514193 2.843281 6447714
0.81278151 -0.92509836 2.8187499 6447714
0.79512137 -0.87473851 2.8432651 6447714
0.81277424 -0.87504011 2.8187962 6447714
0.79511333 -0.82480013 2.8433158 6513507
0.81277013 -0.82505095 2.818841 6513507
0.79512089 -0.77509826 2.8433414 6513507
0.81278545 -0.77506268 2.8188593 6513507
0.79514462 -0.72515845 2.8433473 6513507
0.81282037 -0.72507244 2.8188465 6513507
-0.41913551 -0.65059763 2.8267365 6447714
0.79513633 -0.67498493 2.8433971 6513507
0.81282032 -0.67508179 2.8188877 6513507
-0.41781133 -0.62495142 2.8249066 6447714
0.79512799 -0.62480897 2.8434467 6513507
0.81285715 -0.62501621 2.8188705 6513507
-1.5245444 -0.57015437 2.8459263 1256263
-0.82065445 -0.59970778 2.8285868 2039583
-0.77502882 -0.59964162 2.8268194 2039583
-0.72487336 -0.59957254 2.8266885 2039583
-0.67473853 -0.5995028 2.8261642 2039583
-0.6251924 -0.59943449 2.8260369 5460819
-0.57631165 -0.59936464 2.8246276 6447714
-0.54338521 -0.59929258 2.8115926 6447714
-0.41777167 -0.57499295 2.8248687 6447714
0.79515189 -0.57486695 2.8434522 6513507
0.81277055 -0.57502419 2.8190327 6513507
-1.5245806 -0.52486092 2.8460143 1256263
-0.41778627 -0.52503091 2.8249052 5987163
0.79517543 -0.52492511 2.8434575 6513507
0.81287324 -0.52503014 2.8189256 6513507
-1.5245944 -0.47518411 2.8461297 1388362
-0.41779697 -0.48605347 2.8249342 2039583
0.79519933 -0.47498325 2.8434634 6513507
0.8128106 -0.47503445 2.8190525 6513507
-1.5242146 -0.44618484 2.8464768 1520204
0.79514271 -0.42503509 2.8435788 6513507
0.81286734 -0.42496717 2.8190124 6513507
-0.41865247 -0.3626183 2.8261657 6447714
0.79516667 -0.37508985 2.843585 6513507
0.81284386 -0.37496951 2.8190846 6513507
-1.5609871 -0.3178058 2.8202691 1717839
-0.40262073 -0.3482545 2.8039043 6447714
0.79520613 -0.32491133 2.8435688 6513507
0.81291455 -0.32504597 2.8190234 6513507
-1.5605124 -0.27219266 2.8207264 1586767
-0.70313543 -0.28994063 2.8334122 2039583
-0.67505115 -0.28989017 2.8212781 2239283
-0.62525773 -0.28983843 2.8210385 3428977
-0.58998573 -0.28979912 2.8193924 1780538
-0.46901542 -0.28967512 2.8197935 6447714
-0.42510274 -0.28962842 2.8189948 6447714
-0.39123508 -0.28957984 2.8112895 6447714
0.79523003 -0.27473176 2.8435743 6513507
0.81283712 -0.27504441 2.8191681 6513507
-1.5602434 -0.22556321 2.8210382 1586254
0.79520583 -0.22501484 2.8436456 6513507
0.81287199 -0.22504836 2.8191607 6513507
-1.5602938 -0.1753138 2.8211284 1388876
0.79521322 -0.17553681 2.8436732 6513507
0.81291455 -0.17497277 2.8191373 6513507
-1.5603439 -0.1250612 2.821219 1191242
0.79519004 -0.12510824 2.8437436 6513507
0.81296623 -0.12519379 2.8191063 6513507
-1.5603937 -0.07480529 2.8213091 1125705
0.79526114 -0.074464664 2.8436856 6513507
0.8127861 -0.0749643 2.8193915 6513507
-1.5604442 -0.024546186 2.8213995 1125449
0.79523695 -0.024740778 2.8437564 6513507
0.81298232 -0.024752986 2.8191614 6513507
-1.5604931 0.024547219 2.8214886 1059142
0.79524451 0.024741098 2.8437841 6513507
0.81299037 0.024753304 2.8191862 6513507
-1.5605431 0.074812725 2.8215792 1125448
0.79528397 0.074466906 2.8437662 7039851
0.81280953 0.074966595 2.8194766 7105644
-1.5605732 0.10520723 2.8216336 1257546
-1.3745859 0.10954296 2.8431456 1059400
-1.2239721 0.10966235 2.8462443 10066329
-1.1748638 0.10970128 2.8472548 5336718
-1.140937 0.10972818 2.8479533 1125707
-1.0636586 0.10978945 2.8495433 10197915
-1.0460839 0.1098034 2.8499053 10197915
-0.66708469 0.11021411 2.8003428 10000536
-0.62435031 0.11024802 2.8012044 10000536
-0.58737171 0.11027735 2.80195 10000536
-0.46820861 0.11037193 2.8043525 10000536
-0.42535174 0.11040592 2.8052168 10000536
-0.37435362 0.11044641 2.8062449 8949397
-0.34536219 0.1104694 2.8068295 1787777
-0.20602784 0.11057997 2.8096385 10000536
-0.17463773 0.11060488 2.8102717 10000536
-0.1316015 0.11063904 2.8111393 10000536
-0.023309223 0.11072497 2.8133225 10000536
0.02448586 0.11076289 2.8142867 10000536
0.074647613 0.1108027 2.8152978 10000536
0.12484513 0.11084253 2.8163102 10132122
0.16456097 0.11087405 2.8171108 10197915
0.33185273 0.11100681 2.8204837 10197915
0.37520385 0.1110412 2.821358 10197915
0.424445 0.11108028 2.8223507 10197915
0.47489464 0.11112031 2.8233678 10197915
0.52538055 0.11116038 2.8243856 10197915
0.57472748 0.11119954 2.825381 10197915
0.62528569 0.11123966 2.8264005 10197915
0.6758799 0.11127981 2.8274205 10197915
0.72533292 0.11131904 2.8284171 10197915
0.78564471 0.10799917 2.8372064 10197915
0.81304258 0.1062195 2.8190598 10197915
0.77086145 -1.2685213 2.8765879 6447714
0.77274579 -1.2249719 2.8740113 6447714
0.77270204 -1.1750312 2.87411 6447714
0.77278101 -1.1250337 2.8740377 6447714
0.77277648 -1.0749776 2.8740807 6447714
0.77277553 -1.0249789 2.8741214 6447714
0.77279526 -0.97509289 2.8741322 6447714
0.77278745 -0.9250899 2.8741844 6447714
0.77277511 -0.87503088 2.8742356 6447714
0.77281338 -0.82502747 2.874222 6513507
0.77279377 -0.77502263 2.87429 6513507
0.77282864 -0.7249617 2.8742805 6513507
-0.4583779 -0.65054166 2.8812382 6447714
-0.44315475 -0.65051198 2.8600955 6447714
0.77283704 -0.67495441 2.8743033 6513507
-0.45993769 -0.624915 2.8834138 6447714
-0.44316086 -0.62503898 2.8601131 6447714
0.77281636 -0.62506086 2.874372 6513507
-1.5142318 -0.5707137 2.8533647 1124935
-0.85366833 -0.59986454 2.8829308 2039583
-0.82473028 -0.59980381 2.872664 2039583
-0.77495402 -0.5997346 2.8722651 2039583
-0.72519064 -0.59966594 2.872004 2039583
-0.67544407 -0.5995965 2.8714659 2039583
-0.62569886 -0.59952801 2.8713431 6250335
-0.58830929 -0.59946364 2.8650043 6447714
-0.45987797 -0.57509041 2.8833475 6447714
-0.44316432 -0.57527715 2.8601351 6447714
0.77284706 -0.57505196 2.8743696 6513507
-1.5142999 -0.52510244 2.8534307 1124935
-0.45992342 -0.52509409 2.8834269 4671303
-0.44311446 -0.52521598 2.8600829 5263440
0.77284008 -0.52504253 2.8744173 6513507
-1.5144132 -0.47453225 2.8534772 1257033
-0.45992586 -0.48618826 2.8834455 2039583
-0.4432666 -0.48612311 2.8603077 2039583
0.77287477 -0.47503254 2.8744068 6513507
-1.5143927 -0.44568837 2.853564 1388875
0.77290142 -0.42507869 2.8744063 6513507
-0.45993429 -0.37271449 2.8834953 6447714
-0.44301948 -0.36787054 2.8600059 6447714
0.77283323 -0.37506664 2.8745377 6513507
0.7728616 -0.3249957 2.874541 6513507
-0.70806313 -0.29001391 2.8717363 2039583
-0.67501962 -0.28997436 2.8686314 3096399
-0.62499189 -0.28992185 2.8681123 2572893
-0.59440029 -0.28988266 2.8638067 1844010
-0.47328097 -0.28976312 2.8668437 6447714
-0.43492737 -0.28971589 2.8625 6447714
0.7728771 -0.27498102 2.8745577 6513507
0.7728917 -0.224966 2.8745725 6513507
0.77301008 -0.17500767 2.8744483 6513507
0.77293491 -0.12504981 2.8745942 6513507
0.77286381 -0.075030774 2.8747311 6513507
0.77287108 -0.025010474 2.8747551 6513507
0.77287835 0.025010817 2.8747823 6513507
0.77288622 0.075033069 2.8748143 7105644
-1.0273315 0.10981824 2.8502905 10197915
-0.84070903 0.10996617 2.85413 1655672
-0.70659447 0.11007252 2.8568902 10197915
-0.6747908 0.11009771 2.8575444 10197915
-0.62411326 0.11013789 2.858587 9212052
-0.59345436 0.1101622 2.8592179 10000536
-0.47303969 0.11025766 2.8616953 10000536
-0.42576146 0.11029515 2.8626683 10000536
-0.37490168 0.11033546 2.8637149 7832466
-0.20786949 0.11046787 2.8671515 10000536
-0.17465062 0.11049422 2.867835 10000536
-0.13310729 0.11052712 2.86869 10000536
-0.023786563 0.1106138 2.8709393 10000536
0.024987528 0.11065246 2.8719425 10000536
0.074986458 0.11069211 2.8729711 10000536
0.12502123 0.11073176 2.874001 10000536
0.16674341 0.11076485 2.8748593 10000536
0.33508036 0.11089829 2.8783226 10197915
0.37573391 0.11093052 2.8791592 10197915
0.42598453 0.11097036 2.8801932 10197915
0.47507328 0.11100928 2.8812032 10197915
0.52419692 0.11104821 2.8822141 10197915
0.57455409 0.11108813 2.8832505 10197915
0.62494767 0.11112809 2.8842874 10197915
0.67537737 0.11116806 2.8853252 10197915
0.72584343 0.1112081 2.8863635 10197915
0.772802 0.10598661 2.8744903 10197915
0.72888261 -1.3065858 2.9347434 6447714
0.734779 -1.2750432 2.9265935 6447714
0.75259227 -1.2743582 2.9019058 6447714
0.73476696 -1.2249401 2.9266512 6447714
0.75259936 -1.2250786 2.9019332 6447714
0.73475945 -1.174971 2.9266982 6447714
0.75260687 -1.1745965 2.9019623 6447714
0.73472798 -1.1250004 2.9267831 6447714
0.75259256 -1.1247109 2.9020207 6447714
0.73483229 -1.0750296 2.9266739 6447714
0.75262141 -1.0748302 2.9020188 6447714
0.73476458 -1.0249879 2.9268081 6447714
0.75265038 -1.0249503 2.9020166 6447714
0.73480773 -0.97508317 2.9267845 6447714
0.75263608 -0.97506106 2.9020751 6447714
0.73479968 -0.9251073 2.9268353 6447714
0.75264347 -0.9245739 2.9021034 6447714
0.73482734 -0.87499845 2.9268355 6447714
0.75262922 -0.8746804 2.9021616 6447714
0.73412943 -0.82523835 2.9278426 6447714
0.75192809 -0.82350153 2.9031723 6513507
0.73396188 -0.77495867 2.9281106 6513507
0.75177991 -0.77503562 2.903415 6513507
0.73397923 -0.72501254 2.9281268 6513507
0.75181574 -0.72492737 2.9034038 6513507
-0.50537145 -0.65063405 2.9465051 6447714
-0.48425451 -0.65059251 2.917177 6447714
0.7338528 -0.67506891 2.9283395 6513507
0.75179464 -0.67481196 2.9034717 6513507
-0.50372177 -0.62493455 2.9442227 6447714
-0.48477474 -0.62496847 2.9179084 6447714
0.73396778 -0.62512308 2.9282188 6513507
0.75177342 -0.62469357 2.9035389 6513507
-0.81889206 -0.59987164 2.9097099 2039583
-0.77368516 -0.5998373 2.9232426 2039583
-0.72506005 -0.59977305 2.9244363 2039583
-0.67482162 -0.59970421 2.9244468 3092271
-0.63142806 -0.59963065 2.91763 6447714
-0.50382978 -0.57493085 2.9443898 6447714
-0.48479518 -0.5750069 2.9179525 6447714
0.73396945 -0.57503271 2.9282548 6513507
0.75180924 -0.57498407 2.9035275 6513507
-0.50372964 -0.52492255 2.9442682 3223857
-0.48466384 -0.5249123 2.917789 3881787
0.73399711 -0.52494168 2.9282527 6513507
0.751845 -0.52527541 2.9035161 6513507
-1.416257 -0.4604384 2.9243295 2043711
-1.3973706 -0.46073055 2.9379551 2039583
-0.50387925 -0.48629558 2.9444895 2039583
-0.48481631 -0.48623085 2.9180148 2039583
0.73391742 -0.47499219 2.9284043 6513507
0.75182384 -0.47515342 2.903584 6513507
-1.4161587 -0.44603622 2.9244363 2307140
-1.3973297 -0.44670746 2.9380195 2039583
0.73397565 -0.42504385 2.928359 6513507
0.75183105 -0.4246349 2.9036124 6513507
-0.503793 -0.38302723 2.9444056 6447714
-0.48482946 -0.37853363 2.9180694 6447714
0.73400325 -0.37501982 2.9283631 6513507
0.75181007 -0.37450817 2.9036806 6513507
-1.4163965 -0.31808278 2.9245877 1980756
-1.3974451 -0.31771177 2.938262 2111825
0.73402053 -0.32492623 2.9283743 6513507
0.75187457 -0.32520717 2.9036288 6513507
-1.4164634 -0.27491909 2.924648 1849171
-1.3974831 -0.27511418 2.9383416 1848912
-0.66690302 -0.2900331 2.9063988 3692922
-0.62531495 -0.29000819 2.9164877 2242122
-0.59796309 -0.28995794 2.9041269 2039583
-0.5029248 -0.28989124 2.9216819 6447714
-0.47844005 -0.28984937 2.9123285 6447714
0.73395622 -0.27497095 2.928504 6513507
0.75185293 -0.27547941 2.9036963 6513507
-1.4163198 -0.22492653 2.9248784 1586257
-1.3975275 -0.22521123 2.9384351 1651791
0.7339735 -0.22502065 2.9285159 6513507
0.7518602 -0.22495693 2.9037251 6513507
-1.4167014 -0.17513293 2.9247274 1388622
-1.3975719 -0.17530505 2.938529 1454669
0.73407841 -0.17506337 2.9284112 6513507
0.75186765 -0.17443357 2.9037535 6513507
-1.4165394 -0.12481324 2.9249713 1388879
-1.3976165 -0.1253958 2.9386227 1323085
0.7340588 -0.12482528 2.9284744 6513507
0.75187486 -0.12511215 2.9037814 6513507
-1.4165847 -0.075132683 2.9250636 1323342
-1.3976607 -0.075483337 2.9387164 1257548
0.73391044 -0.075076655 2.9287205 6513507
0.75188196 -0.075789794 2.9038095 6513507
-1.4166297 -0.025448874 2.9251575 1257806
-1.3977057 -0.025567655 2.9388099 1257290
0.7340728 -0.025340738 2.9285319 6513507
0.75188953 -0.025263485 2.9038372 6513507
-1.4166758 0.025449978 2.9252522 1191500
-1.3977511 0.025568767 2.938906 1191753
0.73411101 0.025271414 2.9285192 6513507
0.75189686 0.02526382 2.9038665 6513507
-1.4167203 0.075140096 2.9253457 1059657
-1.3977957 0.075490847 2.9389994 993605
0.73390049 0.075005859 2.928848 7105644
0.75190431 0.075792119 2.9038949 7171437
-1.4163388 0.10493329 2.9221785 993607
-1.3930253 0.10720456 2.9195995 1059144
-1.2612681 0.10951855 2.904985 10000536
-1.224286 0.10954784 2.9057615 9278103
-1.1777333 0.1095847 2.9067397 1655407
-1.0749671 0.10966609 2.9088981 10197915
-1.0426733 0.10969167 2.9095771 10197915
-0.85818261 0.10983776 2.9134517 1655929
-0.71408266 0.10995188 2.9164789 10197915
-0.67560434 0.10998233 2.9172873 6848150
-0.62507063 0.11002237 2.9183486 3754847
-0.50339991 0.11011873 2.9209049 10000536
-0.47566101 0.11014067 2.9214871 10000536
-0.42498171 0.11018082 2.9225519 10000536
-0.37788951 0.11021812 2.9235408 7372689
-0.20978834 0.11035124 2.927072 10000536
-0.17466435 0.11037906 2.9278102 10000536
-0.13467622 0.11041073 2.9286499 10000536
-0.024283897 0.11049813 2.9309688 10000536
0.025510225 0.11053757 2.9320149 10000536
0.075339615 0.11057703 2.9330611 10000536
0.12520488 0.11061653 2.9341087 10000536
0.16901748 0.11065122 2.935029 10000536
0.33844364 0.1107854 2.9385881 10197915
0.37506554 0.11081438 2.9393573 10197915
0.42514515 0.11085406 2.9404094 10197915
0.47526026 0.11089375 2.9414623 10197915
0.52541173 0.11093345 2.9425159 10197915
0.57559866 0.1109732 2.9435697 10197915
0.62459642 0.111012 2.9445987 10197915
0.67485476 0.11105182 2.9456546 10197915
0.73212099 0.10597884 2.9300325 10197915
0.75190854 0.10586893 2.9039116 10197915
0.69020092 -1.3184897 2.9883487 6447714
0.70861256 -1.3128254 2.9628341 6447714
0.69066614 -1.2749102 2.9877391 6447714
0.70925295 -1.274961 2.961977 6447714
0.69068664 -1.2250401 2.9877501 6447714
0.70925045 -1.2249073 2.9620178 6447714
0.69071656 -1.1751674 2.9877436 6447714
0.70931679 -1.1749747 2.9619656 6447714
0.69068599 -1.125172 2.9878259 6447714
0.70923722 -1.125041 2.9621122 6447714
0.69068825 -1.0750498 2.9878609 6447714
0.70935297 -1.0749846 2.9619915 6447714
0.69069964 -1.0249286 2.9878843 6447714
0.7092737 -1.025051 2.9621387 6447714
0.69074821 -0.97505492 2.987855 6447714
0.70930791 -0.97523558 2.9621294 6447714
0.6906991 -0.92505395 2.9879615 6447714
0.70932317 -0.9251762 2.9621472 6447714
0.69075698 -0.87492824 2.9879189 6447714
0.70930827 -0.87499332 2.9622059 6447714
0.69074494 -0.82492697 2.9879749 6447714
0.70934677 -0.82505488 2.9621918 6447714
0.69074708 -0.77504778 2.9880097 6513507
0.70931709 -0.7749899 2.9622693 6513507
0.69074917 -0.7251665 2.9880443 6513507
0.70934248 -0.72492838 2.9622746 6513507
-0.52699202 -0.65067643 2.9765327 6447714
0.69077396 -0.67516083 2.9880476 6513507
0.70933563 -0.67498571 2.9623213 6513507
-0.52641666 -0.62492311 2.9757426 6447714
0.69075769 -0.62503326 2.9881101 6513507
0.7093696 -0.62491912 2.9623134 6513507
-0.75814813 -0.59989381 2.9611683 2039583
-0.72112876 -0.59986943 2.9740713 2039583
-0.6786043 -0.59981626 2.9765234 3618615
-0.64757258 -0.59974051 2.9604118 6447714
-0.52414989 -0.58462512 2.9726083 6447714
0.69074154 -0.57490164 2.9881718 6513507
0.7093358 -0.57497668 2.9623964 6513507
-0.5101983 -0.52488017 2.9532526 3026478
0.6907903 -0.52501702 2.9881423 6513507
0.7094149 -0.52490944 2.9623284 6513507
-1.3131469 -0.46090582 2.9987202 2039583
-0.51020133 -0.48573124 2.95327 2039583
0.69082409 -0.47500917 2.9881327 6513507
0.70936322 -0.47496325 2.962436 6513507
-1.3131593 -0.4460021 2.9987485 2039583
-0.74695152 -0.43499663 2.9999602 2039583
0.69076198 -0.4248766 2.9882567 6513507
0.70936525 -0.42501408 2.9624717 6513507
-0.51020932 -0.38418639 2.9533162 6447714
0.69079179 -0.37498775 2.9882538 6513507
0.7093814 -0.3749477 2.9624877 6513507
-1.3132666 -0.31806642 2.9989936 2039583
0.69176424 -0.32504079 2.9869452 6513507
0.7094202 -0.3249962 2.9624727 6513507
-1.313302 -0.27583057 2.9990745 1777960
-0.6119439 -0.29006138 2.9541955 1909028
-0.51087785 -0.27208915 2.9795914 6447714
-0.49178886 -0.28993517 2.9529097 6447714
0.6918118 -0.27499723 2.986917 6513507
0.70942247 -0.27504787 2.9625082 6513507
-1.313345 -0.22489613 2.9991717 1712940
-0.5114283 -0.22483131 2.9818339 6447714
0.69174659 -0.22522445 2.987046 6513507
0.70932537 -0.22509429 2.9626813 6513507
-1.3133875 -0.1739585 2.9992692 1582130
-0.51144707 -0.17542434 2.9819438 6447714
0.69168127 -0.17544571 2.987175 6513507
0.709517 -0.17490517 2.9624529 6513507
-1.3134291 -0.12425997 2.9993649 1385784
-0.51142681 -0.12507696 2.9820857 6447714
0.6917603 -0.12498801 2.9871044 6513507
0.70941114 -0.12519327 2.9626386 6513507
-1.3134711 -0.074558295 2.9994602 1320249
-0.5115267 -0.07444784 2.9821408 6447714
0.69183886 -0.074534193 2.9870334 6513507
0.70941824 -0.074871212 2.9626687 6513507
-1.3135126 -0.024853464 2.9995551 1058881
-0.51150495 -0.024710318 2.9822822 6447714
0.69177353 -0.024750866 2.9871624 6513507
0.70942503 -0.024548151 2.9626956 6513507
-1.3135543 0.024854515 2.9996502 860220
-0.51152408 0.024711546 2.9823925 6447714
0.69178033 0.024751185 2.9871907 6513507
0.70943224 0.024548456 2.9627242 6513507
-1.313596 0.074565649 2.9997454 3622233
-0.51154315 0.074137107 2.9825037 9868950
0.69185889 0.07453645 2.9871199 7105644
0.70943886 0.074873477 2.9627528 7105644
-1.3136208 0.10439372 2.9998026 10197915
-1.2745634 0.10938891 2.9667494 10132122
-1.2246133 0.10942841 2.9678211 5205390
-1.1904813 0.10945542 2.9685533 1192274
-1.1111783 0.10951816 2.9702549 10197915
-1.0782094 0.10954423 2.9709618 10197915
-0.87639815 0.10970386 2.9752915 1655929
-0.72188967 0.1098261 2.9786067 10197915
-0.67522383 0.10986301 2.9796073 3824254
-0.63098663 0.10989801 2.980557 3097174
-0.51042837 0.10567477 2.9825814 10066329
-0.47469863 0.11002164 2.9839101 10000536
-0.42540145 0.11006065 2.9849679 10000536
-0.38223839 0.11009479 2.9858935 6847119
-0.21302578 0.11022864 2.9895244 10000536
-0.17591579 0.11025801 2.9903202 10000536
-0.13631211 0.11028933 2.9911699 10000536
-0.024802476 0.11037754 2.9935625 10000536
0.024814229 0.11041678 2.9946265 10000536
0.074466228 0.11045606 2.995692 10000536
0.12415358 0.11049537 2.996758 10000536
0.17014545 0.11053175 2.997745 10000536
0.69148654 0.10543844 2.9876599 10197915
0.70944321 0.1055599 2.9627709 10197915
0.64861804 -1.3565465 3.0459571 6447714
0.65716738 -1.3538953 3.0341094 6447714
0.64862192 -1.3250068 3.0459757 6447714
0.66565919 -1.3244281 3.0223641 6447714
0.64862829 -1.2745432 3.0460057 6447714
0.66599178 -1.2750933 3.0219371 6447714
0.64860958 -1.2247063 3.0460703 6447714
0.66608262 -1.2250272 3.0218539 6447714
0.64864081 -1.1748732 3.0460649 6447714
0.66600502 -1.1749617 3.0219953 6447714
0.6486721 -1.125041 3.0460601 6447714
0.66607094 -1.1248943 3.0219445 6447714
0.64865345 -1.0752004 3.0461235 6447714
0.66606063 -1.0749823 3.0219963 6447714
0.64865983 -1.024732 3.046154 6447714
0.66602415 -1.025069 3.0220866 6447714
0.64864117 -0.97488743 3.0462179 6447714
0.66607922 -0.97515601 3.022047 6447714
0.64867234 -0.92505246 3.0462127 6447714
0.66607606 -0.92516136 3.0220914 6447714
0.64870358 -0.87521791 3.0462074 6447714
0.6661039 -0.87501174 3.0220876 6447714
0.64868486 -0.82537013 3.0462713 6447714
0.66605055 -0.82493877 3.0222037 6447714
0.64869124 -0.77489638 3.0463014 6447714
0.66616786 -0.77494317 3.0220768 6447714
0.64869761 -0.72442168 3.0463314 6513507
0.66606361 -0.72494709 3.0222631 6513507
-0.54620147 -0.65071386 3.0032117 6447714
0.64867884 -0.674568 3.0463955 6513507
0.66609681 -0.67494839 3.022253 6513507
-0.54620361 -0.62458831 3.0032237 6447714
0.64873511 -0.6253708 3.0463552 6513507
0.66607636 -0.62494934 3.0223222 6513507
-0.68969899 -0.5999009 3.0104544 2039583
-0.54620665 -0.58975387 3.0032401 6447714
0.64871633 -0.57551539 3.0464196 6513507
0.66614586 -0.57494938 3.0222609 6513507
0.64872277 -0.52503675 3.0464499 6513507
0.66612846 -0.52502728 3.0223248 6513507
-1.3066221 -0.46061349 3.003428 2039583
-1.2761472 -0.46053928 3.0254166 2502714
-1.2461742 -0.46075848 3.04704 5733539
-0.76611632 -0.45011559 3.0264664 2039583
-0.7153241 -0.45777604 3.0225799 2039583
0.64872915 -0.47455716 3.0464797 6513507
0.66614097 -0.47510421 3.0223444 6513507
-1.3065372 -0.44671249 3.0035245 2039583
-1.2759956 -0.44608524 3.0255606 2502714
-1.2469802 -0.44553086 3.0464964 6062245
-0.76574117 -0.42557767 3.025948 2039583
-0.72298294 -0.4247143 3.0171857 2040357
0.64871043 -0.42469582 3.0465441 6513507
0.66614401 -0.42510128 3.0223794 6513507
-0.7506882 -0.39962009 3.0049682 2039583
-0.72466469 -0.39842471 3.0160596 2172460
0.64876658 -0.37549952 3.0465028 6513507
0.66610849 -0.37501958 3.0224671 6513507
-1.305814 -0.31754482 3.0043716 2039583
-1.2748294 -0.31820855 3.0267236 2371386
-1.2465209 -0.31933138 3.0471461 4747935
-0.7231369 -0.30080158 3.0174515 2305078
0.64874792 -0.32563636 3.0465679 6513507
0.6671198 -0.32497689 3.0211034 6513507
-1.3057455 -0.27491128 3.0045285 2039583
-1.2742006 -0.27494988 3.027287 2305851
-1.2461414 -0.27523696 3.0475304 4156828
-0.7237584 -0.27498966 3.0170836 2172976
0.64875424 -0.27515277 3.0465972 6513507
0.66713768 -0.27491513 3.0211167 6513507
-1.3058412 -0.22442523 3.0045869 2039583
-1.2742559 -0.22498356 3.0273738 2240058
-1.2461817 -0.224742 3.0476294 3696793
-0.72390062 -0.22500269 3.0171349 2107183
0.64876062 -0.22466826 3.0466278 6513507
0.66715533 -0.22485334 3.0211303 6513507
-1.3058161 -0.17427525 3.0047312 2039583
-1.2744178 -0.17516081 3.0273819 2174008
-1.246222 -0.17424375 3.0477271 3302550
-0.72373736 -0.17501014 3.0174019 2107182
0.64876693 -0.17418268 3.0466573 6513507
0.6671629 -0.17493743 3.0211601 6513507
-1.3058577 -0.12448625 3.0048268 2039583
-1.2743889 -0.12533428 3.0275283 2108471
-1.2462611 -0.12500487 3.047823 2974101
-0.723768 -0.12501258 3.0175319 2041389
0.64877325 -0.12495834 3.0466862 6513507
0.66714048 -0.12509516 3.0212276 6513507
-1.3058993 -0.074694075 3.0049231 2039583
-1.2743404 -0.075259969 3.0276906 2108471
-1.2463002 -0.07576286 3.0479188 2776979
-0.72379911 -0.075010695 3.0176628 2041389
0.64877933 -0.075733036 3.0467155 6513507
0.6671018 -0.075101756 3.0213211 6513507
-1.3059406 -0.024898726 3.0050182 2039583
-1.2743813 -0.025087394 3.0277872 2107957
-1.2463404 -0.025255011 3.048018 2579601
-0.72383034 -0.025004508 3.0177901 2041132
0.64878583 -0.025244558 3.0467455 6513507
0.66710776 -0.025034141 3.0213494 6513507
-1.3059821 0.024899783 3.0051143 1974047
-1.2744223 0.025088467 3.0278852 2042421
-1.2463807 0.02525609 3.0481153 2250894
-0.72386116 0.02500594 3.0179207 2041132
0.64879209 0.025244892 3.0467751 6513507
0.66711491 0.025034459 3.0213795 6513507
-1.306024 0.074701466 3.0052094 6316385
-1.2744628 0.075267464 3.0279808 5726572
-1.2464206 0.07577046 3.0482142 1987723
-0.72389221 0.07502073 3.0180519 8291209
0.64879847 0.075735338 3.0468059 7171437
0.66712087 0.07510405 3.0214093 7105644
-1.3060486 0.10458386 3.0052664 10197915
-1.274996 0.10523435 3.0272 8818327
-1.2346087 0.10780641 3.0377612 1788281
-1.1227618 0.10938454 3.0348294 10000536
-1.0890809 0.10941117 3.035568 10132122
-0.90165973 0.10955921 3.0396757 1986181
-0.89290112 0.10956617 3.0398681 1589621
-0.72391069 0.10503143 3.0181274 9278361
-0.67608231 0.10973749 3.0446219 2377323
-0.63841599 0.10976724 3.0454476 3425882
-0.50893581 0.10986955 3.0482857 10000536
-0.47495311 0.10989642 3.0490313 10000536
-0.43969685 0.10992427 3.0498042 10000536
0.3419508 0.11066765 3.0014305 10197915
0.37561584 0.11069429 3.0021534 10197915
0.42551774 0.11073378 3.0032234 10197915
0.47545534 0.11077328 3.0042951 10197915
0.52542853 0.11081281 3.0053673 10197915
0.57543743 0.11085238 3.0064404 10197915
0.63214493 0.10950283 3.0187447 10197915
0.66723281 0.10612488 3.0189874 10197915
0.62519819 -1.3637353 3.0784142 6447714
0.62794703 -1.3249896 3.0746307 6447714
0.62794369 -1.2749898 3.0746768 6447714
0.62799722 -1.2250565 3.0746384 6447714
0.62798697 -1.1750547 3.074692 6447714
0.6279881 -1.1249839 3.0747299 6447714
0.62802595 -1.0749806 3.0747147 6447714
0.62793648 -1.0250432 3.0748754 6447714
0.62803894 -0.97517294 3.0747743 6447714
0.62801707 -0.92516398 3.0748425 6447714
0.6280508 -0.87502313 3.0748355 6447714
0.62798166 -0.82501328 3.0749671 6447714
0.62809467 -0.77500516 3.0748513 6447714
0.62806386 -0.72499382 3.0749311 6513507
0.62801617 -0.67498338 3.0750363 6513507
0.62831032 -0.62520772 3.0746658 6513507
0.6290583 -0.57493305 3.0736685 6513507
0.62905329 -0.52499491 3.0737119 6513507
-1.220485 -0.46053919 3.0655751 2704220
-1.1866145 -0.46055517 3.0900111 2111566
0.62905967 -0.47505271 3.0737426 6513507
-1.2212064 -0.44619894 3.0650897 2704478
-1.1866817 -0.44617996 3.0899985 2045517
0.62906832 -0.42504132 3.0737677 6513507
0.62914175 -0.37495464 3.0737059 6513507
-1.2313553 -0.31820202 3.05809 1917029
0.62901598 -0.32494211 3.0739164 6513507
-1.2315066 -0.27513894 3.05809 1851237
0.62906146 -0.27499595 3.0738931 6513507
-1.2315788 -0.22531612 3.0581634 1654116
0.62909263 -0.22498219 3.0738871 6513507
-1.2315353 -0.17484935 3.058322 1654372
0.62919176 -0.17496182 3.0737898 6513507
-1.2314422 -0.1245836 3.0585148 1720165
0.62906104 -0.12480349 3.0740085 6513507
-1.2317489 -0.075192913 3.0584192 1720423
0.62906545 -0.075136632 3.0740402 6513507
-1.2316527 -0.0253428 3.0586133 1654629
0.62916183 -0.025333783 3.073945 6513507
-1.2316926 0.025343895 3.0587127 1588837
0.6291675 0.025334124 3.073976 6513507
-1.2318674 0.075200371 3.0587132 1589093
0.62908411 0.075138867 3.0741305 7105644
-1.2310411 0.10427713 3.0593817 1456736
-0.41450164 0.10994419 3.0503566 10000536
-0.38551635 0.10996708 3.0509918 5664653
-0.2151407 0.1101017 3.0547268 10000536
-0.17469326 0.11013367 3.0556138 10000536
-0.1367545 0.11016365 3.0564456 10000536
-0.025343683 0.11025167 3.058888 10000536
0.025355954 0.11029174 3.059999 10000536
0.074823432 0.11033083 3.061084 10000536
0.12432631 0.11036992 3.0621688 10000536
0.17259321 0.1104081 3.0632277 10000536
0.34561127 0.11054476 3.0670195 10197915
0.37491569 0.11056796 3.067663 10197915
0.4246316 0.11060723 3.0687528 10197915
0.4756588 0.11064756 3.0698714 10197915
0.52544606 0.11068688 3.0709629 10197915
0.57526904 0.11072625 3.0720553 10197915
0.62789541 0.10589969 3.073247 10197915
0.57891262 -1.4030298 3.1425371 6447714
0.58724201 -1.3741527 3.1310151 6447714
0.60482568 -1.3700391 3.1066453 6447714
0.58746827 -1.3249245 3.1307378 6447714
0.60487044 -1.3249843 3.1066177 6447714
0.58754033 -1.2750516 3.1306775 6447714
0.60492831 -1.2748059 3.1065767 6447714
0.58755362 -1.2249805 3.1306963 6447714
0.60492134 -1.2249408 3.1066241 6447714
0.58756804 -1.1750066 3.1307168 6447714
0.60491401 -1.1750826 3.1066725 6447714
0.58756524 -1.1250316 3.1307564 6447714
0.60490674 -1.125222 3.1067214 6447714
0.58757973 -1.0749563 3.1307771 6447714
0.60493863 -1.0750324 3.1067152 6447714
0.58751118 -1.0249796 3.1309094 6447714
0.60491854 -1.0248504 3.1067815 6447714
0.58762389 -0.97510344 3.1307907 6447714
0.60495073 -0.97530293 3.1067748 6447714
0.5875389 -0.92522353 3.1309464 6447714
0.60493052 -0.92511767 3.1068416 6447714
0.58762634 -0.87504536 3.1308649 6447714
0.60496247 -0.87492627 3.1068356 6447714
0.58762455 -0.82496524 3.1309047 6447714
0.60495502 -0.82505894 3.106884 6447714
0.58759719 -0.77508265 3.1309836 6447714
0.60496122 -0.77486783 3.1069143 6447714
0.587578 -0.72510123 3.1310458 6513507
0.6050064 -0.72499776 3.10689 6513507
0.58759218 -0.67501795 3.1310658 6513507
0.60492074 -0.67512578 3.1070468 6513507
0.58760607 -0.62493443 3.1310842 6513507
0.60533237 -0.62388247 3.1065152 6513507
0.58763623 -0.57495028 3.1310825 6513507
0.60599637 -0.57512105 3.1056323 6513507
0.58764219 -0.52506185 3.1311092 6513507
0.60600233 -0.52494776 3.1056621 6513507
-1.1612997 -0.46055645 3.1082752 6316128
-1.1328061 -0.46048129 3.1288323 6250335
0.5876888 -0.47507527 3.131084 6513507
0.60605037 -0.47503307 3.1056345 6513507
-1.1614761 -0.44618094 3.1081841 5329233
-1.1329448 -0.44614255 3.1287687 5592405
0.58754659 -0.4249877 3.131319 6513507
0.60595202 -0.42510897 3.1058083 6513507
-1.1292795 -0.35592377 3.1316404 2039583
0.58764279 -0.37499788 3.1312265 6513507
0.60608262 -0.37494224 3.1056669 6513507
-1.1600651 -0.32339934 3.1095135 1977918
-1.1328077 -0.32505339 3.1291733 2039583
0.58767265 -0.32501069 3.1312218 6513507
0.60596311 -0.32501003 3.1058705 6513507
-1.1607327 -0.27496287 3.1091523 2043969
-1.1329643 -0.27499026 3.1291859 2039583
0.58762974 -0.27501735 3.1313198 6513507
0.60609376 -0.27484682 3.1057265 6513507
-1.1605406 -0.22518912 3.1094148 1912640
-1.1332386 -0.22476989 3.1291149 2039583
0.58775008 -0.2250257 3.1311901 6513507
0.60603756 -0.22517493 3.105844 6513507
-1.1607485 -0.17496786 3.1093936 1715520
-1.1330763 -0.17502141 3.1293581 2039583
0.5876404 -0.17513354 3.1313837 6513507
0.60604328 -0.17499475 3.1058741 6513507
-1.1607012 -0.12496012 3.1095514 1518143
-1.1329513 -0.12542696 3.1295719 2039583
0.58753192 -0.12523279 3.1315696 6513507
0.60604954 -0.12481363 3.1059034 6513507
-1.1607389 -0.074720755 3.1096511 1452863
-1.1333051 -0.074883632 3.1294448 2039583
0.58781391 -0.07475403 3.1312189 6513507
0.6060552 -0.074631527 3.1059344 6513507
-1.160776 -0.024478201 3.1097529 1387071
-1.1331849 -0.024634894 3.1296585 2039583
0.58765793 -0.024649257 3.1314707 6513507
0.60606134 -0.024448475 3.1059644 6513507
-1.1608121 0.024479229 3.1098495 1255229
-1.1332207 0.024635924 3.1297572 2039583
0.58766365 0.024649581 3.1315036 6513507
0.606067 0.02444878 3.1059949 6513507
-1.1608495 0.074728191 3.1099491 3951195
-1.1334364 0.074811347 3.1297271 6908265
0.5878309 0.074756257 3.1313074 7105644
0.6060729 0.074633792 3.1060245 7105644
-1.1607605 0.10540527 3.1082284 10000536
-1.1306198 0.10575467 3.1235344 10000536
-0.91525161 0.10941828 3.1071956 1721722
-0.70777088 0.10958205 3.1118464 3367058
-0.67441255 0.10960839 3.1125937 1520208
-0.64489222 0.10963169 3.1132555 6712953
-0.51510435 0.1097341 3.1161637 10197915
-0.47521883 0.1097656 3.1170583 10000536
-0.42500937 0.10980522 3.1181834 10000536
-0.39022875 0.10983267 3.118963 4087945
-0.21734992 0.10996909 3.1228373 10000536
-0.17470884 0.11000276 3.1237929 10000536
-0.13850971 0.11003134 3.1246047 10000536
-0.05051681 0.11010074 3.1265755 10000536
-0.024613889 0.11012121 3.127157 10000536
0.024625462 0.11016008 3.1282606 10000536
0.075196885 0.1102 3.1293941 10000536
0.12580465 0.11023993 3.1305282 10000536
0.17515026 0.11027888 3.131634 10066329
0.34943539 0.11041639 3.1355391 10197915
0.37548724 0.11043699 3.1361244 10197915
0.42500943 0.11047605 3.137234 10197915
0.47456667 0.11051519 3.1383445 10197915
0.52415895 0.11055433 3.139456 10197915
0.58332962 0.10648433 3.1333699 10197915
0.60607654 0.10551731 3.1060433 10197915
0.54419559 -1.4135987 3.1906486 6447714
0.56085467 -1.4084927 3.1675622 6447714
0.54456937 -1.3747532 3.190161 6447714
0.56253576 -1.3748566 3.1652584 6447714
0.54453671 -1.3249875 3.1902444 6447714
0.56254119 -1.3250387 3.1652887 6447714
0.54450411 -1.2752174 3.1903276 6447714
0.56260663 -1.2749832 3.1652369 6447714
0.54453784 -1.2252231 3.1903186 6447714
0.56255221 -1.224925 3.1653507 6447714
0.54454309 -1.1750094 3.1903496 6447714
0.56260753 -1.1748672 3.1653118 6447714
0.5445767 -1.125015 3.1903419 6447714
0.56256312 -1.124808 3.1654131 6447714
0.54455364 -1.0750202 3.1904123 6447714
0.56259865 -1.0748668 3.1654003 6447714
0.544559 -1.024804 3.1904435 6447714
0.56262475 -1.0250434 3.1654043 6447714
0.54460251 -0.97502697 3.1904216 6447714
0.56257945 -0.97533846 3.1655042 6447714
0.54456961 -0.92524981 3.190506 6447714
0.56263489 -0.92527336 3.1654665 6447714
0.54457498 -0.8750304 3.1905365 6447714
0.56257045 -0.87509114 3.1655924 6447714
0.54458028 -0.82480985 3.1905673 6447714
0.56264573 -0.82502645 3.1655278 6447714
0.54459494 -0.77480781 3.1905856 6447714
0.56262136 -0.7749604 3.1655993 6447714
0.54459077 -0.72480696 3.1906302 6447714
0.56260687 -0.72501218 3.1656582 6447714
0.54462451 -0.67480183 3.1906211 6513507
0.56264234 -0.67506188 3.1656466 6513507
0.54460138 -0.62480068 3.1906908 6513507
0.5626176 -0.62511277 3.1657212 6513507
0.54460675 -0.5750159 3.1907227 6513507
0.56265318 -0.57504183 3.1657081 6513507
0.54461187 -0.52523029 3.1907525 6513507
0.56267881 -0.52485245 3.1657131 6513507
0.54461718 -0.47500315 3.1907835 6513507
0.56263405 -0.47489992 3.1658106 6513507
0.54459411 -0.42499414 3.190855 6513507
0.56263971 -0.42494556 3.1658444 6513507
0.54462767 -0.37498558 3.1908464 6513507
0.56264538 -0.3749904 3.1658728 6513507
0.54462367 -0.3249751 3.1908908 6513507
0.56266069 -0.32503381 3.1658905 6513507
0.54464763 -0.275186 3.1908956 6513507
0.56267607 -0.27495793 3.1659052 6513507
0.54467195 -0.22539724 3.1908996 6513507
0.56269169 -0.22488165 3.1659257 6513507
0.54469615 -0.17560866 3.1909044 6513507
0.56275666 -0.17468819 3.1658707 6513507
0.54465413 -0.12558933 3.1910007 6513507
0.56267256 -0.12460645 3.1660295 6513507
0.54451513 -0.075929403 3.1912315 6513507
0.56249857 -0.074471831 3.166306 6513507
0.54359704 -0.025129978 3.1925426 6513507
0.56162679 -0.024933266 3.1675525 6513507
0.54360241 0.025130302 3.1925743 6513507
0.56163222 0.02493359 3.1675832 6513507
0.54360759 0.075391561 3.1926057 7171437
0.56163752 0.074801378 3.1676152 7105644
-0.93599814 0.10926563 3.1776283 1721978
-0.71596837 0.10943908 3.1826727 2313337
-0.67660332 0.10947011 3.1835749 2834261
-0.52023727 0.10959335 3.1871591 10197915
-0.47417986 0.10962967 3.188215 10197915
-0.42414054 0.10966911 3.1893623 9343639
-0.39383745 0.10969299 3.1900568 1788803
-0.22098079 0.10982925 3.1940191 10000536
-0.17604668 0.10986467 3.1950495 10000536
-0.14034477 0.10989282 3.195868 10000536
-0.051669206 0.10996267 3.1978993 10000536
-0.025175458 0.10998359 3.1985075 10000536
0.019883912 0.11001911 3.1995406 10000536
0.54361087 0.10581328 3.1926246 10197915
0.56164098 0.104985 3.1676323 10197915
0.50317538 -1.4516764 3.2474761 6447714
0.51822442 -1.4216307 3.2266397 6447714
0.5195272 -1.3749171 3.2248697 6447714
0.51977277 -1.3249493 3.2245698 6447714
0.51970237 -1.2749805 3.2247045 6447714
0.51970071 -1.2250117 3.2247448 6447714
0.51966447 -1.1750423 3.2248321 6447714
0.51973158 -1.1250712 3.2247801 6447714
0.519647 -1.0750211 3.2249327 6447714
0.51972044 -1.0249696 3.2248719 6447714
0.51976103 -0.97515404 3.2248516 6447714
0.51975095 -0.92509896 3.2249072 6447714
0.51972902 -0.87488818 3.2249725 6447714
0.51967245 -0.82499045 3.2250922 6447714
0.51977402 -0.77509159 3.2249868 6447714
0.51971614 -0.72495615 3.2251086 6447714
0.51977021 -0.6748969 3.2250686 6513507
0.51974767 -0.62499613 3.2251425 6513507
0.5197655 -0.57493502 3.2251513 6513507
0.51977879 -0.52495277 3.2251749 6513507
-0.96530092 -0.4604364 3.2496843 4024729
0.51976246 -0.47496909 3.2252331 6513507
-0.9653216 -0.42678782 3.2497542 4090778
0.5197888 -0.42506438 3.2252374 6513507
0.5197314 -0.37507862 3.2253518 6513507
-0.96538639 -0.32179543 3.2499723 3828634
0.51984006 -0.32501316 3.2252443 6513507
0.51977539 -0.27502757 3.2253678 6513507
0.51981473 -0.22487921 3.2253549 6513507
0.51987642 -0.17481364 3.2253053 6513507
0.51958483 -0.12481908 3.2257502 6513507
0.51999241 -0.075311266 3.2252214 6513507
0.51976711 -0.025389975 3.2255728 6513507
0.51977158 0.025390312 3.2256041 6513507
0.52000761 0.075313583 3.2253172 7105644
0.045076266 0.11003897 3.2001183 10000536
0.07558696 0.11006302 3.2008178 10000536
0.12602276 0.11010278 3.2019737 10132122
0.17516619 0.11014152 3.2031009 10197915
0.20174329 0.11016244 3.2037091 10197915
0.37741628 0.11030093 3.2077365 10197915
0.42407057 0.11033771 3.2088058 10197915
0.47475851 0.11037766 3.2099686 10197915
0.51886928 0.10578199 3.2238209 10197915
0.47849011 -1.4591914 3.2816851 6447714
0.48309538 -1.4253018 3.2753284 6447714
0.48306113 -1.3752747 3.2754145 6447714
0.4831194 -1.325078 3.2753716 6447714
0.48308975 -1.2749709 3.2754529 6447714
0.4831171 -1.2249432 3.2754509 6447714
0.48309967 -1.1750855 3.2755151 6447714
0.48308817 -1.1250561 3.2755668 6447714
0.48305133 -1.0749415 3.2756588 6447714
0.48318601 -1.0250813 3.2755079 6447714
0.4830876 -0.97530293 3.2756851 6447714
0.48310351 -0.92518526 3.2756999 6447714
0.48314637 -0.87498248 3.2756801 6447714
0.4831017 -0.82503283 3.2757795 6447714
0.48313665 -0.77499694 3.2757711 6447714
0.48316067 -0.72504503 3.2757752 6447714
0.48310816 -0.67509365 3.2758865 6447714
0.4831585 -0.62505299 3.2758532 6513507
0.48316324 -0.57501566 3.2758873 6513507
0.48313749 -0.52497429 3.2759595 6513507
-0.95764136 -0.46101797 3.2552087 2577276
0.48320749 -0.47501794 3.2759023 6513507
-0.95769477 -0.42904371 3.2552516 2511484
0.48315001 -0.42497492 3.2760193 6513507
0.48314038 -0.37493193 3.276072 6513507
-0.95787889 -0.31777599 3.255398 2379901
0.48321703 -0.32497403 3.2760034 6513507
-0.95874798 -0.27508521 3.2548797 2379904
0.48317266 -0.27500919 3.2761028 6513507
-0.95877838 -0.22519943 3.2549825 2182526
0.48313433 -0.2250523 3.276196 6513507
-0.95880908 -0.17531048 3.2550859 2182783
0.48320514 -0.17491816 3.276134 6513507
-0.95883977 -0.12541838 3.2551904 2183296
0.48329887 -0.12512888 3.2760444 6513507
-0.95886993 -0.075523123 3.2552943 2183552
0.48300707 -0.074899428 3.276485 6513507
-0.95890075 -0.02562464 3.2553976 2118273
0.48330808 -0.024694722 3.2761078 6513507
-0.9589321 0.025625758 3.2555048 2051967
0.48331296 0.024695041 3.2761378 6513507
-0.95896262 0.075530626 3.2556074 1920126
0.48302144 0.074901707 3.2765815 7105644
-0.95899159 0.10502237 3.2546864 1722493
-0.94968206 0.1091124 3.2515221 1192274
-0.7245481 0.10928962 3.256803 2048617
-0.68426996 0.10932133 3.2577479 3425626
-0.55252868 0.10942499 3.2608371 10197915
-0.52561045 0.10944623 3.2614698 10197915
-0.47443992 0.10948651 3.26267 10197915
-0.42457998 0.10952576 3.26384 7964052
-0.39896357 0.10954593 3.264441 1986181
-0.22342932 0.1096841 3.2685587 10000536
-0.17474155 0.10972243 3.269701 10000536
-0.14091225 0.10974908 3.2704952 10000536
-0.051520199 0.1098194 3.2725904 10000536
-0.024407642 0.1098408 3.2732275 10000536
0.024419019 0.10987922 3.2743728 10000536
0.074637778 0.10991874 3.2755508 10132122
0.12489234 0.10995831 3.2767301 10197915
0.17518346 0.10999791 3.27791 10197915
0.20510171 0.11002143 3.2786109 10197915
0.38216364 0.11016083 3.2827654 10197915
0.42445287 0.11019413 3.2837572 10197915
0.48082089 0.10612439 3.2766898 10197915
0.5000003 0.10916448 3.2530739 10197915
0.44010738 -1.4709357 3.334878 6447714
0.45769617 -1.4653381 3.3105025 6447714
0.4406226 -1.4248977 3.3341992 6447714
0.45801672 -1.424808 3.3100901 6447714
0.44062698 -1.3751838 3.3342319 6447714
0.45808381 -1.3749942 3.3100338 6447714
0.44071653 -1.3251604 3.3341448 6447714
0.45799384 -1.3249593 3.3101981 6447714
0.44063562 -1.2749869 3.3342955 6447714
0.45806161 -1.2751408 3.3101408 6447714
0.44063976 -1.2251165 3.3343279 6447714
0.45797178 -1.2250984 3.3103056 6447714
0.44065848 -1.1750906 3.3343406 6447714
0.45810169 -1.1748288 3.310163 6447714
0.44064835 -1.1250658 3.3343923 6447714
0.45801184 -1.1247823 3.3103263 6447714
0.44066709 -1.0751919 3.3344052 6447714
0.45807946 -1.0749648 3.3102703 6447714
0.44071421 -1.0251658 3.334379 6447714
0.45809412 -1.0249169 3.3102887 6447714
0.44066134 -0.97529113 3.3344896 6447714
0.45805666 -0.97509909 3.3103786 6447714
0.4406231 -0.92510664 3.3345814 6447714
0.45801935 -0.92527807 3.3104684 6447714
0.44066986 -0.87492239 3.3345544 6447714
0.45806566 -0.87499928 3.3104429 6447714
0.44071707 -0.82504487 3.334528 6447714
0.45812285 -0.82494992 3.3104022 6447714
0.44062093 -0.77514941 3.3346984 6447714
0.4579187 -0.77469975 3.3107233 6447714
0.43951771 -0.72494733 3.3362665 6447714
0.45694339 -0.72509634 3.3121126 6447714
0.43954611 -0.67502213 3.3362651 6447714
0.45692965 -0.67511564 3.3121705 6447714
0.43952626 -0.62509775 3.3363314 6513507
0.45697013 -0.62494218 3.3121531 6513507
0.43953037 -0.57499856 3.3363638 6513507
0.45693859 -0.57495779 3.3122346 6513507
0.43959108 -0.52472687 3.3363183 6513507
0.45696113 -0.52517003 3.3122427 6513507
-0.86603522 -0.46845526 3.3212821 2039583
0.43953896 -0.47479832 3.3364286 6513507
0.45698294 -0.47499058 3.3122509 6513507
-0.86737448 -0.44645426 3.3203719 2039583
0.4395192 -0.42486936 3.336494 6513507
0.4569155 -0.42481098 3.3123827 6513507
0.4395476 -0.37493792 3.336493 6513507
0.45693824 -0.37502024 3.3123891 6513507
0.43954393 -0.32500648 3.3365364 6513507
0.45697889 -0.32503432 3.3123713 6513507
0.43956423 -0.27490181 3.3365474 6513507
0.457055 -0.27485588 3.3123038 6513507
0.43958464 -0.22479713 3.3365574 6513507
0.45696944 -0.2250593 3.3124607 6513507
0.43966058 -0.17452447 3.3364902 6513507
0.45691952 -0.17545576 3.3125679 6513507
0.43956888 -0.12441024 3.3366559 6513507
0.45694318 -0.12507322 3.3125741 6513507
0.4395732 -0.074646868 3.336688 6513507
0.45707297 -0.074510671 3.3124325 6513507
0.43957749 -0.024882503 3.3367207 6513507
0.45698717 -0.024702553 3.3125896 6513507
0.43958166 0.02488282 3.3367522 6513507
0.45699173 0.024702867 3.3126218 6513507
0.43958595 0.07464911 3.3367851 7105644
0.45708597 0.074512914 3.3125293 7105644
-0.75827014 0.10911359 3.3338754 2775693
-0.72391844 0.1091406 3.3347006 1322830
-0.69230229 0.10916545 3.3354599 5989746
-0.55880022 0.10927037 3.3386657 10197915
-0.52572805 0.1092964 3.3394611 10197915
-0.47609198 0.10933542 3.3406532 10197915
-0.42918122 0.10937228 3.3417797 7175826
-0.25090817 0.1095124 3.3460608 10000536
-0.22461073 0.10953311 3.346694 10000536
-0.17475942 0.1095723 3.3478906 10000536
-0.14289267 0.10959737 3.3486569 10000536
0.43958858 0.10506227 3.3368046 10197915
0.45655614 0.10463771 3.3132861 10197915
-0.76998746 -1.5101093 3.3879533 2039583
0.39664498 -1.5092224 3.3950889 6447714
0.40860653 -1.5059694 3.3785124 6447714
0.39661303 -1.4747725 3.3951597 6447714
0.4146398 -1.4750358 3.370173 6447714
0.39665142 -1.4248526 3.3951454 6447714
0.41464391 -1.4247857 3.3702059 6447714
0.39668989 -1.374934 3.3951299 6447714
0.41475093 -1.3747486 3.3700953 6447714
0.39665917 -1.3250127 3.395211 6447714
0.41467234 -1.3249294 3.3702445 6447714
0.39662844 -1.2750887 3.3952918 6447714
0.41463533 -1.2749982 3.3703337 6447714
0.39666691 -1.2251676 3.395277 6447714
0.4147113 -1.2249602 3.3702669 6447714
0.39670533 -1.1752478 3.395262 6447714
0.41469461 -1.1749202 3.370327 6447714
0.39667454 -1.12532 3.3953428 6447714
0.41474026 -1.1249874 3.3703034 6447714
0.39667851 -1.0746911 3.3953762 6447714
0.41471303 -1.0750533 3.3703792 6447714
0.39664775 -1.0247583 3.3954573 6447714
0.41467604 -1.0249041 3.3704674 6447714
0.39672077 -0.97554618 3.3953941 6447714
0.41470063 -0.97507423 3.3704727 6447714
0.39668998 -0.9256115 3.3954744 6447714
0.4146843 -0.92524487 3.370533 6447714
0.39669389 -0.87497878 3.3955078 6447714
0.41474977 -0.87509185 3.3704815 6447714
0.39669776 -0.82434493 3.3955412 6447714
0.41472283 -0.82504618 3.3705566 6447714
0.39666706 -0.77440399 3.395622 6447714
0.41469616 -0.77499813 3.3706331 6447714
0.39674005 -0.72519386 3.3955586 6447714
0.41474119 -0.72495043 3.3706074 6447714
-0.76012522 -0.67645121 3.3971703 6447714
0.39670926 -0.67525101 3.3956397 6447714
0.41476607 -0.67500764 3.3706133 6447714
0.3967132 -0.62461334 3.3956733 6513507
0.41476971 -0.62506604 3.3706434 6513507
0.39668244 -0.57466555 3.3957539 6513507
0.41470212 -0.57512248 3.3707786 6513507
-0.76807183 -0.51675332 3.3918386 2039583
0.39675543 -0.52545714 3.3956904 6513507
0.41471618 -0.52506894 3.370795 6513507
-0.76857555 -0.47492072 3.3915813 2701385
0.39672467 -0.47550762 3.3957715 6513507
0.41475126 -0.47490853 3.3707869 6513507
-0.76753962 -0.44600984 3.3924017 4155796
0.39672855 -0.42486605 3.3958054 6513507
0.41481692 -0.42496139 3.3707323 6513507
0.39673248 -0.37422341 3.3958375 6513507
0.4147698 -0.37512347 3.3708372 6513507
-0.7686522 -0.31898743 3.3919194 4484761
0.39673623 -0.32498658 3.3958707 6513507
0.41472185 -0.32517385 3.3709407 6513507
-0.76867348 -0.27543288 3.3920138 4090520
0.39674008 -0.27574885 3.3959029 6513507
0.41473633 -0.27511543 3.3709593 6513507
-0.76869828 -0.22485046 3.3921242 3498900
0.39674389 -0.2251033 3.3959367 6513507
0.41475046 -0.22505689 3.3709781 6513507
-0.76872313 -0.17426464 3.3922322 3038866
0.39674786 -0.17445676 3.3959699 6513507
0.41479585 -0.17510624 3.370954 6513507
-0.76874715 -0.12508093 3.3923383 2776721
0.39675164 -0.12521614 3.3960028 6513507
0.41490382 -0.12537508 3.3708432 6513507
-0.76877135 -0.075894155 3.3924451 2645649
0.39675543 -0.075974531 3.396035 6513507
0.41475251 -0.075416476 3.3710895 6513507
-0.76879609 -0.025298774 3.3925543 2513807
0.39675933 -0.025325065 3.3960683 6513507
0.41475666 -0.025139064 3.3711233 6513507
-0.76882112 0.025299864 3.3926644 2184587
0.39676321 0.025325397 3.3961017 6513507
0.41476062 0.025139375 3.3711557 6513507
-0.76890588 0.075752072 3.3927305 1986438
0.39676717 0.075976871 3.3961358 7171437
0.41476464 0.075418793 3.3711905 7171437
-0.76851463 0.10522746 3.3930874 2248838
-0.052751772 0.10966818 3.3508205 10000536
-0.024991183 0.10969004 3.3514884 10000536
0.025003113 0.10972935 3.352689 10132122
0.07503324 0.10976867 3.3538909 10197915
0.12509924 0.10980804 3.3550937 10197915
0.17520119 0.10984743 3.3562975 10197915
0.20722815 0.10987259 3.3570657 10197915
0.39075008 0.10833026 3.3744252 10197915
0.41508079 0.10589662 3.3687246 10197915
-0.75111717 -1.5135082 3.4015596 2039583
-0.7228955 -1.5177428 3.4219086 2039583
-0.69180787 -1.5227064 3.4443269 2039583
0.37380621 -1.5166258 3.4267404 6447714
0.3758488 -1.475211 3.4239388 6447714
0.37594494 -1.4251016 3.4238467 6447714
0.37582818 -1.3748103 3.4240463 6447714
0.37585965 -1.324891 3.424041 6447714
0.37597579 -1.2749714 3.4239175 6447714
0.37737551 -1.2276206 3.4220142 6447714
0.38819066 -1.1749482 3.4070635 6447714
0.38816658 -1.1249919 3.407135 6447714
0.38814276 -1.0750331 3.4072075 6447714
0.38820192 -1.0253586 3.4071634 6447714
0.38817793 -0.97539759 3.4072344 6447714
0.38818178 -0.92487258 3.4072685 6447714
0.38815784 -0.87462485 3.4073393 6447714
0.38821697 -0.82495093 3.4072952 6447714
0.38819307 -0.77498376 3.4073675 6447714
-0.70961124 -0.70550001 3.4335423 6447714
-0.69308633 -0.71021974 3.4454522 6447714
0.38822418 -0.7247355 3.4073629 6447714
-0.75273317 -0.67943364 3.4024959 6447714
-0.72343516 -0.68567836 3.4236188 6447714
-0.69376045 -0.68675798 3.4450245 6447714
0.38820076 -0.67477179 3.4074333 6447714
0.38817662 -0.62508774 3.4075034 6513507
-0.71479493 -0.55450761 3.4301822 2039583
0.38823545 -0.57511932 3.4074619 6513507
-0.75396973 -0.51962411 3.4020066 2039583
-0.72786653 -0.52429658 3.4208269 2039583
0.3882668 -0.52487051 3.4074559 6513507
-0.75404632 -0.47497913 3.4020641 1713456
-0.72838676 -0.47488588 3.4205761 2041390
0.38813257 -0.47489652 3.4076812 6513507
-0.75405991 -0.44679865 3.4021249 1454155
-0.72809404 -0.44622877 3.4208601 2372935
0.38824698 -0.42521238 3.4075606 6513507
0.3882781 -0.3752445 3.4075553 6513507
-0.75412226 -0.31715453 3.4024065 1520462
-0.72848755 -0.31832892 3.4208989 2241607
0.38822699 -0.32470366 3.407665 6513507
-0.75414276 -0.27487466 3.4024978 1257291
-0.72850031 -0.27487504 3.4209988 2044743
0.38814664 -0.27471921 3.4078145 6513507
-0.75416642 -0.22554521 3.4026053 1125706
-0.72828585 -0.22487892 3.4212809 1847109
0.38831776 -0.22533113 3.4076164 6513507
-0.75419092 -0.17480324 3.4027159 1125450
-0.72880709 -0.17513248 3.4210291 1650244
0.38823837 -0.17506267 3.407764 6513507
-0.75421536 -0.1240579 3.4028254 1125449
-0.72851914 -0.12473366 3.4213629 1518915
0.38824219 -0.12423922 3.4077978 6513507
-0.75423896 -0.074718982 3.4029334 1059655
-0.72854257 -0.07512603 3.4214714 1453379
0.38747409 -0.073806696 3.4089015 6513507
-0.7542628 -0.025376962 3.4030402 1059658
-0.72856557 -0.025515215 3.4215801 1387586
0.38702753 -0.025425648 3.4095571 6513507
-0.75428736 0.025378063 3.4031508 1126220
-0.72858924 0.025516307 3.4216919 1256001
0.38703135 0.025425987 3.4095907 6513507
-0.75431108 0.074726366 3.4032578 1059657
-0.72861242 0.075133473 3.4217999 2111054
0.38703495 0.074866056 3.4096231 7039851
-0.75432533 0.10433673 3.4033222 994123
-0.7282548 0.10484848 3.4200869 2439761
