# .PCD v0.7 - Point Cloud Data file format
VERSION 0.7
FIELDS x y z rgb
SIZE 4 4 4 4
TYPE F F F U
COUNT 1 1 1 1
WIDTH 1159
HEIGHT 1
VIEWPOINT 0 0 0 1 0 0 0
POINTS 1159
DATA ascii
0.67522871 0.11227945 0.9220714 2894892
0.71928281 0.11218012 0.92971343 2894892
0.75262934 0.11206863 0.94915432 2894892
-0.70110238 -0.41268876 0.95074683 6447714
-0.67323673 -0.41827813 0.97571754 6447714
-0.6480583 -0.42332155 0.99827945 6447714
-0.70112538 -0.37498394 0.95076573 6447714
-0.67563283 -0.37498811 0.97362024 6447714
-0.64808798 -0.37506238 0.99830323 6447714
-0.70115107 -0.3250694 0.95079482 6447714
-0.67566431 -0.32498646 0.97364587 6447714
-0.64810741 -0.32502973 0.9983387 6447714
-0.70116889 -0.27505195 0.95083135 6447714
-0.67566824 -0.27499357 0.97369426 6447714
-0.64813358 -0.27493402 0.99836725 6447714
-0.70098859 -0.22443551 0.95104545 6447714
-0.67549586 -0.22502214 0.97389853 6447714
-0.6481514 -0.22501262 0.99840337 6447714
-0.70097816 -0.17502798 0.95110708 6447714
-0.67547083 -0.17500003 0.97396976 6447714
-0.64817291 -0.17496961 0.99843663 6447714
-0.70100766 -0.12499134 0.95113391 6447714
-0.67548108 -0.12500158 0.97400814 6447714
-0.64819813 -0.1249828 0.99846667 6447714
-0.70102775 -0.074870832 0.95116806 6447714
-0.675529 -0.075004317 0.97401947 6447714
-0.64821231 -0.074932218 0.99850631 6447714
-0.70105135 -0.024826318 0.95119959 6447714
-0.67551202 -0.025008017 0.97408259 6447714
-0.64824128 -0.024880534 0.99853319 6447714
-0.70107388 0.024827402 0.95123017 6447714
-0.67552948 0.025009153 0.974114 6447714
-0.64826268 0.024881644 0.99856609 6447714
-0.70112813 0.07535661 0.95123535 6447714
-0.67559689 0.075008094 0.97411931 6447714
-0.6484803 0.074287593 0.99842304 6447714
-0.70135581 0.10750211 0.95105547 7895160
-0.67471039 0.10818708 0.97284502 8224125
-0.62991142 0.11315566 0.97856236 9803157
-0.57502258 0.11438022 0.97562373 10197915
-0.52502209 0.11429252 0.9748612 10197915
-0.47498235 0.11420491 0.97404993 10197915
-0.42496109 0.11411706 0.97333211 10197915
-0.37424406 0.11402607 0.97333193 10197915
-0.32478055 0.11393238 0.97519505 10197915
-0.27497721 0.11384496 0.97446275 10197915
-0.22499658 0.11375733 0.97370499 10197915
-0.17577793 0.11366562 0.97498584 10197915
-0.12495068 0.11357277 0.97560334 10197915
-0.074948467 0.11348513 0.97483319 10197915
-0.024966208 0.11339743 0.97409689 10197915
0.024998065 0.11330976 0.97335964 10197915
0.074998483 0.11322228 0.97252953 10132122
0.12508719 0.11312554 0.97509342 9934743
0.1749531 0.11303779 0.97446847 9934743
0.22498943 0.11295003 0.97370523 9934743
0.27460483 0.11285538 0.97583699 9934743
0.32495549 0.11276559 0.97563082 9934743
0.37489837 0.11267817 0.97481102 9934743
0.42499167 0.11259019 0.97409809 10000536
0.47506458 0.1125024 0.97332329 10000536
0.52500218 0.1124149 0.97253394 5526612
0.57564503 0.11231919 0.97436476 2894892
0.625085 0.11223026 0.97444278 2894892
0.6748414 0.11214223 0.97398353 2894892
0.72503024 0.11204603 0.97631109 2894892
0.76525629 0.11196006 0.98150557 2894892
-0.61332881 -0.45528433 1.0293742 6447714
-0.59504128 -0.45896485 1.0457621 6447714
-0.62340677 -0.42491087 1.0203785 6447714
-0.59521472 -0.42499372 1.0456411 6447714
-0.62349612 -0.37501189 1.0203533 6447714
-0.5952332 -0.37494472 1.0456781 6447714
-0.6235286 -0.32500827 1.0203724 6447714
-0.5952493 -0.32494634 1.0457158 6447714
-0.62353706 -0.27501515 1.0204271 6447714
-0.59527546 -0.27497205 1.0457447 6447714
-0.62356919 -0.22501093 1.0204427 6447714
-0.59529018 -0.22499473 1.0457841 6447714
-0.62358415 -0.1750018 1.0204734 6447714
-0.59531534 -0.1750135 1.0458142 6447714
-0.62360835 -0.1250042 1.0204965 6447714
-0.59532392 -0.12500231 1.0458585 6447714
-0.62362576 -0.074989334 1.0205292 6447714
-0.59535962 -0.07509613 1.0458794 6447714
-0.62364924 -0.024991145 1.0205623 6447714
-0.59536976 -0.025105262 1.045922 6447714
-0.62367117 0.024992211 1.020599 6447714
-0.59538966 0.025106372 1.0459561 6447714
-0.62391335 0.075035118 1.0204437 6447714
-0.59541911 0.075103879 1.0459828 6447714
-0.62318343 0.10786469 1.0197723 8487297
-0.58277947 0.11141618 1.0331771 9474192
-0.52497327 0.11416077 1.0244181 10197915
-0.47495484 0.1140733 1.0235595 10197915
-0.424952 0.11398559 1.0228087 10197915
-0.37538582 0.11389697 1.0227004 10197915
-0.32484296 0.1138003 1.0249451 10197915
-0.27502155 0.11371287 1.0242149 10197915
-0.22421195 0.11362094 1.0245034 10197915
-0.17500243 0.11352791 1.0262975 10197915
-0.12497554 0.11344007 1.0255607 10197915
-0.074965119 0.11335257 1.0247493 10197915
-0.024971796 0.11326493 1.0239774 10197915
0.025006615 0.11317733 1.0232036 10197915
0.0750269 0.11308993 1.0223225 10197915
0.12489013 0.11299291 1.0251589 10132122
0.17501307 0.11290461 1.0245492 9934743
0.22499478 0.11281704 1.0237662 9934743
0.27593371 0.11272161 1.0252784 9934743
0.32508004 0.1126317 1.0259393 9934743
0.37512383 0.11254416 1.0250872 10000536
0.42508888 0.11245635 1.0243987 10000536
0.47497585 0.11236931 1.0234759 10000536
0.52502596 0.11228155 1.022715 9079434
0.57419986 0.11218853 1.0245214 3092271
0.62501884 0.11209625 1.024924 2894892
0.6750192 0.11200881 1.0240802 2894892
0.72501093 0.11192107 1.0233539 2894892
0.77519822 0.11182392 1.0260326 2894892
0.81215107 0.11172938 1.0366548 2894892
-0.56860369 -0.46424478 1.0694531 6447714
-0.54190254 -0.46962035 1.0933787 6447714
-0.5706116 -0.42499769 1.067697 6447714
-0.54235625 -0.42521602 1.0930192 6447714
-0.57064193 -0.37500691 1.0677189 6447714
-0.54245734 -0.37499923 1.0929803 6447714
-0.57063437 -0.32500672 1.0677769 6447714
-0.54247892 -0.32501274 1.0930138 6447714
-0.57067144 -0.2749961 1.0677931 6447714
-0.54250258 -0.2750228 1.0930459 6447714
-0.57067126 -0.22499537 1.0678496 6447714
-0.54252225 -0.22504848 1.0930806 6447714
-0.57071555 -0.1750042 1.067866 6447714
-0.54253232 -0.17503284 1.0931221 6447714
-0.57071716 -0.12500347 1.0679163 6447714
-0.54254824 -0.12501435 1.0931613 6447714
-0.57077718 -0.074999228 1.0679144 6447714
-0.54258317 -0.07493566 1.0931835 6447714
-0.57073539 -0.024998967 1.0680003 6447714
-0.54257846 -0.024929315 1.0932391 6447714
-0.57075238 0.025000026 1.0680373 6447714
-0.54259646 0.024930416 1.0932748 6447714
-0.57083088 0.075000681 1.0680172 6447714
-0.54263723 0.074943349 1.0932919 6447714
-0.57018286 0.10763142 1.0676923 8750469
-0.53407216 0.11027005 1.0844702 9408399
-0.47504401 0.11393861 1.0743183 10197915
-0.42501742 0.11385114 1.0734686 10197915
-0.37477052 0.11376311 1.0726651 10197915
-0.3247475 0.11367557 1.0718393 10197915
-0.27461579 0.11358676 1.0714177 10197915
-0.22571091 0.11348879 1.0752672 10197915
-0.17492706 0.11339149 1.0775919 10197915
-0.1249795 0.11330423 1.0767121 10197915
-0.07496123 0.11321653 1.075955 10197915
-0.024945529 0.11312915 1.0750617 10197915
0.02499417 0.11304167 1.0742687 10197915
0.075002894 0.11295447 1.0733274 10197915
0.12500946 0.11286648 1.0726677 10197915
0.17501172 0.11277934 1.071702 10066329
0.22501056 0.11269164 1.0709422 10000536
0.27429914 0.1125893 1.0761895 10132122
0.32512903 0.11249453 1.0775459 10066329
0.3751334 0.11240708 1.0766791 9934743
0.42498443 0.11231998 1.0758088 10000536
0.47498041 0.11223219 1.0750937 10000536
0.52497113 0.11214501 1.074147 10000536
0.57503164 0.11205738 1.073321 6052956
0.62508702 0.11196968 1.0725304 2894892
0.67506492 0.11188251 1.0715954 2894892
0.72496325 0.11179487 1.0708814 2894892
0.77520239 0.11168872 1.076929 2894892
0.82395715 0.11159746 1.0783482 2894892
0.85873991 0.11150216 1.0907327 2894892
-0.50511873 -0.50196487 1.1263145 6447714
-0.48788473 -0.50541693 1.1417574 6447714
-0.51699936 -0.47394407 1.1156961 6447714
-0.48946172 -0.47500098 1.1403823 6447714
-0.51773489 -0.42489475 1.1150876 6447714
-0.48946351 -0.42500976 1.1404275 6447714
-0.51783806 -0.374998 1.1150457 6447714
-0.48983234 -0.37498584 1.1401436 6447714
-0.51780498 -0.32493034 1.1151299 6447714
-0.48978344 -0.32510385 1.1402498 6447714
-0.51755434 -0.27500075 1.1154048 6447714
-0.48952019 -0.27500051 1.1405375 6447714
-0.51757497 -0.22499067 1.1154399 6447714
-0.48953462 -0.22496952 1.1405658 6447714
-0.51758051 -0.17498495 1.1154861 6447714
-0.4895514 -0.17501329 1.1406103 6447714
-0.5176056 -0.12500182 1.1155187 6447714
-0.48956516 -0.12500679 1.1406581 6447714
-0.51761311 -0.075024009 1.1155636 6447714
-0.48961124 -0.075013027 1.1406567 6447714
-0.51764601 -0.02501817 1.1155864 6447714
-0.48957977 -0.025031867 1.1407394 6447714
-0.51766449 0.025019275 1.1156223 6447714
-0.48959652 0.025032952 1.1407889 6447714
-0.5176627 0.075023241 1.1156754 6447714
-0.48966056 0.07502082 1.1407722 6447714
-0.51726514 0.10749023 1.1152726 9013641
-0.48313472 0.10963654 1.1340014 9539985
-0.4250342 0.11371443 1.1249368 10197915
-0.37480101 0.11362661 1.1240844 10197915
-0.32479927 0.11353927 1.1231745 10197915
-0.27539608 0.11345209 1.1226265 10197915
-0.22502947 0.11335276 1.1260058 10197915
-0.1749815 0.11326525 1.1251369 10197915
-0.12501131 0.1131783 1.1241347 10197915
-0.075025037 0.11309046 1.123435 10197915
-0.024016691 0.11299717 1.124095 10197915
0.025035458 0.1129038 1.1261525 10197915
0.075052157 0.11281642 1.1252503 10197915
0.12499241 0.11272908 1.1244098 10197915
0.17501059 0.1126417 1.1235106 10197915
0.22502753 0.11255425 1.1226509 10197915
0.27460134 0.1124569 1.1258111 10197915
0.32497779 0.11236767 1.1253824 10132122
0.37494662 0.1122798 1.12471 10000536
0.42502567 0.11219264 1.1236981 10000536
0.47502464 0.11210547 1.1227564 10000536
0.52591228 0.11200754 1.1252515 10000536
0.57505524 0.1119184 1.125616 9474192
0.62508541 0.11183105 1.1247072 3355443
0.67503703 0.11174364 1.1238856 2894892
0.72506481 0.11165642 1.1229246 2894892
0.77405334 0.11156189 1.1254258 2894892
0.82487357 0.11146963 1.1258364 2894892
0.87183851 0.11138193 1.1271366 2894892
0.90385216 0.11128645 1.1414598 2894892
-0.46308142 -0.51039886 1.1639844 6579300
-0.43568569 -0.51587564 1.1885335 8289918
-0.46440154 -0.47499177 1.1628379 6447714
-0.43650031 -0.47499219 1.1878462 6447714
-0.46442029 -0.42500001 1.162874 6447714
-0.4365221 -0.4249965 1.1878759 6447714
-0.46478531 -0.37502813 1.1625986 6447714
-0.4366183 -0.37512851 1.1878471 6447714
-0.46480975 -0.32502973 1.162629 6447714
-0.436923 -0.32499346 1.1876253 6447714
-0.46482787 -0.27500421 1.1626661 6447714
-0.4369289 -0.27500796 1.1876696 6447714
-0.46482125 -0.22501089 1.162724 6447714
-0.43693334 -0.22501874 1.1877191 6447714
-0.46486285 -0.17500252 1.1627382 6447714
-0.43696129 -0.17499945 1.1877478 6447714
-0.46486333 -0.12501436 1.1627914 6447714
-0.43698934 -0.12500355 1.1877747 6447714
-0.46489826 -0.074987389 1.1628121 6447714
-0.43697959 -0.075004555 1.1878371 6447714
-0.46488497 -0.024969976 1.1628759 6447714
-0.43699676 -0.025003076 1.1878703 6447714
-0.46490029 0.024971126 1.1629153 6447714
-0.43701422 0.025004173 1.187909 6447714
-0.46494517 0.074983358 1.1629262 6447714
-0.43702534 0.075012326 1.1879542 6447714
-0.46458915 0.10721049 1.1628772 9276813
-0.43257791 0.10886975 1.1836213 9671571
-0.37476251 0.11348922 1.1757505 10197915
-0.32473126 0.11340207 1.174767 10197915
-0.2748774 0.113315 1.1738659 10197915
-0.22490305 0.11322746 1.1730778 10197915
-0.17500715 0.11314062 1.1720597 10197915
-0.12499277 0.11305313 1.1712322 10197915
-0.074449837 0.11296346 1.1708543 10197915
-0.025963249 0.11286355 1.1757227 10197915
0.024991302 0.11276532 1.1782864 10197915
0.075018227 0.11267769 1.1774908 10197915
0.12506478 0.11259082 1.1763855 10197915
0.17503405 0.11250321 1.1756285 10197915
0.22502348 0.11241592 1.1747166 10197915
0.27503237 0.11232904 1.1736509 10197915
0.3248657 0.11224165 1.1728956 10197915
0.37491342 0.11215447 1.1719077 10132122
0.42507425 0.11206692 1.170992 10000536
0.47515619 0.11197907 1.170233 10000536
0.52403539 0.11187233 1.1774108 10000536
0.57499838 0.11177873 1.1782198 10000536
0.62498152 0.11169163 1.1772641 6842472
0.6749841 0.11160445 1.1763061 2894892
0.72490627 0.11151695 1.1755413 2894892
0.77475232 0.11143027 1.1745096 2894892
0.82480937 0.11134268 1.173667 2894892
0.87497842 0.11125525 1.1727046 2894892
0.91788214 0.11116778 1.1766602 2894892
-0.37464246 -0.5531047 1.243207 11711154
-0.41120496 -0.52081317 1.2104714 9474192
-0.38358748 -0.52468568 1.2352219 10197915
-0.41160128 -0.47502291 1.2101622 6447714
-0.38392273 -0.47514167 1.2349694 6447714
-0.411488 -0.42480397 1.2103184 6447714
-0.38404042 -0.42515504 1.2349139 6447714
-0.41135189 -0.37481689 1.2104921 6447714
-0.38378754 -0.3749662 1.235198 6447714
-0.41165483 -0.32498962 1.2102742 6447714
-0.38381264 -0.32495615 1.2352291 6447714
-0.41166851 -0.27498791 1.2103121 6447714
-0.38381425 -0.27498105 1.2352796 6447714
-0.41167852 -0.22499903 1.2103554 6447714
-0.38384107 -0.22497669 1.2353116 6447714
-0.41168898 -0.17500651 1.2103993 6447714
-0.38383499 -0.17498209 1.2353626 6447714
-0.41171452 -0.1249629 1.2104288 6447714
-0.38386571 -0.1250094 1.2353845 6447714
-0.41172805 -0.074996293 1.2104688 6447714
-0.38387626 -0.074995257 1.2354321 6447714
-0.41171914 -0.025027225 1.2105297 6447714
-0.38387275 -0.024978762 1.2354885 6447714
-0.41173339 0.025028344 1.210569 6447714
-0.38388693 0.024979837 1.2355297 6447714
-0.41176948 0.075004026 1.2105892 6447714
-0.38391644 0.075003058 1.2355584 6447714
-0.41159725 0.10702426 1.2104793 9605778
-0.38047135 0.10850476 1.2320373 9868950
-0.32476577 0.1132658 1.2260594 10197915
-0.27498278 0.11317915 1.2250773 10197915
-0.22507229 0.11309233 1.224048 10197915
-0.17503361 0.11300472 1.2232354 10197915
-0.12507422 0.11291771 1.2222475 10197915
-0.075643301 0.11283048 1.2217033 10197915
-0.02501281 0.112729 1.2257262 10197915
0.025113335 0.11264166 1.2247486 10197915
0.075032972 0.11255474 1.2237462 10197915
0.12606797 0.11246084 1.2246406 10197915
0.17490166 0.11236618 1.2272865 10197915
0.22485974 0.112279 1.2263806 10197915
0.27494311 0.11219211 1.2252527 10197915
0.32494709 0.11210448 1.2244747 10197915
0.37497687 0.11201749 1.2234365 10197915
0.42502829 0.11192986 1.222612 10132122
0.47490099 0.11184341 1.2214878 10000536
0.52492774 0.11174162 1.2260088 10000536
0.57501644 0.11165401 1.2251602 10000536
0.62515199 0.11156709 1.2240113 9737364
0.67508274 0.11147978 1.2231642 3487029
0.72612673 0.11137981 1.2263236 2894892
0.77486968 0.11129161 1.2266074 2894892
0.82473958 0.11120473 1.2256538 2894892
0.87493044 0.11111701 1.2247772 2894892
0.92504191 0.11102984 1.2237271 2894892
0.9646076 0.11093915 1.231154 2894892
-0.35776359 -0.5564878 1.2583324 11711154
-0.32884195 -0.56231678 1.2842493 11711154
-0.35849193 -0.52496511 1.2577146 10526880
-0.33097714 -0.52502537 1.2823737 10855845
-0.35866359 -0.47465575 1.25761 6447714
-0.33099031 -0.47500727 1.2824137 6447714
-0.35892206 -0.42498609 1.2574327 6447714
-0.33101416 -0.42499679 1.2824467 6447714
-0.35893282 -0.37506273 1.2574764 6447714
-0.33100781 -0.37501985 1.2825061 6447714
-0.35895482 -0.32503682 1.2575066 6447714
-0.33103377 -0.32502681 1.2825344 6447714
-0.35897166 -0.27498317 1.2575455 6447714
-0.33103505 -0.2750195 1.2825844 6447714
-0.35895753 -0.2250005 1.2576103 6447714
-0.33104774 -0.22502004 1.2826246 6447714
-0.35898471 -0.17501409 1.2576375 6447714
-0.33105698 -0.17500576 1.2826699 6447714
-0.35901618 -0.12500016 1.2576612 6447714
-0.33107454 -0.12498809 1.2827061 6447714
-0.35901535 -0.075008273 1.2577169 6447714
-0.33134171 -0.075143024 1.2825199 6447714
-0.35900399 -0.025011819 1.257778 6447714
-0.33150348 -0.025019787 1.2824274 6447714
-0.35901487 0.025012933 1.2578205 6447714
-0.3315227 0.025008848 1.2824627 6447714
-0.3590585 0.074991181 1.2578365 6447714
-0.3315545 0.075000808 1.2824864 6447714
-0.35893247 0.10675034 1.2578883 9934743
-0.32934883 0.10788085 1.2803175 10132122
-0.27509111 0.11304636 1.2751302 10197915
-0.22499834 0.11295941 1.2740222 10197915
-0.17498124 0.11287202 1.273163 10197915
-0.1249095 0.11278504 1.2720867 10197915
-0.074916251 0.11269766 1.271197 10197915
-0.02431809 0.11259634 1.275192 10197915
0.024929039 0.11250865 1.2749454 10197915
0.074944578 0.11242125 1.274058 10197915
0.12397961 0.11233237 1.2744168 10197915
0.17509398 0.11223172 1.2777573 10197915
0.22494759 0.11214464 1.2768937 10197915
0.27498665 0.11205746 1.2759012 10197915
0.32508001 0.11197029 1.2748775 10197915
0.37496531 0.11188345 1.2738882 10197915
0.42503297 0.11179643 1.2728359 10197915
0.47502494 0.11170919 1.2719043 10066329
0.52493751 0.1116224 1.2708553 10000536
0.57566649 0.11152036 1.2750318 10000536
0.62496972 0.1114327 1.2747281 10000536
0.67503583 0.11134569 1.2736821 7039851
0.72377753 0.1112497 1.2768905 2894892
0.77478307 0.1111559 1.2777565 2894892
0.82494587 0.11106906 1.2765681 2894892
0.87516457 0.11098153 1.2755933 2894892
0.92504305 0.11089447 1.2746862 2894892
0.97484511 0.11080752 1.2737826 2894892
1.0102974 0.11071934 1.2830403 2894892
-0.30537713 -0.56702542 1.3052757 11711154
-0.27770573 -0.56858337 1.3300755 11711154
-0.30550987 -0.52500576 1.3052001 11184810
-0.27772546 -0.52500868 1.3301034 11513775
-0.30552322 -0.47502476 1.3052427 6447714
-0.2779004 -0.47512677 1.33 6447714
-0.30552372 -0.42504057 1.3052921 6447714
-0.27819845 -0.42499802 1.3297856 6447714
1.0447333 -0.41974327 1.3442205 2894892
1.0539117 -0.41976112 1.3339798 2894892
-0.30554315 -0.37501189 1.3053274 6447714
-0.27821413 -0.37497085 1.3298219 6447714
1.0449935 -0.37534449 1.3441374 2894892
1.0539986 -0.37502706 1.3340914 2894892
-0.30556121 -0.32502106 1.3053647 6447714
-0.27824721 -0.3249763 1.3298459 6447714
1.0451691 -0.32519552 1.3441759 2894892
1.0540426 -0.32473418 1.3342758 2894892
-0.30555165 -0.27502689 1.3054252 6447714
-0.27822605 -0.275002 1.3299187 6447714
1.045018 -0.27500525 1.344576 2894892
1.0538946 -0.27500674 1.3346736 2894892
-0.30557668 -0.22498758 1.305455 6447714
-0.27823785 -0.22500022 1.3299592 6447714
1.0451039 -0.22503144 1.3447119 2894892
1.0540025 -0.22498713 1.3347855 2894892
-0.30557644 -0.17494558 1.305509 6447714
-0.27825466 -0.17499554 1.3299947 6447714
1.0452032 -0.17501307 1.3448352 2894892
1.0540837 -0.1749973 1.3349274 2894892
-0.30558491 -0.12494093 1.305554 6447714
-0.27827287 -0.12501103 1.3300344 6447714
1.0453762 -0.12535714 1.3448743 2894892
1.0541869 -0.12499781 1.3350453 2894892
-0.30589116 -0.074390665 1.3053317 6447714
-0.27826774 -0.075035021 1.3300877 6447714
1.045706 -0.075136296 1.34474 2894892
1.0543059 -0.074872784 1.3351464 2894892
-0.3060509 -0.024874154 1.3052399 6447714
-0.27829146 -0.025020968 1.3301215 6447714
1.0457662 -0.025208347 1.3449044 2894892
1.0543556 -0.024750404 1.3353246 2894892
-0.30606109 0.02487525 1.3052845 6447714
-0.27830127 0.025022065 1.3301643 6447714
1.0455912 0.025081426 1.3453342 2894892
1.0541856 0.024902649 1.3357458 2894892
-0.30610454 0.07486029 1.3052974 6513507
-0.27829561 0.07504268 1.3302257 6513507
1.045704 0.075131804 1.3454427 2894892
1.0543017 0.074862443 1.335848 2894892
-0.30596855 0.10671996 1.3053478 10197915
-0.27675509 0.10767537 1.3278483 10197915
-0.22498129 0.1128317 1.3221353 10197915
-0.17500398 0.11274476 1.3211163 10197915
-0.12496623 0.11265752 1.320062 10197915
-0.075004011 0.11257099 1.3189433 10197915
-0.024518527 0.11245701 1.3277683 10197915
0.025058832 0.11236343 1.329523 10197915
0.07498616 0.11227646 1.3285308 10197915
0.12483511 0.11219002 1.3273994 10197915
0.17488284 0.11210306 1.3263379 10197915
0.22498909 0.11201553 1.3254435 10197915
0.2750175 0.11192837 1.3244836 10197915
0.32510352 0.11184162 1.323281 10197915
0.37497854 0.11175473 1.3223219 10197915
0.42477313 0.11166835 1.3212306 10197915
0.47490034 0.11158072 1.3203019 10132122
0.52508265 0.11149396 1.3191326 10066329
0.57533079 0.11138782 1.3250955 10000536
0.62501764 0.11128622 1.3298208 10000536
0.67503625 0.11119907 1.3288126 10066329
0.72497863 0.11111252 1.3276733 4144959
0.77524763 0.11102509 1.326699 2894892
0.82516909 0.11093825 1.3256588 2894892
0.87487614 0.11085155 1.3246629 2894892
0.92490959 0.11076511 1.3234845 2894892
0.97500181 0.11067744 1.3226172 2894892
1.0329487 0.10827072 1.3328707 2894892
1.0542395 0.10544175 1.3357217 2894892
-0.25270817 -0.56849968 1.3524818 11711154
-0.22530212 -0.56862235 1.377046 11711154
-0.25271413 -0.5249213 1.3525224 11711154
-0.22536606 -0.52499044 1.377033 11711154
-0.2529068 -0.47396675 1.3524028 6579300
-0.22534545 -0.47499257 1.3771054 6908265
-0.2532022 -0.42499995 1.3521889 6447714
-0.22535677 -0.42499226 1.3771485 6447714
0.99751437 -0.42034265 1.3968987 2894892
1.0200784 -0.41975802 1.371725 2894892
-0.25321794 -0.37496921 1.3522277 6447714
-0.22538586 -0.37500975 1.3771732 6447714
0.99769253 -0.37514597 1.3969103 2894892
1.020336 -0.37488243 1.3716506 2894892
-0.25322279 -0.32493383 1.3522762 6447714
-0.22536728 -0.32502452 1.377244 6447714
0.99748749 -0.32493883 1.3973738 2894892
1.0202652 -0.32499588 1.37196 2894892
-0.25324541 -0.27489606 1.3523078 6447714
-0.22539826 -0.27500269 1.3772665 6447714
0.99756926 -0.27501228 1.3975142 2894892
1.0203556 -0.27498552 1.3720951 2894892
-0.25322339 -0.22494692 1.3523802 6447714
-0.22556397 -0.22511911 1.3771725 6447714
0.99765468 -0.22515781 1.3976504 2894892
1.020438 -0.22498327 1.372232 2894892
-0.25326398 -0.17509076 1.3523961 6447714
-0.22589238 -0.17500077 1.3769286 6447714
0.99774754 -0.17512901 1.3977803 2894892
1.0205421 -0.17500724 1.3723478 2894892
-0.25325638 -0.1249482 1.3524559 6447714
-0.2258866 -0.12499961 1.3769879 6447714
0.9981792 -0.12486925 1.3975322 2894892
1.0207373 -0.12495635 1.3723624 2894892
-0.2532647 -0.075083375 1.3525002 6447714
-0.22593269 -0.074961253 1.3769969 6447714
0.99826217 -0.074695729 1.3976734 2894892
1.0210112 -0.074999504 1.3722924 2894892
-0.25327319 -0.025215307 1.3525451 6447714
-0.22591004 -0.024954684 1.377072 6447714
0.99832207 -0.025335571 1.3978376 2894892
1.0211123 -0.024953833 1.372412 2894892
-0.25328138 0.025216429 1.3525902 6447714
-0.22591715 0.024955824 1.377117 6447714
0.99812472 0.024910087 1.3982916 2894892
1.0209316 0.024993166 1.3728465 2894892
-0.25329 0.075091131 1.3526351 6579300
-0.22595648 0.074957542 1.377135 6645093
0.99821681 0.074736401 1.3984203 2894892
1.0209936 0.0749899 1.3730094 2894892
-0.25329435 0.10647415 1.3526587 10197915
-0.22486022 0.10732756 1.3753505 10197915
-0.17502823 0.11260732 1.3728232 10197915
-0.12502509 0.11252087 1.3715752 10197915
-0.074959524 0.11243311 1.370819 10197915
-0.026602669 0.11233845 1.373787 10197915
0.024876982 0.11224225 1.3752536 10197915
0.074956007 0.11215523 1.3741897 10197915
0.12514944 0.11206772 1.3732225 10197915
0.17585693 0.11196376 1.3781159 10197915
0.22503342 0.11187626 1.3778315 10197915
0.27490854 0.11178993 1.3766497 10197915
0.32513013 0.1117025 1.3756543 10197915
0.375276 0.11161557 1.3745027 10197915
0.42520052 0.1115284 1.3736268 10197915
0.47504646 0.11144226 1.3723682 10197915
0.52495795 0.11135522 1.371379 10132122
0.5737949 0.11126716 1.3715738 10066329
0.62498355 0.11116362 1.3760101 10132122
0.67518812 0.11107639 1.374931 10197915
0.72531754 0.11098932 1.3738532 7631988
0.77536482 0.1109024 1.3727775 2894892
0.8255403 0.11079787 1.3782502 2894892
0.87512594 0.11071083 1.3775003 2894892
0.92504978 0.11062403 1.3764604 2894892
0.97961134 0.10939348 1.3800172 2894892
1.0204645 0.10578623 1.3720398 2894892
-0.17499402 -0.56879413 1.4221342 11711154
-0.1469088 -0.56878626 1.4473101 11711154
-0.1749735 -0.52499723 1.4222002 11711154
-0.1469114 -0.52490908 1.4473541 11711154
-0.17501643 -0.47499403 1.4222149 7500402
-0.14691097 -0.47491714 1.4474074 7829367
-0.17498557 -0.42500043 1.4222968 6447714
-0.1469105 -0.42504087 1.4474595 6447714
0.97289079 -0.41971612 1.4243685 2894892
-0.17500821 -0.37501571 1.42233 6447714
-0.14692596 -0.37504122 1.4474974 6447714
0.9730801 -0.37500444 1.4243771 2894892
-0.17503405 -0.32501537 1.4223529 6447714
-0.14693613 -0.32491899 1.4475415 6447714
0.9731701 -0.3249993 1.4244969 2894892
-0.17500693 -0.27501151 1.4224303 6447714
-0.14691466 -0.27491194 1.4476136 6447714
0.97325778 -0.27497616 1.4246455 2894892
-0.20010243 -0.20938252 1.4000094 6447714
-0.17502257 -0.22500443 1.4224737 6447714
-0.14695127 -0.22514431 1.4476326 6447714
0.97335154 -0.2249877 1.4247607 2894892
-0.20010708 -0.17458601 1.4000416 6447714
-0.1750268 -0.17499374 1.4225239 6447714
-0.14694022 -0.17513049 1.4476944 6447714
0.97360426 -0.17509817 1.4247216 2894892
-0.2001137 -0.12470838 1.4000878 6447714
-0.17505531 -0.12501761 1.4225498 6447714
-0.14694513 -0.12475463 1.4477433 6447714
0.97419286 -0.12500526 1.4242916 2894892
-0.2001203 -0.074827462 1.400134 6447714
-0.17501751 -0.075038187 1.4226305 6447714
-0.14694995 -0.074975193 1.4477911 6447714
0.97429878 -0.075024374 1.4244101 2894892
-0.20012696 -0.024943219 1.4001805 6447714
-0.17506342 -0.025018493 1.4226432 6447714
-0.14695485 -0.025192395 1.4478395 6447714
0.97437441 -0.025025725 1.4245559 2894892
-0.20013356 0.024944322 1.4002271 6447714
-0.17506783 0.025007082 1.4226934 6447714
-0.14695974 0.025193509 1.4478874 6447714
0.9744646 0.025028793 1.4246864 2894892
-0.20014018 0.074835166 1.4002732 6645093
-0.17503713 0.075033337 1.4227785 6710886
-0.14696467 0.074982896 1.4479347 6776679
0.97457099 0.075037226 1.4248054 2894892
-0.20014435 0.10616353 1.4003024 10197915
-0.17415214 0.10701364 1.4218041 10197915
-0.12966792 0.1107738 1.4317269 10197915
-0.075056694 0.11228553 1.4264106 10197915
-0.025101034 0.11219868 1.4253976 10197915
0.025075071 0.11211161 1.4242915 10197915
0.075024813 0.11202479 1.4232329 10197915
0.12489595 0.1119386 1.4220037 10197915
0.17395946 0.11183739 1.4269594 10197915
0.22506498 0.11174528 1.4271196 10197915
0.27510539 0.11165846 1.4260106 10197915
0.32526433 0.1115711 1.4250133 10197915
0.37534824 0.11148452 1.423789 10197915
0.42515552 0.11139806 1.4226853 10197915
0.47508329 0.11131144 1.421579 10197915
0.52663553 0.11121346 1.4236537 10197915
0.57494724 0.11111901 1.4265707 10197915
0.6249935 0.11103177 1.4256257 10197915
0.67481601 0.11094541 1.4244728 10197915
0.72470796 0.1108591 1.4232785 10066329
0.77510166 0.11077145 1.4222431 4276545
0.82478762 0.110667 1.4280007 2894892
0.87477332 0.11057912 1.427331 2894892
0.92490143 0.11049215 1.426211 2894892
0.97368926 0.10571344 1.4243977 2894892
-0.12231623 -0.56884247 1.4693521 11711154
-0.094112478 -0.56904984 1.4946316 11711154
-0.12235268 -0.52502966 1.4693666 11711154
-0.094122402 -0.5250392 1.494669 11711154
-0.12239163 -0.47503525 1.4693851 8158332
-0.094131358 -0.47489831 1.4947132 8487297
-0.12233654 -0.42500612 1.4694859 6447714
-0.094118595 -0.42493936 1.4947771 6447714
0.9279269 -0.41983098 1.4745388 2894892
-0.12237553 -0.37497434 1.4694998 6447714
-0.094149224 -0.37497675 1.4948022 6447714
0.92801875 -0.37500584 1.4746436 2894892
-0.12237024 -0.32498491 1.4695601 6447714
-0.09412045 -0.32494953 1.4948804 6447714
0.92830533 -0.32511684 1.4745598 2894892
0.95001215 -0.3070564 1.4504237 2894892
-0.12237918 -0.27500871 1.4696057 6447714
-0.094143808 -0.27491912 1.4949119 6447714
0.9281655 -0.27498057 1.4749441 2894892
0.95006818 -0.27522492 1.4505093 2894892
-0.12238786 -0.22498156 1.4696501 6447714
-0.094128184 -0.2249468 1.4949783 6447714
0.92826802 -0.22498553 1.4750654 2894892
0.95015705 -0.22476795 1.4506447 2894892
-0.12238097 -0.17499834 1.4697071 6447714
-0.09417329 -0.17497148 1.4949905 6447714
0.92835307 -0.17500165 1.4752027 2894892
0.95049429 -0.17088535 1.4505191 2894892
-0.12236863 -0.12501211 1.4697692 6447714
-0.094127059 -0.1250542 1.4950837 6447714
0.9284445 -0.12503855 1.4753315 2894892
0.95068008 -0.12499423 1.4505262 2894892
-0.12246036 -0.075021803 1.4697419 6447714
-0.094156168 -0.074887276 1.4951108 6447714
0.92852283 -0.074985415 1.4754797 2894892
0.95076782 -0.075123541 1.4506601 2894892
-0.12234711 -0.02503027 1.4698961 6447714
-0.094146393 -0.024777131 1.4951727 6447714
0.92892456 -0.02500339 1.4752632 2894892
0.95085591 -0.025243575 1.4507945 2894892
-0.12235128 0.025031392 1.469945 6447714
-0.094149522 0.024778211 1.4952217 6447714
0.92904603 0.02497022 1.4753593 2894892
0.95094478 0.025246724 1.4509306 2894892
-0.12247237 0.075029567 1.4698876 6842472
-0.094555132 0.07437063 1.4949095 6908265
0.92900705 0.074893668 1.4756383 2894892
0.950867 0.077611074 1.4512615 2894892
-0.12180521 0.10665015 1.4696507 10197915
-0.082817495 0.10965801 1.4853816 10197915
-0.024905952 0.11205842 1.4780376 10197915
0.0248804 0.11197218 1.4768996 10197915
0.074993774 0.1118853 1.4757572 10197915
0.12523592 0.11179789 1.4747337 10197915
0.17519453 0.11171195 1.4733381 10197915
0.22507651 0.11162484 1.4724506 10197915
0.275085 0.11153849 1.4711826 10197915
0.32481122 0.1114523 1.4700426 10197915
0.37466532 0.11136588 1.4689058 10197915
0.42485529 0.11125834 1.475485 10197915
0.47491896 0.11117132 1.4744322 10197915
0.52344245 0.11108097 1.4756792 10197915
0.57491165 0.1109776 1.4798255 10197915
0.62490451 0.11089028 1.4789259 10197915
0.67502123 0.11080381 1.4776423 10197915
0.7250616 0.11071709 1.4764857 8750469
0.77522188 0.11063018 1.4753269 3947580
0.82530659 0.11054342 1.4741699 2894892
0.87530965 0.11045676 1.4730144 2894892
0.92746228 0.1059248 1.4747247 2894892
0.95073843 0.10523677 1.4515332 2894892
-0.069142573 -0.56903273 1.5170093 11711154
-0.040901739 -0.56900185 1.5423244 11711154
-0.069129072 -0.52499545 1.5170757 11711154
-0.040881693 -0.52502024 1.5423884 11711154
-0.06914185 -0.47500643 1.5171088 8816262
-0.040889867 -0.47501183 1.5424336 9211020
-0.069136508 -0.42501318 1.5171697 6447714
-0.040910531 -0.42495528 1.5424684 6447714
0.88034928 -0.41984838 1.5276185 2894892
0.90232229 -0.419891 1.503105 2894892
-0.069157831 -0.37501702 1.5172025 6447714
-0.040905245 -0.3750324 1.5425247 6447714
0.88040596 -0.37500662 1.5277658 2894892
0.90240687 -0.37508541 1.5032191 2894892
-0.069118395 -0.32501781 1.5172863 6447714
-0.040900778 -0.32505983 1.5425812 6447714
0.88049048 -0.32499725 1.5279003 2894892
0.90280092 -0.32461393 1.5030144 2894892
-0.069162987 -0.27499557 1.5173056 6447714
-0.040899817 -0.27503869 1.542635 6447714
0.88056773 -0.27499184 1.5280502 2894892
0.9029277 -0.27500594 1.5031037 2894892
-0.069138691 -0.2249894 1.5173734 6447714
-0.041116074 -0.22547226 1.5424932 6447714
0.88080925 -0.22511673 1.5280137 2894892
0.90301359 -0.22505344 1.5032403 2894892
-0.06913995 -0.17497998 1.5174308 6447714
-0.041518655 -0.17501041 1.5421846 6447714
0.88111657 -0.17500851 1.5279021 2894892
0.90310109 -0.17501447 1.5033758 2894892
-0.069190107 -0.12498733 1.5174347 6447714
-0.041539587 -0.12493445 1.5422188 6447714
0.881199 -0.12501401 1.5280435 2894892
0.90320224 -0.1248126 1.5034966 2894892
-0.069120131 -0.075010285 1.5175498 6447714
-0.041545823 -0.074856095 1.5422654 6447714
0.88126546 -0.074997514 1.5282037 2894892
0.90326881 -0.074753195 1.5036558 2894892
-0.069168121 -0.025012109 1.5175641 6447714
-0.041520286 -0.02491981 1.5423406 6447714
0.88125587 -0.025117876 1.5284466 2894892
0.90354288 -0.024043815 1.5035861 2894892
-0.069170333 0.025013208 1.5176058 6447714
-0.041521676 0.024920903 1.5423918 6447714
0.88109541 0.025001653 1.5288584 2894892
0.90343457 0.024922881 1.5039353 2894892
-0.069552869 0.075149849 1.5173241 6908265
-0.041549955 0.074863814 1.5424187 6974058
0.8812356 0.074903816 1.5289334 2894892
0.9035182 0.074774794 1.504074 2894892
-0.069295391 0.10646873 1.5167716 10197915
-0.033102948 0.1087776 1.5342104 10197915
0.025062429 0.11184352 1.525209 10197915
0.074921772 0.1117572 1.5240325 10197915
0.12491706 0.11167025 1.5229915 10197915
0.17504305 0.11158384 1.521668 10197915
0.22509131 0.11149757 1.5203499 10197915
0.27506039 0.1114103 1.5194471 10197915
0.32474512 0.11132466 1.5181333 10197915
0.37477112 0.11123805 1.5169556 10197915
0.42609504 0.11110675 1.5317013 10197915
0.47515994 0.11102022 1.5311406 10197915
0.52508086 0.11093348 1.5300888 10197915
0.57513314 0.11084648 1.5290375 10197915
0.62510759 0.11076038 1.5277015 10132122
0.67520988 0.11067365 1.5265073 7237230
0.72523779 0.11058708 1.5253104 3223857
0.77518356 0.11050062 1.5241225 2894892
0.82505542 0.11041432 1.52293 2894892
0.87938631 0.10612141 1.5266852 2894892
0.90361881 0.10519211 1.5040528 2894892
-0.016204951 -0.56903911 1.5644617 11711154
0.011890735 -0.56913954 1.5896429 11711154
-0.016194737 -0.52500689 1.5645158 11711154
0.011861688 -0.52495748 1.5896635 11711154
-0.016215174 -0.4750112 1.5645498 9474192
0.011865876 -0.47499478 1.5897192 9868950
-0.01619578 -0.42498562 1.5646199 6447714
0.011835278 -0.42502916 1.5897446 6447714
0.83289385 -0.41988415 1.5805651 2894892
0.85523283 -0.41980711 1.5556422 2960685
-0.016220458 -0.37500909 1.5646498 6447714
0.011737851 -0.3751969 1.5897086 6447714
0.83298385 -0.37498298 1.5806735 2894892
0.85531139 -0.37492257 1.5557631 2960685
-0.016210141 -0.32502878 1.5647101 6447714
0.011194254 -0.32494792 1.589274 6447714
0.83305377 -0.32496351 1.5808289 2894892
0.85537678 -0.32492685 1.5559241 2960685
-0.016186805 -0.27501974 1.5647854 6447714
0.011196619 -0.27499524 1.5893291 6447714
0.83353281 -0.27500987 1.5805265 2894892
0.85545284 -0.27492106 1.5560712 2960685
-0.016452668 -0.22475773 1.5645995 6447714
0.011201221 -0.22503835 1.5893861 6447714
0.83363116 -0.2249798 1.5806499 2894892
0.85572183 -0.22456281 1.5560049 2960685
-0.016851287 -0.17500336 1.5642941 6447714
0.011183223 -0.17496236 1.5894221 6447714
0.83346587 -0.17514151 1.5810661 2894892
0.85579014 -0.17463015 1.5561615 2960685
-0.016840098 -0.12505621 1.5643566 6447714
0.011164841 -0.12496107 1.589458 6447714
0.83337897 -0.12503701 1.5813972 2894892
0.85568631 -0.12501143 1.5565087 2960685
-0.016811 -0.075056009 1.564435 6447714
0.011202216 -0.075034186 1.5895432 6447714
0.83346289 -0.074989773 1.5815356 2894892
0.85580838 -0.075153381 1.5566049 2960685
-0.016900808 -0.025029602 1.5644063 6447714
0.011219102 -0.025025034 1.5896112 6447714
0.83349359 -0.024967166 1.5817345 2894892
0.85584855 -0.025153071 1.556793 2894892
-0.01690462 0.025005804 1.5644557 6447714
0.011219481 0.025026135 1.5896641 6447714
0.83381909 0.024814509 1.5816023 2894892
0.85592896 0.025156211 1.5569372 2894892
-0.016809506 0.075038835 1.5645937 7039851
0.011203341 0.07504189 1.589702 7105644
0.83409673 0.074997202 1.5815279 2894892
0.85616589 0.075510137 1.5569085 2894892
-0.016341444 0.10638981 1.5643882 10197915
0.017567195 0.10821671 1.5834692 10197915
0.075064249 0.11161959 1.5757225 10197915
0.1250086 0.11153363 1.5743505 10197915
0.17488055 0.11144741 1.5731331 10197915
0.224888 0.11136089 1.5719129 10197915
0.27503774 0.11127417 1.5706891 10197915
0.3248899 0.11118799 1.5694716 10197915
0.37466863 0.11110191 1.5682567 10197915
0.42347431 0.11099873 1.574133 10197915
0.47525632 0.11090452 1.5746328 10197915
0.52508032 0.11081778 1.5736413 10197915
0.57535028 0.11070839 1.5808613 9539985
0.6248908 0.11062193 1.5799619 5263440
0.67476457 0.11053572 1.5787306 2894892
0.72478092 0.11044963 1.5773443 2894892
0.77514172 0.11036178 1.5764083 2894892
0.83123273 0.10631545 1.5791097 2894892
0.85633272 0.1053565 1.5567158 2894892
0.78281188 -0.61989588 1.6359718 11711154
0.81114632 -0.61992258 1.639827 11711154
0.036732331 -0.56927574 1.6119081 11711154
0.06443093 -0.56925923 1.6367337 11711154
0.78288996 -0.57499957 1.6360909 11711154
0.81124371 -0.57497853 1.6399617 11711154
0.036731958 -0.52497131 1.6119525 11711154
0.064425841 -0.52500671 1.636776 11711154
0.78293955 -0.52505207 1.63626 11711154
0.81123042 -0.52500468 1.6400017 11711154
0.036717884 -0.47497079 1.6119938 10132122
0.064417407 -0.4750371 1.6368221 10461087
0.78332353 -0.47526789 1.6360685 10066329
0.81039608 -0.47552386 1.6393057 9276813
0.036749691 -0.42500278 1.6120733 6447714
0.064417243 -0.42503208 1.6368736 6447714
0.78522146 -0.42437461 1.6338077 2894892
0.80767739 -0.42125061 1.610001 2894892
0.036603894 -0.37479809 1.6119972 6447714
0.06443616 -0.37499073 1.6369427 6447714
0.7856645 -0.37498528 1.6334673 2894892
0.80778557 -0.37501532 1.6087865 2894892
0.036042769 -0.32497764 1.6115465 6447714
0.064434439 -0.32497892 1.636994 6447714
0.78575408 -0.32497868 1.6335995 2894892
0.80787295 -0.32498443 1.6089212 2894892
0.036056716 -0.27497989 1.6116099 6447714
0.06442035 -0.274997 1.6370344 6447714
0.78582489 -0.27496397 1.633752 2894892
0.80836934 -0.27495292 1.6086009 2894892
0.036062278 -0.22501217 1.6116694 6447714
0.064418845 -0.22497816 1.6370844 6447714
0.78587753 -0.22497971 1.6339281 2894892
0.80843121 -0.22502555 1.6087636 2894892
0.036032647 -0.1750747 1.6116931 6447714
0.064420998 -0.17495714 1.6371394 6447714
0.78602672 -0.17511527 1.6339961 2894892
0.80851609 -0.17502134 1.6089023 2894892
0.03605153 -0.12503327 1.6117649 6447714
0.064465053 -0.12493152 1.6372313 6447714
0.78625125 -0.12516899 1.6339755 2894892
0.80839956 -0.12470602 1.6092668 2894892
0.036134064 -0.074955069 1.6118891 6447714
0.064388253 -0.075065538 1.6372153 6447714
0.78615147 -0.075005651 1.6343193 2894892
0.8081705 -0.074987315 1.6097533 2894892
0.036007125 -0.024977202 1.6118293 6447714
0.063932143 -0.025302712 1.6368585 6447714
0.78614175 -0.025055273 1.6345637 2894892
0.80835891 -0.024978869 1.6097775 2894892
0.036008358 0.024978327 1.6118827 6447714
0.063775592 0.025089622 1.6367702 6447714
0.78621447 0.025058381 1.6347165 2894892
0.80869871 0.025284376 1.6096314 2894892
0.036125783 0.074929364 1.6120408 7105644
0.0636971 0.07506714 1.636752 7171437
0.78635871 0.075005285 1.6347897 2894892
0.80881745 0.075004406 1.60973 2894892
0.03632712 0.10603596 1.6119651 10197915
0.068809234 0.10766917 1.6332202 10197915
0.12488649 0.11138698 1.6296304 10197915
0.17493097 0.11130099 1.6281967 10197915
0.22512209 0.11121479 1.6267574 10197915
0.27500966 0.11112773 1.6258373 10197915
0.32482189 0.11104214 1.6244103 10197915
0.37500465 0.11095549 1.6231425 10197915
0.4251053 0.11086898 1.6218764 10197915
0.47490972 0.11078297 1.6206182 10197915
0.5248546 0.1106967 1.6193566 9539985
0.57423359 0.11058826 1.6268246 3947580
0.62491941 0.11049814 1.6265206 2894892
0.67492354 0.11041249 1.6249958 2894892
0.72485352 0.11032627 1.6237268 2894892
0.78335273 0.10622498 1.6318929 2894892
0.80903006 0.10527039 1.6095309 2960685
0.73756343 -0.61992282 1.6859912 11711154
0.75979114 -0.6198923 1.6611917 11711154
0.83715457 -0.61999238 1.6631384 11711154
0.86516637 -0.62001419 1.6882466 11711154
0.089355215 -0.56925982 1.6590744 11711154
0.11719788 -0.56933385 1.6840286 11711154
0.73767066 -0.57499987 1.6860795 11711154
0.75984788 -0.57495636 1.6613379 11711154
0.83721763 -0.57498538 1.6632426 11711154
0.86410415 -0.57530296 1.6873417 11711154
0.089364365 -0.52499127 1.659129 11711154
0.11722665 -0.52501845 1.6841053 11711154
0.73770553 -0.52504951 1.6862726 11711154
0.75992763 -0.52501094 1.6614817 11711154
0.83723444 -0.52496564 1.6633103 11711154
0.86402738 -0.52496946 1.6873254 11711154
0.089346178 -0.47497743 1.6591653 10790052
0.11718625 -0.47500277 1.6841191 11184810
0.73779231 -0.47508961 1.686409 9474192
0.76030678 -0.47484004 1.6612922 9737364
0.83573693 -0.4768005 1.6620178 8026746
0.86346483 -0.48211408 1.6868659 7171437
0.089367628 -0.4249599 1.6592373 6447714
0.1172543 -0.42501348 1.6842306 6447714
0.73785698 -0.42504069 1.6865712 2894892
0.7605257 -0.42506978 1.6612797 2894892
0.089374721 -0.3749401 1.6592954 6447714
0.11719139 -0.37499183 1.6842277 6447714
0.7379477 -0.37500727 1.6867028 2894892
0.76058859 -0.37504184 1.6614423 2894892
0.089359231 -0.32491636 1.6593344 6447714
0.11725693 -0.3250252 1.6843373 6447714
0.73844862 -0.3249507 1.6863769 2894892
0.76065755 -0.32500473 1.6615983 2894892
0.089376435 -0.27493799 1.6594021 6447714
0.11723225 -0.27499679 1.6843706 6447714
0.73854339 -0.27498168 1.6865047 2894892
0.76072019 -0.27498791 1.6617621 2894892
0.089363754 -0.22500628 1.6594436 6447714
0.11723097 -0.22493604 1.6844182 6447714
0.73857945 -0.22500309 1.6866978 2894892
0.76080215 -0.22502194 1.6619037 2894892
0.089359544 -0.17506976 1.6594915 6447714
0.1172183 -0.1749593 1.6844658 6447714
0.7386899 -0.17504376 1.6868064 2894892
0.76093042 -0.17489001 1.6619928 2894892
0.08941105 -0.12508258 1.6595901 6447714
0.11660676 -0.12507351 1.6839635 6447714
0.73870218 -0.12504658 1.6870245 2894892
0.761392 -0.12500651 1.6617111 2894892
0.089388229 -0.074894816 1.6596222 6447714
0.11644705 -0.075102031 1.6838788 6447714
0.73867822 -0.075364493 1.687284 2894892
0.76131183 -0.074640311 1.662035 2894892
0.088786766 -0.024580106 1.6591362 6447714
0.11655999 -0.025116082 1.6840271 6447714
0.73852783 -0.025368728 1.6876841 2894892
0.76108712 -0.024879113 1.6625178 2894892
0.088639706 0.024883762 1.6590558 6447714
0.11656385 0.025117192 1.684086 6447714
0.73891592 0.025168182 1.6874864 2894892
0.76115698 0.024882181 1.6626707 2894892
0.088690132 0.074921891 1.659155 7171437
0.1164531 0.075079374 1.6840382 7237230
0.73906004 0.075176276 1.6875576 2894892
0.76123792 0.074869007 1.6628119 2894892
0.08890406 0.1057173 1.6593776 10197915
0.11947349 0.10688477 1.6821221 10197915
0.17508863 0.11117055 1.6771955 10197915
0.22494309 0.11108455 1.6758984 10197915
0.27506489 0.11099847 1.6744559 10197915
0.32510659 0.11091177 1.6732914 10197915
0.37507388 0.11082592 1.6718533 10197915
0.42495906 0.11073954 1.6706929 10197915
0.4772442 0.11063357 1.675271 7763574
0.52489102 0.11054008 1.6782781 3421236
0.57495904 0.11045425 1.6767837 2894892
0.62495339 0.11036803 1.6754746 2894892
0.67509407 0.11028156 1.6741626 2894892
0.73308879 0.10695903 1.68139 2894892
0.7609753 0.1055077 1.6623361 2894892
0.69014925 -0.6199435 1.7388905 11711154
0.71277213 -0.61994183 1.7136506 11711154
0.89012074 -0.62009448 1.7106134 11711154
0.91705537 -0.62016213 1.7347561 11513775
0.14287858 -0.56936741 1.7070478 11711154
0.17078735 -0.56958485 1.7320617 11711154
0.6902017 -0.57503706 1.7390401 11711154
0.71284115 -0.57493579 1.7137809 11711154
0.88892925 -0.57463551 1.7095928 11711154
0.91709572 -0.57503486 1.7348378 11513775
0.14286022 -0.52489948 1.7070771 11711154
0.17078787 -0.52505648 1.7321095 11711154
0.69027561 -0.52508551 1.7391903 11711154
0.71291202 -0.52498388 1.7139351 11711154
0.88889545 -0.52482355 1.709615 11711154
0.91714513 -0.52517432 1.734935 11250603
0.14286284 -0.47491512 1.7071329 11447982
0.17055301 -0.47520941 1.7319508 11645361
0.69061309 -0.47541738 1.7390441 8816262
0.71297765 -0.47507805 1.7140934 9211020
0.88825214 -0.48647979 1.709078 5789784
0.91531479 -0.49145842 1.7333301 3487029
0.14286745 -0.42499727 1.7071887 6447714
0.17003289 -0.42498496 1.7315373 6579300
0.69089228 -0.42505506 1.7389683 2894892
0.71303421 -0.42505294 1.7142638 2894892
0.14285053 -0.37507659 1.7072265 6447714
0.16999859 -0.37504181 1.7315589 6447714
0.69095975 -0.37496269 1.7391269 2894892
0.71313691 -0.37496597 1.7143847 2894892
0.1429029 -0.3250109 1.7073251 6447714
0.17003886 -0.32503706 1.7316465 6447714
0.69101775 -0.32493716 1.7392946 2894892
0.71364027 -0.32499102 1.7140555 2894892
0.14286883 -0.27494285 1.707348 6447714
0.17002228 -0.27505806 1.7316858 6447714
0.69067681 -0.27513534 1.7399064 2894892
0.71332741 -0.27486676 1.7146378 2894892
0.14290383 -0.22501186 1.7074316 6447714
0.17006102 -0.22504713 1.7317715 6447714
0.69065058 -0.22493015 1.74017 2894892
0.71329194 -0.2250383 1.7149104 2894892
0.14285016 -0.17500742 1.707436 6447714
0.16997951 -0.1750042 1.7317522 6447714
0.69072145 -0.174961 1.7403231 2894892
0.71338964 -0.17504309 1.7150319 2894892
0.14223985 -0.12485909 1.7069415 6447714
0.17007978 -0.12498698 1.7318951 6447714
0.69105953 -0.12531145 1.7401778 2894892
0.71339864 -0.12501328 1.7152549 2894892
0.14211422 -0.074830696 1.7068814 6447714
0.16998635 -0.075081147 1.7318628 6447714
0.6913656 -0.075144 1.74007 2894892
0.71355325 -0.074898839 1.7153172 2894892
0.14215389 -0.024751071 1.7069693 6447714
0.1701231 -0.025114533 1.7320374 6447714
0.69140548 -0.025192033 1.7402582 2894892
0.71368337 -0.024685517 1.7154049 2894892
0.14215866 0.024752138 1.7070252 6447714
0.17010705 0.025087196 1.7320759 6447714
0.69146991 0.02519515 1.7404208 2894892
0.71407628 0.024870891 1.7151983 2894892
0.1421283 0.074838348 1.7070509 7237230
0.17002547 0.07505998 1.7320546 7303023
0.69155824 0.075165667 1.7405549 2894892
0.71423548 0.07488703 1.7152537 2894892
0.14230685 0.1059429 1.7071099 10197915
0.17201522 0.10680874 1.7285011 10132122
0.2258966 0.11094691 1.7270675 10197915
0.2751222 0.11086047 1.7263728 10197915
0.32493418 0.11077464 1.7250423 10197915
0.37514701 0.11068811 1.7236953 9934743
0.42504391 0.11060162 1.7225569 6710886
0.47231981 0.11050992 1.7251455 3355443
0.5247618 0.11040164 1.7304938 2894892
0.57485801 0.11031576 1.7289895 2894892
0.62486619 0.11022922 1.7277908 2894892
0.6851092 0.10686453 1.7352905 2894892
0.71390432 0.10531381 1.7153929 2894892
0.64280295 -0.62001562 1.7917124 6447714
0.66526419 -0.61996275 1.7666522 11184810
0.94195163 -0.62019527 1.7570699 2960685
0.97039801 -0.6202755 1.7825663 2960685
0.19549769 -0.56962454 1.7542105 11711154
0.22251026 -0.56958157 1.7784218 5131854
0.64287359 -0.57504994 1.7918437 6447714
0.66535228 -0.57496148 1.7667661 11184810
0.9420076 -0.57497191 1.7571665 2960685
0.97044027 -0.57499391 1.7826529 2960685
0.19551291 -0.52501661 1.7542706 11711154
0.22252996 -0.52499551 1.7784861 4276545
0.64293218 -0.52509588 1.7920111 6447714
0.6654076 -0.52500987 1.7669353 10987431
0.94203389 -0.52501583 1.7572436 2960685
0.96975422 -0.52644968 1.782089 2960685
0.1952356 -0.47402829 1.7540758 11711154
0.22253783 -0.47498801 1.7785473 4276545
0.64299375 -0.47508094 1.7921751 5066061
0.66577923 -0.47488064 1.7667534 5921370
0.94109714 -0.49588445 1.7564343 2960685
0.95603585 -0.49866724 1.7698215 2960685
0.19471048 -0.42501262 1.7536559 6842472
0.22249091 -0.42497736 1.7785562 3552822
0.6435529 -0.42510501 1.791784 2894892
0.66603804 -0.42507327 1.7666975 2894892
0.1947054 -0.37501606 1.7537044 6447714
0.22254644 -0.37498942 1.7786593 3421236
0.64361495 -0.37500918 1.7919476 2894892
0.66609001 -0.37499768 1.7668731 2894892
0.19473909 -0.32501712 1.7537867 6447714
0.22255762 -0.3249976 1.7787182 3421236
0.64314246 -0.32492444 1.7927076 2894892
0.66563803 -0.32499561 1.76761 2894892
0.19469491 -0.27501449 1.7537996 6447714
0.22252826 -0.27500322 1.7787488 3421236
0.64323747 -0.27500525 1.7928351 2894892
0.66572309 -0.27496552 1.7677495 2894892
0.1947677 -0.22500689 1.7539175 6447714
0.22256117 -0.22503172 1.7788266 3421236
0.64327353 -0.22501332 1.7930275 2894892
0.66575944 -0.22499672 1.7679402 2894892
0.19471192 -0.17487928 1.7539201 6447714
0.22255769 -0.1750304 1.77888 3421236
0.64338326 -0.17501341 1.7931377 2894892
0.66587389 -0.175019 1.7680463 2894892
0.19474939 -0.12498602 1.7540054 6447714
0.22258508 -0.12497295 1.7789512 3421236
0.64338273 -0.1248791 1.7933716 2894892
0.66622335 -0.12487088 1.7678891 2894892
0.19475579 -0.074848719 1.754064 6447714
0.22248425 -0.075018786 1.7789201 3487029
0.64388168 -0.07545986 1.7930458 2894892
0.66652912 -0.074956283 1.7677798 2894892
0.19476235 -0.024708079 1.7541227 6447714
0.22267805 -0.025060516 1.7791398 3487029
0.64404768 -0.025256766 1.793094 2894892
0.6664834 -0.024904214 1.7680644 2894892
0.19476871 0.024709148 1.7541797 6447714
0.22268499 0.025061628 1.7792059 3487029
0.64410812 0.025259918 1.7932625 2894892
0.66654402 0.024907267 1.7682283 2894892
0.19477518 0.074856408 1.7542384 7368816
0.22250678 0.075026512 1.7790914 3618615
0.64418197 0.075111464 1.7934111 2894892
0.66670972 0.074955016 1.7682769 2894892
0.19481817 0.10617638 1.753697 10132122
0.223805 0.10614624 1.7784077 7500402
0.27493721 0.11071429 1.781503 10197915
0.3252407 0.11062729 1.7802753 9276813
0.37510279 0.11054152 1.7788944 4210752
0.42524883 0.11045565 1.7773415 2894892
0.47532105 0.11036909 1.7761197 2894892
0.52531213 0.11028349 1.7745713 2894892
0.57522714 0.11019719 1.7733538 2894892
0.635059 0.10734408 1.783233 2894892
0.66635793 0.10550861 1.76783 2894892
0.59646487 -0.62002128 1.8434106 2894892
0.61805594 -0.61998522 1.8193232 4079166
0.99519652 -0.62034482 1.8047945 2960685
1.0221249 -0.62036824 1.8289309 2960685
0.24773461 -0.56967467 1.8010303 2894892
0.27448985 -0.56963092 1.8250133 2894892
0.30100963 -0.56985021 1.848781 2894892
0.59678876 -0.57612759 1.8432543 5395026
0.61810815 -0.57497448 1.8194737 4539717
0.99524802 -0.57501394 1.8048882 2960685
