# .PCD v0.7 - Point Cloud Data file format
VERSION 0.7
FIELDS x y z rgb
SIZE 4 4 4 4
TYPE F F F U
COUNT 1 1 1 1
WIDTH 1179
HEIGHT 1
VIEWPOINT 0 0 0 1 0 0 0
POINTS 1179
DATA ascii
-0.075475097 -0.7247684 3.5719867 1124934
-0.041761387 -0.72491235 3.5941446 1059141
-0.10450881 -0.67563421 3.5530109 1257033
-0.075517386 -0.67499894 3.5720673 1257289
-0.041616336 -0.67479599 3.5943499 1323080
-0.10451199 -0.625606 3.553118 1388874
-0.075448349 -0.62487525 3.5722225 1323081
-0.041631527 -0.6249302 3.5944488 1257031
-0.10451514 -0.57557493 3.553226 1388618
-0.075420223 -0.57492214 3.5723503 1257032
-0.041751005 -0.57531703 3.5944788 1191239
-0.1045183 -0.52554077 3.5533328 1388874
-0.075483389 -0.52496779 3.5724177 1257288
-0.041766413 -0.52544779 3.5945773 1322823
-0.10452145 -0.47550359 3.5534401 1323081
-0.075496353 -0.4750101 3.5725191 1257288
-0.04169447 -0.47507253 3.5947349 1257030
-0.10452461 -0.42546347 3.5535476 1257545
-0.075600445 -0.42513806 3.5725596 1257545
-0.041695736 -0.4244507 3.5948443 1125959
-0.10452778 -0.37542033 3.5536559 1323337
-0.075399056 -0.37508684 3.5728025 1257288
-0.041562624 -0.37455654 3.595042 1257031
-0.10495084 -0.32395855 3.5534894 1191752
-0.07538069 -0.32503164 3.5729232 1191239
-0.041832607 -0.32544565 3.5949717 1190981
-0.10597723 -0.27525133 3.5529222 1125447
-0.075433925 -0.27497369 3.5729976 1190726
-0.042779807 -0.27636218 3.5944564 1059396
-0.10598042 -0.22521244 3.5530295 1059397
-0.075456209 -0.22500058 3.5730925 1059397
-0.043180048 -0.22485073 3.5943062 1125189
-0.10598363 -0.1751705 3.5531368 994118
-0.075664349 -0.17537911 3.5730636 993861
-0.043181367 -0.17422728 3.5944159 1059140
-0.10598683 -0.12512554 3.5532446 927299
-0.075614095 -0.12566276 3.5732059 927042
-0.043182649 -0.12508997 3.594522 992577
-0.10599004 -0.075077549 3.5533516 993605
-0.075463392 -0.075501442 3.5734153 1059396
-0.04318393 -0.075949669 3.5946295 1125188
-0.10599323 -0.025026519 3.5534587 1125445
-0.075465687 -0.025167819 3.573523 1125189
-0.043185245 -0.025317241 3.5947392 1125188
-0.10599643 0.02502753 3.5535672 1059140
-0.075467996 0.025168836 3.5736315 993347
-0.043186571 0.025318284 3.5948493 1058882
-0.10599966 0.075084619 3.5536733 926785
-0.075470254 0.075508609 3.5737402 794686
-0.043187894 0.075956933 3.5949593 860735
0.086466663 0.099886112 3.5985532 730178
0.12509945 0.099785604 3.5949321 795971
0.1740247 0.099658333 3.5903463 928582
0.22430275 0.099527515 3.585634 993606
0.25087273 0.099458426 3.5831449 928069
-2.8547726 0.10871068 3.5945702 860737
-2.8244066 0.10863083 3.5919294 795201
-2.7749481 0.10850075 3.5876288 860737
-2.7256093 0.108371 3.583338 926530
-2.6748025 0.10823738 3.5789201 860480
-2.6241207 0.10810409 3.5745127 1058629
-2.5751395 0.10797524 3.5702519 1124677
-2.5262761 0.10784668 3.5660014 926786
-2.4759591 0.10771434 3.5616255 926786
-2.4257655 0.10758233 3.5572605 860994
-2.3756945 0.10745066 3.5529065 860994
-2.3460181 0.1073726 3.5503256 992323
-1.1125678 -1.6074229 3.6093974 2039583
-1.0726447 -1.6133074 3.6355937 2039583
-1.1137428 -1.5749406 3.6086979 2039583
-1.0749359 -1.5750638 3.6341748 2039583
-1.11388 -1.5251017 3.6087196 2039583
-1.0760019 -1.5252594 3.633584 2039583
-1.1138135 -1.4751246 3.6088748 2039583
-1.0763543 -1.4749712 3.6334648 2039583
-1.1139092 -1.4250059 3.6089232 2039583
-1.0763016 -1.4250169 3.6336114 2039583
-1.1139379 -1.3748847 3.6090147 2039583
-1.0763857 -1.3750579 3.6336689 2039583
-1.1138854 -1.3250358 3.6091616 2039583
-1.0763013 -1.3250959 3.6338339 2039583
-1.1139413 -1.275182 3.6092358 2039583
-1.0764331 -1.2750533 3.6338606 2039583
-1.1140509 -1.2250538 3.6092758 2039583
-1.0764369 -1.2250098 3.6339676 2039583
-1.114066 -1.17506 3.6093767 2039583
-1.0765514 -1.1749592 3.6340041 2039583
-1.1139871 -1.1249269 3.6095402 2039583
-1.0764123 -1.124912 3.634207 2039583
-1.1140423 -1.0749266 3.6096151 2039583
-1.076527 -1.0749369 3.6342416 2039583
-1.114193 -1.0250632 3.6096282 2039583
-1.0765948 -1.0249615 3.6343093 2039583
-1.1148776 -0.97433537 3.609292 2039583
-1.076503 -0.9749015 3.6344836 2039583
-1.1153218 -0.92477095 3.6091111 2039583
-1.0766425 -0.92500168 3.6345005 2039583
-1.1158841 -0.89627498 3.6088045 2039583
-1.0764725 -0.89654917 3.6346765 2039583
-0.016438797 -0.72482949 3.6107874 1059140
0.020995174 -0.72509247 3.6353915 1124934
-0.016472057 -0.67494595 3.6108761 1191238
0.021177987 -0.6749776 3.6356208 1125191
-0.016390866 -0.62505376 3.6110396 1191494
0.021081014 -0.62497073 3.6356671 1059655
-0.016537352 -0.57502097 3.6110518 1256774
0.021082275 -0.57507128 3.6357775 1125447
-0.016505882 -0.52498907 3.6111808 1256774
0.021043744 -0.52494401 3.6358607 993349
-0.016295275 -0.47495171 3.6114292 1190981
0.021167623 -0.47493353 3.6360526 993604
-0.016474007 -0.42504871 3.6114211 1191238
0.021038737 -0.42501834 3.6360762 1059654
-0.016636955 -0.37514719 3.6114256 1125189
0.021058045 -0.37499699 3.6361983 1059397
-0.016362632 -0.32482311 3.6117146 1125188
0.021274539 -0.32496816 3.6364512 861249
-0.017480703 -0.27444804 3.6110883 1058883
0.020805333 -0.27505648 3.6362507 927042
-0.018194422 -0.22527532 3.6107275 1124932
0.021377215 -0.22490264 3.6367371 1124933
-0.017932622 -0.17503172 3.6110113 993346
0.020854564 -0.1752089 3.6365027 1125189
-0.017785741 -0.1244112 3.6112154 992576
0.021120245 -0.12505409 3.6367867 1059396
-0.018087212 -0.075063668 3.6111259 1125187
0.021120878 -0.075335965 3.6368954 1191237
-0.017934248 -0.025434138 3.611335 1190467
0.020954495 -0.025806369 3.6368949 1059652
-0.017934781 0.02543517 3.6114464 1058369
0.019606274 0.025608951 3.6361213 1059139
-0.018020175 0.074941531 3.6115007 794171
0.019985879 0.075673178 3.6357486 861248
0.061163697 0.099951938 3.600925 927812
-2.4669092 0.10732255 3.6486335 860737
-2.4251342 0.10721307 3.6449108 860994
-2.3754323 0.10708279 3.6404824 992580
-2.3258526 0.10695285 3.6360643 1124678
-2.2779849 0.10682738 3.6317995 1124935
-0.016435342 0.10011923 3.6069517 728121
0.020903599 0.10005666 3.6046982 794942
-0.98048323 -1.6516675 3.6960094 2039583
-1.0238506 -1.6204549 3.6676092 2039583
-0.98784596 -1.6248045 3.6912355 2039583
-1.0254375 -1.5749606 3.6666682 2039583
-0.98787105 -1.5749899 3.69133 2039583
-1.0509565 -1.5197282 3.6500392 2039583
-1.0253822 -1.5250292 3.6668158 2039583
-0.98796809 -1.5250199 3.6913786 2039583
-1.0509809 -1.4743975 3.6501241 2039583
-1.0253998 -1.4750164 3.6669157 2105376
-0.98792189 -1.4750532 3.69152 5066061
-1.0510077 -1.4245312 3.6502173 2039583
-1.0254848 -1.4249209 3.6669724 2236962
-0.98800308 -1.4250778 3.6915793 6710886
-1.0510347 -1.3746626 3.6503112 2039583
-1.0254368 -1.3749828 3.667115 2236962
-0.98799634 -1.3749497 3.6916935 6710886
-1.0510616 -1.3247912 3.650404 2039583
-1.0255283 -1.324963 3.6671662 2236962
-0.9879902 -1.3248191 3.6918097 6710886
-1.0510885 -1.274917 3.6504974 2039583
-1.0255475 -1.27502 3.6672649 2236962
-0.98815101 -1.2748386 3.6918132 6710886
-1.0511154 -1.2250408 3.6505911 2039583
-1.025548 -1.2250712 3.6673751 2236962
-0.98800057 -1.2250077 3.6920252 6710886
-1.0511423 -1.1751618 3.6506846 2039583
-1.0256158 -1.1749665 3.6674442 2236962
-0.98806643 -1.1750208 3.6920934 6710886
-1.0511692 -1.1252803 3.6507778 2039583
-1.0256501 -1.1248534 3.6675324 2236962
-0.98821855 -1.1248841 3.6921043 6710886
-1.0511961 -1.0753962 3.650871 2039583
-1.0255785 -1.0749011 3.6676905 2236962
-0.98825383 -1.0751772 3.6921914 6710886
-1.051223 -1.0255095 3.6509645 2039583
-1.0257277 -1.0250247 3.6677039 2236962
-0.98944122 -1.0249965 3.6915238 6710886
-1.0512499 -0.97562027 3.651058 2039583
-1.0256145 -0.97498524 3.6678884 2236962
-0.9895196 -0.97489941 3.6915855 6710886
-1.0512776 -0.92421663 3.6511548 2039583
-1.0257549 -0.92494619 3.6679082 2236962
-0.98958033 -0.92495811 3.6916554 6710886
-1.0512931 -0.89548993 3.6512084 2039583
-1.0258859 -0.8966468 3.6678851 2236962
-0.98995227 -0.89675218 3.6914744 6710886
0.066837102 -0.75016522 3.6654665 927302
0.10239209 -0.75036591 3.6888349 1192268
0.046908934 -0.72480148 3.6524234 1125192
0.07617899 -0.72508651 3.6716607 1125449
0.11027337 -0.72514522 3.6940699 1125450
0.046910346 -0.67488766 3.6525338 1059657
0.075999431 -0.67500478 3.6716533 994120
0.11024336 -0.67517304 3.694159 1059657
0.046911769 -0.62497091 3.6526442 1059912
0.076048225 -0.62501526 3.6717954 1059656
0.11007214 -0.6249519 3.6941586 1059913
0.046913177 -0.57505089 3.6527548 994376
0.076097928 -0.57502472 3.671936 1059913
0.11028333 -0.57521719 3.6944041 1060169
0.046914596 -0.52512819 3.6528645 927302
0.0760407 -0.52503163 3.672008 993864
0.11020606 -0.52498549 3.6944642 1059913
0.046916012 -0.47520241 3.6529744 1059399
0.076067671 -0.47502959 3.6721356 1059399
0.1101291 -0.47475275 3.6945231 1059656
0.04691742 -0.42527348 3.6530848 1059911
0.076157011 -0.42493951 3.6723046 1059912
0.11029336 -0.42526191 3.6947396 1059912
0.046918824 -0.37534174 3.6531951 928583
0.075737499 -0.37493187 3.672137 994119
0.1101388 -0.37477615 3.6947474 1059912
0.046920247 -0.32540679 3.6533058 794944
0.076462664 -0.32502079 3.6727223 794944
0.10877269 -0.32472077 3.6939595 795201
0.046921674 -0.27546898 3.6534157 795201
0.075763263 -0.27482629 3.6723731 860994
0.10866018 -0.27546787 3.693994 795458
0.046923086 -0.22552808 3.6535258 1125447
0.076281555 -0.22499634 3.6728237 1125447
0.10866351 -0.22497225 3.6941066 1059911
0.04692449 -0.17558415 3.653635 1125960
0.075955734 -0.17479867 3.6727176 1191496
0.10866684 -0.17447352 3.6942184 1060424
0.046925906 -0.12563725 3.6537464 1125960
0.076118335 -0.12477542 3.6729355 1060168
0.10867003 -0.12550221 3.6943278 1126216
0.046927322 -0.075687334 3.6538563 1125960
0.07612066 -0.074563116 3.6730471 1125959
0.10867336 -0.074997425 3.6944411 1060167
0.046698529 -0.024877394 3.6538172 1059910
0.076122969 -0.024347808 3.6731584 1060167
0.10867665 -0.024489628 3.6945539 1125703
0.045404866 0.025728384 3.6530778 993861
0.076125212 0.02434876 3.6732662 993604
0.10867987 0.024490597 3.6946628 993348
0.045406234 0.075673729 3.653188 927299
0.076127544 0.074570127 3.6733787 927556
0.11146379 0.07779143 3.6940582 795458
0.17559634 0.099253379 3.6857815 994119
0.22569163 0.099123575 3.6809609 993862
0.25447956 0.099048994 3.6781912 862532
-2.9173646 0.10850327 3.6887739 926787
-2.8746653 0.10839135 3.6849692 860737
-2.8255031 0.1082625 3.6805887 860737
-2.7748256 0.10812967 3.6760731 1058372
-2.7242713 0.10799717 3.6715686 860994
-2.6754661 0.10786926 3.6672196 1058629
-2.6251557 0.10773742 3.6627374 1058628
-2.5749674 0.10760587 3.6582649 860737
-2.5249021 0.10747465 3.6538043 926274
-2.4910495 0.10738585 3.6507854 860738
-0.96141922 -1.6545775 3.7085176 2039583
-0.92283452 -1.6602867 3.733835 2039583
-0.89934295 -1.6635513 3.7492497 2039583
-0.96304893 -1.6250625 3.7075133 2039583
-0.92610651 -1.6249622 3.731766 2039583
-0.89936084 -1.6247519 3.7493243 2039583
-0.96318108 -1.5750966 3.7075379 2039583
-0.92612129 -1.5748807 3.7318685 2039583
-0.89938378 -1.5750865 3.7494199 2236962
-0.96304518 -1.5249623 3.7077391 2368548
-0.92605007 -1.524876 3.7320254 4934475
-0.89940673 -1.5254185 3.7495153 6710886
-0.96310538 -1.4749926 3.7078109 6579300
-0.92616946 -1.4749492 3.7320585 6710886
-0.89942968 -1.4757481 3.7496111 6710886
-0.96238995 -1.4244423 3.7083943 6710886
-0.92545623 -1.4253222 3.7326391 6710886
-0.89945257 -1.426075 3.7497067 6710886
-0.96186584 -1.3750422 3.7088478 6710886
-0.92486721 -1.3750949 3.7331357 6710886
-0.89947623 -1.3748468 3.7498052 6710886
-0.9618504 -1.3251376 3.7089682 6710886
-0.92486805 -1.3252077 3.7332466 6710886
-0.89949983 -1.3236164 3.7499042 6710886
-0.96193957 -1.2750779 3.709022 6710886
-0.92484075 -1.2751452 3.7333767 6710886
-0.89951706 -1.2863559 3.7499754 6710886
-0.96199715 -1.2250179 3.709096 6710886
-0.92504662 -1.2249973 3.7333524 6710886
-0.96191651 -1.1751034 3.7092595 6710886
-0.92487472 -1.1749324 3.7335773 6710886
-0.96198153 -1.1248845 3.7093294 6710886
-0.92497629 -1.1248623 3.7336209 6710886
-0.96223038 -1.0745335 3.7092772 6710886
-0.92503649 -1.0748763 3.7336931 6710886
-0.96332723 -1.0249529 3.7086673 6710886
-0.92502826 -1.0249749 3.7338095 6710886
-0.96333688 -0.97510892 3.7087722 6710886
-0.92507935 -0.97498584 3.7338879 6710886
-0.96339101 -0.92498934 3.7088478 6710886
-0.92504388 -0.92507702 3.7340221 6710886
-0.96397501 -0.89665377 3.7085283 6710886
-0.925381 -0.89698493 3.7338629 6710886
0.13687038 -0.75035971 3.7114961 1257547
0.18026884 -0.75044554 3.7400198 1125450
0.13528 -0.72480106 3.7105081 1125706
0.17337903 -0.72503978 3.7355468 1125962
0.13529354 -0.67485839 3.7106256 1059657
0.17337735 -0.67498475 3.7356553 1059657
0.1352199 -0.6250689 3.710685 994121
0.17327712 -0.62492859 3.7356985 1059657
0.13523452 -0.57512474 3.7108042 1125705
0.17331733 -0.5748691 3.7358341 1125706
0.13545085 -0.52502221 3.7110548 1059913
0.17340693 -0.52491409 3.7360024 1059913
0.13528082 -0.47491756 3.7110538 1059656
0.17335561 -0.47495627 3.7360795 1059656
0.13511135 -0.42481461 3.711051 1125705
0.17330453 -0.42499715 3.7361548 1125705
0.1353182 -0.37516111 3.7112973 1060168
0.17249359 -0.37533823 3.7357295 1125961
0.13408469 -0.32518449 3.7105958 795458
0.17179959 -0.32498023 3.7353845 860994
0.13359855 -0.27474627 3.7103868 860738
0.17189661 -0.27534571 3.7355564 860738
0.13366978 -0.22458321 3.7105427 1125191
0.17194681 -0.22546969 3.7356992 1059655
0.13376258 -0.17525248 3.71071 1125960
0.1718896 -0.17511852 3.7357717 1191753
0.13401163 -0.12548615 3.7109835 1191753
0.17152093 -0.12442654 3.7356396 1257289
0.13352962 -0.074790381 3.7107792 1191752
0.17182568 -0.074292339 3.7359502 1191753
0.13377477 -0.024598967 3.7110498 1125960
0.17183073 -0.024764769 3.7360611 1125960
0.13377871 0.024599945 3.7111604 1059910
0.17183591 0.024765749 3.7361734 1125960
0.1337827 0.073801801 3.7112696 927557
0.17184108 0.074299231 3.7362852 1060167
-2.5582042 0.10717429 3.7492042 860482
-2.5251052 0.10708784 3.7461805 926274
-2.4755499 0.10695846 3.7416534 992836
-2.4261136 0.1068293 3.7371361 1124422
-2.3751543 0.10669614 3.7324779 1125447
-2.3325098 0.10658479 3.7285824 1190727
-0.8720867 -1.667773 3.7671349 2039583
-0.83518124 -1.6730598 3.7913485 1582644
-0.87371439 -1.6251026 3.7661595 2039583
-0.83557284 -1.6246758 3.7911999 1452605
-0.87380672 -1.5751277 3.7662086 4079166
-0.83564621 -1.5747676 3.7912624 2636367
-0.87379211 -1.5250642 3.7663305 6710886
-0.83553809 -1.5250177 3.7914448 2834258
-0.87386137 -1.4749982 3.7663989 6710886
-0.83571476 -1.4751073 3.7914402 2834259
-0.87379962 -1.4249294 3.7665513 6710886
-0.83566689 -1.4251937 3.7915831 2899281
-0.87386876 -1.3748575 3.7666163 6710886
-0.83567989 -1.3751198 3.7916863 2965844
-0.87384897 -1.3248696 3.7667401 6710886
-0.83570147 -1.3248867 3.7917843 2965844
-0.87456483 -1.2746019 3.7663817 6710886
-0.83634549 -1.2756246 3.7914705 2965844
-0.87528825 -1.2249357 3.7660196 6710886
-0.83711827 -1.2250632 3.7910757 3228757
-0.87526613 -1.1749561 3.7661433 6710886
-0.83719742 -1.1750102 3.7911344 3294806
-0.87534189 -1.1248931 3.7662055 6710886
-0.83716142 -1.1249521 3.79127 3097429
-0.8753652 -1.074908 3.7663023 6710886
-0.83722144 -1.0750704 3.7913418 2965587
-0.87539554 -1.0250036 3.7663922 6710886
-0.83720416 -1.02518 3.7914646 2899794
-0.87535596 -0.97501445 3.766531 6710886
-0.8372063 -0.97511601 3.7915742 2965331
-0.87544936 -0.92502254 3.766578 6710886
-0.83724725 -0.92504776 3.7916613 2965331
-0.87531775 -0.89702773 3.7667279 6710886
-0.83742964 -0.89713001 3.7916012 3294293
0.19737098 -0.75063133 3.75126 1125706
0.22840278 -0.75068825 3.771656 1257548
0.19737414 -0.72422308 3.7513199 1125962
0.2249115 -0.72497869 3.7694168 1125962
0.25756681 -0.72557801 3.790879 1191498
0.19738005 -0.67451119 3.7514324 1059657
0.22491832 -0.67502689 3.7695305 1059657
0.25757465 -0.67534214 3.7909942 1059658
0.19738597 -0.62479639 3.7515454 994121
0.22488084 -0.62497538 3.7696154 1059657
0.25758243 -0.62510318 3.7911091 1059657
0.19739191 -0.57507867 3.7516582 1125706
0.22486177 -0.57501811 3.7697117 1059914
0.25759023 -0.57486117 3.791224 1059401
0.19739784 -0.52535796 3.7517705 1059913
0.2248818 -0.52505749 3.7698345 1125450
0.25759807 -0.52461576 3.7913396 1125450
0.19740376 -0.47563416 3.7518833 1059656
0.2248625 -0.47509536 3.7699318 1059656
0.25760591 -0.47436765 3.7914546 1059400
0.1974097 -0.42590743 3.7519963 1126218
0.22478701 -0.42522684 3.7699904 1059656
0.25761375 -0.42411637 3.791569 993094
0.1964366 -0.37185869 3.7514741 1125961
0.22487701 -0.37516019 3.7701588 994120
0.25762159 -0.373862 3.7916842 1059657
0.19586118 -0.32555512 3.7511976 861507
0.22487129 -0.32499394 3.7702661 861251
0.25773534 -0.32437012 3.7918677 927045
0.19576967 -0.27432147 3.7512496 860738
0.22497274 -0.27492046 3.7704439 794945
0.25753075 -0.27572015 3.7918396 926531
0.19582444 -0.22379874 3.7513964 1059655
0.22497946 -0.2249417 3.7705562 1059398
0.2576445 -0.22622237 3.7920222 993863
0.19583032 -0.17407086 3.7515092 1126217
0.22498628 -0.17495993 3.7706709 1125961
0.2582491 -0.17472032 3.7925332 1191754
0.19583619 -0.12434004 3.7516215 1257290
0.22499305 -0.1249751 3.7707827 1257545
0.25930658 -0.12572253 3.7933354 1125960
0.19584207 -0.07460621 3.7517343 1257289
0.2249999 -0.07498727 3.7708969 1191753
0.25931448 -0.075435773 3.7934501 1191753
0.19584793 -0.024869401 3.7518468 1191496
0.22500667 -0.02499642 3.7710118 1191753
0.25932229 -0.025145933 3.7935658 1257545
0.19585381 0.024870396 3.7519593 1126216
0.22501348 0.024997441 3.7711253 1125960
0.25933024 0.025146946 3.7936809 1059397
0.19585969 0.074613184 3.7520723 1060168
0.22501582 0.074992567 3.7711716 1059655
0.25927189 0.075417735 3.7928314 993349
-3.0070038 0.10834633 3.7902055 992324
-2.9748669 0.1082624 3.7872691 926787
-2.9259059 0.10813454 3.7827961 860737
-2.8753777 0.10800259 3.7781801 795458
-2.8249731 0.10787094 3.7735748 993091
-2.7746904 0.10773964 3.7689817 861251
-2.7245307 0.10760864 3.7643988 1058628
-2.6744931 0.10747797 3.7598276 992836
-2.6245763 0.10734762 3.7552681 926273
-2.5830686 0.10723922 3.7514758 926018
-0.80658907 -1.7021054 3.8100548 1452607
-0.7702651 -1.7076113 3.8338883 1520205
-0.7477935 -1.7108368 3.8486328 1717326
-0.81078428 -1.6749508 3.8073614 1322826
-0.7745412 -1.6749351 3.8311548 1520205
-0.74780768 -1.674196 3.8487048 1849168
-0.81079406 -1.6251078 3.8074658 1323083
-0.77451587 -1.6249801 3.8312807 1454156
-0.74782646 -1.6248085 3.8488028 1651533
-0.81079328 -1.5750653 3.8075771 1190985
-0.77457577 -1.5749334 3.8313544 1388106
-0.74784553 -1.5754186 3.8489006 1848912
-0.81087977 -1.5250227 3.8076315 1323340
-0.7747196 -1.5249733 3.8313701 1388620
-0.74786514 -1.5244329 3.8490009 1783119
-0.81083488 -1.474975 3.8077729 1323340
-0.77461582 -1.4750104 3.8315525 1520462
-0.74788398 -1.4750377 3.849098 1783376
-0.81086659 -1.4247271 3.8078644 1520461
-0.77458614 -1.4249569 3.8316817 1586511
-0.74790299 -1.4256401 3.8491957 1849425
-0.81083268 -1.374871 3.8079977 1520974
-0.77463049 -1.3749895 3.8317621 1652047
-0.74792254 -1.3746463 3.8492968 2046547
-0.81095153 -1.3250142 3.8080304 1455182
-0.77475959 -1.3251089 3.8317904 1718097
-0.74794161 -1.3252441 3.8493946 1915218
-0.81160396 -1.2742269 3.8077157 1389390
-0.77469003 -1.2750456 3.8319468 1520462
-0.74796063 -1.2758387 3.8494923 1651791
-0.8123793 -1.225069 3.8073168 1586510
-0.77481401 -1.2248936 3.8319762 1652304
-0.74798012 -1.2248372 3.8495934 1586512
-0.81234157 -1.1751475 3.8074529 1652304
-0.77475011 -1.1749167 3.8321314 1586512
-0.74799919 -1.1754271 3.8496904 1586255
-0.81236261 -1.1248755 3.8075511 1323854
-0.77467543 -1.1251121 3.8322914 1389390
-0.74801809 -1.1260142 3.8497884 1454926
-0.8124029 -1.0746001 3.8076355 1191755
-0.77476948 -1.0751283 3.8323405 1257291
-0.7480377 -1.0750049 3.8498888 1388877
-0.81236541 -1.0246714 3.8077719 1059144
-0.77492845 -1.0250555 3.8323457 1124936
-0.74805349 -1.0335579 3.8499711 1322572
-0.81250352 -0.97509736 3.8077908 993351
-0.77481425 -0.97506523 3.8325341 1124936
-0.81240702 -0.92534024 3.807965 1059400
-0.77483493 -0.92498499 3.8326318 1190730
-0.81229424 -0.89731061 3.8081019 1059657
-0.7751658 -0.89740157 3.8324757 1257035
-2.5728824 0.10680473 3.8478072 992836
-2.5253184 0.10668099 3.8433495 1059142
-2.4761724 0.10655314 3.838743 1125191
-2.4254553 0.10642119 3.8339896 1256776
-2.390023 0.106329 3.8306684 1190727
-0.72178584 -1.7148175 3.8656979 1980239
-0.68428707 -1.7201753 3.8903027 2374226
-0.72372448 -1.6749855 3.8645141 2046033
-0.68495661 -1.6748681 3.8899655 2242640
-0.7237438 -1.6249936 3.8646123 1848398
-0.68487233 -1.6249479 3.8901308 2176591
-0.72364283 -1.5751005 3.8647888 1914448
-0.68499166 -1.5750313 3.8901646 2308434
-0.72376347 -1.5251064 3.8648219 1914448
-0.68499166 -1.524959 3.8902762 2440275
-0.72374213 -1.4750056 3.8649471 1914448
-0.68499297 -1.4748905 3.8903852 2374739
-0.72374958 -1.4250054 3.8650527 2112083
-0.68559295 -1.4255763 3.8901029 2308691
-0.72375602 -1.3750026 3.8651607 2112083
-0.6864301 -1.3750349 3.8896635 2309204
-0.72383767 -1.3248945 3.8652198 1980754
-0.68651259 -1.3249519 3.8897223 2177362
-0.72373664 -1.2749871 3.8653963 1783120
-0.68652105 -1.2748675 3.8898287 2046290
-0.72385752 -1.2249757 3.8654284 1651792
-0.68648285 -1.2249435 3.8899643 1914705
-0.72393942 -1.1748635 3.8654869 1651791
-0.6865564 -1.1750141 3.8900266 1782863
-0.72378623 -1.1250437 3.8656991 1651791
-0.68660241 -1.1252475 3.8901074 1783120
-0.7239309 -1.0752287 3.8657141 1717840
-0.68659115 -1.0751491 3.8902285 1980754
-0.72449493 -1.024707 3.8654554 1652048
-0.68658137 -1.0250541 3.8903427 1849426
-0.72523522 -0.97505075 3.8650804 1585999
-0.6865713 -0.97495627 3.8904636 1914962
-0.72538275 -0.92506212 3.8650954 1652048
-0.68664497 -0.92501253 3.8905265 1783633
-0.72703868 -0.89735389 3.8640702 1586255
-0.68662351 -0.89778686 3.8906007 1520206
-3.0755622 0.10811249 3.8949211 992837
-3.02509 0.10798117 3.8901906 795202
-2.9747376 0.10785018 3.8854711 860994
-2.9245095 0.10771952 3.8807635 993091
-2.8744011 0.10758916 3.8760674 861765
-2.824415 0.10745911 3.871382 927044
-2.774549 0.10732938 3.866708 1059398
-2.7248037 0.10719995 3.8620453 992323
-2.6751771 0.10707085 3.8573947 926273
-2.6256719 0.10694207 3.8527553 926530
-2.5984046 0.10687116 3.8502002 926787
-0.61842442 -1.7549783 3.9334631 3359831
-0.59693062 -1.7580866 3.947566 3754587
-0.65855575 -1.7241015 3.907186 2768212
-0.62498617 -1.7250665 3.9292221 3228502
-0.59687614 -1.7248569 3.947675 3754330
-0.65885007 -1.6748722 3.9071028 2570832
-0.62514007 -1.674953 3.9292321 3096660
-0.59695619 -1.6747506 3.9477346 3623002
-0.65875971 -1.6247308 3.9072738 2636627
-0.62515074 -1.625041 3.9293375 3162710
-0.59703618 -1.6246439 3.9477935 3623001
-0.65891141 -1.5748242 3.907285 2702932
-0.62507653 -1.5751225 3.9294956 3031125
-0.59698671 -1.5750663 3.9479368 3491416
-0.65882003 -1.5251465 3.9074552 2768469
-0.62518775 -1.5249017 3.9295342 3031125
-0.5974589 -1.5281854 3.9477308 3425368
-0.65881062 -1.4752256 3.907573 2768725
-0.62502396 -1.4748794 3.929755 2899540
-0.59845734 -1.4758085 3.947192 3359575
-0.65964079 -1.4242005 3.9071414 2637397
-0.62373143 -1.4249947 3.9307144 2833747
-0.59703368 -1.4247023 3.9482405 3227989
-0.66031778 -1.3751414 3.9068065 2571862
-0.62368 -1.3749329 3.9308581 2768211
-0.5970487 -1.3756657 3.9483399 3162711
-0.66040534 -1.3250077 3.9068604 2374483
-0.62378705 -1.3251519 3.9308996 2834262
-0.59706426 -1.3249919 3.9484425 3031639
-0.66035181 -1.2748573 3.9070065 2308948
-0.62371182 -1.2751794 3.9310606 2637140
-0.59707987 -1.2743154 3.948545 2834004
-0.66045117 -1.2249212 3.9070539 2243155
-0.62376195 -1.2249163 3.9311378 2571348
-0.59709483 -1.2252711 3.9486444 2768213
-0.66045702 -1.1749701 3.9071617 2111569
-0.62390286 -1.1749381 3.931159 2571605
-0.59711039 -1.1745896 3.9487474 2768469
-0.660438 -1.1250243 3.9072852 1980241
-0.62369174 -1.1251489 3.9314077 2374483
-0.59712595 -1.1239054 3.9488499 2571604
-0.66041958 -1.0750743 3.907408 2112083
-0.62383205 -1.0750691 3.9314268 2374740
-0.59714097 -1.0748537 3.9489496 2571348
-0.66050684 -1.0249158 3.9074628 1980498
-0.62383741 -1.0249901 3.9315348 2243155
-0.59715599 -1.0257994 3.9490495 2506068
-0.66045362 -0.97475916 3.9076097 2046547
-0.62381923 -0.97499764 3.9316587 2308947
-0.59717155 -0.97510737 3.9491515 2440276
-0.66060001 -0.92479837 3.9076245 1848912
-0.6238578 -0.9249146 3.9317448 1979984
-0.5971871 -0.92441273 3.9492545 2111568
-0.65932393 -0.89750761 3.9085228 1519692
-0.62383598 -0.89781839 3.9318197 1716557
-0.59719509 -0.89824688 3.9493077 1848654
-2.5604076 0.10634279 3.9490471 1125190
-2.5255454 0.10625248 3.9456935 1190983
-2.4750898 0.10612174 3.9408383 1256776
-2.4490373 0.10605425 3.9383321 1256776
-2.7158833 -1.7668976 3.9869421 2039583
-2.6972723 -1.7694639 3.9991531 2039583
-0.56986016 -1.7619995 3.9653282 4214620
-0.53290838 -1.7674743 3.9895747 4609117
-2.7167943 -1.724975 3.9864388 2039583
-2.697444 -1.7269319 3.999135 2039583
-0.57149762 -1.724836 3.9643352 4083035
-0.53385723 -1.7250457 3.9890461 4477788
-2.7168052 -1.6750213 3.9865425 2039583
-2.6985195 -1.6747717 3.9985459 2039583
-0.57155466 -1.674902 3.9644094 4017499
-0.5338521 -1.674909 3.9891601 4346204
-2.716877 -1.6249554 3.9866035 2039583
-2.6985714 -1.6251065 3.9986227 2039583
-0.57152003 -1.6248497 3.9645443 3951451
-0.53381175 -1.6249192 3.9892986 4346204
-2.7170007 -1.5748874 3.9866357 2039583
-2.6986229 -1.5754392 3.9986989 2039583
-0.57166857 -1.5747974 3.9645584 3885658
-0.53382534 -1.5750774 3.9894006 4214620
-2.7169528 -1.5249279 3.9867792 2039583
-2.6986747 -1.5257701 3.9987757 2039583
-0.57225782 -1.5243994 3.9642839 3688537
-0.53389388 -1.525082 3.9894669 4017242
-2.717025 -1.4749646 3.9868422 2039583
-2.6987264 -1.4760988 3.9988523 2039583
-0.57307559 -1.4748851 3.9638572 3556695
-0.53383446 -1.4752355 3.9896188 3885401
-2.7170982 -1.4250001 3.9869049 2039583
-2.6987779 -1.4264259 3.998929 2039583
-0.57312983 -1.4249991 3.9639335 3490902
-0.53384829 -1.4250857 3.9897199 3820121
-2.7162037 -1.3752 3.9876037 2039583
-2.6988313 -1.3750952 3.9990082 2039583
-0.57327509 -1.3750026 3.9639482 3360088
-0.53397161 -1.3749354 3.9897501 3688794
-2.7160428 -1.3249863 3.9878211 2039583
-2.6988852 -1.3237625 3.9990873 2039583
-0.57305384 -1.3250028 3.9642055 3294296
-0.5338394 -1.3249307 3.9899497 3557209
-2.7161002 -1.2750947 3.987895 2039583
-2.6989367 -1.2740837 3.9991643 2039583
-0.5731734 -1.2749994 3.9642375 3228503
-0.53471649 -1.2755377 3.9894814 3425624
-2.7161314 -1.2250805 3.9879858 2039583
-2.6989887 -1.2244029 3.9992411 2039583
-0.57317537 -1.2249948 3.9643469 3031382
-0.53537238 -1.2251023 3.9891648 3228503
-2.7161894 -1.1749483 3.9880588 2039583
-2.6990404 -1.1747204 3.9993174 2039583
-0.57325554 -1.1749893 3.9644079 2899797
-0.53545672 -1.1750565 3.9892204 2834261
-2.7162631 -1.1249325 3.9881234 2306884
-2.6990919 -1.1250358 3.9993942 2306883
-0.57319158 -1.1250862 3.964561 2768468
-0.53554088 -1.125011 3.9892771 2768211
-2.7163377 -1.0749156 3.9881837 2440019
-2.6991436 -1.0753493 3.9994707 2571091
-0.57328504 -1.0751806 3.9646091 2702932
-0.53554416 -1.0749621 3.9893858 2768724
-2.7164121 -1.0248964 3.9882464 2176591
-2.6991954 -1.0256611 3.999547 2373456
-0.57322049 -1.0249497 3.9647632 2571604
-0.53548807 -1.0249081 3.9895334 2637396
-2.7164037 -0.97499073 3.9883616 2374483
-2.6992471 -0.97597092 3.999624 2440019
-0.57320952 -0.97482288 3.9648831 2505812
-0.53552198 -0.97501701 3.9896235 2505811
-2.7164836 -0.92508316 3.988421 2374740
-2.6992989 -0.92627871 3.999701 2505812
-0.57329011 -0.92491001 3.9649401 2111312
-0.53555578 -0.92512399 3.989713 2111055
-2.7165415 -0.87517518 3.9884956 2374740
-2.6993525 -0.87492818 3.9997802 2506069
-0.57420588 -0.89787221 3.9644001 1979983
-0.5350253 -0.89816022 3.9901209 1914190
-2.715853 -0.82551712 3.9890583 2177619
-2.6994064 -0.82357562 3.9998596 2177619
-2.7154922 -0.77489358 3.9894085 1980498
-2.6994576 -0.77387774 3.9999363 2111827
-2.7154849 -0.72494233 3.9895241 1782863
-2.6994925 -0.74074471 3.9999874 1980242
-2.7155256 -0.67498881 3.9896085 1980754
-2.7156258 -0.62503427 3.9896562 1849426
-2.7157233 -0.57495165 3.9897015 1849169
-2.7158225 -0.52474129 3.9897473 1454413
-2.7159214 -0.47465718 3.9897945 1586255
-2.7158473 -0.42481866 3.9899554 1454670
-2.7158983 -0.375236 3.9900322 1586768
-2.7159505 -0.32565156 3.9901073 1454927
-2.71544 -0.27627954 3.9905515 1454926
-2.7148223 -0.22527039 3.991071 1586511
-2.7151845 -0.17432119 3.9909477 1586254
-2.7150199 -0.12401187 3.9911675 1322827
-2.7150724 -0.074408501 3.9912446 1455181
-2.7151244 -0.024803264 3.9913211 1520460
-2.7151759 0.024803888 3.9913964 1454667
-2.7152288 0.074412942 3.9914727 1125448
-3.0691712 0.10766106 3.9980011 795458
-3.0245106 0.10754535 3.9937038 927043
-2.9746022 0.10741602 3.9889014 993606
-2.9248135 0.107287 3.9841106 860995
-2.8751445 0.10715831 3.9793313 1058629
-2.8255944 0.10702992 3.9745634 1059141
-2.7761631 0.10690184 3.9698074 926529
-2.7190402 0.10415781 3.9812763 992836
-2.6741447 0.10663749 3.959991 1058373
-2.6250751 0.10651035 3.9552696 1059141
-2.5848529 0.10640614 3.9513998 1059398
-2.6532881 -1.800565 4.0279579 2039583
-2.6328194 -1.8041747 4.0413876 2039583
-0.46017253 -1.8031535 4.0372438 3885658
-0.44405848 -1.8054174 4.0478172 3557208
-2.6721463 -1.7730992 4.0156407 2039583
-2.635778 -1.775087 4.0395112 2039583
-0.50768548 -1.7714119 4.006124 4543581
-0.47366822 -1.7745377 4.02845 4017499
-0.44444934 -1.7752858 4.0476279 3556952
-2.6733222 -1.7247545 4.0149755 2039583
-2.6358528 -1.725044 4.0395718 2039583
-0.50777441 -1.7252367 4.0061674 4477532
-0.47393501 -1.7248111 4.0283837 4017243
-0.44438961 -1.7255772 4.0477781 3556952
-2.6743443 -1.6750224 4.0144157 2039583
-2.6358428 -1.6751281 4.03969 2039583
-0.50792229 -1.6749415 4.0061831 4411996
-0.47394714 -1.6747861 4.0284872 4017499
-0.44440109 -1.6753123 4.0478816 3491416
-2.6743577 -1.6249936 4.0145202 2039583
-2.6359303 -1.6250799 4.0397439 2039583
-0.50788492 -1.6249129 4.006319 4280668
-0.47405675 -1.6248626 4.0285268 3820122
-0.44568342 -1.6260719 4.0471506 3425624
-2.6733704 -1.5748752 4.0152774 2039583
-2.6349285 -1.5751892 4.0405126 2039583
-0.50789773 -1.5751604 4.0064211 4148827
-0.47401682 -1.575044 4.0286622 3622488
-0.44598868 -1.5743747 4.0470648 3162453
-2.6732678 -1.5249144 4.0154562 2039583
-2.6348615 -1.5250115 4.040669 2039583
-0.50799489 -1.5251292 4.0064688 4017499
-0.47398368 -1.5251166 4.0287971 3622744
-0.44600013 -1.5241146 4.0471697 3228246
-2.673434 -1.4747995 4.0154562 2039583
-2.6349583 -1.4749589 4.0407162 2039583
-0.50787342 -1.4748214 4.0066609 3885658
-0.4739958 -1.4750816 4.0289001 3491160
-0.44601163 -1.4738517 4.0472741 3228502
-2.6733849 -1.4247605 4.0156035 2039583
-2.6349304 -1.4250457 4.0408449 2039583
-0.50793695 -1.4247811 4.0067296 3754586
-0.47400793 -1.4250439 4.0290027 3491674
-0.44596902 -1.4244077 4.0474119 3162967
-2.6734953 -1.3749578 4.0156407 2039583
-2.6350737 -1.375129 4.040863 2039583
-0.50794995 -1.375018 4.0068331 3491673
-0.47402 -1.3750045 4.0291076 3294552
-0.44603434 -1.3749936 4.0474792 3031382
-2.6735244 -1.3250746 4.0157332 2039583
-2.6350648 -1.3250712 4.0409803 2039583
-0.50794613 -1.3249762 4.0069461 3425624
-0.4741613 -1.3249623 4.0291257 3163224
-0.44609955 -1.3255788 4.0475464 2965846
-2.6735392 -1.2751095 4.0158343 2039583
-2.6351688 -1.2751524 4.0410242 2039583
-0.50885087 -1.2739371 4.006465 3162967
-0.47403795 -1.2750223 4.0293193 2900054
-0.4460569 -1.2761263 4.0476847 2636883
-2.6736281 -1.2250633 4.0158873 2039583
-2.6351666 -1.2252294 4.0411348 2039583
-0.50951958 -1.2250899 4.0061359 3031382
-0.47405657 -1.2250797 4.0294175 2703189
-0.44606841 -1.2258506 4.0477891 2506068
-2.6736414 -1.1750158 4.0159874 2039583
-2.6352112 -1.175166 4.0412188 2039583
-0.50953269 -1.1750923 4.0062394 2768468
-0.4740687 -1.175029 4.0295205 2702932
-0.44608 -1.1755725 4.047894 2505811
-2.6737447 -1.1250457 4.0160336 2437697
-2.6352687 -1.1251001 4.0412922 2437438
-0.50954556 -1.1250921 4.0063424 2768211
-0.47415233 -1.1250821 4.0295773 2571347
-0.44609147 -1.1252916 4.047998 2374226
-2.6738043 -1.0749933 4.0161061 2571347
-2.6353261 -1.0750319 4.0413666 2702676
-0.50958776 -1.0750885 4.0064254 2703188
-0.47409302 -1.0751303 4.029727 2506068
-0.44610295 -1.0750084 4.0481024 2309203
-2.6737976 -1.0250193 4.0162201 2439248
-2.6353698 -1.0249629 4.0414481 2505297
-0.50957179 -1.0250839 4.0065475 2637396
-0.47427309 -1.0250738 4.0297213 2374739
-0.44611448 -1.0247225 4.0482073 2243154
-2.6739147 -0.97496396 4.0162578 2571348
-2.6360457 -0.97544271 4.0411153 2702932
-0.50964278 -0.97507584 4.0066128 2308690
-0.47411737 -0.97501433 4.0299335 2176848
-0.44612598 -0.9744339 4.0483112 2045519
-2.6740408 -0.92490691 4.0162845 2571604
-2.6366451 -0.92484546 4.0408344 2768725
-0.50968474 -0.92482924 4.0066962 2177104
-0.47422698 -0.92505598 4.029974 1979983
-0.44613746 -0.9241429 4.0484157 1717326
-2.6739538 -0.8750062 4.0164552 2506069
-2.6367395 -0.87479204 4.0408826 2637398
-0.50960505 -0.89804548 4.0068088 1782862
-0.47413 -0.898251 4.0300965 1782605
-0.44614363 -0.89731979 4.0484715 1783118
-2.6740096 -0.82502359 4.0165296 2308948
-2.6368053 -0.82489014 4.0409532 2440276
-2.6741278 -0.7751193 4.0165606 2177619
-2.6368701 -0.77498662 4.0410209 2308948
-2.6749008 -0.72492564 4.0161633 1979985
-2.6368492 -0.72492778 4.0411453 2111570
-2.6753128 -0.67519033 4.016006 2046290
-2.6369002 -0.67471492 4.0412245 2111826
-2.6753821 -0.62521267 4.0160728 1915219
-2.6368806 -0.62465018 4.041348 2046291
-2.6754403 -0.575158 4.0161433 1849169
-2.637002 -0.57458693 4.0413804 1914962
-2.6754665 -0.5251779 4.0162392 1520206
-2.636996 -0.5245176 4.0414958 1651278
-2.6755497 -0.47519451 4.0162978 1586255
-2.6370611 -0.47460139 4.0415635 1586255
-2.6756539 -0.42505932 4.0163388 1388878
-2.6371264 -0.42468351 4.0416327 1520206
-2.6756752 -0.37492254 4.0164371 1586768
-2.6371918 -0.37491608 4.0417023 1652305
-2.6758001 -0.3247844 4.0164657 1454927
-2.6372998 -0.32530293 4.0417399 1520463
-2.7000031 -0.25027654 4.0007443 1848912
-2.6757278 -0.27471733 4.0166268 1454926
-2.63748 -0.27584788 4.0417304 1520719
-2.7000308 -0.22375938 4.0007854 1586511
-2.6746233 -0.22469214 4.0174646 1586511
-2.6373572 -0.22606021 4.041923 1586767
-2.7000825 -0.1740384 4.0008621 1520461
-2.6746755 -0.17476386 4.0175381 1586254
-2.637408 -0.17582802 4.0420027 1586254
-2.7001345 -0.12431552 4.0009384 1388363
-2.674726 -0.12483364 4.0176163 1257290
-2.637459 -0.12559383 4.0420799 1190985
-2.7001863 -0.074590698 4.0010157 1455182
-2.674778 -0.074901633 4.017695 1388875
-2.6375108 -0.075357713 4.0421581 1059400
-2.700238 -0.024863992 4.001092 1455181
-2.6748307 -0.024967635 4.0177722 1323339
-2.637562 -0.025119672 4.0422373 1059399
-2.70029 0.024864627 4.0011687 1257546
-2.6748812 0.024968283 4.0178485 1191497
-2.6385319 0.024721764 4.0417089 1059399
-2.7003417 0.074595161 4.0012455 1124935
-2.674933 0.074906133 4.0179257 1124934
-2.6388378 0.075347871 4.0416231 1059142
-3.1695654 0.10792119 4.0076613 993349
-3.1246886 0.10780492 4.0033426 795715
-3.0942218 0.10772598 4.000412 860737
-2.7003708 0.10277655 4.0012894 1058886
-2.6749616 0.10320503 4.0179706 1058885
-2.6388667 0.10381369 4.041667 1059142
-2.6092758 -1.8075902 4.0568361 2039583
-2.5745502 -1.8125733 4.0796213 2039583
-0.41695514 -1.8095125 4.0656018 3228502
-0.3800827 -1.814932 4.0897956 2899796
-2.6098995 -1.774855 4.0564981 2039583
-2.5766423 -1.7747943 4.0783319 2039583
-0.41929317 -1.774918 4.0641432 3294295
-0.38113528 -1.7749484 4.0891943 2965845
-2.6098967 -1.7248433 4.056612 2039583
-2.5767183 -1.7248503 4.0783911 2039583
-0.41928795 -1.7249671 4.0642591 3162453
-0.38124293 -1.7247866 4.0892344 2702418
0.26889893 -1.7014397 4.0824308 1652048
-2.6100352 -1.6750183 4.056632 2039583
-2.576776 -1.6750848 4.0784655 2039583
-0.41924965 -1.6748871 4.064393 3096661
-0.38123351 -1.6747764 4.0893512 2768211
0.26897392 -1.6749475 4.0825434 1586255
-2.609998 -1.6250058 4.0567679 2039583
-2.5767493 -1.625137 4.0785942 2039583
-0.42066422 -1.6247782 4.0635791 3030867
-0.38179499 -1.6253157 4.0890932 2702162
0.268852 -1.6248417 4.0831575 1718097
-2.6101537 -1.5749904 4.056776 2039583
-2.5768247 -1.5750096 4.0786576 2039583
-0.42089698 -1.5751368 4.0635366 3031124
-0.38276055 -1.574755 4.0885715 2702675
0.26905641 -1.5752164 4.0832734 1652560
-2.6101863 -1.5251616 4.0568666 2039583
-2.5769165 -1.5249685 4.0787072 2039583
-0.42077944 -1.5250326 4.0637255 3097174
-0.38283542 -1.5249997 4.088634 2768724
0.26899159 -1.5253321 4.0837979 1520462
-2.6101835 -1.4753281 4.0569797 2039583
-2.5769844 -1.4751058 4.0787745 2039583
-0.4209415 -1.475046 4.0637302 2965589
-0.38279092 -1.4750659 4.0887742 2636883
0.26901752 -1.4747187 4.0841923 1717840
-2.6102519 -1.4251182 4.0570464 2039583
-2.5758619 -1.4250667 4.0796227 2039583
-0.42090723 -1.4250559 4.0638638 2834004
-0.38284394 -1.4249614 4.0888505 2505811
0.27003729 -1.424155 4.0830693 1652561
-2.610302 -1.3749079 4.0571246 2039583
-2.5758238 -1.3751374 4.0797582 2039583
-0.42100888 -1.3750648 4.0639091 2768211
-0.38299525 -1.3750255 4.0888624 2374226
0.27060112 -1.3750844 4.0826297 1455183
-2.6103702 -1.3248813 4.0571909 2039583
-2.5758626 -1.3250483 4.079845 2039583
-0.42089814 -1.3250699 4.0640917 2636883
-0.38275591 -1.3250867 4.0891314 2374226
0.27075735 -1.3248936 4.0828209 1389134
-2.6104383 -1.2748536 4.0572572 2039583
-2.5760181 -1.2750431 4.079854 2039583
-0.42096186 -1.2749518 4.0641627 2505554
-0.38280874 -1.2749747 4.0892076 2242897
0.27082354 -1.2752701 4.0831442 1124936
-2.610507 -1.2248243 4.0573249 2039583
-2.5760264 -1.2250363 4.0799603 2039583
-0.42086664 -1.2249511 4.0643353 2308433
-0.3829377 -1.2250307 4.0892339 2111568
0.27224857 -1.2249264 4.0814023 1124680
-2.6105039 -1.1749823 4.0574384 2039583
-2.5760529 -1.1748562 4.0800529 2039583
-0.42100656 -1.1750699 4.0643549 2242897
-0.38293627 -1.1750861 4.0893474 2045776
0.2722739 -1.1750371 4.0817904 1058631
-2.6105008 -1.1251366 4.0575504 2437180
-2.5760534 -1.124842 4.0801644 2502458
-0.42096433 -1.1251878 4.0644922 2111312
-0.3828811 -1.1249655 4.0894947 1848655
0.27224082 -1.1248934 4.0822701 1058888
-2.6105688 -1.0751009 4.0576177 2834004
-2.5761752 -1.0749993 4.0801954 2965332
-0.42097473 -1.0751789 4.0645981 2045776
-0.38282651 -1.074841 4.089642 1848398
0.27235553 -1.0747436 4.0825262 1125450
-2.6106372 -1.0250627 4.0576835 2702162
-2.5761418 -1.0250707 4.0803299 2767954
-0.42093271 -1.0250485 4.0647373 1980240
-0.38295534 -1.0248883 4.0896702 1848654
0.27232239 -1.0250671 4.0830016 1257292
-2.611371 -0.974352 4.0573163 2768469
-2.5762544 -0.97505116 4.0803661 2834004
-0.42097375 -0.97503537 4.0648222 1783118
-0.38292179 -0.97510576 4.0898037 1848911
0.27234811 -0.97513866 4.0833907 1125707
-2.6119595 -0.92493647 4.0570397 2834262
-2.5762968 -0.92503142 4.0804505 2768468
-0.42101499 -0.92502052 4.0649071 1717327
-0.38292038 -0.92514193 4.0899153 1783119
0.27234417 -0.92496014 4.0838256 1191243
-2.6120815 -0.87503487 4.0570693 2703190
-2.5764129 -0.87501043 4.0804868 2636883
-0.42232639 -0.8984499 4.0641041 1717326
-0.3829259 -0.89838237 4.0899696 1651277
0.27245912 -0.87501079 4.0840788 1257548
-2.6121085 -0.82513148 4.0571642 2506068
-2.5755384 -0.82472271 4.0811715 2505812
0.27294791 -0.82998902 4.0837173 1191499
-2.6120865 -0.77488863 4.0572896 2308948
-2.5751143 -0.77491659 4.0815616 2440276
-2.612067 -0.72464228 4.0574145 2243155
-2.575264 -0.72500837 4.0815735 2308690
-2.6120925 -0.67472947 4.0575104 2112083
-2.5754139 -0.67510033 4.0815864 2177619
-2.6122143 -0.62481928 4.0575399 1980755
-2.5753715 -0.62511027 4.0817261 2046034
-2.612288 -0.57490599 4.0576034 1980754
-2.5754137 -0.57495171 4.0818095 2112083
-2.6124592 -0.52533358 4.0576005 1651535
-2.5755727 -0.52479303 4.0818172 1717070
-2.6124601 -0.47558203 4.0577116 1585999
-2.5756767 -0.47495702 4.0818586 1519949
-2.6124396 -0.42532167 4.057838 1585999
-2.5754027 -0.42503896 4.0821514 1520463
-2.6124907 -0.37489545 4.0579171 1718097
-2.5754969 -0.37495402 4.0822015 1718097
-2.6125414 -0.32446745 4.0579958 1586255
-2.5757782 -0.32511333 4.0821276 1586255
-2.6125925 -0.27403742 4.058075 1520719
-2.576021 -0.27527517 4.0820794 1520719
-2.6124485 -0.22425649 4.0582809 1586767
-2.575762 -0.2249393 4.0823622 1652303
-2.549381 -0.21740219 4.0996962 1717839
-2.6128883 -0.17554668 4.0580993 1586254
-2.5757353 -0.17428173 4.0824919 1585997
-2.5494227 -0.17494366 4.0997629 1585997
-2.612741 -0.12609801 4.0583057 1256777
-2.5756209 -0.12482393 4.082675 1256777
-2.549473 -0.12399161 4.099844 1256777
-2.6127918 -0.075660221 4.0583839 1059656
-2.5762198 -0.075724758 4.0823936 1125448
-2.5495212 -0.074736059 4.0999212 1125705
-2.6128426 -0.025220517 4.0584636 1059400
-2.5759611 -0.025370974 4.0826755 1059656
-2.5495582 -0.037368581 4.0999808 1190729
-2.6138554 0.025590107 4.0579109 1059399
-2.5760102 0.025371637 4.0827551 1059399
-2.6141243 0.075650349 4.0578475 1059399
-2.5763698 0.075729296 4.0826335 1125448
-2.9726348 0.10695361 4.097816 992579
-2.9251404 0.10683106 4.0931211 1125190
-2.8759344 0.1067041 4.0882573 1058372
-2.8250289 0.10657275 4.0832248 927043
-2.7978051 0.10650255 4.0805345 1124421
-2.6146019 0.10413605 4.0573416 1190983
-2.5736465 0.10375857 4.0759535 1257033
-2.5347338 0.10582379 4.0545287 1191240
-0.30194026 -1.8511024 4.1410131 2374226
-0.29308623 -1.8523248 4.1468229 2177104
-0.35701042 -1.8183633 4.1049342 2702931
-0.32351753 -1.8229967 4.1269116 2505810
-0.29382318 -1.8249066 4.1464005 2177104
-0.35710332 -1.7750344 4.104969 2571089
-0.32475564 -1.7750276 4.1262045 2176589
-0.29367974 -1.7751254 4.146605 1848140
-0.35716707 -1.7249098 4.1050396 2505296
-0.32488883 -1.7250707 4.1262279 2110797
-0.2938382 -1.7253622 4.1466122 1913933
0.23518085 -1.7011832 4.1338677 1388877
0.25345463 -1.701062 4.1059933 1520718
-0.35723081 -1.6747831 4.1051092 2571603
-0.32485482 -1.6748977 4.1263638 2176847
-0.29376948 -1.6750082 4.146769 2045262
0.23630722 -1.6750035 4.1323729 1389133
0.25339773 -1.675053 4.1063023 1454926
-0.35782602 -1.6233253 4.1048326 2505554
-0.32466847 -1.6249356 4.126596 2242640
-0.29370067 -1.6246495 4.1469269 1914446
0.23626262 -1.6248643 4.1328707 1587024
0.25356314 -1.6253238 4.1064763 1652561
-0.3588185 -1.5748798 4.1042905 2637140
-0.32492039 -1.5750792 4.1265421 2243154
-0.29385915 -1.5748821 4.1469336 1979983
0.2375654 -1.5752342 4.1313081 1520462
0.2535167 -1.5749941 4.1069784 1520975
-0.35878387 -1.5252699 4.1044226 2571603
-0.32484528 -1.5248986 4.1267018 2308690
-0.29371572 -1.5250818 4.1471391 2177618
0.23788659 -1.5249622 4.1312504 1652047
0.25354096 -1.5246634 4.1073723 1585998
-0.35874939 -1.4753163 4.1045556 2440018
-0.32480574 -1.4748206 4.1268406 2177361
-0.29387417 -1.4753118 4.1471453 2046032
0.23790865 -1.4754673 4.13164 1718097
0.25363585 -1.4748764 4.1076536 1718097
-0.35880208 -1.4250183 4.1046352 2308690
-0.32480699 -1.4249589 4.1269522 2177361
-0.29373252 -1.4249324 4.1473498 1980240
0.23793168 -1.4249867 4.1320357 1521232
0.25351837 -1.4251167 4.1082592 1586768
-0.35894346 -1.3750584 4.1046515 2177361
-0.32490471 -1.3748759 4.1269984 2111568
-0.29389098 -1.3751594 4.1473575 2111569
0.23795459 -1.3747413 4.1324329 1389390
0.25361311 -1.3753108 4.1085415 1455183
-0.35873356 -1.3250973 4.1049008 2177361
-0.32489344 -1.3247908 4.1271167 2045776
-0.29382226 -1.3247828 4.1475143 2111825
0.23803802 -1.324973 4.1327314 1257035
0.25363752 -1.3249416 4.1089354 1323341
-0.3587856 -1.2751322 4.1049786 2045775
-0.32475537 -1.2749193 4.1273198 1848397
-0.29382974 -1.2749857 4.1476202 1716813
0.23806155 -1.2749544 4.1331224 1058888
0.2539382 -1.2741704 4.108911 1059144
-0.35888243 -1.2251661 4.1050267 2046032
-0.32503566 -1.2250437 4.1272454 1914448
-0.29383725 -1.2251861 4.147727 1848911
0.23796055 -1.2251678 4.1337042 1058374
0.2552388 -1.225167 4.1073475 993094
-0.35893518 -1.1748585 4.1051035 1914448
-0.32477936 -1.1750581 4.1275258 1848911
-0.29428834 -1.1773911 4.1475368 1783119
0.23813668 -1.1751271 4.1338639 1058888
0.25528964 -1.1746532 4.1077018 1058631
-0.35872525 -1.1248796 4.1053519 1783119
-0.32492685 -1.1250715 4.1275401 1782863
-0.29549471 -1.1252866 4.1468611 1782863
0.23803717 -1.1248385 4.1344461 1124680
0.25528768 -1.1249868 4.1081309 993351
-0.35891059 -1.0752501 4.1053414 1782862
-0.32492068 -1.0750836 4.127656 1782862
-0.29544577 -1.0746135 4.147007 1717583
0.23802875 -1.0747714 4.1348891 1125450
0.25528523 -1.0753095 4.1085596 1190729
-0.35896271 -1.0252758 4.1054187 1783118
-0.32490826 -1.0249795 4.1277738 1585227
-0.29556653 -1.024857 4.147037 1322056
0.23817524 -1.0252008 4.1350875 1191242
0.25536227 -1.0251889 4.108871 1191498
-0.35879812 -0.97494692 4.1056385 1783375
-0.32493794 -0.97509629 4.1278667 1453641
-0.29546091 -0.97501606 4.1472182 1322056
0.23896545 -0.97641611 4.1343007 1257291
0.25543952 -0.97506171 4.1091824 1191499
-0.35885006 -0.92496574 4.1057158 1717326
-0.32493165 -0.92509627 4.1279831 1453642
-0.29558161 -0.92525625 4.1472502 1321799
0.23966494 -0.92530751 4.1336718 1191242
0.25530577 -0.92494071 4.1098156 1191242
-0.35970294 -0.89884079 4.1052146 1585484
-0.32527366 -0.8985889 4.1278167 1453385
-0.29552907 -0.89861596 4.1473436 1321544
0.23975919 -0.8751592 4.1339569 1257291
0.25538275 -0.87479258 4.1101294 1323084
0.24042001 -0.83742338 4.1332736 1126219
0.25559294 -0.83355975 4.1101604 1191755
-2.5495832 -0.011890111 4.1000209 1125192
-2.5496202 0.025479296 4.10008 1059399
-2.5496681 0.074740522 4.1001577 1190984
-3.2673242 0.10771391 4.1269474 1059398
-3.2247081 0.10760398 4.1227345 927301
-3.1747868 0.10747517 4.1177993 795202
-3.1249862 0.10734667 4.1128764 927043
-3.0753031 0.1072185 4.1079655 993092
-3.0257399 0.10709061 4.1030655 860994
-2.9982502 0.10701969 4.1003485 729921
-2.549695 0.10191986 4.1002011 1191496
-0.26581115 -1.8567207 4.1647191 1979983
-0.22934352 -1.862074 4.1886473 1783118
-0.26905593 -1.8250005 4.1626592 1848397
-0.2307107 -1.8250185 4.1878309 1585483
-0.26897788 -1.7748932 4.1628218 1716811
-0.23080136 -1.7750652 4.1878839 1651019
-0.26910761 -1.7247801 4.162848 1848397
-0.23080696 -1.7251112 4.1879911 1651532
0.19629876 -1.7018572 4.1931729 1520976
0.21293759 -1.7013322 4.1677957 1323340
-0.26902965 -1.674664 4.1630111 1848654
-0.23068678 -1.6748352 4.1881838 1717326
0.19630884 -1.6747277 4.1933889 1586768
0.21251126 -1.6750232 4.1686721 1586511
-0.2691417 -1.6248326 4.1630473 1848654
-0.23081948 -1.6248778 4.1882048 1651533
0.19632781 -1.6245025 4.1937914 1389390
0.21243626 -1.6253381 4.1692114 1455439
-0.26900506 -1.5750011 4.1632509 1914447
-0.23069838 -1.5750682 4.1883969 1782862
0.19627081 -1.5748335 4.1943035 1586255
0.21370031 -1.5748506 4.1677155 1520462
-0.26908842 -1.5250226 4.1633077 2046033
-0.23089367 -1.524949 4.1883788 1717069
0.19644032 -1.5251896 4.1944699 1718096
0.21412918 -1.5254163 4.1674852 1717839
-0.26901904 -1.4750392 4.1634622 1980496
-0.23077346 -1.474979 4.1885691 1717069
0.1968098 -1.4775559 4.1943145 1521232
0.21403913 -1.4754866 4.1680503 1587024
-0.26910216 -1.4250573 4.1635199 1980496
-0.23084225 -1.4250066 4.1886353 1717582
0.19808102 -1.4252675 4.1928225 1389390
0.21416995 -1.4255478 4.1682782 1389647
-0.26913673 -1.3749247 4.1636081 1980496
-0.23070046 -1.3750378 4.1888404 1717582
0.19798824 -1.3750211 4.1933947 1323084
0.21417597 -1.3753797 4.1686988 1323597
-0.26910675 -1.3249357 4.1637402 1848911
-0.23087598 -1.3252155 4.1888366 1651533
0.19811895 -1.324773 4.193625 1124680
0.21418343 -1.3252114 4.169117 1124937
-0.26905617 -1.2749437 4.1638837 1717583
-0.2317362 -1.2758532 4.1883836 1717583
0.19802615 -1.2745031 4.1941981 1058888
0.21418974 -1.275026 4.1695371 1058631
-0.26912048 -1.2249496 4.1639533 1717583
-0.23251508 -1.2251086 4.187984 1717583
0.19815689 -1.2242397 4.1944294 927815
0.21419688 -1.2248327 4.1699557 927302
-0.26986906 -1.1745524 4.1635737 1717326
-0.23255628 -1.1749988 4.188067 1651790
0.19811964 -1.1748203 4.1949091 1125193
0.21421671 -1.1748456 4.1703529 1059401
-0.27065089 -1.1250479 4.1631713 1651534
-0.23239928 -1.1250525 4.188282 1585997
0.1980824 -1.1253886 4.1953893 1059658
0.21423759 -1.1248487 4.1707506 1124937
-0.27086818 -1.0750556 4.1631393 1651533
