# .PCD v0.7 - Point Cloud Data file format
VERSION 0.7
FIELDS x y z rgb
SIZE 4 4 4 4
TYPE F F F U
COUNT 1 1 1 1
WIDTH 1192
HEIGHT 1
VIEWPOINT 0 0 0 1 0 0 0
POINTS 1192
DATA ascii
1.4259838 0.1062496 2.6736643 2565927
1.4520119 0.10653947 2.6511629 2039583
1.3436164 -1.2139391 2.7443519 2039583
1.3684489 -1.2090859 2.7225318 2039583
1.5890828 -1.2069107 2.7139623 2039583
1.6090122 -1.2121917 2.7366297 2039583
1.3438157 -1.1749893 2.7442381 2039583
1.3721218 -1.1750214 2.7193568 2039583
1.5880839 -1.17485 2.7128618 2039583
1.6084456 -1.1750587 2.7360275 2039583
1.3438426 -1.1249884 2.7442932 2039583
1.3722144 -1.1250727 2.7193561 2039583
1.5881822 -1.1250933 2.7130306 2039583
1.6085463 -1.1252545 2.7361972 2039583
1.34387 -1.0749854 2.744349 2039583
1.3722562 -1.0750809 2.7193978 2039583
1.5881819 -1.0749571 2.7130864 2039583
1.6085447 -1.0750674 2.7362542 2039583
1.3438969 -1.0249801 2.7444041 2039583
1.3722442 -1.0250072 2.7194872 2039583
1.5883808 -1.0251899 2.7133696 2039583
1.6087476 -1.024875 2.7365413 2039583
1.3439237 -0.97497308 2.7444584 2039583
1.372313 -0.97497147 2.7195084 2039583
1.5885807 -0.97540998 2.7136531 2039583
1.6088482 -0.975052 2.7367117 2039583
1.3439825 -0.92482287 2.7444861 2039583
1.3722612 -0.92497385 2.7196295 2039583
1.5884811 -0.92488962 2.7135968 2039583
1.6089482 -0.92522329 2.736882 2039583
0.8878473 -0.86882818 2.712544 1519947
0.90947568 -0.86897695 2.73715 1388874
1.3439782 -0.87466872 2.74457 2039583
1.3723768 -0.87501484 2.7196095 2039583
1.5886799 -0.87472272 2.7138801 2039583
1.6090484 -0.87538815 2.7370524 2039583
0.88771784 -0.82502663 2.7124467 1651532
0.90947986 -0.82496822 2.7372046 1519947
1.3440192 -0.82479686 2.7446125 2039583
1.3723751 -0.8250137 2.7196872 2039583
1.5887781 -0.82530326 2.7140477 2039583
1.6091486 -0.82554668 2.7372239 2039583
0.88785493 -0.77485824 2.7126606 1717581
0.90945584 -0.77472389 2.7372372 1651789
1.3440322 -0.7749247 2.7446802 2039583
1.3727825 -0.77481854 2.7194107 2039583
1.5887789 -0.77511972 2.7141061 2039583
1.6092491 -0.77569908 2.7373939 2039583
-1.7681477 -0.7185685 2.7202034 3031124
-1.7459099 -0.71868658 2.7455051 3096660
0.88784516 -0.72487277 2.7127075 1980495
0.90952778 -0.7246601 2.7373757 1849166
1.3440592 -0.72490734 2.744735 2039583
1.3731959 -0.72507674 2.7191241 2039583
1.5890789 -0.72458291 2.714505 2039583
1.6092482 -0.72546035 2.7374501 2039583
-1.7681979 -0.67499501 2.7201612 2965075
-1.7459358 -0.67497659 2.7454822 3162453
0.88779497 -0.67507237 2.7127078 1914703
0.90955859 -0.67478406 2.7374687 1848910
1.3440865 -0.67488807 2.7447906 2039583
1.3731952 -0.67501885 2.7192037 2039583
1.5890776 -0.67476135 2.7145596 2039583
1.6094514 -0.67523205 2.7377377 2039583
-1.7681175 -0.62495118 2.720257 2965333
-1.7459372 -0.6249311 2.7454863 3162711
0.88794559 -0.62508237 2.7129366 1454155
0.90951931 -0.62509531 2.7374806 1453898
1.3441135 -0.62486684 2.7448461 2039583
1.3732611 -0.62499923 2.7192271 2039583
1.5887219 -0.63272852 2.7142031 2039583
1.6093504 -0.63591737 2.737668 2039583
-1.7681959 -0.5749492 2.7201738 2702418
-1.7460097 -0.57536107 2.7454104 2899796
0.88790828 -0.57508552 2.7129514 1454412
0.90955168 -0.57521266 2.7375758 1454156
1.3441633 -0.57498574 2.7448819 2039583
1.3733027 -0.57501507 2.7192683 2039583
-1.7682019 -0.52494735 2.7201724 2637141
-1.7466024 -0.52534628 2.7447407 2834261
0.88789809 -0.5250898 2.712997 1585997
0.90965068 -0.52513909 2.7377462 1520204
1.3441674 -0.52510244 2.7449567 2039583
1.3733325 -0.52495199 2.7193227 2039583
-1.7681366 -0.47498682 2.7202523 2440020
-1.7466046 -0.47531432 2.7447455 2637141
0.88804889 -0.4750872 2.7132261 1322826
0.9096812 -0.4752495 2.7378378 1322313
1.3441945 -0.47507551 2.7450116 2039583
1.3733089 -0.47500297 2.7194192 2039583
-1.7681942 -0.42502531 2.7201915 2243412
-1.7466072 -0.42528144 2.7447476 2374740
0.88798475 -0.4250825 2.7132115 1256520
0.90969837 -0.4251669 2.7379155 1124679
1.3442535 -0.42518967 2.7450387 2039583
1.373342 -0.42509043 2.7194715 2039583
-1.7682017 -0.37498236 2.7201884 2046034
-1.74661 -0.37524891 2.7447515 2177362
0.88802862 -0.37507609 2.7133191 1190727
0.90974313 -0.37508273 2.7380242 1124935
1.3448832 -0.3757422 2.7445638 2039583
1.3734411 -0.37498319 2.7194626 2039583
-1.7681504 -0.32497916 2.7202551 1585485
-1.7466124 -0.32521629 2.7447555 1585228
0.88809884 -0.32506356 2.7134562 1257289
0.90977377 -0.32518324 2.7381172 1256777
1.3450713 -0.32518318 2.7444777 2039583
1.3733735 -0.32495013 2.7196028 2039583
-1.7681769 -0.27497581 2.7202289 1585999
-1.7466143 -0.27518335 2.7447593 1717327
0.88806188 -0.27504769 2.7134719 1454667
0.90976351 -0.27509138 2.7381623 1454667
1.3450987 -0.27516049 2.7445331 2039583
1.3734281 -0.27499241 2.7196324 2039583
-1.7682219 -0.22489102 2.7201822 1652304
-1.7466168 -0.22515024 2.7447629 1717841
0.88807839 -0.22503169 2.7135489 1323339
0.90976727 -0.22480918 2.738225 1323338
1.3451262 -0.22513588 2.7445896 2039583
1.3735372 -0.22491902 2.7196169 2039583
-1.7681293 -0.17492773 2.7202923 1454926
-1.7466185 -0.17511712 2.7447681 1520718
0.88824302 -0.17519431 2.7137935 1323082
0.90986657 -0.17471047 2.7383945 1323338
1.345153 -0.17510924 2.7446437 2039583
1.373418 -0.17491744 2.7198012 2039583
-1.7681816 -0.12492407 2.7202394 1652047
-1.746622 -0.12508377 2.744771 1652047
0.88825917 -0.12516701 2.7138696 1191496
0.90989745 -0.12479736 2.7384887 1256775
1.3451799 -0.12508045 2.7446992 2039583
1.3735124 -0.12491485 2.7197948 2039583
-1.7683163 -0.07471814 2.7200918 1257034
-1.7466238 -0.075050391 2.7447753 1257034
0.88811654 -0.074775755 2.7137654 994119
0.90992802 -0.074880898 2.7385802 994118
1.3452067 -0.075049758 2.7447546 2039583
1.3737235 -0.074723095 2.7196898 2039583
-1.7681553 -0.024793547 2.7202792 1125449
-1.7466267 -0.025016828 2.7447777 1125705
0.88826597 -0.024736103 2.7139921 993861
0.90995872 -0.024961049 2.7386737 993861
1.3449031 -0.025965849 2.7450995 2039583
1.3731704 -0.024582967 2.7202528 2039583
-1.768157 0.024793589 2.7202823 1124935
-1.7466285 0.025016874 2.7447815 1125192
0.88829535 0.024737209 2.7140832 927556
0.90998924 0.024962159 2.738765 927555
1.3444668 0.025024069 2.7455628 2039583
1.3727778 0.024797266 2.7206795 2039583
-1.7683207 0.074718468 2.7200975 1125191
-1.7466316 0.075050712 2.7447851 1191240
0.8879475 0.075092919 2.7137451 728895
0.91002011 0.074888743 2.7388568 729408
1.3444943 0.07507354 2.7456169 2039583
1.3730236 0.074734762 2.7205396 2039583
-1.7675252 0.10625596 2.7210159 1124421
-1.7377952 0.10891899 2.746357 3820126
-1.6742021 0.11275235 2.7490842 10197915
-1.6250769 0.11274182 2.7488275 10197915
-1.575961 0.11273126 2.7485704 10197915
-1.5257123 0.1127205 2.7483075 10197915
-1.4754733 0.11270971 2.7480447 10197915
-1.4252435 0.11269893 2.7477815 10197915
-1.3750238 0.11268816 2.7475188 10197915
-1.3248135 0.11267739 2.7472565 10197915
-1.2746125 0.11266661 2.7469938 10197915
-1.2244216 0.11265583 2.746731 10197915
-1.1742401 0.11264507 2.7464688 10197915
-1.1240681 0.1126343 2.7462063 10197915
-1.0750456 0.1126238 2.74595 10197915
-1.0260326 0.11261329 2.7456934 10197915
-0.97588897 0.11260254 2.7454309 10197915
-0.92575496 0.11259179 2.7451687 10197915
-0.87563056 0.11258099 2.7449064 10197915
-0.82551569 0.11257026 2.7446442 10197915
-0.77541041 0.11255951 2.7443821 10197915
-0.74239117 0.11255242 2.7442093 8817294
0.88711011 0.10607675 2.7128282 1256262
0.91650057 0.10826451 2.7373068 4478053
0.97452807 0.11218408 2.7352293 10197915
1.0242901 0.11217341 2.7349687 10197915
1.0740427 0.11216274 2.7347078 10197915
1.1249164 0.11215182 2.7344418 10197915
1.1757798 0.11214089 2.7341757 10197915
1.2255037 0.11213023 2.733916 10197915
1.2752181 0.11211956 2.7336557 10197915
1.3362236 0.10846145 2.7404668 5197647
1.3721789 0.10620479 2.7212429 2500134
1.2821836 -1.250883 2.7982907 2039583
1.2902415 -1.2241741 2.79125 2039583
1.3177733 -1.2190478 2.7670588 2039583
1.6257095 -1.2163765 2.7556212 8158332
1.2904718 -1.1749301 2.791126 2039583
1.3189448 -1.1750443 2.7660983 2039583
1.6256745 -1.1747292 2.7556293 8092539
1.2905045 -1.1250365 2.7911761 2039583
1.3190202 -1.1249441 2.7661119 2039583
1.6241479 -1.1286117 2.7539439 6381921
1.2905152 -1.0750474 2.7912457 2039583
1.3190695 -1.0749412 2.7661469 2039583
1.6224068 -1.0740036 2.7520256 4473924
1.2905278 -1.0249562 2.7913141 2039583
1.3190249 -1.0250369 2.7662663 2039583
1.6225061 -1.0250406 2.7521939 4473924
1.2905948 -0.97496283 2.7913327 2039583
1.3191065 -0.9750303 2.7662728 2039583
1.6226059 -0.97607172 2.752363 4473924
1.2905736 -0.92496681 2.7914314 2039583
1.3191297 -0.92497164 2.7663314 2039583
1.6227072 -0.92595774 2.7525351 4473924
0.93523562 -0.86888957 2.7664576 1388618
0.95772606 -0.86928332 2.7920446 1322825
1.2906152 -0.87496567 2.7914734 2039583
1.3191241 -0.87496179 2.7664156 2039583
1.6228089 -0.87583768 2.7527075 4539717
0.93522453 -0.82507569 2.7664959 1322568
0.95785594 -0.82535595 2.7922432 1256519
1.2906578 -0.82496709 2.7915158 2039583
1.3191793 -0.82499939 2.7664459 2039583
1.6229106 -0.82571119 2.7528801 6842472
0.93530941 -0.77481461 2.7666502 1520203
0.95784432 -0.77506101 2.7922878 1388618
1.2906642 -0.77486688 2.7915893 2039583
1.3192129 -0.77508336 2.7664955 2039583
1.6230124 -0.77557832 2.7530529 6842472
-1.7205426 -0.71861112 2.7743659 3491160
-1.6988401 -0.71896309 2.7990618 3622744
0.93529749 -0.72498077 2.7666938 1783373
0.95783287 -0.72476524 2.7923329 1783373
1.2907442 -0.72486246 2.7915974 2039583
1.3192358 -0.72511727 2.7665551 2039583
1.6231141 -0.72543937 2.7532256 6842472
-1.720637 -0.67504734 2.7742662 3557209
-1.6988419 -0.67489839 2.7990649 3689050
0.93537259 -0.67514265 2.7668371 1717325
0.95795316 -0.67504144 2.7925272 1651532
1.2906556 -0.6749509 2.7917545 2039583
1.3192333 -0.67504901 2.7666359 2039583
1.6232158 -0.67529398 2.7533972 6842472
-1.7205865 -0.62499547 2.7743278 3360088
-1.6988442 -0.62503558 2.7990689 3557209
0.93534011 -0.6250152 2.7668579 1388105
0.95789725 -0.62531978 2.7925212 1388105
1.2908026 -0.62504107 2.7917044 2039583
1.3192785 -0.62502766 2.7666748 2039583
1.6232917 -0.63768101 2.7535269 6579300
-1.7206627 -0.5749101 2.7742453 3162453
-1.6988468 -0.57517266 2.7990723 3359574
0.93536156 -0.57502818 2.7669396 1388363
0.95795238 -0.57529885 2.7926409 1256776
1.2907778 -0.5749318 2.791806 2039583
1.3193353 -0.57505554 2.7667043 2039583
-1.7212974 -0.52497274 2.7735305 2965590
-1.6988487 -0.52530962 2.7990761 3031382
0.9354676 -0.52503771 2.7671182 1388362
0.95800614 -0.52527976 2.7927597 1256777
1.2908096 -0.52501506 2.7918556 2039583
1.3193096 -0.52503109 2.7668049 2039583
-1.7212569 -0.47495338 2.7735877 2768726
-1.6988511 -0.47544643 2.7990801 2768469
0.9354465 -0.47504193 2.7671499 1190471
0.95806086 -0.47525603 2.7928796 1124934
1.2907921 -0.47509807 2.7919512 2039583
1.3193521 -0.47490424 2.7668478 2039583
-1.721312 -0.42497048 2.7735286 2505812
-1.6988536 -0.42442349 2.7990839 2571604
0.935467 -0.42504492 2.7672331 1058629
0.95804965 -0.42493755 2.7929249 1058372
1.2909256 -0.42498279 2.7919128 2039583
1.3194244 -0.42487592 2.7668633 2039583
-1.7212161 -0.3749871 2.7736435 2308691
-1.698856 -0.37456003 2.7990878 2440275
0.93555212 -0.37504464 2.7673862 1124935
0.95810378 -0.37490699 2.7930448 1124934
1.2912956 -0.37546858 2.7916656 2039583
1.3200531 -0.37482283 2.7663906 2039583
-1.7213082 -0.32500291 2.7735476 1848398
-1.6988583 -0.32469645 2.7990918 1913934
0.935637 -0.32503912 2.7675414 1256776
0.95813638 -0.32516152 2.7931383 1191240
1.291743 -0.32506159 2.7913518 2039583
1.3202164 -0.32499838 2.7663248 2039583
-1.721283 -0.27502066 2.7735815 1782863
-1.6988605 -0.27483273 2.7990956 1782862
0.93557286 -0.27503136 2.7675261 1388874
0.95810342 -0.27512696 2.7931588 1388617
1.2918097 -0.27502808 2.7913725 2039583
1.3203038 -0.27500814 2.7663267 2039583
-1.7212777 -0.22499923 2.7735922 1783632
-1.6988631 -0.22496885 2.799099 1849425
0.93563616 -0.22502184 2.7676554 1323338
0.95826662 -0.22478959 2.7934024 1323081
1.2916698 -0.2248756 2.7915745 2039583
1.3202832 -0.22501698 2.7664254 2039583
-1.7213005 -0.17505381 2.7735732 1652047
-1.6988653 -0.17510486 2.7991033 1718096
0.93572146 -0.17500506 2.7678103 1323338
0.95816648 -0.17504345 2.7933466 1323081
1.2912351 -0.17553107 2.7920358 2039583
1.319563 -0.17483121 2.7671382 2039583
-1.7211981 -0.12506674 2.7736959 1652047
-1.6988674 -0.12524074 2.7991066 1652046
0.93568915 -0.1251307 2.7678308 1125447
0.95745045 -0.12677178 2.7925873 1125190
1.2910055 -0.12493688 2.7923172 2039583
1.3195348 -0.12509753 2.7672412 2039583
-1.7214848 -0.075304657 2.7733796 1257034
-1.6988696 -0.075376466 2.7991104 1257034
0.93562359 -0.075402126 2.7678139 994118
0.95639813 -0.075170033 2.7914493 993861
1.2910309 -0.075194977 2.7923732 2039583
1.3197137 -0.075350627 2.7671611 2039583
-1.7212365 -0.025280129 2.7736664 1191241
-1.6988721 -0.025512068 2.7991145 1125961
0.9357844 -0.025228841 2.7680542 1059397
0.95643032 -0.025442928 2.7915435 993861
1.2910572 -0.025451045 2.7924292 2039583
1.3195521 -0.025222765 2.7673833 2039583
-1.721239 0.025280161 2.7736692 1125192
-1.6988744 0.025512112 2.7991183 1125448
0.93581599 0.025229977 2.7681487 992835
0.95646316 0.025444083 2.7916381 927298
1.2910832 0.025451753 2.7924852 2039583
1.3195794 0.02522344 2.7674377 2039583
-1.7214895 0.075304985 2.7733891 1191497
-1.6988765 0.075376786 2.7991219 1257289
0.93568581 0.075267926 2.7680581 729150
0.95649523 0.075177923 2.7917335 728636
1.2911092 0.075199671 2.7925415 2039583
1.319809 0.075309828 2.7673166 2039583
-1.7202628 0.10631568 2.7747941 1190470
-1.6988782 0.10668723 2.7991245 1585226
-0.92448461 0.11251564 2.799876 10197915
-0.87452334 0.11250494 2.7996094 10197915
-0.82457131 0.11249425 2.7993426 10197915
-0.77462906 0.1124835 2.7990763 9737623
0.93651801 0.10620585 2.7690403 1453640
0.96821433 0.10924824 2.7905226 6121588
1.0250566 0.11209754 2.7894711 10197915
1.0746471 0.11208689 2.7892067 10197915
1.1253816 0.11207601 2.7889361 10197915
1.1749532 0.11206537 2.7886715 10197915
1.2245156 0.11205474 2.7884073 10197915
1.2862494 0.10734589 2.7911861 4079166
1.3187952 0.10624197 2.7682557 2368548
1.2356569 -1.2601446 2.8391719 2039583
1.2621776 -1.2549543 2.8158691 2039583
1.2369761 -1.2249562 2.8380671 2039583
1.2655756 -1.2250527 2.8129289 2039583
1.2369294 -1.1749351 2.838187 2039583
1.2655636 -1.1750305 2.8130176 2039583
1.236975 -1.1249845 2.8382273 2039583
1.265659 -1.125073 2.8130126 2039583
1.2370199 -1.0750333 2.8382664 2039583
1.2656689 -1.0750449 2.8130848 2039583
1.2370499 -1.0250791 2.8383188 2039583
1.2656822 -1.0249531 2.813154 2039583
1.2370423 -0.97505033 2.8384058 2039583
1.2657208 -0.97498715 2.8131988 2039583
1.237079 -0.92502075 2.8384511 2039583
1.2657195 -0.92501897 2.8132763 2039583
0.98273009 -0.8689577 2.8204923 1257032
1.0041696 -0.86862856 2.8448846 1191240
1.2371117 -0.87498623 2.8385019 2039583
1.2657731 -0.87498611 2.8133082 2039583
0.98267859 -0.82483977 2.8204842 1322312
1.0041991 -0.82504451 2.8449683 1388361
1.2371696 -0.82495171 2.8385303 2039583
1.2657775 -0.82501358 2.8133831 2039583
0.9827919 -0.77474999 2.8206708 1388361
1.0041875 -0.7749787 2.8450129 1388104
1.2371392 -0.77498806 2.8386359 2039583
1.2658002 -0.77497602 2.8134429 2039583
-1.6760277 -0.7186541 2.8250175 3885658
0.9827038 -0.72491384 2.8206289 1783373
1.0042672 -0.72491038 2.8451614 1717580
1.2371694 -0.72502112 2.8386881 2039583
1.2658463 -0.72493547 2.8134813 2039583
-1.6759868 -0.67494839 2.8250699 3886171
0.98291892 -0.67507935 2.8209305 1454153
1.0043472 -0.67483616 2.8453102 1651531
1.2374942 -0.67534423 2.8384798 2039583
1.2658826 -0.67502338 2.8135269 2039583
-1.6759986 -0.62502426 2.8250649 3754330
0.98283166 -0.62484956 2.8208892 1388618
1.0043355 -0.62476099 2.8453548 1388361
1.2380235 -0.62496006 2.8380945 2039583
1.2658446 -0.62497753 2.8136394 2039583
-1.6759927 -0.57502878 2.8250763 3491159
0.98286396 -0.574875 2.8209841 1388362
1.0043237 -0.57468528 2.8453989 1322569
1.2381339 -0.57496136 2.8380773 2039583
1.2659199 -0.57493347 2.8136539 2039583
-1.6760261 -0.52499449 2.8250451 3228503
0.98289758 -0.52515751 2.8210795 1256519
1.0044035 -0.52459979 2.8455474 1124677
1.238122 -0.52504104 2.8381677 2039583
1.2659756 -0.52494878 2.8136852 2039583
-1.6760039 -0.47503352 2.825078 2965846
0.98299217 -0.47517645 2.8212452 1190727
1.0044372 -0.47510284 2.845643 1256519
1.2373021 -0.47507936 2.8389668 2039583
1.2650577 -0.47499871 2.8145709 2039583
-1.6759896 -0.42503706 2.8251019 2702932
0.98298454 -0.4250651 2.8212945 1058372
1.0044711 -0.42560273 2.8457382 1059141
1.2373408 -0.42510018 2.8390121 2039583
1.2652102 -0.42499235 2.8145156 2039583
-1.6759833 -0.37496582 2.8251195 2440276
0.98301792 -0.37494597 2.821389 1058885
1.0045508 -0.37550253 2.8458872 1058628
1.2373536 -0.37503937 2.8390796 2039583
1.2656614 -0.37474272 2.8141968 2039583
-1.6760192 -0.3249332 2.8250847 1914190
0.98301023 -0.32508665 2.8214386 1191239
1.0044936 -0.32483146 2.8458803 1191239
1.2373227 -0.32497212 2.8391867 2039583
1.2660412 -0.32496375 2.8139436 2039583
-1.6760125 -0.27493417 2.8250976 1716812
0.98314446 -0.2750904 2.8216486 1257288
1.0045736 -0.27472448 2.8460286 1257288
1.2374388 -0.27490479 2.8391643 2039583
1.2660782 -0.27495471 2.8139882 2039583
-1.6760399 -0.22501107 2.8250713 1849169
0.98313767 -0.22496642 2.8216989 1257544
1.0046068 -0.22521092 2.8461242 1257288
1.2375121 -0.22492187 2.8391771 2039583
1.2660834 -0.22506335 2.8140655 2039583
-1.6760992 -0.17508338 2.8250115 1718096
0.98307008 -0.17496371 2.8216794 1257288
1.0046407 -0.17569387 2.8462198 1257288
1.2374424 -0.17526795 2.839319 2039583
1.2660671 -0.17493564 2.8141572 2039583
-1.6758887 -0.12512399 2.8252554 1586511
0.98209417 -0.12452723 2.820627 1125189
1.0046753 -0.12499454 2.8463173 1190726
1.2373286 -0.12526853 2.8394949 2039583
1.2662605 -0.12504473 2.8140678 2039583
-1.6760229 -0.074796893 2.8251112 1257034
0.98147339 -0.074993633 2.8199778 993604
1.0047098 -0.074291699 2.8464148 993348
1.2376312 -0.074707083 2.8393111 2039583
1.265995 -0.074901938 2.8143773 2039583
-1.6760758 -0.024729272 2.8250577 1125705
0.98121959 -0.024772756 2.8197474 1059397
1.0047433 -0.024764637 2.8465104 1059396
1.2375181 -0.02470362 2.8394897 2039583
1.2663119 -0.02478401 2.8141811 2039583
-1.6760774 0.0247293 2.8250604 1125192
0.98125261 0.02477386 2.8198411 926784
1.0047772 0.02476575 2.8466055 926527
1.2375424 0.024704276 2.8395455 2039583
1.2663372 0.024784677 2.8142343 2039583
-1.6760302 0.074797183 2.8251216 1257289
0.98149264 0.074886255 2.8201716 728636
1.0048106 0.074299432 2.8467 728636
1.2377059 0.074711777 2.8394823 2039583
1.266072 0.074906595 2.8145499 2039583
-1.6751919 0.10699304 2.8234251 1913933
-1.6249439 0.11266583 2.8036137 10197915
-1.574849 0.11265511 2.8033464 10197915
-1.5247637 0.11264435 2.8030789 10197915
-1.4746881 0.11263362 2.8028121 10197915
-1.4246218 0.11262289 2.8025444 10197915
-1.3745652 0.11261215 2.8022776 10197915
-1.3245181 0.11260141 2.8020108 10197915
-1.2744807 0.11259069 2.8017435 10197915
-1.2244526 0.11257998 2.8014765 10197915
-1.1744342 0.11256924 2.8012094 10197915
-1.1244253 0.11255852 2.8009427 10197915
-1.0744258 0.11254781 2.8006761 10197915
-1.0244358 0.11253706 2.8004093 10197915
-0.97445548 0.11252636 2.8001425 10197915
0.9817946 0.10619699 2.8205519 1322054
1.0188267 0.10966508 2.8463249 6844794
1.0752784 0.11200821 2.8459275 10197915
1.125868 0.11199737 2.8456521 10197915
1.1752713 0.11198679 2.8453832 10197915
1.2340906 0.10706411 2.8406022 3487029
1.2662314 0.10610564 2.8144577 2171169
1.182343 -1.2706538 2.8860161 2039583
1.2115148 -1.2649435 2.8603842 2039583
1.1833261 -1.2250079 2.8852248 2039583
1.2121036 -1.2250326 2.8599305 2039583
1.1839863 -1.1752162 2.8847229 2039583
1.2121023 -1.1751106 2.8600099 2039583
1.1835349 -1.1250542 2.8851993 2039583
1.2114022 -1.1248032 2.8607032 2039583
1.1834031 -1.074909 2.8853946 2039583
1.2113237 -1.0749149 2.8608525 2039583
1.1834564 -1.0249226 2.8854251 2039583
1.2113249 -1.0249873 2.8609297 2039583
1.1834761 -0.97500193 2.8854883 2039583
1.211346 -0.97497207 2.8609929 2039583
1.1834877 -0.92514539 2.8855562 2039583
1.211359 -0.92503947 2.8610582 2039583
1.0280802 -0.86906385 2.8720875 1191239
1.0503025 -0.86905026 2.8973699 1191239
1.1834934 -0.87508613 2.8856318 2039583
1.2114065 -0.87510484 2.8610959 2039583
1.0280633 -0.82494473 2.8721194 1322824
1.0503341 -0.82466215 2.8974569 1322568
1.183543 -0.8249591 2.8856661 2039583
1.2114078 -0.82499963 2.8611746 2039583
1.0280608 -0.77476001 2.8721733 1322824
1.0503699 -0.77427244 2.8975558 1388103
1.1835741 -0.77496344 2.8857181 2039583
1.2114725 -0.77489311 2.8611968 2039583
-1.6520078 -0.71846998 2.8523486 4148827
-1.6304635 -0.71877253 2.8768597 4280411
1.0281806 -0.72468728 2.8723686 1717580
1.0504049 -0.72507942 2.8976524 1585994
1.1836061 -0.7250315 2.8857672 2039583
1.2114652 -0.72486746 2.8612816 2039583
-1.6520101 -0.67474812 2.8523524 4148828
-1.6304839 -0.67505795 2.8768415 4346204
1.0281475 -0.67485017 2.8723874 1585738
1.05044 -0.67588288 2.8977489 1454409
1.1836287 -0.67503202 2.885829 2039583
1.2117809 -0.67460638 2.8610845 2039583
-1.6520121 -0.62511766 2.8523564 4017243
-1.6304072 -0.62504351 2.8769403 4148828
1.0281839 -0.6248914 2.8724866 1388617
1.0504757 -0.62548304 2.8978481 1388617
1.1836022 -0.62502992 2.8859296 2039583
1.2123504 -0.62503499 2.8606617 2039583
-1.6520143 -0.57548726 2.8523598 3688281
-1.6304778 -0.57498652 2.8768642 3819609
1.0282562 -0.5749287 2.8726275 1322568
1.0505117 -0.57507998 2.8979473 1322824
1.1836517 -0.57502538 2.8859656 2039583
1.2124077 -0.57503408 2.8606918 2039583
-1.6519997 -0.5252552 2.8523824 3491417
-1.6304675 -0.52492881 2.8768828 3557209
1.0282328 -0.52520221 2.8726583 1256776
1.0505475 -0.52467334 2.8980455 1388617
1.1836802 -0.52495259 2.8860195 2039583
1.2124424 -0.52495241 2.8607385 2039583
-1.6520352 -0.47446361 2.852349 3096918
-1.6304903 -0.47495648 2.8768675 3294296
1.028241 -0.47511294 2.872725 1256776
1.0505832 -0.47426313 2.8981445 1256775
1.1837237 -0.4750112 2.8860612 2039583
1.2124724 -0.47486901 2.860791 2039583
-1.6520209 -0.42423147 2.8523712 2702932
-1.6304798 -0.42506954 2.8768852 2768724
1.0283895 -0.42490399 2.872951 1124933
1.0506182 -0.42505002 2.8982413 1124677
1.1837829 -0.42513433 2.8860884 2039583
1.2124861 -0.42486322 2.8608582 2039583
-1.6520227 -0.37460047 2.852375 2505812
-1.6304458 -0.37509692 2.8769305 2571604
1.0284239 -0.37492681 2.8730495 1058885
1.0506532 -0.37583351 2.8983378 1059141
1.1837196 -0.37512267 2.8862224 2039583
1.2124782 -0.37485349 2.8609455 2039583
-1.6520255 -0.32496923 2.8523788 1979726
-1.630453 -0.32503861 2.8769298 1979983
1.0284108 -0.325066 2.87309 1190982
1.0506891 -0.32541329 2.8984363 1125189
1.1837472 -0.32504126 2.8862755 2039583
1.2125076 -0.32492098 2.8609993 2039583
-1.6520277 -0.27533799 2.8523829 1782606
-1.6304603 -0.27498016 2.8769257 1782862
1.0284462 -0.27508312 2.8731887 1257031
1.0507251 -0.27498963 2.8985355 1191494
1.1837792 -0.2750245 2.8863285 2039583
1.2125375 -0.27498692 2.8610489 2039583
-1.6520295 -0.22570653 2.8523865 1783376
-1.6305135 -0.22492246 2.8768694 1783632
1.0283946 -0.22497824 2.8731878 1257031
1.050761 -0.22456247 2.8986342 1257030
1.1838218 -0.22507247 2.8863704 2039583
1.2125943 -0.22489382 2.8610795 2039583
-1.6520324 -0.17489326 2.8523908 1718096
-1.6305908 -0.17495058 2.8767869 1717840
1.0283914 -0.17499095 2.8732402 1191495
1.0507967 -0.17413187 2.8987334 1191238
1.1839211 -0.17525415 2.8863621 2039583
1.2126679 -0.17464285 2.8610954 2039583
-1.6520344 -0.12407986 2.8523943 1586511
-1.6304936 -0.12506418 2.8769038 1586511
1.0285981 -0.12499932 2.8735347 1124932
1.0508317 -0.12489875 2.8988299 1124675
1.1839253 -0.12543286 2.8864353 2039583
1.2126492 -0.12454458 2.8611889 2039583
-1.6520364 -0.074448004 2.8523984 1257034
-1.6304301 -0.075089738 2.8769829 1257034
1.0286326 -0.075002052 2.8736317 993347
1.0508667 -0.07566227 2.8989267 1058883
1.1838739 -0.075339593 2.88656 2039583
1.2126352 -0.074679784 2.86128 2039583
-1.6520388 -0.024816031 2.8524022 1125449
-1.6304314 -0.025029909 2.8769903 1125449
1.0286678 -0.02500144 2.8737297 1125187
1.0509027 -0.025221521 2.8990254 1125187
1.1838981 -0.025113652 2.8866177 2039583
1.2126597 -0.024893699 2.8613379 2039583
-1.6520411 0.024816081 2.852406 1125448
-1.6304339 0.025029972 2.8769937 1125448
1.0287021 0.025002571 2.8738263 926784
1.0509386 0.025222668 2.8991244 926527
1.1839219 0.025114315 2.8866768 2039583
1.2126836 0.024894375 2.8613973 2039583
-1.6520431 0.074448332 2.8524098 1257033
-1.6304371 0.075089999 2.8769972 1191753
1.0287372 0.075009935 2.8739221 794428
1.0509744 0.075670294 2.8992231 794427
1.183946 0.075344279 2.886735 2039583
1.2127085 0.074684419 2.8614528 2039583
-1.6520448 0.10635483 2.8524125 1584714
-1.6299288 0.10699451 2.8746047 1979726
-1.5748805 0.11257607 2.8603563 10197915
-1.5249652 0.11256538 2.8600848 10197915
-1.4750593 0.1125547 2.8598127 10197915
-1.4251627 0.112544 2.8595412 10197915
-1.3752759 0.11253329 2.8592696 10197915
-1.3253984 0.11252262 2.8589978 10197915
-1.2755305 0.11251194 2.858726 10197915
-1.225672 0.11250126 2.8584552 10197915
-1.1758229 0.11249057 2.8581836 10197915
-1.1259832 0.11247989 2.8579121 10197915
-1.0749669 0.11246896 2.8576345 10197915
-1.0239604 0.11245805 2.8573565 10197915
-0.97414958 0.11244735 2.8570857 10197915
-0.92434829 0.11243668 2.8568141 10197915
-0.87455642 0.11242602 2.8565433 10197915
-0.82477409 0.11241536 2.8562725 10197915
-0.78211075 0.11240621 2.85604 9540501
1.0287588 0.10596845 2.8739831 1387589
1.0509964 0.10690136 2.8992841 1978954
1.1839612 0.10643999 2.886771 2500134
1.2127231 0.10550779 2.8614883 2039583
1.1252798 -1.306832 2.9361157 2039583
1.152632 -1.301267 2.9120827 2039583
1.1298169 -1.2750316 2.9321752 2039583
1.1576245 -1.2749046 2.9077363 2039583
1.1297294 -1.2249744 2.9323359 2039583
1.1576675 -1.2251341 2.9077771 2039583
1.1298367 -1.1749136 2.9323156 2039583
1.1582874 -1.1745446 2.9073124 2039583
1.1297817 -1.1249626 2.9324498 2039583
1.1586175 -1.1252518 2.9070997 2039583
1.1298723 -1.0750089 2.9324453 2039583
1.1586406 -1.0751703 2.9071586 2039583
1.1298388 -1.0249991 2.9325593 2039583
1.1586509 -1.0249676 2.9072292 2039583
1.1299086 -0.97498661 2.9325695 2039583
1.1586919 -0.97488248 2.9072721 2039583
1.1299186 -0.92486048 2.9326422 2039583
1.1586982 -0.92503726 2.9073462 2039583
1.074954 -0.86901236 2.9254167 1125446
1.1299292 -0.87489939 2.9327092 2039583
1.1587038 -0.87518919 2.907419 2039583
1.0752462 -0.8249644 2.9257994 1257031
1.1299574 -0.82504654 2.9327667 2039583
1.1587446 -0.8250984 2.9074636 2039583
1.0750269 -0.7748577 2.9256072 1388359
1.129995 -0.77502626 2.9328098 2039583
1.1588238 -0.77512842 2.9074721 2039583
-1.6048343 -0.71874601 2.9060233 4477532
-1.5832464 -0.718871 2.9305849 4609116
1.0752282 -0.72485352 2.9258947 1520202
1.1299846 -0.72505766 2.9329033 2039583
1.1587868 -0.72503275 2.9075837 2039583
-1.6048578 -0.67488837 2.9060037 4477789
-1.5832056 -0.67510772 2.9306412 4609373
1.0751171 -0.67495906 2.9258258 1388360
1.1300136 -0.67508984 2.9329538 2039583
1.1588316 -0.67481446 2.9076238 2039583
-1.6048391 -0.62484109 2.9060323 4280412
-1.5832424 -0.62499785 2.9306056 4346461
1.0752457 -0.62483996 2.9260302 1256519
1.1300821 -0.62500662 2.9329729 2039583
1.1588209 -0.62495595 2.9077115 2039583
-1.60481 -0.57496399 2.9060707 3951194
-1.583191 -0.57499921 2.9306719 4017242
1.0741429 -0.57540065 2.9248314 1322311
1.130071 -0.5749225 2.9330597 2039583
1.1588786 -0.57509935 2.9077406 2039583
-1.604852 -0.52508789 2.9060283 3688794
-1.5832329 -0.52500081 2.9306295 3754330
1.0731884 -0.52510583 2.923804 1322567
1.1300979 -0.52500319 2.9331148 2039583
1.1588674 -0.52499509 2.907829 2039583
-1.604895 -0.47521362 2.9059849 3360088
-1.5832456 -0.47494459 2.9306216 3360088
1.073236 -0.47509229 2.9239154 1256518
1.1310186 -0.47506413 2.9323869 2039583
1.1589472 -0.47501034 2.9078391 2039583
-1.604846 -0.42499101 2.9060457 2834260
-1.5831923 -0.42494625 2.9306877 2834260
1.0732821 -0.42483744 2.9240263 1124676
1.1310753 -0.42503265 2.9324167 2039583
1.1589997 -0.42502561 2.9078715 2039583
-1.6047987 -0.37476513 2.9061077 2571604
-1.5832131 -0.37505662 2.9306667 2571604
1.0733988 -0.37493789 2.924216 1058627
1.130993 -0.37499738 2.9325669 2039583
1.1588862 -0.37491471 2.9080505 2039583
-1.6048522 -0.32506382 2.9060528 2045519
-1.5832649 -0.32505834 2.9306161 2045776
1.0733639 -0.3251614 2.9242349 1124932
1.1311376 -0.32502311 2.9325182 2039583
1.158939 -0.32492346 2.9080825 2039583
-1.6049055 -0.27536538 2.9060009 1782862
-1.5832368 -0.27499944 2.9306543 1848655
1.073391 -0.27513513 2.9243219 1191238
1.1311681 -0.27492389 2.9325731 2039583
1.1590706 -0.27517736 2.9080458 2039583
-1.6048558 -0.22513814 2.9060636 1849425
-1.5831767 -0.22500338 2.930728 1849425
1.0734472 -0.22498807 2.9244447 1190981
1.1310579 -0.22488579 2.9327469 2039583
1.159063 -0.22518267 2.9081318 2039583
-1.6048571 -0.17457254 2.9060678 1717840
-1.5832943 -0.17511223 2.9305995 1717840
1.073373 -0.17495385 2.9244156 1125189
1.1311717 -0.17507513 2.9327278 2039583
1.1590478 -0.17470212 2.9082253 2039583
-1.604807 -0.12485678 2.9061306 1586511
-1.5832987 -0.12489418 2.9305999 1586254
1.07357 -0.12479997 2.9246988 1124675
1.1312904 -0.12491968 2.9327006 2039583
1.1589621 -0.12469221 2.9083781 2039583
-1.6049125 -0.075514823 2.9060163 1322826
-1.5831101 -0.07510712 2.9308212 1257034
1.0736072 -0.075124025 2.9247987 993090
1.1310253 -0.075095043 2.9330137 2039583
1.1592028 -0.075316995 2.9082448 2039583
-1.6048648 -0.025283018 2.9060769 1125705
-1.5833026 -0.025336852 2.930608 1125449
1.0735527 -0.025328901 2.9247952 1124930
1.1313351 -0.025292091 2.9328175 2039583
1.1591175 -0.025303124 2.9083996 2039583
-1.6048676 0.025283065 2.906081 1125191
-1.5833049 0.025336888 2.9306107 1059655
1.0735898 0.025330065 2.9248955 926013
1.1313591 0.025292801 2.9328814 2039583
1.1591415 0.02530382 2.9084582 2039583
-1.6049206 0.075515158 2.9060273 1191753
-1.5831169 0.075107418 2.9308355 1125447
1.0737164 0.075131893 2.9250963 793913
1.1310937 0.075099759 2.9331901 2039583
1.1592731 0.075321727 2.908422 2039583
-1.6046702 0.10676961 2.9063163 1585226
-1.5821596 0.10677075 2.9287605 2110542
-1.5251749 0.11248314 2.919457 10197915
-1.4754457 0.11247249 2.9191804 10197915
-1.4257262 0.11246184 2.9189041 10197915
-1.3748035 0.11245093 2.9186208 10197915
-1.325103 0.11244029 2.9183445 10197915
-1.2754121 0.11242964 2.9180684 10197915
-1.2245187 0.11241876 2.9177859 10197915
-1.1748464 0.11240812 2.9175096 10197915
-1.1251838 0.11239749 2.9172337 10197915
-1.0743196 0.11238658 2.9169512 10197915
-1.0246757 0.11237596 2.9166751 10197915
-0.97504151 0.11236533 2.9163995 10197915
-0.92420626 0.11235444 2.9161167 10197915
-0.87459105 0.11234381 2.9158411 10197915
-0.82498503 0.11233319 2.9155655 10197915
-0.78990328 0.11232569 2.9153702 9014416
1.0749551 0.1073275 2.9198167 3556953
1.1302406 0.10675081 2.9283695 3421236
1.1588476 0.1063653 2.9082325 2763306
-2.353193 -1.3133967 2.9662175 2039583
-2.3361466 -1.3178803 2.9856057 2039583
1.0739069 -1.3169167 2.981256 2039583
1.1049693 -1.3109021 2.9539614 2039583
-2.3532445 -1.2748164 2.9662027 2039583
-2.3370235 -1.2750312 2.9846575 2039583
1.0762686 -1.2749941 2.9792469 2039583
1.1050513 -1.2749336 2.9539473 2039583
-2.3532937 -1.2249345 2.9662027 2039583
-2.3370211 -1.225088 2.9847162 2039583
1.077226 -1.2250602 2.9784825 2039583
1.1050913 -1.2250259 2.9539905 2039583
-2.3533044 -1.1748096 2.9662476 2039583
-2.3370609 -1.1750214 2.9847286 2039583
1.0771995 -1.1749874 2.9785855 2039583
1.1051311 -1.1751165 2.9540341 2039583
-2.3533158 -1.1249292 2.9662914 2039583
-2.3371072 -1.1250143 2.984731 2039583
1.0773063 -1.1249104 2.9785709 2039583
1.1051177 -1.1249654 2.9541254 2039583
-2.3533645 -1.0750455 2.9662926 2039583
-2.3371027 -1.0750676 2.9847939 2039583
1.0773214 -1.0749309 2.9786384 2039583
1.1051755 -1.0748069 2.9541526 2039583
-2.3533752 -1.0249171 2.9663377 2039583
-2.3371258 -1.0249984 2.9848244 2039583
1.0772752 -1.0249979 2.9787533 2039583
1.1051623 -1.024895 2.9542444 2039583
-2.3533859 -0.97503263 2.9663813 2039583
-2.3371174 -0.97492594 2.9848902 2039583
1.0773964 -0.97496527 2.9787281 2039583
1.1052206 -0.97522289 2.9542727 2039583
-2.3534353 -0.92514777 2.9663815 2039583
-2.3372052 -0.92497683 2.9848473 2039583
1.0823081 -0.93033946 2.9744811 2039583
1.1052067 -0.92506135 2.9543638 2039583
-2.3534093 -0.88951313 2.9664519 1974047
-2.3371861 -0.88949513 2.9849086 1974047
1.0978537 -0.8964389 2.9608715 2039583
1.1050662 -0.87473953 2.9538555 1974048
1.1050569 -0.82503474 2.9537656 1974049
1.1049846 -0.77511686 2.9538929 1974049
-1.5582252 -0.71873176 2.9590604 4543324
-1.5358047 -0.71875143 2.9845669 4477532
1.1051282 -0.72497082 2.9538925 1974049
-1.5581115 -0.67493123 2.9591911 4674909
-1.5357181 -0.67499411 2.9846718 4609117
1.1050779 -0.67529041 2.9540157 1974049
-1.5582021 -0.62489367 2.9590938 4411997
-1.5357158 -0.62512201 2.9846804 4346205
1.1051342 -0.62513804 2.9540396 1974305
-1.5581557 -0.57496476 2.9591515 4083035
-1.5357454 -0.57504404 2.9846523 4017499
1.096279 -0.56463856 2.9500287 1256775
1.1051443 -0.57521427 2.9541297 1974049
-1.5581594 -0.52503425 2.9591563 3688794
-1.5357463 -0.52496767 2.9846573 3623002
1.0963079 -0.52554321 2.9501066 1256774
1.1051699 -0.52504826 2.9541962 1974049
-1.5581543 -0.47499809 2.9591672 3294295
-1.5357138 -0.47495696 2.9847 3228503
1.0963451 -0.47544938 2.9502068 1190726
1.1061931 -0.47497359 2.9535313 1974048
-1.5582048 -0.42506671 2.959116 2834261
-1.5357927 -0.4249481 2.9846175 2834260
1.0963824 -0.42535216 2.9503067 1124933
1.1061158 -0.42500779 2.9536681 1974048
-1.5581449 -0.37502727 2.9591911 2571604
-1.5357428 -0.37493989 2.9846799 2506067
1.0964193 -0.37525156 2.950407 992835
1.1062665 -0.37486094 2.9536481 1974048
-1.5581686 -0.32487518 2.9591732 2111569
-1.5357473 -0.32499689 2.9846821 2045776
1.0964568 -0.32514754 2.9505069 1124932
1.1062062 -0.32529584 2.9537814 1974048
-1.5582525 -0.27494991 2.9590838 1848655
-1.5358157 -0.27505547 2.9846103 1783119
1.0964938 -0.27504009 2.9506068 1059396
1.1062732 -0.27514187 2.9538004 1974048
-1.5580763 -0.22512308 2.9592898 1783633
-1.5357634 -0.22511634 2.9846807 1783632
1.0965312 -0.2249293 2.950707 1059139
1.1062776 -0.22517201 2.953891 1974048
-1.5582695 -0.17487217 2.9590764 1717840
-1.5356301 -0.17517157 2.9848385 1652304
1.0965682 -0.17481507 2.9508071 1059396
1.1063019 -0.17500174 2.9539561 1974048
-1.5581758 -0.12504756 2.9591897 1520718
-1.5357211 -0.12495535 2.9847398 1454669
1.0966053 -0.12469747 2.9509072 1058883
1.1063267 -0.12482914 2.9540226 1974048
-1.5581775 -0.074783444 2.9591928 1257034
-1.5358905 -0.074612021 2.9845524 1257034
1.0966425 -0.074576437 2.9510071 992833
1.1063516 -0.074654363 2.9540894 1974048
-1.5581799 -0.024519194 2.9591963 1125705
-1.5357401 -0.024730735 2.984731 1125705
1.0966799 -0.024452034 2.9511075 1124930
1.1063768 -0.024477335 2.9541559 1974048
-1.5581828 0.024519235 2.9592025 1125448
-1.5357418 0.024730785 2.9847333 1059655
1.0967162 0.024453115 2.9512048 926269
1.1064011 0.024478056 2.9542203 1974048
-1.5581843 0.074783765 2.9592047 1059654
-1.5358974 0.074612342 2.9845629 1191753
1.0967534 0.074584268 2.9513056 793656
1.1064261 0.074659571 2.9542866 1974048
-1.5581861 0.10665889 2.959208 1123908
-1.5333077 0.10695488 2.9841857 2307920
-1.4746101 0.11238651 2.9810576 10197915
-1.4250753 0.11237592 2.980777 10197915
-1.3755494 0.11236532 2.9804957 10197915
-1.3247952 0.11235447 2.9802077 10197915
-1.2740508 0.11234359 2.9799199 10197915
-1.2245536 0.11233301 2.9796386 10197915
-1.1750658 0.11232243 2.979358 10197915
-1.1255871 0.11231184 2.9790771 10197915
-1.0748812 0.112301 2.9787896 10197915
-1.0241852 0.11229013 2.9785016 10197915
-0.97473508 0.11227957 2.9782212 10197915
-0.92529422 0.112269 2.9779403 10197915
-0.87586272 0.1122584 2.9776602 10197915
-0.82520503 0.11224756 2.9773722 10197915
-0.79802632 0.11224173 2.9772174 928324
1.0967767 0.10637635 2.9513681 1847367
1.1064415 0.10648306 2.9543283 2697771
-2.3021197 -1.351403 3.024281 2039583
-2.287806 -1.3552202 3.0405617 2039583
0.99755609 -1.3569016 3.0483017 2039583
1.0108933 -1.3542688 3.0365825 2039583
-2.3115251 -1.3238537 3.0136123 2039583
-2.2897534 -1.3250761 3.0383801 2039583
0.99768293 -1.3253763 3.0482399 2039583
1.0244424 -1.3244382 3.0247223 2039583
1.0507736 -1.3218607 3.0015807 2039583
-2.3119369 -1.2751783 3.0131981 2039583
-2.2897129 -1.2750725 3.0384829 2039583
0.99767798 -1.2755128 3.0483232 2039583
1.0249575 -1.2749857 3.0243447 2039583
1.0507929 -1.275874 3.0016363 2039583
-2.3119695 -1.2251867 3.0132184 2039583
-2.2897723 -1.2249861 3.0384724 2039583
0.99769819 -1.2250223 3.0483851 2039583
1.0249147 -1.2249877 3.0244625 2039583
1.0517176 -1.2245903 3.0009046 2039583
-2.3119509 -1.1750567 3.0132983 2039583
-2.2898045 -1.1748961 3.0384927 2039583
0.99771845 -1.1745298 3.0484474 2039583
1.0249566 -1.175038 3.0245063 2039583
1.0517862 -1.1748676 3.0009236 2039583
-2.3120046 -1.124995 3.0132892 2039583
-2.289813 -1.1248904 3.038538 2039583
0.99771333 -1.1246585 3.0485308 2039583
1.0249797 -1.1251326 3.0245631 2039583
1.0518074 -1.12516 3.000983 2039583
-2.3120162 -1.0749327 3.013341 2039583
-2.2898321 -1.0749673 3.0385735 2039583
0.99778354 -1.0754405 3.0485466 2039583
1.0250472 -1.0750796 3.0245833 2039583
1.0518517 -1.0748377 3.0010235 2039583
-2.3120222 -1.0249374 3.0133858 2039583
-2.2898514 -1.0250448 3.0386086 2039583
0.9977783 -1.0255647 3.0486305 2039583
1.0249902 -1.0249785 3.024713 2039583
1.0518498 -1.0244969 3.0011053 2039583
-2.3120432 -0.97501129 3.0134172 2039583
-2.2898819 -0.97503507 3.0386305 2039583
0.99778903 -0.99905241 3.0486627 2039583
1.0320452 -0.98132557 3.0185807 2039583
1.0518709 -0.97478378 3.0011649 2039583
-2.3120894 -0.92501462 3.013422 2039583
-2.2898877 -0.92502517 3.0386817 2039583
1.0485526 -0.94712019 3.0041254 2039583
1.0520191 -0.94545013 3.001081 2039583
-2.3121769 -0.88950831 3.0133631 1974047
-2.2899833 -0.88945073 3.0386128 1974047
-1.5105766 -0.71871108 3.013272 4346203
-1.488887 -0.7188431 3.0379522 4148827
-1.5105244 -0.67483938 3.013335 4346204
-1.4889004 -0.6749866 3.0379388 4148827
-1.5105599 -0.62499392 3.0133035 4214876
-1.4889145 -0.62503231 3.0379295 4017499
-1.5105389 -0.57505965 3.0133352 3819866
-1.4889292 -0.57498091 3.0379243 3622745
-1.5105326 -0.5250358 3.0133476 3557209
-1.4889009 -0.52492744 3.037962 3425881
-1.510572 -0.47519058 3.013309 3162967
-1.4889092 -0.47487471 3.0379584 3097432
-1.5105522 -0.42525464 3.01334 2768468
-1.4889431 -0.42482138 3.0379264 2637396
-1.5105592 -0.37514129 3.0133381 2440275
-1.4889327 -0.37496388 3.0379465 2440275
-1.510566 -0.32502818 3.0133336 1979983
-1.4888726 -0.32500845 3.0380194 1914190
-1.5105743 -0.27491543 3.0133328 1782862
-1.4888805 -0.27485731 3.0380166 1717070
-1.5105816 -0.22480257 3.0133314 1718096
-1.48887 -0.22489932 3.0380349 1718096
-1.5105461 -0.17477684 3.013376 1652304
-1.4889281 -0.17513843 3.0379729 1586767
-1.5105475 -0.12484077 3.0133789 1389133
-1.4890246 -0.12548067 3.0378683 1389389
-1.5105503 -0.074904561 3.0133848 1257034
-1.4889126 -0.075516514 3.0380023 1191498
-1.5105519 -0.024968209 3.0133893 1059913
-1.4889147 -0.025172204 3.0380065 1060169
-1.5105534 0.024968257 3.0133934 1125448
-1.4889162 0.025172252 3.0380111 1125448
-1.5105556 0.074904837 3.0133967 1191753
-1.4889184 0.075516865 3.0380147 1257545
-1.510558 0.1061153 3.0133991 1059142
-1.4855142 0.10768814 3.0389578 2637139
-1.4256611 0.11228655 3.0453367 10000537
-1.3750627 0.11227573 3.0450435 10197915
-1.3244741 0.11226492 3.04475 10197915
-1.2751595 0.11225438 3.0444646 10197915
-1.2258542 0.11224382 3.0441782 10197915
-1.1752946 0.11223304 3.043885 10197915
-1.1247447 0.11222222 3.043592 10197915
-1.074204 0.11221141 3.0432992 10197915
-1.0249366 0.11220089 3.0430138 10197915
-0.97567827 0.11219034 3.0427279 10197915
-0.92516661 0.11217953 3.0424347 10197915
-0.87466466 0.11216875 3.0421419 10197915
-0.83174533 0.11215957 3.041893 9474708
-2.2634542 -1.3614589 3.0682592 2039583
-2.2425244 -1.3667589 3.0920649 2039583
0.94375962 -1.367506 3.0955698 2039583
0.97004288 -1.3623598 3.0724761 2039583
-2.2651212 -1.3250121 3.0664065 2039583
-2.2427871 -1.3250149 3.0918143 2039583
0.94405466 -1.3258183 3.0953763 2039583
0.97295535 -1.3249919 3.0699759 2039583
-2.2651105 -1.2748142 3.0664744 2039583
-2.2428873 -1.2749583 3.0917563 2039583
0.94492602 -1.2749232 3.0946918 2039583
0.97301006 -1.2749716 3.0700057 2039583
-2.2651479 -1.2248583 3.0664861 2039583
-2.2428436 -1.2248971 3.091861 2039583
0.94490379 -1.2249396 3.0947888 2039583
0.97299469 -1.2250073 3.0700996 2039583
-2.2651503 -1.1750212 3.0665419 2039583
-2.2429061 -1.1749551 3.0918486 2039583
0.94496435 -1.1749672 3.0948157 2039583
0.97299606 -1.1750387 3.0701756 2039583
-2.2651992 -1.1250024 3.0665431 2039583
-2.2429228 -1.1248925 3.0918863 2039583
0.94498342 -1.124725 3.0948782 2039583
0.97306496 -1.1250154 3.0701959 2039583
-2.2652023 -1.0749817 3.0665963 2039583
-2.2429378 -1.0748318 3.0919261 2039583
0.94513822 -1.0764619 3.0948188 2039583
0.97307992 -1.0749871 3.0702615 2039583
-2.2652483 -1.025082 3.066597 2039583
-2.2429738 -1.0250006 3.0919423 2039583
0.94903296 -1.0489311 3.091439 2039583
0.98005289 -1.0331465 3.064198 2039583
-2.2652335 -0.97505927 3.0666721 2039583
-2.2431245 -0.97548878 3.0918286 2039583
-2.2647483 -0.92475408 3.0672846 2039583
-2.243228 -0.9255479 3.0917656 2039583
-2.2646039 -0.88951749 3.0674872 1974047
-2.24298 -0.88957709 3.0920882 1974047
-1.4644144 -0.71888304 3.0657954 3885657
-1.4420733 -0.71897089 3.0912163 3688023
-1.4644617 -0.67510331 3.0657487 3951451
-1.4420424 -0.67504185 3.091258 3754330
-1.4644383 -0.62497109 3.0657797 3820123
-1.4420319 -0.62496942 3.0912764 3623002
-1.4644549 -0.57491285 3.0657682 3425367
-1.4420328 -0.57502371 3.0912802 3294038
-1.4644125 -0.52500802 3.0658257 3360088
-1.4420354 -0.52507812 3.0912848 3228759
-1.4644393 -0.47494945 3.0658035 2966103
-1.4420373 -0.47513226 3.09129 2900053
-1.4645003 -0.4249692 3.0657396 2571603
-1.4420606 -0.42505822 3.0912683 2440275
-1.4644568 -0.37490937 3.0657926 2308947
-1.4420201 -0.37511158 3.0913227 2308690
-1.4644744 -0.32500193 3.0657792 1914190
-1.4421326 -0.32491288 3.0912023 1782862
-1.4643626 -0.27509511 3.0659122 1651277
-1.4419551 -0.27495888 3.0914094 1585741
-1.464478 -0.22503646 3.0657871 1388363
-1.4421368 -0.22502324 3.0912092 1454156
-1.4645623 -0.17498286 3.0656948 1388876
-1.4419584 -0.17506205 3.091418 1322827
-1.4643352 -0.12469273 3.0659606 1389133
-1.4421403 -0.12513278 3.0912168 1389132
-1.4645451 -0.075168401 3.0657277 1191498
-1.4419613 -0.075164713 3.0914259 1257033
-1.4644423 -0.025402935 3.0658548 1125705
-1.4421432 -0.025241796 3.0912261 1191497
-1.4644448 0.025402969 3.0658581 1125448
-1.4421461 0.02524185 3.0912306 1125704
-1.4645528 0.075168706 3.0657408 1257545
-1.4419674 0.075165018 3.0914392 1257289
-1.4640268 0.10562411 3.066344 1059141
-1.4420602 0.10629845 3.0913382 1453641
-2.2029164 -1.4016808 3.1370883 2039583
-2.1954651 -1.4036993 3.1455634 2039583
0.88974029 -1.4031885 3.1429951 2039583
0.90188974 -1.4002 3.1323209 2039583
-2.2163801 -1.3729299 3.1218028 2039583
-2.1956546 -1.3750068 3.1453798 2039583
0.89144439 -1.3750839 3.141542 2039583
0.91847324 -1.3723415 3.1177883 2039583
-2.2173183 -1.3250176 3.120791 2039583
-2.1957381 -1.3249849 3.1453419 2039583
0.89155853 -1.3250756 3.1415205 2039583
0.9196797 -1.3246521 3.1168039 2039583
-2.2173712 -1.2749691 3.1207857 2039583
-2.1957147 -1.274959 3.1454256 2039583
0.89156431 -1.2749233 3.1415942 2039583
0.9205057 -1.2750275 3.1161544 2039583
-2.2173438 -1.2249718 3.1208732 2039583
-2.1957517 -1.2249303 3.1454403 2039583
0.89153486 -1.2249095 3.1417003 2039583
0.92049062 -1.2250438 3.1162491 2039583
-2.2173846 -1.1750247 3.1208851 2039583
-2.1957889 -1.1749016 3.1454554 2039583
0.89160049 -1.1751851 3.1417205 2039583
0.92053694 -1.1749885 3.1162853 2039583
-2.217437 -1.1249745 3.1208816 2039583
-2.1958258 -1.1248726 3.1454687 2039583
0.89232147 -1.1292869 3.1411607 2039583
0.9205721 -1.1250002 3.116334 2039583
-2.2174561 -1.0750238 3.1209173 2039583
-2.1957877 -1.0748448 3.1455696 2039583
0.92662448 -1.0861061 3.1110761 2039583
-2.217397 -1.025075 3.1210394 2039583
-2.1958246 -1.0248128 3.1455843 2039583
-2.2176995 -0.97483397 3.1207523 2039583
-2.1958621 -0.9747805 3.1455991 2039583
-2.2182574 -0.92495489 3.1201756 2039583
-2.1958992 -0.92474818 3.145612 2039583
-2.2182112 -0.88951164 3.1202683 1974047
-2.1958995 -0.8893072 3.1456523 1974047
-1.4167334 -0.71895069 3.1200509 3359573
-1.3952039 -0.71884829 3.1445456 3228246
-1.4166728 -0.67506832 3.1201243 3425624
-1.3952299 -0.67481738 3.1445224 3359831
-1.41676 -0.62498021 3.1200318 3294038
-1.3952492 -0.62479466 3.1445072 3228502
-1.4166641 -0.57495594 3.1201465 3162709
-1.395269 -0.57477278 3.14449 3031125
-1.4167316 -0.52499676 3.120079 3031381
-1.3952351 -0.52500564 3.1445348 2899796
-1.4166675 -0.47497508 3.1201565 2702675
-1.3952011 -0.47523651 3.1445799 2636883
-1.4167402 -0.42494947 3.1200821 2374483
-1.3952209 -0.42521322 3.1445649 2176848
-1.4167547 -0.37505627 3.12007 2177618
-1.3952934 -0.37467891 3.1444883 1913934
-1.4166816 -0.32515791 3.1201601 1782863
-1.3952423 -0.32438493 3.1445522 1717326
-1.4167057 -0.27500862 3.1201401 1585997
-1.3952447 -0.27488077 3.1445575 1585741
-1.4166875 -0.22491693 3.1201675 1454156
-1.3952463 -0.22537647 3.1445611 1322314
-1.4168886 -0.17496057 3.1199446 1322314
-1.3952123 -0.1756026 3.1446068 1256521
-1.4166101 -0.12525468 3.1202683 1323340
-1.3952852 -0.12481283 3.1445293 1323340
-1.4167712 -0.074847616 3.1200912 1191241
-1.3952521 -0.074257284 3.1445746 1191241
-1.4166958 -0.024560418 3.1201837 1125705
-1.3952543 -0.024752459 3.1445792 1059399
-1.4166981 0.024560465 3.1201863 1125704
-1.3952559 0.024752507 3.1445827 1059655
-1.4167776 0.074847929 3.1201003 1191753
-1.3952576 0.07425759 3.1445875 1257545
-1.4166883 0.10682035 3.1190178 1913932
-1.3868766 0.10839925 3.1307137 4806504
-1.3254312 0.11217169 3.1121576 10197915
-1.2750251 0.11216091 3.1118588 10197915
-1.2246286 0.11215015 3.1115603 10197915
-1.1742417 0.11213937 3.1112618 10197915
-1.1251559 0.11212888 3.1109707 10197915
-1.0747881 0.11211816 3.1106722 10197915
-1.0244299 0.1121074 3.110374 10197915
-0.97537231 0.11209691 3.1100831 10197915
-0.92503339 0.11208618 3.1097846 10197915
-0.87470388 0.1120754 3.1094863 10197915
-0.84115589 0.11206824 3.1092873 8817294
-2.167882 -1.4107361 3.1769369 2039583
-2.1491444 -1.4150964 3.1982501 2039583
0.83669657 -1.4134984 3.1896019 2039583
0.86428457 -1.4080992 3.1653628 2039583
-2.1714697 -1.3749869 3.1728957 2039583
-2.1491418 -1.3746871 3.1982994 2039583
0.8376143 -1.3749497 3.1888573 2039583
0.86627722 -1.3749549 3.1636631 2039583
-2.1715236 -1.3250026 3.172893 2039583
-2.1491833 -1.3250202 3.198308 2039583
0.83760315 -1.3249952 3.1889451 2039583
0.86636835 -1.325002 3.163662 2039583
-2.1715691 -1.2750653 3.1728997 2039583
-2.149225 -1.2753537 3.1983168 2039583
0.83765751 -1.2750373 3.1889763 2039583
0.86636364 -1.2750473 3.1637449 2039583
-2.1715839 -1.2250321 3.1729362 2039583
-2.1492262 -1.2256685 3.1983712 2039583
0.83760804 -1.2250786 3.1890996 2039583
0.86640298 -1.2250041 3.163789 2039583
-2.1712723 -1.1747825 3.1733446 2039583
-2.1490462 -1.1792972 3.1986291 2039583
0.83932561 -1.1819472 3.187659 2039583
0.8664571 -1.174871 3.1638219 2039583
-2.1708825 -1.1250454 3.1738474 2039583
-2.1485183 -1.1252882 3.1992905 2039583
0.87229723 -1.1395642 3.1587439 2039583
-2.1709101 -1.0750451 3.1738715 2039583
-2.14854 -1.0749328 3.1993229 2039583
-2.1709144 -1.0249531 3.1739213 2039583
-2.148562 -1.0245763 3.1993554 2039583
-2.1709566 -0.97499549 3.173938 2039583
-2.1485834 -0.97421908 3.1993878 2039583
-2.1709623 -0.92503893 3.1739843 2039583
-2.1486053 -0.92386043 3.1994202 2039583
-2.1709738 -0.88958681 3.1740122 1974047
-2.1486204 -0.88940418 3.1994421 2039583
-1.370764 -0.71884459 3.172354 3162453
-1.3486044 -0.71868014 3.1975689 2965332
-1.3707933 -0.67501795 3.1723263 3228502
