# .PCD v0.7 - Point Cloud Data file format
VERSION 0.7
FIELDS x y z rgb
SIZE 4 4 4 4
TYPE F F F U
COUNT 1 1 1 1
WIDTH 1156
HEIGHT 1
VIEWPOINT 0 0 0 1 0 0 0
POINTS 1156
DATA ascii
-0.32488301 0.085247688 1.2248656 2894892
-0.27498761 0.085235588 1.2246572 2894892
-0.22497961 0.085224189 1.2244178 2894892
-0.17511337 0.085209519 1.2243193 2894892
-0.12500836 0.085197404 1.2241087 2894892
-0.075044133 0.085186057 1.2238692 2894892
-0.025096549 0.085171953 1.2237431 2894892
0.02509152 0.085159168 1.2235589 2894892
0.075009279 0.085147806 1.2233199 2894892
0.12491368 0.085133754 1.2231939 2894892
0.17505546 0.085119665 1.2230648 2960685
0.22505571 0.08511024 1.2227434 2894892
0.28608227 0.075459152 1.2360166 2894892
0.32504845 0.069014758 1.238422 2894892
0.3751803 0.068444878 1.2237135 2894892
0.42505118 0.068065248 1.2085108 2894892
0.45110896 0.07068447 1.2004224 2894892
0.092877358 -0.56579638 1.2978445 2894892
0.12375764 -0.56310153 1.2881337 2894892
0.17340142 -0.55964291 1.2725011 2894892
0.2206248 -0.55629492 1.2576311 2894892
0.094538346 -0.52659279 1.2983047 2894892
0.12491444 -0.52499938 1.2887256 2894892
0.17505997 -0.52502072 1.2728469 2894892
0.22384739 -0.52468169 1.2574067 2894892
0.096548103 -0.47739387 1.2989064 2894892
0.12506424 -0.47499454 1.289937 2894892
0.17524913 -0.47500554 1.2740453 2894892
0.22518808 -0.47501948 1.2582318 2894892
0.25088385 -0.46459609 1.2503574 2894892
0.098451413 -0.43051568 1.2994833 2894892
0.1251644 -0.42500633 1.2911623 2894892
0.17498122 -0.42508355 1.2753861 2894892
0.22501139 -0.42493418 1.2595479 2894892
0.25269979 -0.42212206 1.2508513 2894892
0.099631786 -0.39745003 1.2999414 2894892
0.1258343 -0.37528375 1.2922021 2894892
0.17506599 -0.37499976 1.2766198 2894892
0.22510448 -0.37500295 1.2607743 2894892
0.25472233 -0.37327263 1.2514389 2894892
0.12782425 -0.32534456 1.2928274 2894892
0.17524266 -0.32501858 1.2778211 2894892
0.22525983 -0.32504857 1.2619826 2894892
0.25675398 -0.32350203 1.2520477 2894892
0.12983717 -0.27538052 1.2934482 2894892
0.17537789 -0.27501819 1.2790363 2894892
0.22504219 -0.27498683 1.2633106 2894892
0.25842902 -0.27408043 1.2527603 2894892
0.13170587 -0.22562075 1.2941077 2894892
0.17537338 -0.22487822 1.2802992 2894892
0.22526515 -0.22502808 1.264497 2894892
0.26051679 -0.22423203 1.2533535 2894892
0.13338871 -0.1755081 1.2948356 2894892
0.17493568 -0.17513673 1.2816888 2894892
0.22519857 -0.1748932 1.2657791 2894892
0.26263481 -0.17439862 1.2539384 2894892
0.13548245 -0.1254753 1.2954321 2894892
0.17492755 -0.12502229 1.282952 2894892
0.22522032 -0.12502944 1.2670268 2894892
0.26480022 -0.12442044 1.2545091 2894892
0.13741967 -0.075650126 1.2960714 2894892
0.17504355 -0.075033218 1.284174 2894892
0.22482203 -0.075054653 1.268411 2894892
0.26640227 -0.074448936 1.2552582 2894892
0.13956656 -0.025842877 1.2966449 2894892
0.17514738 -0.025024751 1.2853993 2894892
0.22518952 -0.025033673 1.2695522 2894892
0.26848736 -0.024546057 1.2558534 2894892
0.14160718 0.024095448 1.2972554 2894892
0.17531183 0.025056103 1.2866063 2894892
0.22540435 0.02498078 1.2707424 2894892
0.27057967 0.025372166 1.2564484 2894892
-1.0101374 0.084102906 1.2828964 10197915
-0.97480023 0.084338404 1.2724776 10197915
-0.92510933 0.08432731 1.2722297 10132122
-0.87503904 0.084315449 1.2720088 10066329
-0.82511896 0.0843044 1.2717558 10066329
-0.7752105 0.084290341 1.27163 6052956
-0.72505379 0.084276266 1.2715013 2894892
-0.6750465 0.084267393 1.271156 2894892
-0.62505144 0.084252581 1.2710602 2894892
-0.57507271 0.084239297 1.2709017 2894892
-0.52497572 0.084229596 1.2705904 2894892
-0.47489363 0.084217057 1.2703969 2894892
-0.42496175 0.084200822 1.2703627 2894892
-0.37356061 0.084115639 1.2732084 2894892
-0.32494631 0.084038705 1.2757477 2894892
-0.27501199 0.084022552 1.2757086 2894892
-0.2250919 0.084014818 1.2753167 2894892
-0.17508015 0.083998658 1.2752781 2894892
-0.12508434 0.083989672 1.2749372 2894892
-0.074997574 0.083973549 1.2748963 2894892
-0.024926132 0.083963379 1.2746042 2894892
0.024921166 0.08395087 1.2744144 2894892
0.074962676 0.083935902 1.2743243 2894892
0.13657235 0.072509982 1.2891045 2894892
0.17540184 0.068619922 1.2854053 2894892
0.22523434 0.068100102 1.2709448 2894892
0.27234355 0.067827538 1.2567501 2894892
-0.065402023 -0.60133737 1.3470701 2894892
-0.061315589 -0.57574332 1.3464197 2894892
-0.02551925 -0.57356423 1.3351402 2894892
0.024402913 -0.57005984 1.3194196 2894892
0.067668878 -0.56684726 1.3058008 2894892
-0.059391622 -0.5258829 1.3470653 2894892
-0.024900004 -0.52501523 1.3361653 2894892
0.025169669 -0.5249995 1.3203105 2894892
0.069778152 -0.52457678 1.3061963 2894892
-0.057399623 -0.4761253 1.3476866 2894892
-0.024923488 -0.47501767 1.3374294 2894892
0.025180805 -0.47500721 1.3215657 2894892
0.0717896 -0.47462595 1.3068165 2894892
-0.055502042 -0.42655194 1.3483329 2894892
-0.024963418 -0.42499793 1.338702 2894892
0.025210923 -0.42501414 1.322814 2894892
0.073849715 -0.42464638 1.3074205 2894892
-0.053562734 -0.37761182 1.34895 2894892
-0.024994999 -0.37501818 1.3399694 2894892
0.025237598 -0.37500951 1.3240631 2894892
0.075290836 -0.37493014 1.3082163 2894892
0.10127532 -0.36250055 1.3003002 2894892
-0.051821824 -0.33195332 1.3495477 2894892
-0.024991332 -0.32501733 1.3412268 2894892
0.025260145 -0.32501695 1.3253138 2894892
0.075399294 -0.32500163 1.3094378 2894892
0.10287289 -0.32167581 1.3008214 2894892
-0.024217695 -0.275363 1.3422302 2894892
0.025269363 -0.27500105 1.3265694 2894892
0.075500652 -0.2750172 1.310663 2894892
0.10488568 -0.27326891 1.301402 2894892
-0.022283548 -0.22538619 1.342875 2894892
0.025314067 -0.22499862 1.3278124 2894892
0.075493008 -0.22502998 1.3119223 2894892
0.10683727 -0.22365537 1.3020318 2894892
-0.020323282 -0.17534642 1.3435131 2894892
0.025309021 -0.17503183 1.3290712 2894892
0.075093806 -0.17499156 1.313307 2894892
0.10840211 -0.17410401 1.3027835 2894892
-0.018322727 -0.12548611 1.3441347 2894892
0.02534581 -0.12501977 1.3303185 2894892
0.075153254 -0.12497029 1.3145483 2894892
0.11035571 -0.12435138 1.3034167 2894892
-0.016386131 -0.075642653 1.3447753 2894892
0.025384841 -0.074913003 1.3315663 2894892
0.075280823 -0.075080045 1.315763 2894892
0.11251456 -0.074238427 1.3039937 2894892
-0.014409276 -0.025659889 1.3454074 2894892
0.025412701 -0.024916772 1.3328156 2894892
0.075247414 -0.025095044 1.3170311 2894892
0.11448387 -0.024315923 1.304626 2894892
-0.012458546 0.024417304 1.3460494 2894892
0.025096236 0.024740838 1.3341649 2894892
0.07505741 0.025240762 1.3183576 2894892
0.11651532 0.025351869 1.3052324 2894892
-1.0568073 0.082825869 1.3373125 10197915
-1.0230868 0.083157957 1.3228514 10197915
-0.97496802 0.083190218 1.3208015 10197915
-0.92502826 0.08317288 1.3208125 10197915
-0.87510455 0.083158858 1.3206854 10197915
-0.82519466 0.083148114 1.3204194 8882055
-0.77516067 0.083134897 1.3202572 3026478
-0.72500902 0.083125681 1.3199228 2894892
-0.6750049 0.083110869 1.3198278 2894892
-0.62501776 0.083097659 1.3196654 2894892
-0.57504547 0.08308769 1.3193662 2894892
-0.52508873 0.083072864 1.3192717 2894892
-0.4751462 0.083061293 1.3190408 2894892
-0.42508051 0.08305046 1.3187764 2894892
-0.37683684 0.082976028 1.3212163 2894892
-0.32509276 0.082874291 1.3247538 2894892
-0.27510905 0.082861908 1.3245556 2894892
-0.22513759 0.082849547 1.3243583 2894892
-0.1746553 0.082825989 1.3246239 2894892
-0.12483687 0.082672402 1.3303716 2894892
-0.074945621 0.082661785 1.3301004 2894892
-0.014392394 0.069852374 1.3423169 2894892
0.02486101 0.067437947 1.3340786 2894892
0.074823633 0.067173719 1.3191754 2894892
0.11818952 0.06674432 1.3057408 2894892
-0.21742333 -0.61220211 1.3949349 2894892
-0.17679225 -0.60917628 1.3821449 2894892
-0.12772734 -0.60572702 1.3666972 2894892
-0.088781752 -0.60298383 1.3544319 2894892
-0.21542855 -0.57564098 1.3952233 2894892
-0.17526017 -0.5750218 1.3825196 2894892
-0.12511688 -0.57502913 1.3666413 2894892
-0.086307175 -0.5743947 1.3543681 2894892
-0.21307276 -0.52546078 1.3957409 2894892
-0.1749355 -0.52509105 1.3836731 2894892
-0.12524103 -0.52500379 1.3679408 2894892
-0.08436773 -0.52449101 1.3550094 2894892
-0.21106784 -0.47570613 1.396356 2894892
-0.17453851 -0.4749034 1.3848096 2894892
-0.12491636 -0.47508958 1.3690915 2894892
-0.082393266 -0.47453365 1.3556408 2894892
-0.20921688 -0.42594945 1.3970234 2894892
-0.17458008 -0.42501119 1.3860788 2894892
-0.12491078 -0.42501408 1.3703479 2894892
-0.080467537 -0.42455655 1.3562882 2894892
-0.2073268 -0.37622279 1.3976746 2894892
-0.17471793 -0.37503788 1.3873789 2894892
-0.12471247 -0.37487417 1.3715497 2894892
-0.07819768 -0.37478316 1.3568215 2894892
-0.20546274 -0.32674381 1.3983301 2894892
-0.17491443 -0.32501033 1.3887004 2894892
-0.12455659 -0.32499626 1.3727542 2894892
-0.075985745 -0.32465297 1.3573837 2894892
-0.20366289 -0.27806517 1.3989849 2894892
-0.17504787 -0.27499771 1.3900003 2894892
-0.12465925 -0.274984 1.3740444 2894892
-0.074834466 -0.27499369 1.358268 2894892
-0.049089268 -0.26461628 1.3503764 2894892
-0.20158873 -0.22906594 1.3995606 2894892
-0.1749564 -0.22516355 1.3912252 2894892
-0.12475001 -0.22499603 1.3753324 2894892
-0.074871391 -0.22500591 1.3595368 2894892
-0.04744558 -0.22208136 1.3509259 2894892
-0.20008922 -0.19602937 1.3999166 2894892
-0.17432901 -0.1752791 1.3922827 2894892
-0.12492425 -0.17501952 1.3766437 2894892
-0.075037636 -0.17501538 1.3608464 2894892
-0.045545608 -0.17353521 1.3515455 2894892
-0.17249076 -0.12539597 1.392954 2894892
-0.12506752 -0.12501436 1.3779484 2894892
-0.075077191 -0.12500973 1.3621185 2894892
-0.043569144 -0.12366655 1.3521745 2894892
-0.17026247 -0.075109579 1.3935152 2894892
-0.12482394 -0.075277463 1.3791223 2894892
-0.075020783 -0.074857675 1.3633618 2894892
-0.041656684 -0.074176356 1.3528141 2894892
-0.16811405 -0.025300855 1.3940864 2894892
-0.12469802 -0.025144499 1.3803427 2894892
-0.074668124 -0.024869302 1.3645097 2894892
-0.039092798 -0.024402149 1.3532543 2894892
-0.16621339 0.024326904 1.3947333 2894892
-0.12474147 0.025081512 1.3816195 2894892
-0.074738018 0.024900269 1.3657886 2894892
-0.037090354 0.02576877 1.3538833 2894892
-1.1048431 0.081476405 1.3947948 10197915
-1.071432 0.081882827 1.3772111 10197915
-1.025095 0.081949472 1.3737389 10197915
-0.97501129 0.081938095 1.3734976 10197915
-0.92494279 0.08192502 1.3733286 10197915
-0.87488723 0.081915528 1.3730087 10066329
-0.82499141 0.081901528 1.37288 4408131
-0.77510792 0.081891134 1.3726002 2894892
-0.72509849 0.081874281 1.3725898 2894892
-0.67510486 0.081866696 1.3721906 2894892
-0.62498218 0.081852652 1.3720615 2894892
-0.57487482 0.081842214 1.3717803 2894892
-0.52492434 0.081825405 1.37177 2894892
-0.47499123 0.081817813 1.3713712 2894892
-0.42492673 0.081805572 1.3711662 2894892
-0.37516496 0.081791617 1.3710378 2894892
-0.32513127 0.081779316 1.3708366 2894892
-0.27483001 0.081768908 1.3705515 2894892
-0.224969 0.081753999 1.3704619 2894892
-0.16685711 0.068527907 1.3901367 2894892
-0.12507068 0.066896975 1.3818389 2894892
-0.074805379 0.066257343 1.3666751 2894892
-0.035636369 0.066265143 1.354441 2894892
-0.37151572 -0.62321705 1.4434515 2894892
-0.32570916 -0.61954886 1.4290392 2894892
-0.27607894 -0.61608785 1.4134103 2894892
-0.24202885 -0.61346555 1.4026953 2894892
-0.3692793 -0.5754624 1.4439456 2894892
-0.32523784 -0.5749647 1.4300126 2894892
-0.27526122 -0.57493353 1.4141867 2894892
-0.240347 -0.57432342 1.4031471 2894892
-0.36717734 -0.52529627 1.4445412 2894892
-0.32468569 -0.52514815 1.4310905 2894892
-0.27440271 -0.52502912 1.4151708 2894892
-0.23796558 -0.52424949 1.4036525 2894892
-0.36499825 -0.47564501 1.4451008 2894892
-0.32458389 -0.4750002 1.4323196 2894892
-0.27463743 -0.47498575 1.4165052 2894892
-0.23605561 -0.47439563 1.404302 2894892
-0.36323044 -0.42571467 1.4457978 2894892
-0.32487306 -0.42499363 1.4336704 2894892
-0.27490011 -0.42500621 1.4178455 2894892
-0.23421235 -0.42445064 1.4049752 2894892
-0.36138237 -0.37576878 1.4464688 2894892
-0.32520682 -0.37501356 1.4350324 2894892
-0.27517194 -0.37502125 1.4191887 2894892
-0.23232052 -0.37450266 1.4056323 2894892
-0.35925049 -0.32551053 1.447058 2894892
-0.32482606 -0.3250179 1.436169 2894892
-0.2750755 -0.32519096 1.4204123 2894892
-0.23041688 -0.32456467 1.4062861 2894892
-0.35716704 -0.27616981 1.4476392 2894892
-0.32455224 -0.2750271 1.4373407 2829099
-0.27449724 -0.27495858 1.4214932 2829099
-0.22799407 -0.27465507 1.4067744 2894892
-0.35533684 -0.22679089 1.4483023 2894892
-0.32483226 -0.22502099 1.4386885 2894892
-0.27464211 -0.22496098 1.4227964 2894892
-0.22599973 -0.22463362 1.407402 2894892
-0.35355893 -0.17808077 1.4489653 2894892
-0.32514772 -0.17498162 1.4400464 2894892
-0.27499071 -0.17500687 1.4241633 2894892
-0.22474203 -0.17493168 1.4082527 2894892
-0.19860905 -0.16173066 1.400311 2894892
-0.35149166 -0.12894541 1.4495467 2894892
-0.32507679 -0.12513286 1.4412786 2894892
-0.27521053 -0.12506153 1.4254897 2894892
-0.22486579 -0.1250045 1.409549 2894892
-0.19705912 -0.121496 1.4008327 2894892
-0.35020253 -0.097311825 1.4499344 2894892
-0.32384908 -0.075420551 1.4421394 2894892
-0.27475825 -0.074861571 1.4266096 2894892
-0.2249366 -0.075155348 1.4108255 2894892
-0.19524886 -0.072991893 1.4014795 2894892
-0.32217315 -0.025492011 1.4428662 2894892
-0.27472943 -0.024709305 1.427861 2894892
-0.22492091 -0.025300968 1.4120765 2894892
-0.19337906 -0.023649834 1.4021291 2894892
-0.32032856 0.024664281 1.4435439 2894892
-0.27476332 0.024870727 1.4291202 2894892
-0.22482212 0.0251092 1.4133123 2894892
-0.19150017 0.025994584 1.4027829 2894892
-1.1176256 0.080714315 1.4270513 10197915
-1.0749993 0.080784753 1.4234743 10197915
-1.0249213 0.080775395 1.4231472 10197915
-0.97505164 0.080766194 1.4228181 10197915
-0.92519808 0.080751374 1.4227244 10197915
-0.87516522 0.08073663 1.422626 7237230
-0.82514489 0.080727287 1.4223001 2894892
-0.77513772 0.080715232 1.4220873 2894892
-0.72495204 0.080703147 1.421875 2894892
-0.67497522 0.080688402 1.4217776 2894892
-0.62501532 0.080679111 1.4214514 2894892
-0.57487434 0.080667011 1.4212379 2894892
-0.52494234 0.080655009 1.4210262 2894892
-0.47483143 0.080642939 1.4208136 2894892
-0.42473242 0.080630869 1.4206011 2894892
-0.37465164 0.080618799 1.4203885 2894892
-0.3197214 0.067332342 1.440551 2894892
-0.27497572 0.066367812 1.4288512 2894892
-0.22516395 0.066162542 1.4140667 2894892
-0.18999119 0.066046491 1.4033037 2894892
-0.45326978 -0.6534375 1.4685795 2894892
-0.43409684 -0.65217513 1.46254 2894892
-0.4535346 -0.62493175 1.4693803 2894892
-0.42474553 -0.62494081 1.460264 2894892
-0.39585477 -0.62235272 1.4511818 2894892
-0.45322347 -0.57482815 1.4705427 2894892
-0.42490786 -0.57511628 1.461569 2894892
-0.39407933 -0.57341921 1.4518498 2894892
-0.45300978 -0.52508783 1.4717262 2894892
-0.42482787 -0.52499104 1.4628049 2894892
-0.39224631 -0.52395356 1.4525136 2894892
-0.45347187 -0.4750503 1.4731307 2894892
-0.4249368 -0.47481558 1.4641018 2894892
-0.39017126 -0.47446257 1.4531021 2894892
-0.45319057 -0.42481324 1.4743065 2894892
-0.42489594 -0.42505971 1.4653417 2894892
-0.38804895 -0.42416891 1.4536949 2894892
-0.45294452 -0.37483272 1.4754863 2894892
-0.42468235 -0.37499678 1.4665323 2894892
-0.3861773 -0.37435967 1.4543563 2894892
-0.453385 -0.32489076 1.4768828 2894892
-0.42511609 -0.32499024 1.4679281 2894892
-0.38440815 -0.32442644 1.4550519 2894892
-0.45313373 -0.27493769 1.4780591 2894892
-0.42485195 -0.27493894 1.4691026 2829099
-0.38198236 -0.27456978 1.4555379 2894892
-0.45294034 -0.22445858 1.4792678 2894892
-0.42464781 -0.22504762 1.4702939 2894892
-0.38010389 -0.22453508 1.456202 2894892
-0.4532519 -0.17526607 1.4806039 2894892
-0.42492196 -0.17499247 1.4716396 2894892
-0.37828907 -0.17459396 1.4568837 2894892
-0.45305791 -0.12461753 1.4818169 2894892
-0.42501968 -0.12484962 1.4729327 2894892
-0.37620804 -0.12483537 1.4574763 2894892
-0.45298386 -0.073857978 1.4830705 2894892
-0.42463461 -0.075224429 1.4740596 2894892
-0.37467012 -0.074865624 1.4582472 2894892
-0.34869677 -0.062488277 1.4503336 2894892
-0.4531363 -0.025857983 1.4843267 2894892
-0.42484939 -0.025056772 1.4753883 2894892
-0.37485957 -0.024901088 1.4595635 2894892
-0.34721506 -0.02193936 1.4508848 2894892
-0.45297131 0.025237409 1.4855598 2894892
-0.42524919 0.025088182 1.4767766 2894892
-0.37528473 0.024835505 1.4609499 2894892
-0.34542722 0.02719768 1.4515543 2894892
-1.1622508 0.079563089 1.476142 10197915
-1.1250285 0.079722002 1.46892 10197915
-1.0749673 0.079710171 1.468698 10197915
-1.0251224 0.079695284 1.4686078 10197915
-0.97508973 0.079689421 1.4681355 10197915
-0.92440969 0.079500601 1.4753538 9211020
-0.87500054 0.079479098 1.4755479 3355443
-0.82505488 0.079462722 1.4755192 2894892
-0.7749657 0.079454221 1.4751565 2894892
-0.72504896 0.079440147 1.4750307 2894892
-0.67499077 0.079427034 1.4748622 2894892
-0.62479669 0.079415232 1.4746375 2894892
-0.57492268 0.079407938 1.4742268 2894892
-0.52506447 0.079391576 1.4741985 2894892
-0.46745384 0.07399381 1.4779006 2894892
-0.42499536 0.066182137 1.476061 2894892
-0.3749128 0.065490834 1.4613181 2894892
-0.34378514 0.065848827 1.4519174 2894892
-1.2084941 0.078301899 1.5298839 10197915
-1.1742423 0.078567877 1.5181986 10197915
-1.1251677 0.078570336 1.5173892 10197915
-1.0749311 0.078561895 1.5170219 10197915
-1.0249188 0.078553498 1.5166572 10197915
-0.97492009 0.078538492 1.5165697 10197915
-0.92614537 0.078357711 1.5234758 5592405
-0.87505728 0.078312375 1.5246495 2894892
-0.82427031 0.078118101 1.5320957 2894892
-0.77499235 0.07809227 1.5324743 2894892
-0.72493875 0.078077219 1.5323876 2894892
-0.67490345 0.078068949 1.5320165 2894892
-0.62509108 0.078060858 1.5316421 2894892
-0.57508093 0.078045703 1.5315602 2894892
-0.52487731 0.078034006 1.5313307 2894892
-0.48434368 0.078065984 1.5294019 2894892
-1.2561777 0.076949097 1.5875056 10197915
-1.2224069 0.077320412 1.5713919 10197915
-1.1751093 0.077358738 1.5690987 10197915
-1.1253182 0.077347167 1.5688705 10197915
-1.0751114 0.077335596 1.5686355 10197915
-1.0251327 0.07732407 1.5684015 10197915
-0.97495568 0.077312499 1.5681671 8750469
-0.92500925 0.077297322 1.5680877 2894892
-0.87507576 0.077289455 1.5677003 2894892
-0.82599747 0.077095643 1.5751517 2894892
-0.77510667 0.07705237 1.5762409 2894892
-0.7250461 0.07704363 1.5758891 2894892
-0.67499709 0.077029362 1.5757701 2894892
-0.62496495 0.07702063 1.5754182 2894892
-0.574947 0.077006355 1.5752995 2894892
-0.52494377 0.07699763 1.5749476 2894892
-0.49106804 0.0770199 1.5735233 2894892
-1.3038563 0.075615488 1.6443162 6579300
-1.2711034 0.07598602 1.6282501 7303023
-1.2252055 0.0760528 1.6247799 10066329
-1.1749935 0.076041445 1.6245348 10197915
-1.1248069 0.076038204 1.6239498 9868950
-1.0748513 0.076018728 1.6240519 8947848
-1.0249162 0.076015562 1.6234671 8487297
-0.97499311 0.075996086 1.6235683 4079166
-0.92486209 0.075988762 1.6231564 2894892
-0.8749674 0.075977549 1.6229103 2894892
-0.82509214 0.075966142 1.6226732 2894892
-0.77477783 0.075954758 1.6224295 2894892
-0.72493178 0.075943559 1.6221837 2894892
-0.67509705 0.075932153 1.6219469 2894892
-0.62505513 0.075916782 1.6218743 2894892
-0.57502776 0.075913556 1.6212903 2894892
-0.52544701 0.075902537 1.6210409 2894892
-0.49641344 0.076238804 1.6064708 2894892
-1.3171579 0.074849285 1.6767507 6513507
-1.2753856 0.074898764 1.6740674 6513507
-1.2252673 0.074887604 1.6738172 8947848
-1.1748207 0.074879639 1.6734273 10066329
-1.1247311 0.074868545 1.6731734 5329233
-1.0750105 0.074854061 1.6730675 2894892
-1.0249521 0.0748429 1.6728184 2894892
-0.97490859 0.074831732 1.6725688 2894892
-0.92523354 0.074824028 1.6721786 2894892
-0.87521857 0.074812762 1.6719331 2894892
-0.82487607 0.074798264 1.6718202 2894892
-0.77489215 0.07478711 1.6715714 2894892
-0.72492361 0.074775971 1.6713222 2894892
-0.67497569 0.074771501 1.6707925 2894892
-0.62503856 0.074753702 1.6708242 2894892
-0.57511425 0.074742541 1.6705756 2894892
-0.53097147 0.074754521 1.6694369 2894892
-1.3659478 0.073435292 1.7369599 6513507
-1.3251234 0.073671572 1.7264297 6513507
-1.2751049 0.073655643 1.7263805 6513507
-1.2250984 0.073649608 1.7259158 7303023
-1.1748719 0.073638447 1.7256622 7303023
-1.124656 0.073627599 1.7253993 2894892
-1.0749357 0.073611692 1.7253528 2894892
-1.0249931 0.0736105 1.7246846 2894892
-0.9750632 0.073594756 1.7246296 2894892
-0.92514837 0.073578864 1.7245806 2894892
-0.87500644 0.073577583 1.7239136 2894892
-0.82488722 0.073556863 1.7240647 2894892
-0.77501363 0.07355085 1.7236016 2894892
-0.72492176 0.073539734 1.7233493 2894892
-0.67484051 0.073528856 1.7230862 2894892
-0.62501562 0.073513001 1.7230375 2894892
-0.57496679 0.073511757 1.7223701 2894892
-0.53833187 0.07359381 1.7183897 2894892
-1.4113327 0.072231084 1.7882925 6513507
-1.3748654 0.072359547 1.7823617 6513507
-1.3248272 0.072352841 1.7819254 6513507
-1.2748044 0.072338 1.7818303 6513507
-1.2247943 0.072331265 1.7813944 5987163
-1.1748034 0.072316438 1.7812999 2960685
-1.1248215 0.072309725 1.7808638 2894892
-1.0748619 0.072294891 1.7807697 2894892
-1.0249085 0.072288193 1.780333 2894892
-0.97497976 0.072273359 1.7802395 2894892
-0.92468876 0.07226254 1.779972 2894892
-0.87478364 0.07225585 1.7795366 2894892
-0.82489604 0.072241031 1.7794417 2894892
-0.77501923 0.072234325 1.7790067 2894892
-0.72516286 0.072219521 1.7789131 2894892
-0.67494684 0.072208703 1.7786465 2894892
-0.62511778 0.072202012 1.7782105 2894892
-0.57530278 0.072187245 1.778118 2894892
-0.54643953 0.072375238 1.7697891 2894892
-1.4575655 0.070970461 1.8420112 6513507
-1.4239515 0.071236938 1.830314 6513507
-1.3752054 0.071244702 1.8292867 6513507
-1.3249823 0.071233906 1.8290184 6513507
-1.2747742 0.071223401 1.8287394 6513507
-1.224973 0.071208395 1.8286538 3750201
-1.174796 0.071197748 1.8283807 2894892
-1.1246346 0.071187109 1.8281075 2894892
-1.0748717 0.071180977 1.8276502 2894892
-1.0251211 0.071166001 1.8275648 2894892
-0.97500402 0.071155362 1.8272918 2894892
-0.92528915 0.071149237 1.8268352 2894892
-0.87520063 0.071138486 1.8265676 2894892
-0.8247534 0.071123473 1.8264736 2894892
-0.77469635 0.071112871 1.8262007 2894892
-0.72503793 0.071106739 1.8257443 2894892
-0.67539018 0.071091779 1.825659 2894892
-0.62500185 0.071085371 1.8252046 2894892
-0.57938033 0.071098447 1.8239987 2894892
-1.4765544 -0.61505586 1.88192 11711154
-1.4768757 -0.57521784 1.8818042 11711154
-1.4772644 -0.52498806 1.8817115 11711154
-1.4775268 -0.47499096 1.8820132 9803157
-1.4777826 -0.42500737 1.8823379 6513507
-1.4780374 -0.375007 1.8826624 6513507
-1.4785147 -0.32504949 1.8822858 6513507
-1.4787656 -0.27502626 1.8826245 6513507
-1.479028 -0.22498651 1.8829299 6513507
-1.4792794 -0.17502649 1.8832655 6513507
-1.4796783 -0.12532544 1.8831283 6513507
-1.4800187 -0.075000577 1.8831898 6513507
-1.4802563 -0.024970209 1.8835717 6513507
-1.4805114 0.024975955 1.883896 6513507
-1.4789566 0.061156746 1.8831661 6513507
-1.4248111 0.070070475 1.8794162 6513507
-1.3747743 0.070060037 1.8791361 6513507
-1.3247528 0.070049606 1.8788562 6513507
-1.2751441 0.070044048 1.8783759 4934475
-1.2251505 0.070033476 1.8781022 2894892
-1.1747882 0.070018299 1.8780166 2894892
-1.1248257 0.07000789 1.877737 2894892
-1.0748787 0.069997467 1.8774576 2894892
-1.024953 0.069996506 1.8767804 2894892
-0.97503984 0.069976635 1.8768988 2894892
-0.92513686 0.069966219 1.8766196 2894892
-0.87524927 0.069955803 1.8763399 2894892
-0.82499301 0.069949962 1.875863 2894892
-0.77474469 0.069934838 1.8757777 2894892
-0.72490168 0.069924437 1.8754987 2894892
-0.67508125 0.06992349 1.8748221 2894892
-0.62527066 0.069903634 1.874941 2894892
-0.58723354 0.069941506 1.8728008 2894892
-1.4630293 -0.61563253 1.9247642 11711154
-1.4633915 -0.57481539 1.9245431 11711154
-1.4637805 -0.5250001 1.9244404 11711154
-1.4640381 -0.47504196 1.9247584 10132122
-1.4643116 -0.42510483 1.925023 6513507
-1.464781 -0.37498245 1.9246703 6513507
-1.4652551 -0.32497755 1.9243042 6513507
-1.4655142 -0.27501228 1.9246175 6513507
-1.4657739 -0.22500613 1.9249284 6513507
-1.4661562 -0.17515732 1.9248466 6513507
-1.4666554 -0.1247621 1.9244084 6513507
-1.4669712 -0.07494323 1.9245367 6513507
-1.4672694 -0.024979632 1.9247247 6513507
-1.4675341 0.024917591 1.9250176 6513507
-1.467505 0.059921339 1.9246731 6513507
-1.4253541 0.068824381 1.9318649 6513507
-1.3751233 0.068819173 1.931362 6513507
-1.3249197 0.068803795 1.9312871 5921370
-1.2751235 0.068793602 1.9310006 2894892
-1.224942 0.068788387 1.930498 2894892
-1.1747794 0.068773031 1.9304233 2894892
-1.1250281 0.068762831 1.9301373 2894892
-1.0748948 0.068757638 1.9296348 2894892
-1.0247732 0.068742283 1.9295603 2894892
-0.97506636 0.068732098 1.9292744 2894892
-0.92498171 0.068726912 1.9287724 2894892
-0.87490118 0.068711579 1.9286987 2894892
-0.82484502 0.068706416 1.9281976 2894892
-0.77479595 0.068691082 1.928123 2894892
-0.72476786 0.068685904 1.9276217 2894892
-0.67475045 0.068670586 1.9275476 2894892
-0.62475055 0.068665393 1.9270465 2894892
-0.59418941 0.068799257 1.9209737 2894892
-1.452612 -0.61582512 1.9577723 11711154
-1.4446733 -0.61650056 1.9829115 11711154
-1.452787 -0.57466686 1.9581512 11711154
-1.4449478 -0.57516587 1.9829803 11711154
-1.4528414 -0.52499598 1.9591063 11711154
-1.4449961 -0.52497768 1.9839649 11711154
-1.4530461 -0.47468713 1.9595991 10329501
-1.4451847 -0.47517282 1.9844999 10658466
-1.4531181 -0.42476344 1.9605007 6513507
-1.4452363 -0.42504564 1.9854709 6513507
-1.4535369 -0.37468341 1.9603107 6513507
-1.4456306 -0.37553051 1.9853421 6513507
-1.4536042 -0.32500729 1.9612238 6513507
-1.4457377 -0.32502213 1.9861524 6513507
-1.453775 -0.27469367 1.961828 6513507
-1.4459157 -0.27525926 1.9867141 6513507
-1.4538542 -0.22502953 1.9627006 6513507
-1.445987 -0.22500868 1.9876312 6513507
-1.4541873 -0.17440332 1.9627901 6513507
-1.4462103 -0.17560315 1.9880427 6513507
-1.454342 -0.12503646 1.9634216 6513507
-1.4464653 -0.12508951 1.9883785 6513507
-1.4545436 -0.07487385 1.9639183 6513507
-1.4466612 -0.075232863 1.9888898 6513507
-1.4546121 -0.025191601 1.9648261 6513507
-1.4467297 -0.02473004 1.9898176 6513507
-1.4548014 0.02553891 1.9653782 6513507
-1.4468958 0.024306832 1.9904045 6513507
-1.4550539 0.059208244 1.9653232 6513507
-1.4426852 0.060333632 1.9877317 6513507
-1.374687 0.067835294 1.9727644 6513507
-1.3246347 0.067825183 1.9724699 3881787
-1.2745973 0.067815065 1.9721762 2894892
-1.2253947 0.067805126 1.9718872 2894892
-1.172084 0.067684546 1.9761957 2894892
-1.1252422 0.067446329 1.9855462 2894892
-1.0753201 0.067441843 1.985018 2894892
-1.0249944 0.067431733 1.98472 2894892
-0.97510642 0.067416139 1.984658 2894892
-0.9252196 0.067411654 1.9841294 2894892
-0.87495035 0.067390464 1.9842988 2894892
-0.82468843 0.067391463 1.9835343 2894892
-0.77484983 0.067375898 1.9834729 2894892
-0.72503275 0.067371421 1.9829448 2894892
-0.67522568 0.067355856 1.9828833 2894892
-0.62891662 0.067385554 1.9809678 2894892
-1.4314747 -0.61668772 2.0247312 11711154
-1.4317954 -0.57499838 2.0246627 11711154
-1.4321159 -0.52512807 2.0247762 11711154
-1.4325523 -0.47500205 2.0245311 10921638
-1.4328101 -0.4250029 2.0248487 6513507
-1.4332509 -0.37486169 2.0245855 6513507
-1.4335663 -0.32503191 2.024719 6513507
-1.4339182 -0.27525309 2.0247343 6513507
-1.434312 -0.22498788 2.0246282 6513507
-1.4346137 -0.17485934 2.0248067 6513507
-1.4350652 -0.12497077 2.024507 6513507
-1.4353206 -0.075064853 2.0248275 6513507
-1.4357308 -0.025258724 2.0246596 6513507
-1.4360594 0.025083508 2.0247614 6513507
-1.4340359 0.059517864 2.0232294 6513507
-1.3746463 0.066808917 2.0159585 5395026
-1.3247583 0.066804901 2.0154102 2894892
-1.274886 0.066789061 2.0153596 2894892
-1.2250257 0.06678506 2.0148113 2894892
-1.1774262 0.066730961 2.0164049 2894892
-1.1247802 0.066410743 2.0291255 2894892
-1.0750226 0.066400893 2.0288239 2894892
-1.0252799 0.066391043 2.0285234 2894892
-0.97470945 0.06638103 2.0282173 2894892
-0.92499632 0.06637118 2.0279167 2894892
-0.87529814 0.06636133 2.0276153 2894892
-0.82477278 0.066351317 2.0273099 2894892
-0.77510428 0.06634149 2.0270092 2894892
-0.72545081 0.066331662 2.0267091 2894892
-0.67497075 0.066321664 2.0264037 2894892
-0.63543797 0.06631384 2.0261645 2894892
-1.415645 -0.61739564 2.0748782 11711154
-1.4158759 -0.5750044 2.0751088 11711154
-1.4162284 -0.52489114 2.0751288 9474192
-1.4169116 -0.47499245 2.0740991 9211020
-1.4171727 -0.42499173 2.0744047 5592405
-1.4174025 -0.37500346 2.0748062 5592405
-1.4176648 -0.32496777 2.0751088 5592405
-1.4180709 -0.27487275 2.0749574 5658198
-1.418676 -0.22498447 2.0741737 5723991
-1.4189425 -0.17496924 2.074466 5723991
-1.4191835 -0.12502433 2.0748334 5723991
-1.4194487 -0.074975684 2.0751255 5723991
-1.419925 -0.024952641 2.0747523 5789784
-1.420422 0.024922149 2.0743084 5855577
-1.4200581 0.058281247 2.0736132 5855577
-1.3754529 0.06537208 2.0764387 3026478
-1.3249317 0.065368503 2.0758624 2894892
-1.2744275 0.06535241 2.075814 2894892
-1.2247977 0.065349229 2.0752342 2894892
-1.1751879 0.065333083 2.0752003 2894892
-1.1251557 0.065323345 2.0748911 2894892
-1.0747126 0.065319791 2.0743153 2894892
-1.0247083 0.06531027 2.0739968 2894892
-0.97516161 0.065294154 2.0739634 2894892
-0.92518991 0.065284438 2.0736551 2894892
-0.87523204 0.065274715 2.0733466 2894892
-0.82486629 0.065271176 2.0727713 2894892
-0.77450699 0.065255098 2.0727236 2894892
-0.72503 0.065251961 2.0721447 2894892
-0.67513037 0.065242015 2.0718455 2894892
-0.64168376 0.065337829 2.0673325 2894892
-1.4037663 -0.61774725 2.1125121 11711154
-1.3957832 -0.6181863 2.1378005 11711154
-1.4039804 -0.57494783 2.1128037 11316396
-1.3961841 -0.57547218 2.1374993 10263708
-1.4041409 -0.52445096 2.1134422 2894892
-1.3964217 -0.52552813 2.1378784 2894892
-1.4044697 -0.47496 2.1135201 2894892
-1.3964782 -0.47501898 2.1388428 2894892
-1.4047073 -0.42496046 2.1139033 2894892
-1.3967203 -0.42510143 2.1392083 2894892
-1.4046745 -0.37504631 2.1151376 2894892
-1.3966721 -0.37502584 2.1404977 2894892
-1.4049165 -0.32505184 2.1155071 2894892
-1.3971016 -0.32559517 2.1402528 2894892
-1.4050351 -0.27449855 2.116276 2894892
-1.3972666 -0.27571207 2.1408658 2894892
-1.4053839 -0.22504263 2.1162934 2894892
-1.3973886 -0.22506191 2.1416285 2894892
-1.4055687 -0.17475179 2.1168478 2894892
-1.3975514 -0.17568491 2.1422315 2894892
-1.4056371 -0.12502907 2.1177583 2894892
-1.3976102 -0.12475648 2.1431978 2894892
-1.4057819 -0.074984372 2.1184351 2894892
-1.398017 -0.075320214 2.1430318 2894892
-1.4059724 -0.024587825 2.1189752 2894892
-1.3981073 -0.025256863 2.1438825 2894892
-1.4063661 0.024984144 2.1188505 2894892
-1.3983138 0.024875488 2.1443658 2894892
-1.4063824 0.057260577 2.1193767 2894892
-1.3896544 0.059580553 2.137049 2894892
-1.3250704 0.064229809 2.1237891 2894892
-1.2747271 0.064220175 2.1234705 2894892
-1.2243992 0.064210549 2.1231523 2894892
-1.1749686 0.064201102 2.1228395 2894892
-1.1255528 0.064191639 2.1225271 2894892
-1.0752695 0.064182021 2.1222086 2894892
-1.0250008 0.064172409 2.1218908 2894892
-0.97474742 0.064162776 2.1215723 2894892
-0.92450905 0.064153142 2.1212542 2894892
-0.87516671 0.064143695 2.1209416 2894892
-0.82495832 0.064134091 2.1206241 2894892
-0.77476501 0.064124487 2.1203065 2894892
-0.72546691 0.064115055 2.1199946 2894892
-0.67530334 0.064105459 2.1196778 2894892
-1.3840022 -0.61858571 2.1751232 11711154
-1.3844585 -0.57479811 2.1746697 8355711
-1.3847911 -0.52499753 2.1747391 2894892
-1.3851796 -0.47518644 2.1746452 2894892
-1.3855823 -0.4249768 2.1745036 2894892
-1.3857951 -0.37497315 2.174968 2894892
-1.3862528 -0.32476085 2.1746545 2894892
-1.3865818 -0.27499387 2.1747432 2894892
-1.3869396 -0.22519454 2.1747348 2894892
-1.3873595 -0.17497823 2.1745429 2894892
-1.3875943 -0.12500192 2.174933 2894892
-1.3880582 -0.074930042 2.1745987 2894892
-1.3883752 -0.025128303 2.1747255 2894892
-1.3886989 0.024953762 2.1748343 2894892
-1.3855776 0.057910223 2.1733761 2894892
-1.3247656 0.06303779 2.1739485 2894892
-1.2750413 0.063028462 2.1736267 2894892
-1.225332 0.063019119 2.1733046 2894892
-1.1751932 0.063017085 2.1726699 2894892
-1.1250612 0.063000284 2.1726556 2894892
-1.0749503 0.062998243 2.1720204 2894892
-1.0248505 0.062981479 2.1720064 2894892
-0.97476763 0.062979452 2.1713727 2894892
-0.92470014 0.062962703 2.1713588 2894892
-0.87464464 0.062960669 2.1707249 2894892
-0.8246088 0.062943898 2.170711 2894892
-0.77458119 0.062941864 2.1700768 2894892
-0.72457749 0.062925123 2.1700628 2894892
-0.68183678 0.062981009 2.1670961 2894892
-1.3684113 -0.61919129 2.2245131 8684676
-1.3686696 -0.57496965 2.224699 5197647
-1.3689109 -0.52495921 2.2250688 2894892
-1.3693057 -0.47472644 2.2249565 2894892
-1.369769 -0.42512733 2.2246122 2894892
-1.370232 -0.37500519 2.2242868 2894892
-1.3704861 -0.3249692 2.2246106 2894892
-1.3707055 -0.27495345 2.2250493 2894892
-1.3710759 -0.22476311 2.2250125 2894892
-1.3715212 -0.17501794 2.2247331 2894892
-1.3720328 -0.12505917 2.2242448 2894892
-1.372315 -0.074909933 2.2244873 2894892
-1.3724943 -0.024888232 2.225055 2894892
-1.3728254 0.025093449 2.2251387 2894892
-1.3727021 0.056199484 2.2238986 2894892
-1.3253653 0.061795015 2.2262616 2894892
-1.2753705 0.061785813 2.2259302 2894892
-1.2253904 0.061776608 2.2255988 2894892
-1.1754253 0.061767414 2.2252676 2894892
-1.125475 0.061758224 2.2249365 2894892
-1.0755397 0.061749026 2.2246051 2894892
-1.025619 0.061739836 2.2242742 2894892
-0.97571307 0.061730631 2.223942 2894892
-0.92582214 0.061721437 2.2236111 2894892
-0.87502277 0.06171209 2.223274 2894892
-0.8242386 0.061702736 2.2229376 2894892
-0.77439296 0.061693557 2.2226071 2894892
-0.72456205 0.061684392 2.2222764 2894892
-0.69042659 0.0616781 2.22205 2894892
-1.3553997 -0.61962658 2.2657371 2894892
-1.3474709 -0.62030333 2.2908456 2894892
-1.3553683 -0.57476759 2.2668524 2894892
-1.347515 -0.57562405 2.2917197 2894892
-1.3555237 -0.52505934 2.2674873 2894892
-1.3476465 -0.5249238 2.2924514 2894892
-1.355774 -0.47502291 2.2678304 2894892
-1.3478864 -0.47494224 2.2928252 2894892
-1.3557537 -0.42469203 2.2690334 2894892
-1.3478162 -0.42516908 2.2941771 2894892
-1.3562404 -0.3750571 2.2686138 2894892
-1.3481354 -0.37581673 2.2942855 2894892
-1.3564245 -0.3249698 2.2691703 2894892
-1.3485525 -0.32555819 2.2941036 2894892
-1.356379 -0.27503756 2.2704456 2894892
-1.3484778 -0.27506667 2.2954845 2894892
-1.3566116 -0.22503451 2.270843 2894892
-1.3487309 -0.22471082 2.2958257 2894892
-1.3567629 -0.17473266 2.2715082 2894892
-1.3488748 -0.17635922 2.2964647 2894892
-1.357087 -0.1249525 2.2716074 2894892
-1.3488505 -0.12565094 2.2976923 2894892
-1.3572561 -0.075042434 2.2722042 2894892
-1.3494182 -0.075178422 2.2970371 2894892
-1.3574506 -0.02476876 2.2727304 2894892
-1.349546 -0.028577534 2.2976902 2894892
-1.3574996 0.025030579 2.2737007 2894892
-1.3495508 0.024763105 2.2988839 2894892
-1.3574176 0.055657387 2.2738779 2894892
-1.3291038 0.059896503 2.2692783 2894892
-1.2722586 0.060532302 2.2786391 2894892
-1.2249727 0.06047396 2.2804151 2894892
-1.1751984 0.06045657 2.2804315 2894892
-1.1254301 0.060456011 2.2797387 2894892
-1.0752081 0.060430139 2.2801063 2894892
-1.0250096 0.060437918 2.2790561 2894892
-0.97481179 0.060428873 2.2787151 2894892
-0.92510867 0.060411509 2.2787316 2894892
-0.87541753 0.060410962 2.2780397 2894892
-0.82480025 0.060393434 2.2780499 2894892
-0.77466458 0.060384393 2.2777095 2894892
-0.72592717 0.060401846 2.2762742 2894892
-0.69611073 0.060816124 2.2584109 2894892
-1.3366914 -0.62030894 2.3250062 2894892
-1.3373427 -0.57500237 2.3239682 2894892
-1.3375586 -0.52502728 2.3244157 2894892
-1.3377982 -0.47503424 2.3247914 2894892
-1.3380207 -0.42502496 2.3252189 2894892
-1.3384002 -0.37472388 2.3251603 2894892
-1.3390312 -0.32520503 2.324285 2894892
-1.3394022 -0.2750138 2.3242464 2894892
-1.3396289 -0.22506522 2.3246598 2894892
-1.339859 -0.17501485 2.3250659 2894892
-1.3401465 -0.12490723 2.3252919 2894892
-1.3407229 -0.075137816 2.324589 2894892
-1.341213 -0.02503415 2.3241782 2894892
-1.341444 0.025039906 2.3245788 2894892
-1.336152 0.056137282 2.3218153 2894892
-1.2786506 0.059278235 2.3315091 2894892
-1.2245377 0.059095528 2.3384197 2894892
-1.1749563 0.059086811 2.3380744 2894892
-1.1253896 0.059078079 2.3377287 2894892
-1.0748661 0.059069179 2.3373766 2894892
-1.0243571 0.059060257 2.3370235 2894892
-0.97483492 0.059051532 2.3366785 2894892
-0.92532742 0.059042808 2.3363333 2894892
-0.87486404 0.05903393 2.3359818 2894892
-0.8244161 0.059025045 2.3356302 2894892
-0.77495277 0.059016332 2.3352857 2894892
-0.7332595 0.059008989 2.334995 2894892
-1.3207295 -0.62096018 2.3755698 2894892
-1.3213654 -0.57517433 2.3745925 2894892
-1.3218986 -0.52499068 2.3740404 2894892
-1.3221048 -0.4750461 2.3745217 2894892
-1.322343 -0.42503941 2.3748996 2829099
-1.322579 -0.3750149 2.3752861 2894892
-1.3230268 -0.32470953 2.3750095 2894892
-1.3236197 -0.27522618 2.3742502 2894892
-1.3239766 -0.22502758 2.374258 2894892
-1.3241925 -0.17507158 2.3747094 2894892
-1.3244277 -0.12500876 2.3751004 2894892
-1.3246763 -0.074737646 2.3754501 2894892
-1.3253117 -0.025021596 2.3745644 2894892
-1.3258696 0.024952244 2.3739336 2894892
-1.3242342 0.054557253 2.374933 2894892
-1.274352 0.058149062 2.3789661 2894892
-1.2248926 0.058140494 2.3786161 2894892
-1.1754478 0.058131922 2.3782651 2894892
-1.1250292 0.05812319 2.3779075 2894892
-1.0746257 0.058114465 2.3775511 2894892
-1.0252256 0.058105934 2.377202 2894892
-0.9748522 0.058097217 2.3768451 2894892
-0.92449355 0.058088485 2.3764877 2894892
-0.87513715 0.058079928 2.3761382 2894892
-0.82480878 0.058071218 2.3757818 2894892
-0.7744953 0.058062498 2.3754249 2894892
-0.73898852 0.058056351 2.3751733 2894892
-1.3065656 -0.62152493 2.4204419 2894892
-1.298725 -0.62201011 2.4452744 2894892
-1.3065416 -0.57458591 2.421581 2894892
-1.2986386 -0.57642138 2.4465833 2894892
-1.3070241 -0.52497953 2.4211776 2894892
-1.2987823 -0.52518976 2.4472897 2894892
-1.3072346 -0.47496024 2.4216454 2894892
-1.2992538 -0.47727972 2.4468811 2894892
-1.3073035 -0.42469719 2.4225628 2894892
-1.2994868 -0.42880911 2.447243 2894892
-1.3073139 -0.37507609 2.4236579 2894892
-1.2994598 -0.37431678 2.4485633 2894892
-1.3075409 -0.32507759 2.4240744 2894892
-1.2996829 -0.32466635 2.4489834 2894892
-1.30799 -0.27461007 2.4237931 2894892
-1.2998967 -0.27702653 2.4493861 2894892
-1.3080472 -0.22506611 2.4247346 2894892
-1.3085858 -0.1749382 2.4241672 2894892
-1.3088099 -0.12493518 2.4245911 2894892
-1.3090761 -0.075110517 2.4248784 2894892
-1.3092744 -0.025032653 2.4253845 2894892
-1.3098392 0.025114179 2.4247324 2894892
-1.3101926 0.053942647 2.4229691 2894892
-1.2745798 0.057160508 2.4205768 2894892
-1.2242553 0.057151943 2.4202135 2894892
-1.1749518 0.057143539 2.419858 2894892
-1.1256633 0.05713515 2.4195025 2894892
-1.0753832 0.057126559 2.4191396 2894892
-1.0251182 0.057117991 2.418776 2894892
-0.97486871 0.057109438 2.4184136 2894892
-0.92463416 0.057100877 2.4180515 2894892
-0.87441462 0.057092324 2.4176893 2894892
-0.82421023 0.057083778 2.4173272 2894892
-0.77502447 0.057075407 2.4169724 2894892
-0.74592066 0.057070442 2.4167626 2894892
-1.2895161 -0.62212443 2.4744539 2894892
-1.2897742 -0.57496029 2.4747062 2894892
-1.2899747 -0.52496785 2.4752069 2894892
-1.2905194 -0.47474363 2.474618 2894892
-1.2908159 -0.42500046 2.4748058 2894892
-1.2912015 -0.37521204 2.4747133 2894892
-1.2916489 -0.32496241 2.4744337 2894892
-1.2918774 -0.27503619 2.4748442 2894892
-1.3002288 -0.20300215 2.4500122 2894892
-1.2921273 -0.22498861 2.4751885 2894892
-1.3003519 -0.17561275 2.4502439 2894892
-1.2923013 -0.17507745 2.4757648 2894892
-1.3005795 -0.12487925 2.4506731 2894892
-1.2925344 -0.12509964 2.47616 2894892
-1.3005015 -0.072224438 2.4521143 2894892
-1.2927221 -0.075408965 2.476692 2894892
-1.3006468 -0.025402529 2.4527154 2894892
-1.2930118 -0.024802741 2.4769225 2894892
-1.3008746 0.025408462 2.453145 2894892
-1.2932334 0.024808403 2.4773459 2894892
-1.3010025 0.053869665 2.4533865 2894892
-1.2873091 0.053750772 2.473387 2894892
-1.2246178 0.056128293 2.4632969 2894892
-1.1754611 0.056120072 2.4629359 2894892
-1.125295 0.056111682 2.4625678 2894892
-1.0751445 0.056103323 2.4622014 2894892
-1.0250082 0.056094941 2.461833 2894892
-0.97488707 0.056086559 2.4614656 2894892
-0.92478079 0.056078177 2.461098 2894892
-0.87468964 0.056069802 2.4607298 2894892
-0.82461327 0.056061424 2.4603622 2894892
-0.77659488 0.056053396 2.4600103 2894892
-1.273725 -0.62271941 2.5244818 2894892
-1.2739899 -0.57496679 2.5247207 2894892
-1.2742072 -0.52500862 2.5251648 2894892
-1.2746862 -0.47530991 2.524776 2894892
-1.275045 -0.42499724 2.524781 2894892
-1.2754542 -0.37470737 2.5246263 2894892
-1.2758749 -0.32498533 2.5244188 2894892
-1.276121 -0.27499092 2.5247722 2894892
-1.2763673 -0.2249798 2.5251265 2894892
-1.2768284 -0.17512688 2.5247965 2894892
-1.2771832 -0.12496927 2.5248089 2894892
-1.2776693 -0.07484483 2.524405 2894892
-1.2779907 -0.025100304 2.5245159 2894892
-1.2782128 0.025106106 2.5249524 2894892
-1.2753804 0.053224966 2.519315 2894892
-1.2249937 0.055067539 2.5079417 2894892
-1.1759887 0.055059496 2.5075755 2894892
-1.1259556 0.055051308 2.5072021 2894892
-1.0759379 0.05504312 2.5068297 2894892
-1.0259346 0.055034921 2.5064561 2894892
-0.97594625 0.055026721 2.5060823 2894892
-0.92597246 0.055018514 2.5057087 2894892
-0.87601393 0.055010319 2.5053353 2894892
-0.82502997 0.055001952 2.5049543 2894892
-0.78342134 0.054995127 2.5046434 2894892
-1.2577235 -0.62340897 2.5751693 2894892
-1.2579737 -0.5750488 2.5754731 2894892
-1.2584419 -0.52532488 2.5751212 2894892
-1.2590888 -0.47467253 2.574219 2894892
-1.2594908 -0.42500398 2.5740726 2894892
-1.2596852 -0.37505746 2.5745871 2894892
-1.2598823 -0.32503867 2.5750976 2894892
-1.260119 -0.27500299 2.5754826 2894892
-1.2605586 -0.22532876 2.5752151 2894892
-1.2612889 -0.17477113 2.5740466 2894892
-1.2616278 -0.12505384 2.5741007 2894892
-1.2617522 -0.07494124 2.5748417 2894892
-1.2620955 -0.024935624 2.5748878 2894892
-1.2623127 0.024941346 2.5753305 2894892
-1.2612573 0.052126985 2.5732708 2894892
-1.2253851 0.053967703 2.5542383 2894892
-1.1754752 0.053959675 2.5538583 2894892
-1.1255797 0.053951636 2.553478 2894892
-1.0746384 0.053943425 2.5530894 2894892
-1.0247736 0.053935412 2.5527096 2894892
-0.97492355 0.053927395 2.5523303 2894892
-0.92174178 0.05346876 2.570869 2894892
-0.87541759 0.053353474 2.5750546 2894892
-0.82461733 0.053333264 2.575175 2894892
-0.79131651 0.05377122 2.5562632 2894892
-1.2419455 -0.62388515 2.6251588 2894892
-1.2421781 -0.57504237 2.6255274 2894892
-1.2506318 -0.51382518 2.6001287 2894892
-1.2423831 -0.52503753 2.6260116 2894892
-1.250661 -0.47173622 2.6009905 2894892
-1.2428201 -0.47555116 2.6257491 2894892
-1.2505777 -0.42529979 2.6023068 2894892
-1.2428279 -0.42497528 2.6268716 2894892
-1.2508146 -0.37470895 2.6027038 2894892
-1.2430229 -0.37504694 2.6273885 2894892
-1.251022 -0.32461798 2.603183 2894892
-1.2432617 -0.32510132 2.6277633 2894892
-1.2510966 -0.27298799 2.6041169 2894892
-1.2433528 -0.27529711 2.6286037 2894892
-1.2512827 -0.22377017 2.6046443 2894892
-1.2432523 -0.22482269 2.6300657 2894892
-1.2516477 -0.17533265 2.6045856 2894892
-1.2437024 -0.17531998 2.6297629 2894892
-1.2519029 -0.12465654 2.6049259 2894892
-1.2441288 -0.12512846 2.6295476 2894892
-1.251955 -0.073267601 2.6059256 2894892
-1.2441838 -0.075579233 2.630501 2894892
-1.2518873 -0.0248427 2.6072402 2894892
-1.2440915 -0.02507801 2.6319368 2894892
-1.2521018 0.024848375 2.6076863 2894892
-1.244307 0.025083806 2.6323929 2894892
-1.2523935 0.051366057 2.6063664 2894892
-1.2325168 0.052261263 2.613235 2894892
-1.1749411 0.052818436 2.6018782 2894892
-1.1241088 0.05281046 2.601486 2894892
-1.0743725 0.05280263 2.6011002 2894892
-1.0246507 0.05279481 2.6007142 2894892
-0.97318375 0.052691966 2.6043017 2894892
-0.92955768 0.051901359 2.6369462 2894892
-0.87479067 0.051587369 2.6493728 2894892
-0.83077705 0.051580589 2.649025 2894892
-0.86049283 -0.67580193 2.6968052 2894892
-0.84055173 -0.67490852 2.6905301 2894892
-1.2264142 -0.62453359 2.6743584 2894892
-0.8589192 -0.62604153 2.6974957 2894892
-0.8407442 -0.62506419 2.6917803 2894892
-1.2266717 -0.57490581 2.6746683 2894892
-0.85650724 -0.57517427 2.6979485 2894892
-0.84096849 -0.57577795 2.6930282 2894892
-1.2268785 -0.52500057 2.6751435 2894892
-0.8543486 -0.5273006 2.6984098 2894892
-0.83919334 -0.52480078 2.6936839 2894892
-1.2273923 -0.47472376 2.6746566 2894892
-0.85265779 -0.47782397 2.6990569 2894892
-0.83972806 -0.47506574 2.6950397 2894892
-1.2277459 -0.42500904 2.6746662 2894892
-0.8511079 -0.4350597 2.6995885 2894892
-0.83992028 -0.42504489 2.6962953 2894892
-1.2279732 -0.37496299 2.6750793 2894892
-0.83935016 -0.37642169 2.6972749 2894892
-1.2285042 -0.3252317 2.6745231 2894892
-0.83757001 -0.32640699 2.6979077 2894892
-1.2288252 -0.2750591 2.6746442 2894892
-0.83501196 -0.27505922 2.6983254 2894892
-1.2290559 -0.22510417 2.6750469 2894892
-0.83304828 -0.22770676 2.6988351 2894892
-1.229521 -0.17469321 2.6747167 2894892
-0.83150864 -0.17949747 2.6995003 2894892
-1.22996 -0.12490028 2.6744535 2894892
-1.2300438 -0.074985594 2.6753211 2894892
-1.2306436 -0.025423113 2.6745436 2894892
-1.2310667 0.025101442 2.6743481 2894892
-1.2212249 0.051270247 2.66171 2894892
-1.1743878 0.051633481 2.6517413 2894892
-1.1247847 0.051625833 2.6513486 2894892
-1.0751969 0.051618207 2.6509569 2894892
-1.0245221 0.051610406 2.6505561 2894892
-0.977166 0.05160312 2.650182 2894892
-0.98023546 -0.70021832 2.7340293 2894892
-0.93062568 -0.70011139 2.7183678 2894892
-1.2074115 -0.65014577 2.733995 2894892
-0.97485155 -0.67497879 2.7329304 2894892
-0.92527765 -0.67488533 2.7172799 2894892
-0.88522601 -0.67441881 2.7046473 2894892
-1.2108037 -0.62501991 2.723815 2894892
-0.97501767 -0.62469339 2.7341843 2894892
-0.92560184 -0.62515926 2.7185733 2894892
-0.88381368 -0.6246286 2.7053893 2894892
-1.2110323 -0.57506907 2.7242231 2894892
-0.97452879 -0.57491171 2.7352176 2894892
-0.92485285 -0.57493359 2.7195301 2894892
-0.88172978 -0.57479703 2.7059214 2894892
-1.2112246 -0.52496946 2.7247503 2894892
-0.97475624 -0.52518511 2.7364776 2894892
-0.92418468 -0.52499253 2.7205117 2894892
-0.8789326 -0.52449828 2.706238 2894892
-1.211429 -0.47498488 2.7252352 2894892
-0.97420788 -0.47501197 2.7375009 2894892
-0.92472929 -0.47495723 2.7218833 2829099
-0.87762582 -0.4746539 2.7070155 2894892
-1.2116603 -0.42504853 2.7256348 2894892
-0.97463149 -0.42502117 2.7388289 2894892
-0.92506611 -0.42504141 2.7231772 2894892
-0.87557369 -0.42473251 2.7075601 2894892
-1.2122087 -0.3752546 2.7250273 2894892
-0.97505653 -0.37492299 2.7401593 2894892
-0.9253791 -0.37502268 2.7244744 2894892
-0.87513036 -0.37508166 2.7086051 2894892
-0.84865957 -0.36603144 2.7004631 2894892
-1.2128794 -0.32472309 2.7240477 2894892
-0.97461647 -0.3246341 2.741219 2894892
-0.92518705 -0.32539669 2.7255943 2894892
-0.87595618 -0.3250781 2.7100606 2894892
-0.84733498 -0.32199562 2.7010958 2894892
-1.2132256 -0.27503791 2.7240784 2894892
-0.97405958 -0.27522653 2.7422233 2894892
-0.92482597 -0.27490073 2.7266855 2894892
-0.8749485 -0.27488512 2.7109389 2894892
-0.84521216 -0.27532685 2.701539 2894892
-1.2134275 -0.22495651 2.7245736 2894892
-0.97226584 -0.22533545 2.7428493 2894892
-0.92446476 -0.22504993 2.7277648 2894892
-0.87395602 -0.22486742 2.7118201 2894892
-0.8427214 -0.22329633 2.7019942 2894892
-1.2136106 -0.17492136 2.7251306 2894892
-0.97065711 -0.17554568 2.7435305 2894892
-0.92465246 -0.17468499 2.7290225 2894892
-0.87452322 -0.17534797 2.7131805 2894892
-0.84114558 -0.17371714 2.7026811 2894892
-1.2138393 -0.12493603 2.7255373 2894892
-0.96914095 -0.12547833 2.7442458 2894892
-0.92527843 -0.12448663 2.7304199 2894892
-0.8751846 -0.12515707 2.7145882 2894892
-0.84001726 -0.12544003 2.7034767 2894892
-1.2142751 -0.075157583 2.7252855 2894892
-0.96692318 -0.075133592 2.7447457 2894892
-0.92544842 -0.074940704 2.731657 2894892
-0.87515122 -0.074603096 2.7157841 2894892
-0.84043086 -0.075076059 2.7048099 2894892
-1.2149694 -0.02446012 2.7242351 2894892
-0.96445805 -0.025639623 2.7451494 2894892
-0.92496514 -0.024904711 2.7326982 2894892
