# .PCD v0.7 - Point Cloud Data file format
VERSION 0.7
FIELDS x y z rgb
SIZE 4 4 4 4
TYPE F F F U
COUNT 1 1 1 1
WIDTH 1378
HEIGHT 1
VIEWPOINT 0 0 0 1 0 0 0
POINTS 1378
DATA ascii
-0.91567379 -0.70521551 1.9249659 0
-0.87497312 -0.70564628 1.924641 0
-0.82496649 -0.7056542 1.9245986 0
-0.77488649 -0.70566213 1.9246818 0
-0.72495288 -0.70566928 1.9246516 0
-0.67508429 -0.70567727 1.9246122 0
-0.62507665 -0.7056846 1.9247441 0
-0.58046675 -0.70927805 1.9241188 0
0.50361764 -0.72496462 1.9265128 0
-0.9253515 -0.67503971 1.9254839 0
0.5036245 -0.67504734 1.9265399 0
-0.92534554 -0.62494928 1.9254869 0
0.50363326 -0.62503898 1.9264872 0
-0.92533636 -0.57497346 1.9255217 0
0.50363493 -0.57511592 1.9267967 0
-0.9253267 -0.52847457 1.9254168 0
0.50364733 -0.52493417 1.9265419 0
0.50365525 -0.47482824 1.9265245 0
0.50365913 -0.42508245 1.9267139 0
0.50366741 -0.37515634 1.9266615 0
-0.57119435 -0.30289993 1.9231989 0
0.50367403 -0.3250508 1.9267069 0
-0.92321682 -0.27092332 1.9255382 0
-0.87489712 -0.28564712 1.9258516 0
-0.82504696 -0.28565493 1.9260762 0
-0.77519864 -0.28566256 1.9259558 0
-0.72494811 -0.28567037 1.9260942 0
-0.67489398 -0.28567815 1.9261888 0
-0.62503886 -0.28568572 1.9261552 0
-0.57799333 -0.28948131 1.9244145 0
0.50368154 -0.27503318 1.9267144 0
-0.92528254 -0.22499648 1.9253541 0
0.50368768 -0.2251033 1.9267807 0
-0.92527294 -0.17497052 1.9253542 0
0.50369394 -0.17508262 1.9268491 0
-0.92526472 -0.12494511 1.9252986 0
0.50370288 -0.12497213 1.9267749 0
-0.92526066 -0.074920379 1.9253989 0
0.50370729 -0.074947968 1.9269422 0
-0.92525053 -0.024956865 1.9252461 0
0.50374073 -0.025739735 1.9255052 0
-0.92524129 0.024956577 1.9252311 0
0.50377613 0.025012106 1.9239717 0
-0.92428184 0.073765315 1.9256124 0
-0.87473071 0.094349161 1.9301195 0
-0.82469088 0.094341889 1.929711 0
-0.77466071 0.094334118 1.9298118 0
-0.72463709 0.094326816 1.9294032 0
-0.67462236 0.094319053 1.9295038 0
-0.62461513 0.094311789 1.9290954 0
-0.57858145 0.095676795 1.9259068 0
0.50378019 0.074928641 1.9241669 0
-0.56850487 0.10883112 1.9216601 0
-0.52518779 0.11432669 1.9162648 0
-0.47474664 0.11432 1.9163636 0
-0.42470533 0.11431359 1.9162561 0
-0.37507299 0.11430743 1.9159414 0
-0.32504126 0.114301 1.9158342 0
-0.27501881 0.11429413 1.9161412 0
-0.22500885 0.11428816 1.9156187 0
-0.17499386 0.11428173 1.915511 0
-0.12498458 0.11427531 1.9154034 0
-0.074991725 0.11426844 1.9157107 0
-0.024997165 0.11426247 1.9151884 0
0.024995297 0.11425605 1.9150805 0
0.07497862 0.11424919 1.9153879 0
0.12494902 0.11424321 1.9148654 0
0.17492463 0.1142368 1.9147578 0
0.2252868 0.11423012 1.914857 0
0.27524936 0.1142237 1.9147495 0
0.32480344 0.11421755 1.9144354 0
0.37475666 0.11421114 1.9143276 0
0.42509258 0.11420444 1.9144267 0
0.47503278 0.11419805 1.9143193 0
0.50364363 0.10748157 1.9233706 0
0.50265217 -0.86768264 1.9786716 0
0.5027014 -0.82497728 1.9763024 0
0.50271094 -0.77494156 1.9761939 0
-0.91623026 -0.70526814 1.9743907 0
-0.875036 -0.70569366 1.9737829 0
-0.82508916 -0.70570135 1.9738429 0
-0.77506763 -0.70570922 1.97391 0
-0.72504795 -0.70571607 1.9737815 0
-0.67501831 -0.70572388 1.9737856 0
-0.62499619 -0.70573139 1.9739896 0
-0.58129013 -0.70922625 1.9735795 0
0.50271606 -0.72500932 1.9763201 0
-0.92624921 -0.67493194 1.975077 0
0.5027234 -0.67507434 1.9763224 0
-0.92624021 -0.62495619 1.9750199 0
0.50273085 -0.62503541 1.976339 0
-0.92623234 -0.57497954 1.9749923 0
0.50273758 -0.57469064 1.9763912 0
-0.92622584 -0.52845305 1.9750066 0
0.50274289 -0.52485126 1.9765038 0
0.50275314 -0.47521794 1.9763477 0
0.50275838 -0.42507225 1.9764733 0
0.502765 -0.37492472 1.9765259 0
-0.57213312 -0.30281928 1.9725498 0
0.50277275 -0.32487777 1.9765151 0
-0.9235462 -0.27149209 1.9751543 0
-0.87493354 -0.28569508 1.9759276 0
-0.82485181 -0.28570274 1.975906 0
-0.77493858 -0.2857106 1.9761087 0
-0.72501928 -0.28571814 1.9760128 0
-0.67509931 -0.28572616 1.9763643 0
-0.62501115 -0.28573376 1.9762689 0
-0.57981914 -0.28895444 1.9745893 0
0.50278014 -0.27483004 1.9765313 0
-0.92617869 -0.22499935 1.97491 0
0.50278771 -0.22488168 1.9765085 0
-0.92617053 -0.17503035 1.9748741 0
0.50279289 -0.17503567 1.976647 0
-0.92616451 -0.12506206 1.9749464 0
0.50279987 -0.12508573 1.9766754 0
-0.92615616 -0.075036734 1.9748921 0
0.50280654 -0.075031824 1.9767154 0
-0.92614537 -0.025014874 1.9747417 0
0.50284451 -0.024234941 1.9750435 0
-0.92613757 0.025014587 1.9747272 0
0.50287783 0.024987493 1.9736137 0
-0.92564017 0.073124178 1.9750212 0
-0.87495971 0.094302088 1.9793429 0
-0.82487261 0.094294548 1.9791849 0
-0.77479368 0.094287008 1.9790267 0
-0.72472256 0.094279483 1.9788684 0
-0.67465955 0.094271965 1.9787104 0
-0.62460452 0.094264433 1.9785525 0
-0.57723635 0.096084215 1.9750367 0
0.502882 0.075046115 1.9737952 0
-0.56899518 0.10916111 1.9716855 0
-0.52482951 0.11427001 1.9702604 0
-0.47501141 0.11426364 1.9701504 0
-0.42519873 0.11425723 1.9700401 0
-0.37499008 0.11425103 1.9697025 0
-0.32518685 0.11424465 1.9695922 0
-0.27498958 0.11423796 1.9697076 0
-0.22478843 0.11423175 1.9693698 0
-0.1750097 0.11422489 1.9697132 0
-0.12523627 0.11421898 1.9691495 0
-0.07505206 0.1142123 1.9692651 0
-0.024883 0.1142061 1.9689276 0
0.024881156 0.11419971 1.9688176 0
0.075038932 0.11419304 1.9689332 0
0.12520057 0.11418682 1.9685953 0
0.17494044 0.11417998 1.9689385 0
0.22467445 0.11417407 1.9683757 0
0.27481931 0.1141674 1.968491 0
0.32494879 0.11416121 1.9681538 0
0.37508056 0.11415453 1.9682689 0
0.42520061 0.11414834 1.9679317 0
0.47491443 0.11414194 1.9678218 0
0.50281137 0.10746517 1.9735855 0
-0.70526284 -0.91023415 2.0472646 0
-0.67502367 -0.9078871 2.0478415 0
-0.62470973 -0.90820849 2.048799 0
-0.5867222 -0.90852875 2.0495214 0
0.5015775 -0.905725 2.0377359 0
-0.70145422 -0.89993095 2.0473468 0
-0.66860873 -0.87928373 2.0479908 0
-0.62471908 -0.87511879 2.048831 0
-0.58663529 -0.87513876 2.0495551 0
0.50180155 -0.87470657 2.0256064 0
-0.65523601 -0.84326303 2.0482802 0
-0.62212175 -0.82732779 2.0489254 0
-0.58683974 -0.82507187 2.0495994 0
0.50180888 -0.82488304 2.0256228 0
-0.6090191 -0.78669542 2.0492132 0
-0.58644611 -0.77592659 2.0496531 0
0.50181806 -0.77485889 2.0255311 0
-0.91588497 -0.70463628 2.0275319 0
-0.8749131 -0.70489377 2.0277631 0
-0.82501066 -0.70497102 2.0283294 0
-0.77500874 -0.70505363 2.0284827 0
-0.72505802 -0.70515627 2.0286632 0
-0.67451119 -0.70504141 2.0296698 0
-0.62485635 -0.70494103 2.0306554 0
-0.5820747 -0.71491945 2.0322812 0
0.50182575 -0.72504395 2.0255189 0
-0.91902614 -0.67486686 2.0349786 0
-0.87485963 -0.67499018 2.0442624 0
-0.82517219 -0.67518556 2.0452077 0
-0.7747978 -0.67477059 2.0461669 0
-0.7251181 -0.67508245 2.0471101 0
-0.67560565 -0.67500412 2.0480535 0
-0.6247766 -0.6748631 2.0490205 0
-0.58678573 -0.67510116 2.0497432 0
0.50183004 -0.67501807 2.0256946 0
-0.91890448 -0.6249764 2.0351331 0
-0.8748799 -0.62503654 2.0443099 0
-0.82538909 -0.62521428 2.0452509 0
-0.7748158 -0.624771 2.0462127 0
-0.72513503 -0.62505925 2.0471594 0
-0.67530745 -0.6252321 2.0481052 0
-0.6247918 -0.62479347 2.0490673 0
-0.58762354 -0.62551439 2.0497744 0
0.50184208 -0.62499118 2.0254433 0
-0.91891128 -0.57503611 2.0346642 0
-0.87490034 -0.57508081 2.0443573 0
-0.82515627 -0.57514417 2.0453031 0
-0.77483386 -0.5747686 2.0462611 0
-0.72515154 -0.57503414 2.0472059 0
-0.67552173 -0.57518947 2.0481503 0
-0.62480617 -0.57472157 2.0491154 0
-0.58889318 -0.57540423 2.049798 0
0.50184393 -0.57485873 2.0257635 0
-0.91813606 -0.52676672 2.0355008 0
-0.87492079 -0.52512264 2.044404 0
-0.8254813 -0.5251717 2.0453448 0
-0.77485168 -0.52476412 2.0463085 0
-0.72516841 -0.52500618 2.0472536 0
-0.67543948 -0.525249 2.0481992 0
-0.62462217 -0.52495259 2.0491657 0
-0.59012353 -0.52545029 2.0498223 0
0.50185436 -0.52482289 2.0255919 0
-0.90422136 -0.49660203 2.0438743 0
-0.86992085 -0.48703066 2.0445366 0
-0.82410729 -0.47625461 2.0454175 0
-0.77486932 -0.47475731 2.046356 0
-0.72518617 -0.47497663 2.0473001 0
-0.67545485 -0.47519585 2.0482469 0
-0.62503505 -0.47488725 2.0492065 0
-0.59142011 -0.47535512 2.049845 0
0.50185764 -0.47500619 2.0258207 0
-0.80980229 -0.44475815 2.0457201 0
-0.77069235 -0.43361673 2.0464756 0
-0.72497326 -0.42519167 2.0473516 0
-0.67547059 -0.42514035 2.0482936 0
-0.62484926 -0.42534032 2.0492573 0
-0.59256464 -0.42599347 2.04987 0
0.50186658 -0.42497087 2.0257547 0
-0.71379423 -0.392961 2.0475953 0
-0.67216158 -0.38117903 2.048399 0
-0.62486351 -0.37525892 2.049305 0
-0.59397775 -0.3760511 2.0498915 0
0.50187361 -0.37493631 2.0257702 0
-0.61657822 -0.34004548 2.0494955 0
-0.59028864 -0.3279582 2.0440931 0
0.50187981 -0.32500535 2.0258508 0
-0.91851443 -0.26962209 2.0338612 0
-0.8749975 -0.27073875 2.0418158 0
-0.82509989 -0.27031153 2.0428102 0
-0.77493447 -0.27006403 2.043699 0
-0.72520208 -0.27021369 2.0444572 0
-0.67546088 -0.270255 2.0453327 0
-0.62493652 -0.27036196 2.0461345 0
-0.58569926 -0.28207213 2.0342286 0
0.50188732 -0.27507314 2.0258527 0
-0.9187994 -0.2251513 2.0349574 0
-0.87504166 -0.22532576 2.0446885 0
-0.82565755 -0.2249845 2.0456283 0
-0.77495927 -0.22468784 2.0465932 0
-0.72526956 -0.22479159 2.0475376 0
-0.67553341 -0.22489546 2.0484846 0
-0.62490749 -0.22500122 2.0494468 0
-0.59754825 -0.22733976 2.0499654 0
0.50189674 -0.22503418 2.0257366 0
-0.9189508 -0.17516206 2.0347872 0
-0.87506241 -0.17535159 2.0447354 0
-0.82526588 -0.17488942 2.0456839 0
-0.77497709 -0.17466706 2.0466394 0
-0.72466266 -0.17458139 2.0475979 0
-0.67493623 -0.17499949 2.0485425 0
-0.62492168 -0.17491068 2.049495 0
-0.59874505 -0.18429455 2.049984 0
0.50190091 -0.17488919 2.0259233 0
-0.91882515 -0.12514614 2.0349987 0
-0.87508255 -0.12537508 2.0447817 0
-0.82568216 -0.12490255 2.045723 0
-0.77499509 -0.12464385 2.0466881 0
-0.7244603 -0.12470247 2.0476489 0
-0.67472142 -0.12476003 2.0485957 0
-0.62551218 -0.12499687 2.0495305 0
0.50190824 -0.12484813 2.0259373 0
-0.918935 -0.075217441 2.034848 0
-0.87510264 -0.075396173 2.0448308 0
-0.82533556 -0.074803919 2.0457776 0
-0.77501327 -0.074618459 2.0467346 0
-0.72447687 -0.074653447 2.0476966 0
-0.67473722 -0.074687988 2.0486434 0
-0.62691402 -0.07492578 2.049552 0
0.50191593 -0.075014092 2.0259266 0
-0.91884899 -0.025262082 2.0350177 0
-0.87512285 -0.025414923 2.0448763 0
-0.82568949 -0.024810733 2.0458183 0
-0.77503121 -0.024590664 2.0467827 0
-0.72449416 -0.024602231 2.047744 0
-0.67475253 -0.024613593 2.0486898 0
-0.62804431 -0.024835475 2.0495784 0
0.50192237 -0.025077155 2.0259805 0
-0.91885597 0.02526235 2.0350361 0
-0.87514371 0.025415739 2.0449255 0
-0.82566011 0.024725143 2.045866 0
-0.77504861 0.024591422 2.0468287 0
-0.72451025 0.024602978 2.0477903 0
-0.67476821 0.024614334 2.0487382 0
-0.62939644 0.024392875 2.0495996 0
0.50192916 0.025077632 2.0260093 0
-0.91879976 0.073077358 2.0344815 0
-0.8751291 0.07367909 2.0437732 0
-0.82541257 0.072950527 2.0447893 0
-0.77508932 0.072871618 2.0456774 0
-0.72456515 0.072904035 2.0465982 0
-0.67480701 0.072961643 2.0474527 0
-0.63005781 0.073132575 2.0479212 0
-0.58066225 0.095516987 2.0265424 0
0.50193673 0.07501734 2.0260117 0
-0.56974661 0.10912001 2.0235336 0
-0.52528453 0.11421068 2.0269091 0
-0.47529137 0.11420401 2.0270433 0
-0.42488059 0.11419752 2.0269289 0
-0.37490237 0.11419138 2.0265665 0
-0.32492194 0.11418471 2.0267012 0
-0.27495301 0.11417857 2.0263398 0
-0.22498585 0.11417189 2.026474 0
-0.1750261 0.11416575 2.0261121 0
-0.12507217 0.11415908 2.0262461 0
-0.075121656 0.11415292 2.0258844 0
-0.025180897 0.11414625 2.0260189 0
0.025178997 0.1141398 2.0259037 0
0.075108498 0.11413365 2.0255423 0
0.12503654 0.114127 2.0256763 0
0.17495686 0.11412084 2.0253153 0
0.22487167 0.11411419 2.0254498 0
0.27478278 0.11410806 2.0250881 0
0.32468444 0.11410138 2.0252221 0
0.37500474 0.11409494 2.0251079 0
0.42489478 0.1140888 2.0247459 0
0.47478375 0.11408214 2.0248806 0
0.50191188 0.10722463 2.0257473 0
-0.57387835 -0.91053206 2.0587792 0
0.50086981 -0.91457891 2.0767617 0
-0.57386166 -0.87486207 2.0582228 0
0.50092661 -0.874933 2.0739596 0
-0.5738523 -0.82510823 2.0581903 0
0.50093436 -0.8249867 2.0739541 0
-0.57384312 -0.77507156 2.0581574 0
0.50093859 -0.77503949 2.0741134 0
-0.57383388 -0.72475231 2.0581236 0
0.50094748 -0.72496802 2.0740454 0
-0.57382327 -0.67472106 2.0580156 0
0.50095481 -0.67501748 2.0740409 0
-0.57418519 -0.62318653 2.0559962 0
0.50096256 -0.62494379 2.0740395 0
-0.92763245 -0.57477498 2.0523374 0
-0.574947 -0.57414949 2.054409 0
0.50096667 -0.5748688 2.0742304 0
-0.92762518 -0.52800673 2.0523214 0
-0.57592607 -0.52400386 2.0534937 0
0.5009734 -0.52503502 2.0742586 0
-0.5770269 -0.47409272 2.052882 0
0.50098228 -0.47507766 2.0741906 0
-0.57815331 -0.42411187 2.0524285 0
0.50099081 -0.42499956 2.0741198 0
-0.57932484 -0.37418893 2.0521905 0
0.50099432 -0.37504119 2.0743451 0
-0.57966787 -0.32848474 2.0523698 0
0.50100303 -0.32508075 2.0742769 0
-0.92758465 -0.26866797 2.052232 0
-0.58125067 -0.2692765 2.0522037 0
0.50101054 -0.27499667 2.0742731 0
-0.92757779 -0.22530541 2.052217 0
-0.58280355 -0.22474529 2.0516715 0
0.50101727 -0.22491135 2.0743344 0
-0.9275701 -0.17514156 2.0521996 0
-0.58425242 -0.17464367 2.0514925 0
0.5010224 -0.17494708 2.0744603 0
-0.92756218 -0.12497864 2.0521822 0
-0.6004529 -0.11720292 2.0500154 0
-0.58471239 -0.12488995 2.051532 0
0.5010317 -0.1251044 2.074358 0
-0.92755431 -0.074816518 2.0521648 0
-0.60167205 -0.072312199 2.0500352 0
-0.58476299 -0.074746884 2.0515189 0
0.50103903 -0.075015657 2.0743577 0
-0.92754668 -0.02465526 2.0521472 0
-0.60277379 -0.023107756 2.0500612 0
-0.58475256 -0.024648303 2.0515761 0
0.50104314 -0.024924286 2.0745471 0
-0.92753875 0.024654986 2.0521302 0
-0.60411555 0.025725637 2.0500827 0
-0.58476263 0.024648843 2.0516114 0
0.50105017 0.02492475 2.0745757 0
-0.92753136 0.072264105 2.0521142 0
-0.60521561 0.072183453 2.0501056 0
-0.58451647 0.071983591 2.051764 0
0.50106007 0.075018913 2.0744445 0
-0.56939965 0.10975792 2.0631497 0
-0.52446532 0.11416343 2.0719202 0
-0.4746533 0.11415704 2.071804 0
-0.42484665 0.11415067 2.0716879 0
-0.37504569 0.11414428 2.0715723 0
-0.32525033 0.11413789 2.0714564 0
-0.27546051 0.11413152 2.0713406 0
-0.22567624 0.11412512 2.0712247 0
-0.17503935 0.11411862 2.0711067 0
-0.1244082 0.11411213 2.0709894 0
-0.07464084 0.11410576 2.070873 0
-0.02487904 0.11409935 2.0707576 0
0.024877191 0.114093 2.070642 0
0.074627854 0.11408661 2.0705259 0
0.12437297 0.11408025 2.0704103 0
0.17497 0.11407375 2.0702925 0
0.22556135 0.11406727 2.0701745 0
0.2752896 0.11406089 2.0700591 0
0.32501224 0.11405452 2.0699434 0
0.37472937 0.11404814 2.0698276 0
0.42444095 0.11404176 2.0697119 0
0.47500387 0.11403528 2.0695939 0
0.50106388 0.10718493 2.0745065 0
0.4996613 -0.95426655 2.1431973 0
0.49974668 -0.92483908 2.1387222 0
0.50023878 -0.92235446 2.1115627 0
0.49975252 -0.87478924 2.1388142 0
0.50025612 -0.87500888 2.1109934 0
0.49975896 -0.82495707 2.1388752 0
0.50026083 -0.82517123 2.1111429 0
0.49976701 -0.77490413 2.1388433 0
0.50027061 -0.77511108 2.1110225 0
0.49977285 -0.72484827 2.1389344 0
0.50027591 -0.72505128 2.1111419 0
0.49978045 -0.67501289 2.1389332 0
0.50028449 -0.67498958 2.1110811 0
0.49978852 -0.62495786 2.1389008 0
0.50028759 -0.62492263 2.1113207 0
0.49979374 -0.57511836 2.139024 0
0.50029898 -0.57508421 2.1111097 0
0.49980059 -0.52549994 2.1390531 0
0.50030398 -0.52479458 2.1112592 0
0.49979487 -0.4765909 2.1397712 0
0.50029171 -0.47353861 2.1123447 0
0.499751 -0.4248932 2.1426256 0
0.50025606 -0.42508674 2.1147201 0
0.49975654 -0.37489301 2.1427383 0
0.50026214 -0.3749781 2.1147988 0
0.49976498 -0.32489008 2.1426849 0
0.50027096 -0.32486865 2.1147311 0
0.49977332 -0.27489176 2.1426322 0
0.50027615 -0.27510855 2.1148582 0
0.49977875 -0.22488537 2.1427443 0
0.50028312 -0.22517057 2.114887 0
0.49978584 -0.17488003 2.1427746 0
0.50029176 -0.17505887 2.1148202 0
0.49979281 -0.12487318 2.1428049 0
0.50029969 -0.12494276 2.1148009 0
0.49980137 -0.074870005 2.142751 0
0.50030118 -0.074999474 2.1151214 0
0.49980658 -0.024857309 2.1428645 0
0.50031358 -0.025063816 2.1148603 0
0.49981362 0.024857769 2.142894 0
0.50032061 0.025064278 2.1148901 0
0.49983907 0.072742514 2.1418855 0
0.50032222 0.075002752 2.1152091 0
-0.56954342 0.11411789 2.1209068 0
-0.52536494 0.11411447 2.1186616 0
-0.4748649 0.11410772 2.1188221 0
-0.42480633 0.11410131 2.1187031 0
-0.37519991 0.11409526 2.1183043 0
-0.32515034 0.11408885 2.1181853 0
-0.27511099 0.11408183 2.1186271 0
-0.22508563 0.114076 2.1179473 0
-0.17505288 0.11406958 2.1178279 0
-0.12502581 0.11406317 2.1177092 0
-0.075017579 0.11405616 2.1181509 0
-0.025006048 0.11405036 2.117471 0
0.025004169 0.11404394 2.117352 0
0.075004466 0.11403695 2.1177938 0
0.12499019 0.11403115 2.1171141 0
0.17498355 0.11402472 2.1169951 0
0.22497137 0.11401832 2.1168764 0
0.27494055 0.11401132 2.1173179 0
0.3249124 0.11400551 2.1166387 0
0.37488329 0.11399914 2.1165197 0
0.42527696 0.11399235 2.1166799 0
0.48044246 0.11246447 2.1214371 0
0.50033051 0.10707602 2.114728 0
0.49903774 -0.96222162 2.1775861 0
0.49909675 -0.92507213 2.1746199 0
0.49910498 -0.87508464 2.1745842 0
0.49911165 -0.82509637 2.1746371 0
0.49911982 -0.77510542 2.1745999 0
0.4991256 -0.7251128 2.1746984 0
0.49913201 -0.67512107 2.1747482 0
0.49913788 -0.62512398 2.1748457 0
0.49914885 -0.57528347 2.174655 0
0.49915212 -0.52528191 2.1748836 0
0.49916118 -0.47498098 2.1748054 0
0.49916771 -0.42498392 2.1748564 0
0.49917451 -0.37513104 2.1748874 0
0.49918106 -0.32512891 2.1749399 0
0.49918881 -0.27497259 2.1749263 0
0.49919304 -0.22496893 2.1751106 0
0.49920407 -0.17511119 2.1749198 0
0.49920741 -0.12510277 2.1751485 0
0.49921846 -0.075244322 2.174958 0
0.49922162 -0.02523225 2.1751871 0
0.49922872 0.025232736 2.1752179 0
0.49926534 0.076139383 2.1736188 0
-0.60090154 0.11407249 2.1680775 0
-0.57483685 0.11406913 2.168014 0
-0.52450907 0.1140627 2.1678913 0
-0.47508547 0.11405638 2.1677711 0
-0.42566735 0.11405002 2.1676509 0
-0.37535641 0.11404363 2.1675284 0
-0.32505101 0.11403716 2.1674058 0
-0.27475139 0.11403073 2.1672835 0
-0.22445746 0.1140243 2.1671607 0
-0.17506713 0.11401792 2.1670406 0
-0.12568232 0.11401159 2.1669209 0
-0.07540524 0.11400519 2.1667981 0
-0.025133813 0.11399872 2.1666758 0
0.02513192 0.1139923 2.1665533 0
0.075391985 0.11398586 2.1664307 0
0.12564637 0.11397941 2.1663086 0
0.17499787 0.1139731 2.1661882 0
0.22749995 0.11396099 2.1712074 0
0.27491158 0.11394251 2.1829295 0
0.32507697 0.11393642 2.1824977 0
0.37479544 0.11393008 2.1823754 0
0.42494994 0.1139233 2.1825612 0
0.48709324 0.11045615 2.177001 0
0.49782997 -1.0017039 2.2439864 0
0.49818134 -0.97204119 2.2248261 0
0.49822393 -0.92500836 2.2228627 0
0.49823007 -0.87502635 2.2229362 0
0.4982363 -0.8249132 2.2230065 0
0.49824384 -0.77492815 2.2229981 0
0.49824944 -0.7249434 2.2231076 0
0.49825922 -0.67482513 2.22298 0
0.49826398 -0.62496865 2.2231295 0
0.49827173 -0.57550776 2.2231193 0
0.49828038 -0.52537787 2.2230353 0
0.4982827 -0.47499815 2.2233422 0
0.49829227 -0.42500186 2.2232139 0
0.49829853 -0.37500811 2.2232847 0
0.49830496 -0.32500991 2.2233555 0
0.49831322 -0.27501357 2.2233076 0
0.49831942 -0.22501275 2.2233772 0
0.4983294 -0.17501359 2.2232473 0
0.49833271 -0.12501107 2.223479 0
0.49834251 -0.074877508 2.2233527 0
0.49834576 -0.024872433 2.223582 0
0.49835297 0.024872886 2.2236125 0
0.49836323 0.074880764 2.2234457 0
-0.60901594 0.11401413 2.2248013 0
-0.57512999 0.11401553 2.2192385 0
-0.52499664 0.11400881 2.2194324 0
-0.47531796 0.11400246 2.2193089 0
-0.42518601 0.11399634 2.2188649 0
-0.37506482 0.11398958 2.2190588 0
-0.32494184 0.11398349 2.2186151 0
-0.27483422 0.11397678 2.2188091 0
-0.22518349 0.11397038 2.2186849 0
-0.17508221 0.11396433 2.2182417 0
-0.12498664 0.11395759 2.2184353 0
-0.074894279 0.1139515 2.2179918 0
-0.024812363 0.11394473 2.2181857 0
0.024810519 0.11393839 2.2180617 0
0.074881203 0.11393228 2.2176187 0
0.12495109 0.11392552 2.2178125 0
0.17501283 0.1139195 2.2173691 0
0.22301759 0.11391115 2.2193561 0
0.27499753 0.113888 2.2349629 0
0.32497886 0.11388157 2.2348375 0
0.37495455 0.11387516 2.2347119 0
0.42492467 0.11386874 2.2345865 0
0.49023086 0.10919351 2.2272599 0
0.49720135 -1.0098028 2.2786515 0
0.4973031 -0.97513628 2.2733185 0
0.49730855 -0.92507404 2.2734249 0
0.4973132 -0.87501037 2.273582 0
0.49732286 -0.82478857 2.2734642 0
0.49732813 -0.77487731 2.2735944 0
0.49733433 -0.72512418 2.2736518 0
0.49734282 -0.67505515 2.2736094 0
0.49735212 -0.62498438 2.2735147 0
0.49735487 -0.57459861 2.273772 0
0.49736181 -0.52468008 2.2738035 0
0.49737206 -0.47507375 2.2736354 0
0.49737564 -0.42484322 2.2738671 0
0.497385 -0.37476498 2.2737727 0
0.49738958 -0.3249993 2.2739294 0
0.49739996 -0.27507544 2.2737622 0
0.4974038 -0.22499509 2.2739685 0
0.49741212 -0.17491083 2.2739246 0
0.49741885 -0.12498171 2.2739549 0
0.49742216 -0.075051598 2.2741888 0
0.49743503 -0.02497061 2.2738948 0
0.49744201 0.024971081 2.2739267 0
0.49744302 0.075054869 2.2742839 0
-0.61597073 0.113964 2.2734213 0
-0.57544518 0.11395884 2.2733181 0
-0.52455759 0.11395233 2.2731879 0
-0.47461808 0.11394592 2.2730606 0
-0.42468396 0.11393953 2.272933 0
-0.37475553 0.11393316 2.2728059 0
-0.32483271 0.11392675 2.2726781 0
-0.27491552 0.11392035 2.2725508 0
-0.22500388 0.113914 2.2724235 0
-0.17509784 0.11390761 2.272296 0
-0.12519741 0.11390118 2.2721684 0
-0.075302579 0.11389482 2.2720413 0
-0.025413359 0.11388845 2.2719138 0
0.025411427 0.11388191 2.2717841 0
0.075289391 0.11387554 2.2716568 0
0.12516172 0.11386918 2.2715292 0
0.17502849 0.1138628 2.2714021 0
0.22488968 0.11385638 2.271275 0
0.27474529 0.11385 2.2711475 0
0.32459524 0.11384367 2.2710202 0
0.3753801 0.11383715 2.2708905 0
0.42521876 0.11383074 2.2707632 0
0.4886573 0.10952841 2.272681 0
0.49637046 -1.020116 2.3244672 0
0.49641857 -0.97503966 2.3221879 0
0.49642655 -0.9250254 2.3221645 0
0.49643096 -0.87517017 2.3223317 0
0.49644166 -0.8251527 2.3221517 0
0.49644518 -0.77497721 2.3223693 0
0.49645397 -0.72495615 2.322295 0
0.49645865 -0.67509651 2.3224611 0
0.49646705 -0.62491298 2.3224146 0
0.49647468 -0.57457203 2.3223937 0
0.49648187 -0.52454048 2.3224239 0
0.49648753 -0.47483894 2.3225098 0
0.49649298 -0.42497146 2.3226233 0
0.49650291 -0.37494114 2.3224964 0
0.49650702 -0.32491159 2.3226881 0
0.49651641 -0.27504146 2.3225863 0
0.49652222 -0.22500627 2.3226733 0
0.49652907 -0.17497104 2.3227041 0
0.49653685 -0.1249363 2.3226845 0
0.49654412 -0.074900642 2.3227146 0
0.4965483 -0.025020832 2.322881 0
0.49655533 0.025021298 2.3229136 0
0.49656475 0.074903883 2.3228121 0
-0.65121025 0.11388879 2.3495934 0
-0.62282795 0.11390377 2.3317976 0
-0.57480168 0.11389973 2.3296816 0
-0.52507091 0.11389295 2.3299303 0
-0.47485048 0.11388653 2.3297994 0
-0.42511958 0.11388056 2.3292902 0
-0.37540022 0.1138738 2.3295388 0
-0.32519662 0.11386739 2.3294077 0
-0.27499875 0.11386096 2.3292761 0
-0.22530378 0.113855 2.3287671 0
-0.17511438 0.11384858 2.3286502 0
-0.12445504 0.11384172 2.3288817 0
-0.074763507 0.11383574 2.3283734 0
-0.025082972 0.11382901 2.3286223 0
0.025081085 0.11382257 2.328491 0
0.074750505 0.11381662 2.3279822 0
0.12441978 0.11380985 2.3282311 0
0.175045 0.11380377 2.327734 0
0.22566472 0.11379694 2.3279665 0
0.27531695 0.11379097 2.3274574 0
0.32495862 0.11378424 2.3277063 0
0.37508318 0.11377781 2.3275752 0
0.42471346 0.11377186 2.3270667 0
0.4840987 0.11048 2.3250551 0
0.49533212 -1.0577149 2.3815234 0
0.49549329 -1.0250598 2.3728912 0
0.495496 -0.97526598 2.3731508 0
0.49550554 -0.92530197 2.3730438 0
0.49550971 -0.87501031 2.3732188 0
0.49551836 -0.82504517 2.3731654 0
0.49552655 -0.77507752 2.3731155 0
0.49553263 -0.72494555 2.373204 0
0.49553943 -0.675138 2.3732357 0
0.49554282 -0.62516731 2.3734701 0
0.49555534 -0.57487148 2.3731909 0
0.49555805 -0.52505672 2.3734498 0
0.49556896 -0.47524327 2.3732567 0
0.49557284 -0.42510438 2.3734586 0
0.49557838 -0.37512738 2.3735774 0
0.49558923 -0.32498425 2.3733838 0
0.49559411 -0.27483845 2.3735311 0
0.49560103 -0.2250194 2.3735619 0
0.4956089 -0.17519967 2.3735392 0
0.49561474 -0.12505065 2.3736303 0
0.49561864 -0.074899003 2.3738308 0
0.49563128 -0.024917288 2.3735533 0
0.4956381 0.024917753 2.3735862 0
0.49563941 0.074902244 2.37393 0
-0.6563555 0.11384749 2.3895891 0
-0.62465429 0.11384345 2.3895042 0
-0.5751251 0.11383708 2.3893709 0
-0.52560151 0.1138308 2.3892384 0
-0.47509304 0.11382435 2.3891029 0
-0.42459035 0.11381789 2.388967 0
-0.37508348 0.11381153 2.3888345 0
-0.32558209 0.1138052 2.3887017 0
-0.27509639 0.11379875 2.3885663 0
-0.22461635 0.11379231 2.3884306 0
-0.17513168 0.11378597 2.3882978 0
-0.12565254 0.11377965 2.3881655 0
-0.075189486 0.11377322 2.3880298 0
-0.024732132 0.11376677 2.3878944 0
0.024730297 0.11376041 2.3877616 0
0.075176284 0.11375394 2.3876264 0
0.12561661 0.11374752 2.3874907 0
0.17506231 0.11374122 2.3873582 0
0.22450255 0.11373487 2.3872254 0
0.27492592 0.11372845 2.3870902 0
0.32534355 0.11372199 2.386955 0
0.37476704 0.11371568 2.3868225 0
0.4251734 0.11370921 2.386687 0
0.48772562 0.10921658 2.3782248 0
0.49446774 -1.0681067 2.4291906 0
0.49453184 -1.024736 2.426007 0
0.49453363 -0.97500008 2.4263177 0
0.49454272 -0.92508823 2.4262295 0
0.49454752 -0.87517762 2.4263849 0
0.49455616 -0.82509834 2.4263277 0
0.49456403 -0.77518296 2.4262991 0
0.49457154 -0.72510141 2.4263072 0
0.49457514 -0.67484993 2.4265208 0
0.49458644 -0.62493289 2.4263089 0
0.49458876 -0.57501298 2.4265878 0
0.4945958 -0.52475518 2.4266226 0
0.494607 -0.47483084 2.4264102 0
0.49461007 -0.42507851 2.4266598 0
0.49461645 -0.37498391 2.4267228 0
0.4946261 -0.32489038 2.4266047 0
0.49463409 -0.27496275 2.4265797 0
0.4946399 -0.22503403 2.4266717 0
0.49464402 -0.17493711 2.4268587 0
0.49465144 -0.12483536 2.426863 0
0.49466226 -0.075072274 2.4266808 0
0.49466452 -0.025136452 2.4269598 0
0.49467152 0.02513692 2.4269943 0
0.49468282 0.0750755 2.4267824 0
-0.66268694 0.11380488 2.4309728 0
-0.62539738 0.11380012 2.4308708 0
-0.57501078 0.11379369 2.4307334 0
-0.52462989 0.11378725 2.4305959 0
-0.47425476 0.11378081 2.4304583 0
-0.42489257 0.11377451 2.4303234 0
-0.37553594 0.1137682 2.4301889 0
-0.32517764 0.11376177 2.4300513 0
-0.27482507 0.11375533 2.4299138 0
-0.22447816 0.11374888 2.4297764 0
-0.17514367 0.11374258 2.4296417 0
-0.12581472 0.11373629 2.4295073 0
-0.075484641 0.11372986 2.4293697 0
-0.025160285 0.11372344 2.4292324 0
0.025158389 0.11371699 2.4290948 0
0.075471371 0.11371055 2.4289575 0
0.12577866 0.11370414 2.4288206 0
0.17507429 0.11369782 2.4286859 0
0.22436447 0.11369152 2.4285514 0
0.2746549 0.11368509 2.4284141 0
0.32493973 0.11367869 2.4282768 0
0.37521878 0.11367225 2.428139 0
0.42549214 0.11366581 2.4280021 0
0.48702294 0.10915914 2.4272664 0
0.49342465 -1.1063521 2.4865077 0
0.4936026 -1.0752448 2.4769316 0
0.49360666 -1.0251871 2.4771204 0
0.49361363 -0.97491544 2.4771581 0
0.49362186 -0.92484891 2.4771128 0
0.49363011 -0.87498468 2.4770706 0
0.49363419 -0.82512116 2.4772594 0
0.493644 -0.77504891 2.4771402 0
0.49364668 -0.72497606 2.4774075 0
0.49365625 -0.67490363 2.4772868 0
0.49366313 -0.62482703 2.477319 0
0.49367139 -0.57495999 2.4772763 0
0.4936783 -0.52528369 2.4773107 0
0.49368232 -0.47521022 2.4774992 0
0.49368912 -0.42492253 2.4775376 0
0.49369755 -0.37484133 2.4774926 0
0.49370575 -0.32496199 2.4774499 0
0.49370986 -0.27508244 2.477639 0
0.49371961 -0.22499539 2.4775198 0
0.49372494 -0.17511226 2.4776299 0
0.49373046 -0.12522973 2.4777434 0
0.49373743 -0.074932359 2.4777763 0
0.49374726 -0.024845548 2.4776571 0
0.49375403 0.024846008 2.4776909 0
0.49375811 0.074935623 2.4778793 0
-0.66821665 0.11376079 2.473815 0
-0.62514192 0.11375528 2.4736953 0
-0.57489318 0.11374886 2.4735556 0
-0.52465004 0.11374245 2.4734161 0
-0.47543788 0.11373616 2.4732797 0
-0.42520604 0.11372975 2.47314 0
-0.37497985 0.11372334 2.4730003 0
-0.32475933 0.11371692 2.4728611 0
-0.27454445 0.1137105 2.4727213 0
-0.22535992 0.11370423 2.4725847 0
-0.1751563 0.1136978 2.4724452 0
-0.12495833 0.11369139 2.472306 0
-0.07476604 0.11368498 2.4721663 0
-0.024579374 0.11367857 2.4720271 0
0.024577567 0.11367229 2.4718902 0
0.074752986 0.11366589 2.4717507 0
0.12492279 0.11365947 2.4716117 0
0.1750869 0.11365307 2.4714723 0
0.2252454 0.11364665 2.4713328 0
0.27539819 0.11364026 2.4711938 0
0.32554534 0.11363384 2.4710546 0
0.37466359 0.11362756 2.4709179 0
0.42479953 0.11362115 2.4707785 0
0.48524833 0.10955071 2.4749084 0
0.49267235 -1.1158262 2.527993 0
0.49272859 -1.0754278 2.5252175 0
0.49273565 -1.0252261 2.5252538 0
0.4927454 -0.97523332 2.5251234 0
0.49275222 -0.92503184 2.5251625 0
0.49275768 -0.87482858 2.5252769 0
0.49276304 -0.82483143 2.5253949 0
0.49277297 -0.77483249 2.5252631 0
0.4927769 -0.72504371 2.5254657 0
0.49278349 -0.67504102 2.5254986 0
0.49279478 -0.62525147 2.5252843 0
0.49279723 -0.5754559 2.5255692 0
0.49280411 -0.52524012 2.5256045 0
0.4928109 -0.47502306 2.52564 0
0.4928208 -0.4250159 2.5255089 0
0.49282628 -0.37521839 2.5256283 0
0.49283454 -0.3249976 2.5255849 0
0.49284157 -0.27477434 2.5256155 0
0.49284527 -0.22497441 2.5258167 0
0.49285215 -0.17495809 2.5258512 0
0.49286065 -0.12494078 2.525804 0
0.49286908 -0.075136214 2.5257556 0
0.49287292 -0.025115315 2.5259569 0
0.49287978 0.025115782 2.5259917 0
0.49288955 0.075139485 2.5258617 0
-0.67498797 0.1137151 2.5181942 0
-0.62592036 0.11370882 2.5180552 0
-0.57581431 0.11370242 2.5179138 0
-0.52571398 0.11369604 2.517772 0
-0.47561923 0.11368964 2.5176303 0
-0.4255302 0.11368325 2.517489 0
-0.37544671 0.11367685 2.5173473 0
-0.32536885 0.11367046 2.5172057 0
-0.27529672 0.11366406 2.5170639 0
-0.2252301 0.11365765 2.5169222 0
-0.17516917 0.11365128 2.5167809 0
-0.12511386 0.11364488 2.5166395 0
-0.07506419 0.11363849 2.5164976 0
-0.025020147 0.11363209 2.5163565 0
0.025018275 0.11362573 2.5162146 0
0.075051062 0.11361933 2.5160735 0
0.12507822 0.11361295 2.5159318 0
0.17509975 0.11360654 2.5157907 0
0.22511564 0.11360016 2.5156491 0
0.27512595 0.11359378 2.5155075 0
0.32513064 0.11358738 2.5153661 0
0.37512967 0.113581 2.5152247 0
0.42512307 0.11357462 2.5150833 0
0.48460805 0.10944623 2.5216551 0
0.49154487 -1.1546531 2.5899627 0
0.49179992 -1.1243204 2.5761228 0
0.49182773 -1.0749812 2.5749972 0
0.49183306 -1.0250537 2.5751164 0
0.4918367 -0.97514147 2.5753264 0
0.49184516 -0.92479777 2.575279 0
0.49185362 -0.87466371 2.5752261 0
0.49185732 -0.82474411 2.5754352 0
0.49186733 -0.7748211 2.5752969 0
0.49186927 -0.72489733 2.5755951 0
0.49187928 -0.67497444 2.5754561 0
0.49188948 -0.62483627 2.5753193 0
0.49189144 -0.57512093 2.5756152 0
0.49189836 -0.52497715 2.5756502 0
0.49190512 -0.47483182 2.5756862 0
0.4919166 -0.42511526 2.5754619 0
0.49192053 -0.37496814 2.575671 0
0.49192417 -0.32503399 2.5758815 0
0.49193579 -0.27510062 2.5756559 0
0.49194252 -0.22494788 2.5756929 0
0.49194628 -0.17500998 2.5759015 0
0.49195468 -0.12506862 2.5758519 0
0.49195841 -0.074911721 2.5760601 0
0.49197149 -0.024978513 2.5757477 0
0.49197838 0.024978969 2.5757837 0
0.49197906 0.074914984 2.5761681 0
-0.70539588 0.11367071 2.5642622 0
-0.67456478 0.1136668 2.5641737 0
-0.62460136 0.1136604 2.5640297 0
-0.57464343 0.11365403 2.5638855 0
-0.52469134 0.11364766 2.5637419 0
-0.47474459 0.11364127 2.5635984 0
-0.4248037 0.11363491 2.5634544 0
-0.37486821 0.11362853 2.5633106 0
-0.32493833 0.11362216 2.5631666 0
-0.27501413 0.1136158 2.5630229 0
-0.22509551 0.11360941 2.5628793 0
-0.17518251 0.11360306 2.5627358 0
-0.12527506 0.11359668 2.5625916 0
-0.075373232 0.11359031 2.5624483 0
-0.025477016 0.11358395 2.5623047 0
0.025475072 0.11357743 2.5621579 0
0.075360015 0.11357107 2.5620141 0
0.12523934 0.1135647 2.5618706 0
0.1751131 0.11355834 2.561727 0
0.22498125 0.11355197 2.5615833 0
0.27484384 0.1135456 2.5614398 0
0.3247008 0.11353925 2.5612962 0
0.37455219 0.11353288 2.5611527 0
0.42439803 0.11352652 2.5610092 0
0.48393577 0.10933648 2.57025 0
0.49079692 -1.1635042 2.631212 0
0.49087724 -1.1245549 2.6270995 0
0.49088085 -1.0742813 2.6273174 0
0.49089277 -1.0246581 2.6270723 0
0.49089435 -0.97504538 2.6273911 0
0.49090135 -0.92498732 2.6274273 0
0.49090815 -0.874928 2.6274641 0
0.49092168 -0.8248682 2.6271312 0
0.49092168 -0.7750299 2.6275387 0
0.49092838 -0.72518384 2.6275737 0
0.49093539 -0.67511892 2.62761 0
0.49094221 -0.62505263 2.6276464 0
0.49095401 -0.57543051 2.6274002 0
0.49095586 -0.52579194 2.6277184 0
0.49096593 -0.47550234 2.6275733 0
0.49097124 -0.42500103 2.6277008 0
0.49097639 -0.37471074 2.6278296 0
0.49098668 -0.32485536 2.6276793 0
0.49098992 -0.27499896 2.627903 0
0.49099693 -0.22492149 2.6279395 0
0.49100864 -0.17484578 2.627701 0
0.49101391 -0.12498597 2.6278255 0
0.49101743 -0.075125024 2.6280499 0
0.49102429 -0.025041986 2.6280866 0
0.49103111 0.025042454 2.6281226 0
0.49103808 0.075128309 2.628159 0
-0.71202904 0.11362165 2.6119776 0
-0.67412674 0.11361682 2.6118662 0
-0.62431681 0.11361048 2.6117203 0
-0.57451248 0.11360413 2.6115739 0
-0.52471381 0.11359777 2.611428 0
-0.47492051 0.1135914 2.6112821 0
-0.42513287 0.11358505 2.6111357 0
-0.37535077 0.11357871 2.6109898 0
-0.32557434 0.11357236 2.6108441 0
-0.27580339 0.113566 2.610698 0
-0.22495626 0.11355951 2.610549 0
-0.1741149 0.11355305 2.6104 0
-0.12436087 0.11354667 2.6102538 0
-0.074612446 0.11354033 2.6101081 0
-0.024869585 0.113534 2.6099622 0
0.024867732 0.11352764 2.6098161 0
0.074599482 0.11352129 2.6096706 0
0.12432566 0.11351495 2.6095245 0
0.1751271 0.11350847 2.6093752 0
0.22592279 0.11350198 2.6092267 0
0.27563208 0.11349565 2.6090806 0
0.32533574 0.11348931 2.6089349 0
0.37503394 0.11348297 2.6087894 0
0.42472661 0.11347663 2.6086435 0
0.48308942 0.10940992 2.6202838 0
0.48968264 -1.2024553 2.692451 0
0.48996618 -1.1733288 2.677027 0
0.48999649 -1.124941 2.6757529 0
0.49000344 -1.0750568 2.675787 0
0.49000356 -1.0251981 2.6761904 0
0.49001813 -0.97503763 2.6758015 0
0.49001929 -0.92488825 2.6761446 0
0.49002838 -0.87501216 2.6760583 0
0.49003622 -0.82540935 2.6760352 0
0.490042 -0.77525163 2.6761348 0
0.49004778 -0.72509527 2.6762311 0
0.49005449 -0.67521155 2.6762698 0
0.4900648 -0.62505454 2.676125 0
0.4900648 -0.57515818 2.6765301 0
0.49007827 -0.52528739 2.6761992 0
0.49008629 -0.47510868 2.6761739 0
0.49008766 -0.42494982 2.6765172 0
0.49009663 -0.37505811 2.6764305 0
0.4901011 -0.32516229 2.6765916 0
0.4901126 -0.274719 2.6763861 0
0.49011722 -0.22482042 2.6765432 0
0.49012181 -0.17492598 2.6767037 0
0.49013412 -0.12475169 2.6764352 0
0.49013206 -0.074845091 2.6769624 0
0.49014783 -0.024959007 2.6765094 0
0.49015459 0.024959475 2.6765468 0
0.49015254 0.074848346 2.677074 0
-0.71891302 0.11357059 2.6614988 0
-0.67477447 0.11356496 2.6613669 0
-0.62512392 0.11355861 2.6612184 0
-0.57437575 0.11355215 2.6610668 0
-0.52473623 0.11354583 2.6609182 0
-0.47510239 0.1135395 2.6607702 0
-0.4243713 0.11353303 2.6606185 0
-0.37474859 0.11352671 2.6604702 0
-0.32513142 0.11352038 2.6603217 0
-0.27441734 0.11351392 2.6601703 0
-0.22481136 0.11350758 2.6600218 0
-0.17521094 0.11350125 2.6598737 0
-0.12451395 0.11349479 2.6597221 0
-0.07492464 0.11348847 2.6595743 0
-0.025340915 0.11348213 2.659426 0
0.025338989 0.11347569 2.6592746 0
0.074911587 0.11346935 2.6591263 0
0.12447861 0.11346303 2.6589782 0
0.17514145 0.11345657 2.6588268 0
0.22469735 0.11345026 2.658679 0
0.27424771 0.11344393 2.6585305 0
0.3248935 0.11343747 2.6583793 0
0.37553355 0.11343102 2.6582279 0
0.42506716 0.11342471 2.6580801 0
0.48133796 0.10953647 2.6684978 0
0.48896283 -1.2112141 2.732147 0
0.48907495 -1.174907 2.7262518 0
0.4890781 -1.1249982 2.7264953 0
0.48908484 -1.0753124 2.7265327 0
0.48909527 -1.0253977 2.7263656 0
0.48910037 -0.97526431 2.7265055 0
0.48910537 -0.92512423 2.7266455 0
0.48911592 -0.87498254 2.7264795 0
0.48911902 -0.82506698 2.7267239 0
0.48912743 -0.77514726 2.7266574 0
0.48913613 -0.72500205 2.726593 0
0.48913744 -0.67485756 2.7269387 0
0.48914605 -0.62493163 2.7268744 0
0.48915854 -0.57456553 2.7266078 0
0.48915982 -0.5241819 2.7269504 0
0.48916662 -0.47447976 2.7269881 0
0.48923898 -0.42618665 2.7233961 0
0.48928764 -0.37513772 2.721128 0
0.48929217 -0.3249746 2.7212923 0
0.48929784 -0.27508858 2.7213953 0
0.489308 -0.22520413 2.7212415 0
0.48931032 -0.17503691 2.721534 0
0.4893195 -0.12486541 2.7214444 0
0.48932856 -0.074699529 2.7213557 0
0.4893319 -0.024805389 2.721585 0
0.48933861 0.024805844 2.721622 0
0.48934898 0.074702784 2.7214689 0
-0.75193506 0.11352084 2.7130127 0
-0.72493821 0.1135174 2.7129302 0
-0.67432266 0.11351094 2.7127764 0
-0.62483764 0.11350464 2.7126255 0
-0.57535815 0.11349834 2.7124751 0
-0.52475983 0.1134919 2.7123208 0
-0.47416714 0.11348545 2.7121668 0
-0.42470428 0.11347914 2.7120161 0
-0.375247 0.11347283 2.7118654 0
-0.3257952 0.11346652 2.7117147 0
-0.27522522 0.11346009 2.7115607 0
-0.22466089 0.11345363 2.7114065 0
-0.17522584 0.11344733 2.7112558 0
-0.12579624 0.11344102 2.7111056 0
-0.075248934 0.1134346 2.7109516 0
-0.024707349 0.11342815 2.7107973 0
0.024705524 0.11342185 2.7106473 0
0.075235724 0.11341542 2.7104931 0
0.12576021 0.11340897 2.7103391 0
0.17515638 0.11340268 2.7101886 0
0.22454706 0.11339638 2.7100379 0
0.27505451 0.11338995 2.7098846 0
0.3255564 0.1133835 2.7097304 0
0.37493035 0.11337721 2.7095802 0
0.42429885 0.11337092 2.7094297 0
0.48070329 0.1094714 2.7163739 0
0.48778838 -1.250175 2.7967069 0
0.48808685 -1.2217569 2.7804577 0
0.48812076 -1.1751192 2.7789581 0
0.48813394 -1.1253539 2.7786515 0
0.48813578 -1.0752826 2.7789667 0
0.48814628 -1.0249237 2.7788002 0
0.48815069 -0.97486341 2.7789772 0
0.48815516 -0.92479402 2.7791524 0
0.48816317 -0.87501067 2.7791209 0
0.48817119 -0.82522923 2.779093 0
0.48818019 -0.7751537 2.7789938 0
0.48818228 -0.7250818 2.7793064 0
0.48819146 -0.67500383 2.7792089 0
0.48820084 -0.62493187 2.7791095 0
0.48820391 -0.57456285 2.7793548 0
0.48821053 -0.52505755 2.779392 0
0.48821732 -0.47555101 2.7794311 0
0.4883016 -0.42404369 2.7752097 0
0.48833969 -0.37527573 2.7735085 0
0.48834446 -0.32517922 2.7736559 0
0.48835519 -0.2750884 2.7734754 0
0.48835999 -0.22498918 2.7736239 0
0.48836687 -0.1751236 2.7736607 0
0.48837176 -0.12525204 2.7738101 0
0.48838446 -0.075386524 2.7735178 0
0.48838529 -0.025282068 2.7738864 0
0.48839214 0.025282556 2.7739258 0
0.4884049 0.07538981 2.7736342 0
-0.75873077 0.11346578 2.7664785 0
-0.72431952 0.11346141 2.7663715 0
-0.67500079 0.11345512 2.7662187 0
-0.62568766 0.11344884 2.7660651 0
-0.5752334 0.11344241 2.7659087 0
-0.5247848 0.11343599 2.7657516 0
-0.47434196 0.11342955 2.7655952 0
-0.42505106 0.11342327 2.7654421 0
-0.37576559 0.113417 2.7652891 0
-0.32533965 0.11341055 2.7651322 0
-0.27491939 0.11340415 2.7649755 0
-0.2245048 0.11339772 2.7648191 0
-0.17409597 0.1133913 2.7646627 0
-0.12483826 0.11338502 2.7645092 0
-0.075586073 0.11337874 2.7643564 0
-0.025194086 0.1133723 2.7642002 0
0.025192188 0.11336591 2.7640433 0
0.075572759 0.1133595 2.7638874 0
0.12594761 0.11335308 2.76373 0
0.17517212 0.1133468 2.7635777 0
0.22439109 0.11334054 2.7634246 0
0.27474913 0.11333411 2.7632678 0
0.32510141 0.11332769 2.7631116 0
0.37544805 0.11332127 2.7629557 0
0.42578897 0.11331486 2.7627995 0
0.48159698 0.10916113 2.7699645 0
0.48713276 -1.2585615 2.832865 0
0.48724136 -1.2248366 2.8271418 0
0.48725095 -1.1750791 2.8270361 0
0.48725361 -1.1256067 2.8272927 0
0.48726037 -1.0752553 2.8273318 0
0.48726723 -1.0249023 2.8273714 0
0.48727936 -0.97513312 2.8271258 0
0.48727956 -0.92507523 2.8275211 0
0.48728764 -0.87501055 2.8274915 0
0.48729572 -0.82494849 2.8274558 0
0.48730379 -0.77488184 2.8274248 0
0.48730937 -0.72481239 2.8275344 0
0.48731855 -0.67503911 2.82743 0
0.48731747 -0.62525725 2.8279037 0
0.48733211 -0.57490283 2.8275135 0
0.48733506 -0.52482349 2.8277652 0
0.48734713 -0.47503614 2.8275185 0
0.48734742 -0.42496899 2.8279157 0
0.48735556 -0.37488967 2.8278847 0
0.48736361 -0.32481274 2.8278499 0
0.48737165 -0.27473137 2.8278191 0
0.48737577 -0.22494341 2.8280017 0
0.48738772 -0.17515102 2.827755 0
0.48738551 -0.12506984 2.8282976 0
0.48740023 -0.074695647 2.8279073 0
0.48740298 -0.024605069 2.8281598 0
0.48740968 0.024605524 2.8281982 0
0.48742041 0.07469888 2.8280251 0
-0.76696885 0.11340851 2.8220937 0
-0.72484499 0.11340315 2.8219602 0
-0.67453539 0.11339673 2.8218014 0
-0.62540126 0.11339045 2.8216455 0
-0.57510293 0.11338406 2.8214858 0
-0.52481025 0.11337766 2.8213267 0
-0.47569257 0.11337142 2.821171 0
-0.42541119 0.11336501 2.8210115 0
-0.37513536 0.1133586 2.8208523 0
-0.32486531 0.11335222 2.8206925 0
-0.27460083 0.1133458 2.820534 0
-0.22551085 0.11333953 2.8203785 0
-0.1752577 0.11333315 2.8202188 0
-0.12501013 0.11332675 2.8200595 0
-0.074768312 0.11332035 2.8199005 0
-0.024532108 0.11331397 2.8197415 0
0.024530312 0.11330771 2.8195863 0
0.074755259 0.1133013 2.8194265 0
0.12497458 0.11329492 2.8192677 0
0.17518821 0.11328851 2.8191087 0
0.22539616 0.11328212 2.8189495 0
0.27443105 0.11327589 2.8187938 0
0.32462776 0.1132695 2.8186345 0
0.37481895 0.11326309 2.818476 0
0.42500436 0.11325672 2.8183172 0
0.47981188 0.10941326 2.8240192 0
0.48628572 -1.2691029 2.8795788 0
0.48633385 -1.2247771 2.8772907 0
0.48634061 -1.1747285 2.8773303 0
0.48635146 -1.1243893 2.8771467 0
0.48635423 -1.0740349 2.8774111 0
0.48636654 -1.0245713 2.8771403 0
0.48636767 -0.97512454 2.8774905 0
0.48637435 -0.92506891 2.8775306 0
0.48638117 -0.8750118 2.8775706 0
0.48638785 -0.8249532 2.8776102 0
0.48639461 -0.77489346 2.8776507 0
0.48640552 -0.72513509 2.8774593 0
0.48641229 -0.67507309 2.8775065 0
0.486415 -0.62471312 2.8777707 0
0.48642182 -0.57464772 2.877811 0
0.4864285 -0.52458084 2.8778508 0
0.48643547 -0.4745127 2.8778911 0
0.48644638 -0.42474121 2.8776999 0
0.48644909 -0.37497181 2.8779709 0
0.48645705 -0.32520023 2.8779352 0
0.4864625 -0.27542305 2.878051 0
0.48647332 -0.22505172 2.8778667 0
0.48647612 -0.17467901 2.8781319 0
0.48648697 -0.12490182 2.8779409 0
0.48648944 -0.075121686 2.8782117 0
0.4864963 -0.025040871 2.878252 0
0.48650309 0.025041338 2.8782926 0
0.48650992 0.075124964 2.8783321 0
-0.77435082 0.11334871 2.8799872 0
-0.72419804 0.11334233 2.8798251 0
-0.67405081 0.11333594 2.879663 0
-0.62390929 0.11332956 2.8795009 0
-0.57496703 0.11332333 2.8793426 0
-0.52603018 0.1133171 2.8791847 0
-0.47590524 0.11331073 2.8790219 0
-0.42578611 0.11330434 2.87886 0
-0.37567246 0.11329796 2.8786983 0
-0.3255645 0.11329159 2.8785362 0
-0.27546221 0.11328521 2.8783746 0
-0.2253655 0.11327883 2.878212 0
-0.17527449 0.11327247 2.8780503 0
-0.12518908 0.1132661 2.877888 0
-0.075109318 0.11325973 2.8777261 0
-0.025035186 0.11325336 2.877564 0
0.025033306 0.11324696 2.8774025 0
0.075096168 0.11324059 2.8772404 0
0.12515338 0.11323422 2.8770785 0
0.17520498 0.11322788 2.8769169 0
0.22525093 0.1132215 2.876755 0
0.27529129 0.11321512 2.8765934 0
0.32532597 0.11320877 2.876431 0
0.37535509 0.1132024 2.8762698 0
0.42537847 0.11319602 2.8761077 0
0.47912282 0.10935188 2.8767004 0
0.48522431 -1.3070625 2.9379072 0
0.48538938 -1.2750552 2.9290481 0
0.48539317 -1.2253206 2.9292519 0
0.48540735 -1.1752852 2.9288909 0
0.48540819 -1.124938 2.9292536 0
0.48541498 -1.075197 2.9292939 0
0.48542163 -1.0254548 2.9293351 0
0.48543423 -0.97510368 2.9290533 0
0.48543373 -0.92506057 2.9294963 0
0.48544189 -0.87501049 2.9294558 0
0.48545006 -0.82496321 2.929419 0
0.48545843 -0.77491134 2.9293771 0
0.48546362 -0.72485632 2.9295008 0
0.48546898 -0.67480308 2.9296184 0
0.48548013 -0.62535918 2.9294167 0
0.48548245 -0.57529908 2.929702 0
0.48549509 -0.52492583 2.9294209 0
0.48549014 -0.47518945 2.9301054 0
0.48550719 -0.42511699 2.9295852 0
0.48550951 -0.37505716 2.9298666 0
0.48552078 -0.32499316 2.9296668 0
0.48552015 -0.2749286 2.9301078 0
0.48553282 -0.2251664 2.9298267 0
0.48553813 -0.17509566 2.9299498 0
0.48554781 -0.12472618 2.9298301 0
0.48555467 -0.075549811 2.929858 0
0.48567671 -0.025434764 2.923527 0
0.48568368 0.025435247 2.923569 0
0.48569041 0.07509546 2.923609 0
-0.80764568 0.11328966 2.9403901 0
-0.77472669 0.1132855 2.9402814 0
-0.72474313 0.11327913 2.9401164 0
-0.67476493 0.11327277 2.9399514 0
-0.6247924 0.11326642 2.9397867 0
-0.57482558 0.11326007 2.9396219 0
-0.5248642 0.11325371 2.9394567 0
-0.47490844 0.11324733 2.939292 0
-0.42495838 0.113241 2.9391267 0
-0.37501392 0.11323464 2.9389622 0
-0.325075 0.11322831 2.9387972 0
-0.27514175 0.11322196 2.9386325 0
-0.22521405 0.1132156 2.9384673 0
-0.17529197 0.11320923 2.9383025 0
-0.12537549 0.11320288 2.938138 0
-0.075464584 0.11319657 2.937973 0
-0.025559321 0.1131902 2.9378083 0
0.025557365 0.1131837 2.93764 0
0.075451337 0.11317734 2.937475 0
0.1253397 0.11317101 2.93731 0
0.17522246 0.11316466 2.9371455 0
0.22509964 0.11315832 2.9369807 0
0.27497122 0.11315195 2.9368165 0
0.32483721 0.11314561 2.9366515 0
0.37469763 0.11313929 2.9364872 0
0.42455241 0.11313295 2.9363225 0
0.47755903 0.10944819 2.9291024 0
0.48450065 -1.3163176 2.9778092 0
0.48454267 -1.2752545 2.975827 0
0.4845413 -1.225131 2.976315 0
0.4845562 -1.1746047 2.9759133 0
0.48455906 -1.1244752 2.9761751 0
0.48456568 -1.0751702 2.9762151 0
0.48457637 -1.0254451 2.9760337 0
0.48457518 -0.97492015 2.9765186 0
0.48458594 -0.9247815 2.9763401 0
0.48459661 -0.87506354 2.9761577 0
0.48459932 -0.82493001 2.9764221 0
0.48460609 -0.77520591 2.976464 0
0.48461679 -0.72548157 2.9762816 0
0.48461553 -0.67534107 2.9767704 0
0.48463047 -0.62480104 2.9763689 0
0.48463312 -0.57465541 2.9766302 0
0.48463991 -0.52533519 2.9766717 0
0.48465052 -0.47518525 2.9764926 0
0.48464951 -0.4246428 2.976979 0
0.48465994 -0.37490079 2.9767964 0
0.48467079 -0.32516852 2.9766142 0
0.48467365 -0.27501884 2.9768786 0
0.48468447 -0.22486679 2.9766977 0
0.48468718 -0.17513137 2.9769616 0
0.4846898 -0.12538321 2.9772274 0
0.48472002 -0.074094959 2.9759865 0
0.48482999 -0.024611313 2.9703214 0
0.48483664 0.024611762 2.9703615 0
0.48484778 0.074762031 2.9701571 0
0.18021141 0.11309828 2.9999378 0
0.22494218 0.11309259 2.9997869 0
0.27588016 0.11308613 2.999615 0
0.32557023 0.1130798 2.9994473 0
0.37525469 0.11307348 2.99928 0
0.42493352 0.11306717 2.9991121 0
0.47776058 0.10927138 2.982429 0
0.48336264 -1.354995 3.0403585 0
0.48364559 -1.324164 3.024987 0
0.48366046 -1.2749386 3.0245717 0
0.48366714 -1.2248341 3.0246148 0
0.48367879 -1.1750466 3.0243886 0
0.48368064 -1.1252512 3.024698 0
0.48368734 -1.0751423 3.0247407 0
0.48369414 -1.0250319 3.0247822 0
0.48370084 -0.97492045 3.0248249 0
0.48371235 -0.92512405 3.0245986 0
0.48371419 -0.87532377 3.0249081 0
0.48372567 -0.8248992 3.0246906 0
0.4837293 -0.77477956 3.0249047 0
0.48373443 -0.72497791 3.0250351 0
0.48374602 -0.67517316 3.0248091 0
0.48374781 -0.62536734 3.0251184 0
0.48375472 -0.57524455 3.025161 0
0.48376131 -0.5251205 3.0252035 0
0.48376805 -0.47499475 3.0252454 0
0.48377496 -0.42486802 3.0252879 0
0.48378652 -0.37505752 3.0250616 0
0.48378834 -0.32524064 3.0253723 0
0.48379987 -0.27480182 3.0251548 0
0.48380351 -0.22466601 3.0253685 0
0.4838087 -0.17484878 3.0254991 0
0.48382017 -0.12502979 3.0252726 0
0.48382205 -0.075207695 3.0255828 0
0.48382884 -0.02506955 3.0256255 0
0.48383561 0.025070015 3.0256677 0
0.48384237 0.075210974 3.0257096 0
-0.8162151 0.11322494 3.0032973 0
-0.7738747 0.11321958 3.0031548 0
-0.72406727 0.11321324 3.0029864 0
-0.67426556 0.11320691 3.0028186 0
-0.62446934 0.11320057 3.0026507 0
-0.57467872 0.11319424 3.0024831 0
-0.52489364 0.11318791 3.002315 0
-0.47511417 0.11318161 3.0021472 0
-0.42534024 0.11317526 3.0019794 0
-0.37557185 0.11316893 3.001812 0
-0.32580906 0.11316261 3.0016437 0
-0.27605185 0.11315627 3.001476 0
-0.22505644 0.1131498 3.0013041 0
-0.17406689 0.11314331 3.0011325 0
-0.1243266 0.11313701 3.0009646 0
-0.07459189 0.11313067 3.0007968 0
-0.024862725 0.11312435 3.0006289 0
0.02486087 0.11311802 3.0004611 0
0.074578911 0.11311171 3.0002937 0
0.12429141 0.11310538 3.0001259 0
0.15535912 0.11310146 3.0000215 0
0.4838466 0.10654974 3.0257363 0
0.48270014 -1.3629955 3.0768955 0
0.48274773 -1.3246922 3.0745802 0
0.48275447 -1.2750336 3.0746243 0
0.48276564 -1.2249527 3.0744195 0
0.48276344 -1.1748579 3.074955 0
0.48277912 -1.1252116 3.0745015 0
0.48278141 -1.075114 3.074795 0
0.48279262 -1.0250151 3.0745876 0
0.48279035 -0.97536421 3.0751269 0
0.48280591 -0.92526227 3.0746746 0
0.48280814 -0.87517178 3.0749667 0
