# .PCD v0.7 - Point Cloud Data file format
VERSION 0.7
FIELDS x y z rgb
SIZE 4 4 4 4
TYPE F F F U
COUNT 1 1 1 1
WIDTH 1154
HEIGHT 1
VIEWPOINT 0 0 0 1 0 0 0
POINTS 1154
DATA ascii
0.4749552 0.10582564 0.7740742 10000536
0.52442437 0.10569239 0.77435595 9934743
0.57492411 0.10555797 0.77450711 9934743
0.61142564 0.10537014 0.78329062 10000536
-0.65912783 0.10812326 0.84001809 10197915
-0.62380111 0.10818686 0.82501024 10197915
-0.57511419 0.10805622 0.82524306 10197915
-0.5249458 0.10793251 0.82444304 10197915
-0.47495148 0.10781039 0.82353371 10197915
-0.42438155 0.10767402 0.82384235 10197915
-0.37501964 0.10754179 0.82405686 10197915
-0.32524249 0.10739764 0.82531869 10197915
-0.27498442 0.10727251 0.82463038 10197915
-0.22498716 0.10715051 0.82370859 10197915
-0.17468666 0.10702401 0.8231383 10197915
-0.12501565 0.10688172 0.82424229 10197915
-0.07528691 0.10673862 0.82541102 10197915
-0.024983861 0.10661261 0.82480037 10197915
0.025014117 0.10649072 0.8238647 10197915
0.075033002 0.10636891 0.82291734 10197915
0.12533657 0.10622528 0.82398921 10197915
0.17465454 0.10607959 0.82550937 10132122
0.22502463 0.1059527 0.82496071 10066329
0.27498451 0.10583052 0.82406408 9934743
0.32499903 0.10570867 0.82312381 9934743
0.37556863 0.10557368 0.82330036 9934743
0.42466864 0.1054206 0.82558376 9934743
0.47507513 0.10529176 0.82520914 9934743
0.52502888 0.10517085 0.82419556 9934743
0.57503593 0.10504895 0.82326061 10000536
0.62391138 0.10491449 0.82381409 10000536
0.65905172 0.10465147 0.84015483 10000536
-0.70577323 0.1076794 0.89432448 6513507
-0.67238909 0.10776007 0.87817281 8487297
-0.62498599 0.107668 0.8750335 10132122
-0.5749951 0.10754656 0.87406534 10197915
-0.52499378 0.10742534 0.87306237 10197915
-0.47439146 0.10728805 0.8734532 10197915
-0.42572883 0.10714241 0.8751325 10197915
-0.37510619 0.10700497 0.87553221 10197915
-0.32508337 0.10688324 0.87457746 10197915
-0.27497223 0.10676207 0.87354767 10197915
-0.22501442 0.10664079 0.87256473 10197915
-0.17500894 0.10649171 0.87423158 10197915
-0.12497666 0.10634091 0.87606257 10197915
-0.074966803 0.10621986 0.87504464 10197915
-0.02499087 0.10609864 0.87405723 10197915
0.02499301 0.10597754 0.87305039 10197915
0.075316191 0.10585053 0.87252748 10197915
0.12458286 0.10568469 0.87598771 10197915
0.17503546 0.10555599 0.87559527 10197915
0.22503631 0.10543539 0.87453723 10132122
0.27500206 0.10531408 0.87355989 10066329
0.32497311 0.10519331 0.8725214 9934743
0.37497279 0.10504396 0.87421644 9934743
0.42493048 0.10489326 0.8760522 9934743
0.47491318 0.10477184 0.87508059 9934743
0.52501827 0.10465024 0.87409323 9934743
0.57500786 0.10452952 0.87304729 10000536
0.62471569 0.10440633 0.87231016 10000536
0.67275167 0.10421497 0.8785308 10000536
0.70570499 0.10396432 0.89423901 10000536
-0.71223342 -0.40700495 0.92533922 6447714
-0.6887179 -0.41083696 0.94256878 6447714
-0.71385002 -0.37500572 0.92442083 6447714
-0.68961668 -0.37512529 0.94221061 6447714
-0.71397924 -0.32490069 0.92476082 6447714
-0.68987364 -0.32528514 0.94244647 6447714
-0.71404362 -0.27500072 0.92513365 6447714
-0.69010758 -0.27500719 0.94270164 6447714
-0.71424037 -0.22499907 0.92541301 6447714
-0.69054067 -0.22504753 0.94280893 6447714
-0.71422154 -0.17498752 0.92585272 6447714
-0.69066888 -0.17520738 0.94313812 6447714
-0.7144174 -0.12500072 0.92613065 6447714
-0.69101137 -0.12512526 0.9433139 6447714
-0.71450037 -0.074909754 0.92650157 6447714
-0.69131577 -0.075196512 0.94351411 6447714
-0.71459979 -0.02501693 0.92685056 6447714
-0.69156945 -0.025113717 0.9437533 6447714
-0.71479011 0.025036832 0.92713565 6447714
-0.69191867 0.024779351 0.94392204 6447714
-0.71475405 0.07500685 0.92758518 6447714
-0.69208354 0.07491257 0.94422823 6447714
-0.7142179 0.10445063 0.92537153 6513507
-0.68075693 0.1059527 0.93125576 6513507
-0.62497354 0.10715958 0.9237684 7960953
-0.57495433 0.10703843 0.92274934 10066329
-0.52451509 0.10689194 0.9240725 10197915
-0.47577354 0.10675327 0.92506218 10197915
-0.42501885 0.10661292 0.92569572 10197915
-0.37517184 0.10649273 0.92464411 10197915
-0.32514644 0.10637181 0.92360467 10197915
-0.27499586 0.106251 0.92252773 10197915
-0.22448304 0.10610329 0.9239471 10197915
-0.17541234 0.10595325 0.9259454 10197915
-0.12500089 0.10582434 0.92557406 10197915
-0.075022519 0.10570534 0.92437267 10197915
-0.025014447 0.10558379 0.9234013 10197915
0.025024034 0.10546346 0.92231649 10197915
0.07507465 0.10531098 0.9242928 10197915
0.12501411 0.10515776 0.92638314 10197915
0.17499352 0.10503726 0.92532164 10197915
0.22500135 0.1049169 0.92424238 10197915
0.27498981 0.10479652 0.92316419 10197915
0.32505232 0.10467494 0.92218876 10132122
0.37472323 0.10451361 0.9251104 9934743
0.42514709 0.10436998 0.92615551 10066329
0.47510546 0.10424905 0.92513901 10132122
0.52504146 0.10412862 0.92407936 10000536
0.57505208 0.10400794 0.92302626 10000536
0.62499398 0.1038884 0.92187709 10000536
0.67490709 0.10371288 0.92611176 10000536
0.71949804 0.10355162 0.93031466 10000536
0.75203675 0.10328233 0.94791174 10000536
-0.66367882 -0.41495398 0.96091229 6447714
-0.62942839 -0.42064682 0.98600459 6447714
-0.6647656 -0.37488723 0.9604544 6447714
-0.63078576 -0.37506548 0.98539472 6447714
-0.66486287 -0.32491112 0.9608081 6447714
-0.63092744 -0.32500175 0.98571628 6447714
-0.66524988 -0.27500257 0.96094847 6447714
-0.6313237 -0.27506682 0.98585021 6447714
-0.66562265 -0.22490345 0.96110046 6447714
-0.631607 -0.22514465 0.9860667 6447714
-0.66579634 -0.17488766 0.96139866 6447714
-0.6317597 -0.17500386 0.98638099 6447714
-0.6661461 -0.12492514 0.96156651 6447714
-0.63220227 -0.12504311 0.98648024 6447714
-0.6664716 -0.074881539 0.96175343 6447714
-0.63243663 -0.075204767 0.98673177 6447714
-0.66670585 -0.024924122 0.96200615 6447714
-0.63260752 -0.025021251 0.98703283 6447714
-0.66707385 0.025074188 0.96216083 6447714
-0.63306648 0.025014047 0.98712087 6447714
-0.66731274 0.075123869 0.96241051 6447714
-0.63326073 0.074807867 0.98740286 6447714
-0.6668812 0.10389672 0.9618367 6513507
-0.62833953 0.10481241 0.97990179 6513507
-0.57499528 0.1065061 0.97377616 7368816
-0.52565503 0.10636168 0.97517633 9737364
-0.47495401 0.10623019 0.97498161 10197915
-0.42496428 0.10611041 0.97384894 10197915
-0.37480032 0.10598726 0.97299576 10197915
-0.32488051 0.10583489 0.97500008 10197915
-0.27498356 0.10571483 0.97391039 10197915
-0.22561517 0.10556885 0.97545302 10197915
-0.17498618 0.10543909 0.97510618 10197915
-0.12498094 0.1053184 0.97405916 10197915
-0.074974015 0.10519975 0.97280818 10197915
-0.024345852 0.10505003 0.97437829 10197915
0.025016056 0.10492375 0.97403222 10197915
0.07450109 0.10477526 0.97579312 10197915
0.12501812 0.10464779 0.97524786 10197915
0.17497686 0.1045277 0.97417724 10197915
0.22499278 0.10440775 0.97302908 10197915
0.27580008 0.10426965 0.97345847 10197915
0.32490394 0.10413189 0.97425401 10197915
0.37446216 0.10398399 0.97594595 10132122
0.42500284 0.10385645 0.97540581 10132122
0.47502559 0.10373598 0.97432852 10197915
0.52504587 0.10361601 0.97320098 10132122
0.57539117 0.10349018 0.9725576 10000536
0.62503386 0.10334062 0.97437084 10000536
0.67457467 0.10319166 0.97615081 10000536
0.724971 0.10306492 0.97558367 10000536
0.76487982 0.10290591 0.98074651 10000536
-0.60037857 -0.45017964 1.0070754 6447714
-0.56774098 -0.45563495 1.0309857 6447714
-0.54594499 -0.45921409 1.0469534 6447714
-0.60523689 -0.4241749 1.0037307 6447714
-0.57563949 -0.42500207 1.0254487 6447714
-0.54616666 -0.4251152 1.0470802 6447714
-0.60536999 -0.37461954 1.0040538 6447714
-0.57528824 -0.37501684 1.0261327 6447714
-0.54634261 -0.37520546 1.0473759 6447714
-0.60573918 -0.32500115 1.0042055 6447714
-0.57538217 -0.32500181 1.026487 6447714
-0.54663849 -0.32560527 1.0475799 6447714
-0.60613537 -0.27479234 1.0043418 6447714
-0.57555699 -0.27500889 1.0267842 6447714
-0.54696327 -0.27507272 1.0477718 6447714
-0.60632199 -0.22447415 1.0046319 6447714
-0.57552898 -0.22507477 1.0272292 6447714
-0.5474031 -0.22506008 1.0478741 6447714
-0.60655719 -0.17501111 1.0048789 6447714
-0.57528383 -0.1750005 1.0278343 6447714
-0.54742771 -0.1758945 1.0482737 6447714
-0.60700154 -0.12493272 1.004979 6447714
-0.57545912 -0.12499052 1.0281326 6447714
-0.54775888 -0.12521276 1.0484614 6447714
-0.60728282 -0.074578516 1.0052013 6447714
-0.57554942 -0.075056963 1.0284897 6447714
-0.54821068 -0.075077198 1.0485564 6447714
-0.60737443 -0.024978483 1.0055555 6447714
-0.57543319 -0.024970509 1.0290004 6447714
-0.54848772 -0.026927935 1.0487623 6447714
-0.60783494 0.024998762 1.0056407 6447714
-0.57533467 0.025006242 1.0294958 6447714
-0.54855037 0.02478761 1.0491558 6447714
-0.60821837 0.075225107 1.0057869 6447714
-0.57553625 0.075000219 1.029773 6447714
-0.54900867 0.075056002 1.0492468 6447714
-0.60810304 0.10330459 1.0059633 6513507
-0.57408226 0.10383078 1.0263153 6513507
-0.526048 0.10569402 1.0268857 6842472
-0.4750067 0.10571086 1.0247672 9276813
-0.42497525 0.10559142 1.0235907 10197915
-0.37493208 0.10547043 1.022558 10197915
-0.32486081 0.10531316 1.0249977 10197915
-0.27500755 0.10519376 1.0238616 10197915
-0.22453396 0.10503925 1.025934 10197915
-0.17500582 0.10491535 1.0253139 10197915
-0.12504517 0.10479578 1.0241672 10197915
-0.075015992 0.10467796 1.022836 10197915
-0.025786305 0.10453132 1.0244641 10197915
0.025034325 0.10439866 1.0243624 10197915
0.075745568 0.10426612 1.0242668 10197915
0.12506075 0.10412075 1.0257596 10197915
0.17500773 0.10400116 1.0246192 10197915
0.22496149 0.10388166 1.0234656 10197915
0.27410311 0.10374849 1.023829 10197915
0.32509875 0.10360295 1.0249124 10197915
0.37512401 0.1034841 1.023679 10197915
0.4259156 0.10333489 1.0251592 10197915
0.47500694 0.10320624 1.0251009 10197915
0.52500194 0.10308622 1.0239896 10197915
0.57458133 0.10296339 1.0232526 10132122
0.62505472 0.10280798 1.0254091 10066329
0.67503786 0.10268864 1.0242325 10000536
0.7251116 0.10256821 1.023149 10000536
0.77491128 0.10240813 1.0259202 10000536
0.81211746 0.10220265 1.0362247 10000536
-0.51930916 -0.46357024 1.0664693 6447714
-0.48626173 -0.46911174 1.0906775 6447714
-0.52126765 -0.42498982 1.0653615 6447714
-0.48701286 -0.4249931 1.0905035 6447714
-0.52174127 -0.37500763 1.0654358 6447714
-0.48748213 -0.37504572 1.0905805 6447714
-0.52206659 -0.32490477 1.0656215 6447714
-0.48776171 -0.32515112 1.0908033 6447714
-0.52235901 -0.27495623 1.0658342 6447714
-0.48810109 -0.27504194 1.090977 6447714
-0.52250719 -0.22500417 1.0661478 6447714
-0.48818693 -0.2251222 1.0913397 6447714
-0.52285814 -0.1749046 1.0663117 6447714
-0.48848799 -0.1751429 1.0915428 6447714
-0.52316016 -0.1249864 1.0665181 6447714
-0.48890331 -0.12500212 1.0916643 6447714
-0.52365136 -0.074994132 1.066583 6447714
-0.48924443 -0.075147033 1.0918378 6447714
-0.52376771 -0.024815779 1.0669241 6447714
-0.48937553 -0.02522257 1.0921662 6447714
-0.52392179 0.025003204 1.067238 6447714
-0.48966661 0.024952916 1.0923781 6447714
-0.52444875 0.074990779 1.0672742 6447714
-0.48997709 0.074751988 1.0925745 6447714
-0.52285802 0.10319761 1.0666239 6513507
-0.47929308 0.10428494 1.0806104 6513507
-0.42491755 0.10506018 1.0744865 8684676
-0.37485653 0.1049407 1.0733075 10132122
-0.32483238 0.10482146 1.0721145 10197915
-0.27435338 0.1046925 1.0717393 10197915
-0.22549787 0.10450605 1.0772785 10197915
-0.17493628 0.10437921 1.0766767 10197915
-0.12498339 0.10425998 1.0755012 10197915
-0.074995495 0.10414167 1.0742267 10197915
-0.024973767 0.10402228 1.0730498 10197915
0.025009835 0.10390364 1.0718125 10197915
0.074983165 0.10376267 1.0727156 10197915
0.12493037 0.10357975 1.0776426 10197915
0.17495681 0.10346108 1.0763958 10197915
0.22501612 0.10334156 1.0752195 10197915
0.2750341 0.10322328 1.0739363 10197915
0.3250117 0.10310517 1.0726399 10197915
0.37509203 0.1029847 1.0715504 10197915
0.42510995 0.10282401 1.0743263 10197915
0.47506106 0.10266034 1.0774084 10197915
0.5249657 0.10254181 1.07618 10197915
0.57497621 0.1024236 1.0748855 10197915
0.62494481 0.10230494 1.0736542 10132122
0.67501479 0.1021863 1.0723839 10066329
0.72497177 0.10206627 1.0712847 10000536
0.77601206 0.10188299 1.0759755 10000536
0.82392281 0.10173482 1.0780853 10000536
0.85866463 0.10151292 1.0905883 10132122
-0.41997808 -0.504798 1.139027 6447714
-0.46150312 -0.47288308 1.1088182 6447714
-0.42794842 -0.47509259 1.1334289 6447714
-0.46211645 -0.42498264 1.1087761 6447714
-0.42829871 -0.42500195 1.1335981 6447714
-0.4625698 -0.374937 1.1088686 6447714
-0.42870834 -0.37508416 1.133723 6447714
-0.46279061 -0.32473192 1.1091329 6447714
-0.42889351 -0.3251079 1.1340108 6447714
-0.46287301 -0.2750321 1.1094942 6447714
-0.42905861 -0.27498549 1.134315 6447714
-0.46328339 -0.22489987 1.1096209 6447714
-0.42932007 -0.22508886 1.1345487 6447714
-0.46356839 -0.17489082 1.109836 6447714
-0.42968163 -0.17499314 1.134708 6447714
-0.46397325 -0.12500511 1.1099623 6447714
-0.43007466 -0.12506829 1.1348445 6447714
-0.46432951 -0.074853756 1.1101279 6447714
-0.43036515 -0.075092658 1.1350547 6447714
-0.46436322 -0.024864785 1.1105276 6447714
-0.43049195 -0.025120106 1.1353872 6447714
-0.46475324 0.025002807 1.1106658 6447714
-0.43071866 0.024916418 1.1356468 6447714
-0.46503016 0.075155661 1.1108899 6447714
-0.4310416 0.07502012 1.1358354 6447714
-0.46470457 0.10274784 1.1103673 6513507
-0.42648762 0.10337543 1.1283909 6513507
-0.37488717 0.10440121 1.1250215 7960953
-0.32495797 0.10428336 1.1237192 10000536
-0.27578762 0.10415927 1.1232066 10197915
-0.22507305 0.10399919 1.1257498 10197915
-0.17497191 0.1038807 1.1244668 10197915
-0.12498534 0.10376386 1.1230514 10197915
-0.074264519 0.10360549 1.1254309 10197915
-0.025020795 0.10347896 1.125134 10197915
0.025060125 0.10336043 1.1238611 10197915
0.074125983 0.10323448 1.1235543 10197915
0.12499405 0.10307685 1.1258281 10197915
0.17507136 0.10295849 1.1245342 10197915
0.22503437 0.10284041 1.1232456 10197915
0.27615947 0.1026922 1.1245497 10197915
0.32499033 0.10255628 1.1252569 10197915
0.37505952 0.10243884 1.1238772 10197915
0.42406613 0.10230806 1.1240431 10197915
0.47494382 0.10215461 1.1259085 10197915
0.52499259 0.1020354 1.1247081 10197915
0.57501811 0.101919 1.123238 10197915
0.62593484 0.10178205 1.123517 10197915
0.67499089 0.10163359 1.1253699 10132122
0.72496516 0.10151623 1.1240051 10066329
0.77387995 0.10138243 1.1244881 10000536
0.82514685 0.10123148 1.1260211 10132122
0.87184274 0.1010972 1.127108 10197915
0.90369791 0.1008656 1.1412653 10197915
-0.4022626 -0.50772637 1.1520058 6447714
-0.37248561 -0.51257724 1.1738204 6447714
-0.34340683 -0.51746774 1.1951244 6447714
-0.40255615 -0.47427022 1.1520748 6447714
-0.37534794 -0.47499615 1.1720402 6447714
-0.34367046 -0.47507721 1.1952904 6447714
-0.40288866 -0.42502925 1.1522493 6447714
-0.37543949 -0.42499995 1.1723969 6447714
-0.34415951 -0.42509148 1.1953566 6447714
-0.40330428 -0.3744469 1.1523744 6447714
-0.37544239 -0.37491646 1.1728204 6447714
-0.34424931 -0.37571672 1.1957104 6447714
-0.40354612 -0.32479888 1.1526185 6447714
-0.37527874 -0.32499471 1.1733668 6447714
-0.3443785 -0.32501402 1.1960466 6447714
-0.40401155 -0.27502057 1.1527003 6447714
-0.37538525 -0.27499074 1.173712 6447714
-0.34468603 -0.27556458 1.1962409 6447714
-0.40430042 -0.22440588 1.1529183 6447714
-0.37549692 -0.2250032 1.1740552 6447714
-0.34498426 -0.22503476 1.1964515 6447714
-0.40428042 -0.17493026 1.153354 6447714
-0.37524581 -0.17501736 1.1746649 6447714
-0.34541652 -0.17530453 1.1965576 6447714
-0.40465084 -0.12475441 1.1535084 6447714
-0.37531123 -0.12498347 1.1750424 6447714
-0.34565139 -0.12528874 1.1968101 6447714
-0.40494671 -0.074624822 1.1537175 6447714
-0.37545493 -0.075027011 1.1753612 6447714
-0.34610093 -0.074922979 1.1969085 6447714
-0.40535569 -0.024855949 1.1538404 6447714
-0.37553066 -0.025034193 1.1757303 6447714
-0.34636137 -0.025456643 1.197138 6447714
-0.40567085 0.025289714 1.1540351 6447714
-0.37548983 0.025124149 1.176187 6447714
-0.34657475 0.024128165 1.1974028 6447714
-0.4059985 0.07485386 1.1542163 6447714
-0.37538689 0.075029321 1.1766863 6447714
-0.34667236 0.074161537 1.1977566 6447714
-0.40571767 0.10211834 1.1546514 6513507
-0.3734059 0.10261211 1.1734024 6513507
-0.326637 0.10358837 1.1773008 7171437
-0.27497354 0.10362432 1.1742712 9737364
-0.22489938 0.10350521 1.1730517 10197915
-0.17494035 0.10338882 1.1716021 10197915
-0.12448137 0.10326318 1.1709073 10197915
-0.075842589 0.10306618 1.1775178 10197915
-0.024982352 0.10293258 1.1774896 10197915
0.024944369 0.1028152 1.1761467 10197915
0.075046428 0.10269731 1.1748017 10197915
0.12513244 0.10257871 1.1735301 10197915
0.17510302 0.10246198 1.17211 10197915
0.22505549 0.10234411 1.1708018 10197915
0.27494043 0.10217024 1.1748797 10197915
0.32514042 0.10200498 1.1780497 10197915
0.37507859 0.10188848 1.1766148 10197915
0.42480093 0.10177001 1.1754217 10197915
0.47489482 0.10165229 1.1740649 10197915
0.52506244 0.10153485 1.1726635 10197915
0.57501823 0.10141825 1.171231 10197915
0.62387913 0.10129057 1.1711401 10197915
0.67501783 0.10107744 1.1786618 10197915
0.72505528 0.1009604 1.1772542 10197915
0.77507275 0.10084344 1.1758457 10132122
0.82497144 0.10072467 1.1746367 10197915
0.87475693 0.10060903 1.1731569 10197915
0.91769034 0.1004567 1.176926 10197915
-0.27770162 -0.55307055 1.2430496 7763574
-0.31775731 -0.52149928 1.2139165 6447714
-0.28428942 -0.52507621 1.238452 6447714
-0.31876883 -0.47499201 1.2135683 6447714
-0.28478357 -0.47501633 1.2385148 6447714
-0.31924182 -0.4249917 1.2136477 6447714
-0.2850025 -0.42515388 1.2387782 6447714
-0.31948337 -0.37490529 1.213894 6447714
-0.28537816 -0.37500474 1.2389282 6447714
-0.31988925 -0.3250075 1.2140214 6447714
-0.28571177 -0.32518697 1.239107 6447714
-0.32020199 -0.27486047 1.214218 6447714
-0.28599146 -0.27500024 1.2393281 6447714
-0.32022738 -0.22488542 1.2146254 6447714
-0.28612661 -0.22531952 1.2396519 6447714
-0.32049581 -0.17493849 1.214853 6447714
-0.28615582 -0.17498595 1.2400581 6447714
-0.32073188 -0.12493519 1.2151054 6447714
-0.28667682 -0.12504753 1.2401004 6447714
-0.32118812 -0.074971117 1.2151958 6447714
-0.28682095 -0.075202547 1.2404178 6447714
-0.3214604 -0.024869347 1.2154198 6447714
-0.28730503 -0.025040399 1.2404896 6447714
-0.32181442 0.024984701 1.2155858 6447714
-0.28756553 0.024811966 1.2407224 6447714
-0.3221736 0.075075321 1.2157465 6447714
-0.28786242 0.075058527 1.2409312 6447714
0.8360433 0.099917583 1.2491901 10197915
0.87549084 0.099882551 1.2425963 10197915
0.92536396 0.0998253 1.2354976 6842472
0.96526289 0.099743307 1.2332882 3092271
-0.32044652 0.10210148 1.2143803 6513507
-0.27701485 0.10268874 1.2280293 6776679
-0.22501728 0.10297038 1.2243382 9276813
-0.17510806 0.1028535 1.2229496 10197915
-0.12557134 0.10273149 1.2221403 10197915
-0.075022042 0.10256351 1.2254899 10197915
-0.024983214 0.10244519 1.2242008 10197915
0.02621937 0.10230667 1.2245573 10197915
0.075011179 0.10215409 1.226871 10197915
0.1249793 0.10203862 1.2253336 10197915
0.17503548 0.10192145 1.2239311 10197915
0.22507852 0.10180348 1.2226107 10197915
0.27357361 0.10166382 1.2237593 10197915
0.32496762 0.10151458 1.225091 10197915
0.37490964 0.10139643 1.2238173 10197915
0.42636916 0.10124853 1.2250079 10197915
0.47514132 0.10110611 1.2263441 10197915
0.52503777 0.10098953 1.2249303 10197915
0.57501888 0.10087227 1.2235572 10197915
0.62508374 0.10075574 1.2220953 10197915
0.67498541 0.1005825 1.2261034 10197915
0.72494239 0.10046411 1.2248454 10197915
0.77490687 0.10034885 1.2232864 10197915
0.82475853 0.1002327 1.2218399 10197915
0.87469697 0.10017221 1.2150356 10197915
0.92453402 0.10011277 1.2081592 10066329
0.95319694 0.10010061 1.2020938 9868950
-0.25853121 -0.55622637 1.2570941 10132122
-0.22267759 -0.56207865 1.2833617 11250603
-0.19980952 -0.58057857 1.2999896 11711154
-0.25936058 -0.52483737 1.2567518 6447714
-0.22563821 -0.52500015 1.2815042 6447714
-0.25982195 -0.47496885 1.2568375 6447714
-0.22603974 -0.47510695 1.2816329 6447714
-0.26006275 -0.42476094 1.2570883 6447714
-0.22623962 -0.42499641 1.2819124 6447714
-0.26039499 -0.37495208 1.2572666 6447714
-0.22667661 -0.37508503 1.2820157 6447714
-0.26031744 -0.32471725 1.2577502 6447714
-0.22637419 -0.32501963 1.2826633 6447714
-0.26057988 -0.27497888 1.2579805 6447714
-0.22691873 -0.27500653 1.2826885 6447714
-0.26101518 -0.22482798 1.258088 6447714
-0.22703367 -0.22505692 1.2830291 6447714
-0.26117769 -0.17502068 1.2583914 6447714
-0.22751623 -0.17500822 1.2830999 6447714
-0.26172426 -0.12496226 1.2584163 6447714
-0.2277063 -0.12510292 1.2833852 6447714
-0.26191118 -0.074855044 1.2587055 6447714
-0.22815216 -0.074996702 1.2834837 6447714
-0.26229414 -0.025032008 1.2588468 6447714
-0.22835566 -0.025140492 1.2837576 6447714
-0.26255295 0.025256142 1.2590848 6447714
-0.22868878 0.025002165 1.2839397 6447714
-0.26295695 0.075012572 1.2592113 6447714
-0.22909114 0.074863032 1.2840685 6447714
0.64484513 0.099988461 1.2906421 10197915
0.67738992 0.099927157 1.2883049 10197915
0.72723979 0.09985099 1.2830265 10197915
0.77516741 0.099750139 1.2806 10197915
0.82371932 0.099666923 1.276322 10197915
0.87526488 0.099516489 1.277737 7697781
0.92526728 0.099401079 1.2761823 3026478
0.97502202 0.099283889 1.274856 2894892
1.0105947 0.099094607 1.284021 2894892
-0.26216912 0.101547 1.2592084 6513507
-0.2246688 0.10194423 1.2758112 6579300
-0.17499235 0.10232848 1.2732345 8750469
-0.1250035 0.1022133 1.2716602 10197915
-0.073603049 0.10205603 1.2737638 10197915
-0.024930676 0.10191891 1.2746234 10197915
0.023902504 0.10178909 1.2747445 10197915
0.075022012 0.10162561 1.2775205 10197915
0.12503065 0.10150824 1.2761518 10197915
0.17505494 0.10139116 1.2747495 10197915
0.22496426 0.10127565 1.2732273 10197915
0.275022 0.10115977 1.2717026 10197915
0.32623926 0.10101573 1.2725871 10197915
0.37483609 0.10086601 1.274672 10197915
0.42365414 0.10072946 1.2754431 10197915
0.47506103 0.10057075 1.2776754 10197915
0.52500331 0.10045526 1.2761401 10197915
0.5749625 0.10033816 1.2747567 10197915
0.62384713 0.10023477 1.2723339 10197915
0.67416704 0.10017478 1.2653853 10197915
0.72428644 0.10011589 1.2583854 10197915
0.77452821 0.1000568 1.2513729 10197915
-0.17349255 -0.57012177 1.319398 11645361
-0.14080481 -0.57424563 1.3433537 11711154
-0.17534409 -0.52500212 1.3184187 6513507
-0.1408765 -0.52511644 1.3437176 6710886
-0.20090967 -0.46807045 1.3001384 6447714
-0.17537786 -0.47499719 1.318822 6447714
-0.14140947 -0.47504002 1.3437525 6447714
-0.20070812 -0.42086294 1.3006876 6447714
-0.17523351 -0.42511135 1.3193493 6447714
-0.14152813 -0.42522967 1.3440893 6447714
-0.20096935 -0.37394214 1.3008951 6447714
-0.17501503 -0.37500101 1.3199327 6447714
-0.14200227 -0.37496012 1.3441687 6447714
-0.20108517 -0.32488844 1.3012269 6447714
-0.17502926 -0.32500574 1.3203495 6447714
-0.1421597 -0.32525203 1.3444755 6447714
-0.20162879 -0.27507299 1.3012513 6447714
-0.17508845 -0.27499172 1.3207344 6447714
-0.14261316 -0.2750186 1.3445703 6447714
-0.20174858 -0.22433527 1.3015946 6447714
-0.17514868 -0.22500347 1.3211119 6447714
-0.14277688 -0.22539952 1.3448715 6447714
-0.20223561 -0.17493762 1.3016574 6447714
-0.17517774 -0.17500727 1.3215151 6447714
-0.14319701 -0.175006 1.3449916 6447714
-0.20243852 -0.12418369 1.3019395 6447714
-0.1752678 -0.12498201 1.3218799 6447714
-0.14343269 -0.12554547 1.3452392 6447714
-0.20282528 -0.074979998 1.3020738 6447714
-0.17527561 -0.074971594 1.3222945 6447714
-0.1438165 -0.075153291 1.3453856 6447714
-0.20311479 -0.023870843 1.3022958 6447714
-0.17536506 -0.024986839 1.3226539 6447714
-0.14405808 -0.02562307 1.3456295 6447714
-0.2034276 0.024822889 1.3024802 6447714
-0.1754185 0.024985597 1.3230375 6447714
-0.14439985 0.025091104 1.3458097 6447714
-0.2037807 0.075776398 1.3026544 6447714
-0.17543179 0.074962951 1.323457 6447714
-0.14471054 0.074574858 1.3460025 6447714
0.43053192 0.099955551 1.3478812 10197915
0.47874737 0.099895306 1.3414829 10197915
0.5277071 0.099836685 1.334744 10197915
0.57679629 0.099778429 1.3279409 10197915
0.62495995 0.099708937 1.3224505 10197915
0.67498839 0.09959358 1.3208816 10197915
0.72412604 0.099471115 1.3202208 10197915
0.77650505 0.099273257 1.3259678 10197915
0.82510662 0.099111795 1.3291786 7303023
0.87529123 0.098996624 1.3275548 3026478
0.9252249 0.098880976 1.3260431 2894892
0.97490424 0.098767668 1.3243635 2894892
1.0230451 0.09863992 1.324459 2894892
1.0568757 0.098410182 1.3379427 2894892
-0.20378125 0.10136805 1.302716 6513507
-0.17256913 0.10144104 1.3172212 6513507
-0.1261511 0.10165235 1.3215737 8158332
-0.07553827 0.1015459 1.3231437 10132122
-0.025066683 0.10134655 1.3295151 10197915
0.02502843 0.10123054 1.3279934 10197915
0.075008236 0.10111412 1.3265452 10197915
0.12500837 0.10100017 1.3248545 10197915
0.1750333 0.10088288 1.3234719 10197915
0.22494301 0.10076873 1.3218188 10197915
0.27487397 0.10065203 1.3204044 10197915
0.32340601 0.10052078 1.3207361 10197915
0.37617275 0.10029786 1.3287879 10197915
0.42357787 0.10022382 1.323925 10197915
0.47257289 0.10016078 1.3175999 10197915
0.52099329 0.10010001 1.3112017 10197915
0.56725204 0.10004012 1.3052692 10197915
-0.1161635 -0.5744161 1.3614389 11711154
-0.082100682 -0.57458287 1.38644 11711154
-0.11627804 -0.52490497 1.3617756 6908265
-0.082268111 -0.52515775 1.3867375 7105644
-0.11678619 -0.47497284 1.3618274 6447714
-0.082725585 -0.47502053 1.3868281 6447714
1.0669079 -0.45104456 1.3803318 10395294
-0.1169026 -0.42490742 1.3621678 6447714
-0.082863972 -0.42507803 1.3871512 6447714
1.0675627 -0.42511883 1.3798032 2894892
-0.11738706 -0.3750149 1.3622364 6447714
-0.083334431 -0.37499014 1.3872309 6447714
1.0679474 -0.37499541 1.3799824 2894892
-0.11755191 -0.32485914 1.3625414 6447714
-0.083463758 -0.32514867 1.38756 6447714
1.0682963 -0.3250832 1.3802043 2894892
-0.11799416 -0.27500942 1.3626397 6447714
-0.083940133 -0.27500388 1.3876369 6447714
1.0687712 -0.27499473 1.3802627 2894892
-0.11818236 -0.22484921 1.362928 6447714
-0.084058195 -0.22514513 1.3879739 6447714
1.0690366 -0.22504175 1.3806013 2894892
-0.11858837 -0.17503847 1.363054 6447714
-0.084524386 -0.17499334 1.3880574 6447714
1.0695493 -0.17501839 1.3806028 2894892
-0.11883541 -0.124855 1.363299 6447714
-0.084642515 -0.12509198 1.3883952 6447714
1.0698342 -0.12499155 1.3809153 2894892
-0.11915625 -0.074980728 1.3634876 6447714
-0.085090421 -0.074983068 1.3884922 6447714
1.0703117 -0.075052224 1.3809663 2894892
-0.11947526 -0.024814397 1.36368 6447714
-0.085302547 -0.025123473 1.3887606 6447714
1.0706426 -0.024991062 1.3812182 2894892
-0.11979676 0.024989488 1.363867 6447714
-0.085777193 0.024979042 1.3888381 6447714
1.0710622 0.024863029 1.3813449 2894892
-0.12005597 0.075167201 1.3641046 6447714
-0.085794926 0.074827068 1.3892486 6447714
0.23750786 0.099973381 1.3948768 10197915
0.27853182 0.099905975 1.3909842 10197915
0.32534984 0.099844068 1.3851064 10197915
0.3752484 0.09980084 1.3766594 10197915
0.42475966 0.099687941 1.3749853 10197915
0.47490871 0.099572487 1.3733929 10197915
0.52646607 0.099404529 1.3764763 10197915
0.57493639 0.09926977 1.3771648 10197915
0.6251269 0.099154718 1.3755244 10197915
0.67506158 0.099040687 1.3738556 10197915
0.72501957 0.098924592 1.3723762 10197915
0.77363378 0.098799206 1.3721268 7960953
0.82471138 0.098623931 1.3760368 2960685
0.87499082 0.098508358 1.3744268 2894892
0.92515546 0.098393105 1.3728158 2894892
0.97614706 0.098214217 1.3770962 2894892
1.0251018 0.098090634 1.3765877 2894892
1.071102 0.074898012 1.3810878 2894892
-0.11804279 0.10101019 1.3593565 6513507
-0.076094583 0.10097572 1.3721011 7368816
-0.024889564 0.10086617 1.3755127 9803157
0.025042282 0.10074998 1.374047 10197915
0.076764584 0.10059645 1.375715 10197915
0.12498765 0.10044777 1.3778014 10197915
0.17500971 0.100335 1.3759879 10197915
0.22338577 0.10025335 1.3716081 10197915
0.27364767 0.10018973 1.3650229 10197915
0.32513407 0.1001291 1.3578436 10197915
0.35586122 0.10011628 1.351318 10197915
-0.057032045 -0.57468259 1.4048398 11711154
-0.025385492 -0.57488322 1.4280682 11711154
0.0024120223 -0.57502633 1.4484701 11711154
-0.057158276 -0.52466643 1.4051732 7237230
-0.025468312 -0.52499759 1.4284312 7434609
0.001800713 -0.5250631 1.4484458 7566195
-0.057642266 -0.47500977 1.4052398 6447714
-0.025436165 -0.47498602 1.4288778 6447714
0.0017916209 -0.47519705 1.4488624 6447714
1.0326966 -0.45125365 1.4269418 5658198
1.0511118 -0.4510929 1.4018533 8224125
-0.057764202 -0.42473829 1.4055775 6447714
-0.025448184 -0.42500058 1.4292965 6447714
0.0012826188 -0.42602414 1.4489069 6447714
1.0334357 -0.42504141 1.4263029 2894892
1.0514717 -0.42369199 1.4017473 2894892
-0.058234047 -0.37498766 1.4056545 6447714
-0.025491752 -0.3750135 1.4296892 6447714
0.0012082619 -0.37495878 1.4492872 6447714
1.0334468 -0.37505034 1.4269891 2894892
1.0515695 -0.37473756 1.4023 2894892
-0.058374055 -0.32469967 1.40598 6447714
-0.025472764 -0.32501045 1.430127 6447714
0.00075062457 -0.32799494 1.4493504 6447714
1.0338519 -0.32513097 1.4271379 2894892
1.0519141 -0.32412681 1.4025408 2894892
-0.058846183 -0.27498552 1.4060565 6447714
-0.025474563 -0.27500534 1.4305509 6447714
0.00060058921 -0.27506867 1.44969 6447714
1.0340135 -0.27509004 1.4276187 2894892
1.0521563 -0.27430353 1.4029095 2894892
-0.058949471 -0.22470023 1.4064072 6447714
-0.025516603 -0.22501244 1.4309458 6447714
0.00060069695 -0.24448363 1.44995 6447714
1.0342765 -0.22508305 1.427961 2894892
1.0523509 -0.22479485 1.4033382 2894892
-0.059426311 -0.17495006 1.406481 6447714
-0.025472131 -0.17501807 1.4314032 6447714
1.0345887 -0.17511111 1.4282358 2894892
1.0527363 -0.17436002 1.4035203 2894892
-0.059560705 -0.12478372 1.4068089 6447714
-0.025926705 -0.12512116 1.4314934 6447714
1.0346907 -0.12497608 1.4288001 2894892
1.0528461 -0.12506142 1.404061 2894892
-0.060050759 -0.075085133 1.4068711 6447714
-0.026117869 -0.075007044 1.4317787 6447714
1.0351684 -0.075131282 1.4288474 2894892
1.0532765 -0.074295796 1.4041877 2894892
-0.060145512 -0.02484796 1.4072287 6447714
-0.026446424 -0.025159551 1.4319619 6447714
1.0352031 -0.025027476 1.4295008 2894892
1.0533651 -0.025023848 1.404757 2894892
-0.060616668 0.025071535 1.4073073 6447714
-0.026672866 0.025009688 1.4322225 6447714
1.0356345 0.024889626 1.4296169 2894892
1.0537872 0.025562547 1.4048922 2894892
-0.06077845 0.075258538 1.4076154 6447714
-0.027063649 0.074854121 1.432358 6447714
0.038910769 0.099973261 1.4449906 9276813
0.077729933 0.099900968 1.442126 10197915
0.12540662 0.099852949 1.4347049 10197915
0.17668146 0.099800177 1.4268277 10197915
0.22496353 0.099702477 1.4240062 10197915
0.27499145 0.099587858 1.4223688 10197915
0.32571909 0.099461049 1.4217238 10197915
0.37481445 0.099281721 1.4265227 10197915
0.42470542 0.099167936 1.4248387 10197915
0.47477484 0.099052802 1.4232379 10197915
0.52334601 0.098899752 1.425643 10197915
0.57513076 0.098746695 1.427247 10197915
0.62506026 0.09863124 1.425712 10197915
0.67506945 0.098519243 1.4238286 10197915
0.72496134 0.098402724 1.4224088 7829367
0.77493137 0.098289579 1.4206425 3092271
0.82496083 0.098098256 1.4263558 2894892
0.87505382 0.097982824 1.42478 2894892
0.92503351 0.097869486 1.42303 2894892
0.97363168 0.09769766 1.4272374 2894892
1.0349643 0.074925318 1.4298877 2894892
1.053879 0.073947929 1.4054458 2894892
-0.059435233 0.10050223 1.4056597 6513507
-0.021839088 0.10040814 1.4176052 7105644
0.023311703 0.10026976 1.4205117 9276813
0.071404122 0.10018495 1.4165047 10197915
0.12466119 0.10008395 1.4127522 10197915
0.15557556 0.10001303 1.4117509 10197915
0.034203745 -0.60019422 1.4715915 11711154
0.062462781 -0.60032058 1.4923328 11711154
0.027358156 -0.57501441 1.4667815 11711154
0.061400414 -0.57535261 1.4917647 11711154
0.026740596 -0.52499884 1.4667521 7697781
0.06119249 -0.52501398 1.49204 7895160
0.026731292 -0.47498953 1.4671708 6447714
0.060904987 -0.47535166 1.4922513 6447714
0.98947537 -0.45147699 1.4858286 2894892
1.0076376 -0.45139879 1.4610835 3421236
0.02618234 -0.42495191 1.4671931 6447714
0.060590163 -0.42504472 1.4924481 6447714
0.98978132 -0.42499056 1.4857832 2894892
1.008162 -0.42493647 1.4607384 2894892
0.026149193 -0.37499738 1.4675936 6447714
0.060389902 -0.37542146 1.4927229 6447714
0.99002612 -0.37528107 1.4861461 2894892
1.0083475 -0.37480223 1.4611902 2894892
0.025622418 -0.32491094 1.4676323 6447714
0.059990112 -0.32498589 1.4928583 6447714
0.99027687 -0.32495928 1.4865098 2894892
1.0085645 -0.32478681 1.4615974 2894892
0.025551278 -0.2750001 1.4680043 6447714
0.059885189 -0.27530718 1.4932038 6447714
0.99051422 -0.27497938 1.4868881 2894892
1.0089349 -0.27502912 1.4617897 2894892
0.025060598 -0.22488584 1.4680712 6447714
0.059384748 -0.22500849 1.4932638 6447714
0.99080366 -0.22529329 1.4871911 2894892
1.0090642 -0.22464259 1.4623225 2894892
0.024942178 -0.17499426 1.4684075 6447714
0.059358623 -0.17511462 1.4936689 6447714
0.99101019 -0.17498425 1.4876145 2894892
1.0094187 -0.17500368 1.462533 2894892
-0.00060078013 -0.11715151 1.4501507 6447714
0.024974013 -0.12499823 1.4688554 6447714
0.058776483 -0.12509425 1.4936666 6447714
0.99134111 -0.12537192 1.4878602 2894892
1.0096351 -0.12492628 1.4629405 2894892
-0.00060092809 -0.075114831 1.4505079 6447714
0.02486928 -0.075002506 1.4692041 6447714
0.058827464 -0.074944004 1.4941304 6447714
0.99146801 -0.075058326 1.4883916 2894892
1.0099149 -0.074923672 1.4632574 2894892
-0.001060391 -0.021564767 1.450626 6447714
0.025028892 -0.025008671 1.4697458 6447714
0.058218841 -0.025004992 1.4941084 6447714
0.99177468 -0.025026951 1.4886763 2894892
1.0101817 -0.024955265 1.4635966 2894892
-0.001202015 0.025247386 1.4509199 6447714
0.025049338 0.025003545 1.4701862 6447714
0.058196146 0.024820179 1.4945149 6447714
0.99216384 0.024759464 1.4888433 2894892
1.0104462 0.025321554 1.4639395 2894892
-0.0015969708 0.077515073 1.4510744 6447714
0.025104303 0.07555797 1.4703331 6447714
0.061498899 0.079486176 1.4902411 6908265
0.12507911 0.099455185 1.4729061 10197915
0.17491125 0.099344201 1.4709691 10197915
0.22483388 0.099229023 1.4694124 10197915
0.27623668 0.09904597 1.4739881 10197915
0.32415494 0.098913856 1.4745555 10197915
0.3748557 0.098722778 1.4800768 10197915
0.42525348 0.098608032 1.4783568 10197915
0.47513434 0.098494485 1.4766511 10197915
0.52469563 0.098381609 1.4749625 10197915
0.57494944 0.098265901 1.4733745 10197915
0.62508565 0.098153077 1.4715357 10197915
0.67490369 0.098039649 1.469836 7960953
0.72658277 0.097893953 1.470762 3092271
0.77525538 0.097727701 1.474414 2894892
0.82522947 0.09753149 1.4806108 2894892
0.87512195 0.097418085 1.4788896 2894892
0.9251011 0.097304478 1.4771649 2894892
0.99008852 0.076198727 1.4877688 2894892
1.0106405 0.073866032 1.4642447 2894892
0.94508541 -0.65173191 1.5435032 11711154
0.96169722 -0.65175843 1.5381125 11711154
0.08639463 -0.60046107 1.5098977 11711154
0.12110779 -0.60059106 1.5353768 11711154
0.94528574 -0.6252535 1.5436008 11711154
0.96177226 -0.62498605 1.5384501 11711154
0.085900605 -0.57470429 1.5097539 11711154
0.11998279 -0.57515579 1.534768 11711154
0.94567859 -0.57545364 1.5437646 11711154
0.96101934 -0.57480806 1.5384846 11711154
0.085712768 -0.52501702 1.5100381 8092539
0.11955684 -0.52498066 1.5348808 8289918
0.94569248 -0.52504724 1.5444512 11711154
0.96084774 -0.52495486 1.538999 11711154
0.085395351 -0.47475588 1.5102327 6447714
0.11949559 -0.47506961 1.5352592 6447714
0.94617617 -0.47551802 1.5444884 7171437
0.96090752 -0.47369459 1.5358003 8026746
0.08508978 -0.42497373 1.5104312 6447714
0.11893228 -0.4250319 1.5352703 6447714
0.94636089 -0.42560965 1.5449355 2894892
0.96487975 -0.42487332 1.5197121 2894892
0.084888496 -0.37471932 1.5107107 6447714
0.11896831 -0.37500423 1.5357256 6447714
0.94645625 -0.37550482 1.5455078 2894892
0.96502733 -0.37492421 1.5202137 2894892
0.084503911 -0.32501787 1.510852 6447714
0.11843357 -0.32509279 1.5357552 6447714
0.94697821 -0.32512042 1.5455036 2894892
0.96551514 -0.32501417 1.5202497 2894892
0.084390692 -0.27480748 1.5111951 6447714
0.11837248 -0.27501565 1.5361364 6447714
0.94705188 -0.27581793 1.5460949 2894892
0.96558338 -0.27487445 1.5208585 2894892
0.083872214 -0.22502767 1.5112373 6447714
0.11794567 -0.22520237 1.5362464 6447714
0.94734251 -0.22565292 1.5464028 2894892
0.9659301 -0.22494592 1.5210867 2894892
0.083882935 -0.17494693 1.5116698 6447714
0.11778761 -0.17498474 1.5365577 6447714
0.94768059 -0.1749264 1.5466524 2894892
0.9662385 -0.1750042 1.5213664 2894892
0.083273776 -0.12495105 1.5116489 6447714
0.11751361 -0.12521863 1.5367782 6447714
0.94779497 -0.12663293 1.5471734 2894892
0.96643323 -0.12469833 1.5218062 2894892
0.083285443 -0.075022891 1.512082 6447714
0.1171435 -0.074913397 1.5369341 6447714
0.9481492 -0.075004809 1.5474157 2894892
0.96668619 -0.074950308 1.5221593 2894892
0.082782567 -0.024990689 1.5121381 6447714
0.11704569 -0.025084391 1.5372864 6447714
0.94838345 -0.025007091 1.5477971 2894892
0.9669655 -0.024985826 1.5224798 2894892
0.082759865 0.025066432 1.5125467 6447714
0.11656737 0.024892475 1.5373613 6447714
0.94866157 0.021997344 1.5480771 2894892
0.96734786 0.025110856 1.52266 2894892
0.082281098 0.075371996 1.5124235 6447714
0.11758845 0.076738045 1.53592 6645093
0.1750055 0.098838583 1.519402 10132122
0.22510916 0.098721981 1.5179327 10197915
0.27547863 0.098503895 1.5261235 10197915
0.32498312 0.09832149 1.5311179 10197915
0.37487721 0.098208524 1.5293584 10197915
0.42507103 0.098094836 1.527591 10197915
0.4751524 0.097981431 1.5258217 10197915
0.5251143 0.097868212 1.5240628 10197915
0.57517159 0.097753368 1.5224363 10197915
0.62490439 0.097643629 1.5204008 7631988
0.67493707 0.09752889 1.5187788 3092271
0.72307026 0.09740077 1.518912 2894892
0.77677006 0.097142659 1.5300984 2894892
0.82491058 0.097010449 1.5306185 2894892
0.87503618 0.096898638 1.5286908 2894892
0.93626875 0.085632488 1.537113 2894892
0.96731478 0.073827557 1.5230837 2894892
0.92207158 -0.65190321 1.574858 5658198
0.9894672 -0.65190363 1.5569776 11711154
1.0247836 -0.6520381 1.5828995 11711154
0.1457753 -0.60078925 1.5534812 11711154
0.17568333 -0.6009056 1.5754328 11711154
0.20411357 -0.60102606 1.5963001 11711154
0.92252785 -0.62493491 1.5746075 5789784
0.98977065 -0.62514067 1.5574278 11711154
1.0230309 -0.62511224 1.5818434 11711154
0.14518324 -0.57414001 1.5532732 11711154
0.17415816 -0.57500339 1.5745332 11711154
0.204147 -0.57582891 1.5965399 11711154
0.92305332 -0.57500082 1.5745958 5921370
0.9892627 -0.57478631 1.5574831 11711154
1.0235233 -0.57496595 1.5826308 11711154
0.14480439 -0.52505124 1.5534126 8421504
0.174208 -0.52502263 1.5749952 8618883
0.20374551 -0.5249939 1.5966755 8750469
0.92355484 -0.52509916 1.5746109 6974058
0.9895975 -0.52509034 1.5581509 11711154
1.0232764 -0.52528363 1.5828713 11711154
0.14476758 -0.47466215 1.5538137 6447714
0.174291 -0.47501254 1.5754808 6447714
0.20371617 -0.47558209 1.5970751 6447714
0.92414308 -0.474904 1.5745161 5987163
0.98888844 -0.4818081 1.5579985 10263708
1.020715 -0.4876672 1.5813105 11250603
0.14419748 -0.42493927 1.5538173 6447714
0.17434315 -0.42499143 1.5759447 6447714
0.20312771 -0.42504117 1.5970724 6447714
0.92451429 -0.42506319 1.5747128 2894892
0.14424199 -0.37491921 1.5542762 6447714
0.17435604 -0.37501606 1.5763786 6447714
0.20319514 -0.37499809 1.5975466 6447714
0.92513341 -0.37488693 1.574567 2894892
0.14366685 -0.32462588 1.5542815 6447714
0.17442007 -0.32501093 1.5768507 6447714
0.20265022 -0.32591325 1.5975645 6447714
0.92564571 -0.32497174 1.5745718 2894892
0.14360893 -0.27502269 1.5546609 6447714
0.17447218 -0.2749947 1.577315 6447714
0.20256093 -0.27522975 1.5979301 6447714
0.92609942 -0.27511638 1.5746535 2894892
0.14320374 -0.22444662 1.5547924 6447714
0.17452419 -0.2249866 1.5777782 6447714
0.2023008 -0.22691861 1.5981494 6447714
0.92671704 -0.22490452 1.5745112 2894892
0.14304554 -0.17497711 1.555097 6447714
0.17458691 -0.17500539 1.5782481 6447714
0.2019641 -0.17481303 1.5983453 6447714
0.92706138 -0.17500813 1.5747432 2894892
0.14275542 -0.12443518 1.5553137 6447714
0.17458712 -0.1250324 1.5786735 6447714
0.20189355 -0.12655535 1.5987036 6447714
0.92773545 -0.12496059 1.5745245 2894892
0.14237992 -0.075163476 1.5554566 6447714
0.17470621 -0.074992023 1.5791864 6447714
0.20134185 -0.075178355 1.5987357 6447714
0.92822444 -0.075053506 1.5745641 2894892
0.14229758 -0.024740774 1.5558256 6447714
0.17473429 -0.02498037 1.5796317 6447714
0.20141053 -0.025175054 1.5992111 6447714
0.92863297 -0.025143426 1.5747044 2894892
0.14181983 0.025140241 1.555899 6447714
0.17479841 0.024971372 1.5801038 6447714
0.20077644 0.024547964 1.5991684 6447714
0.92933518 0.025118636 1.5744548 2894892
0.14185472 0.074791104 1.5562835 6447714
0.175025 0.075471312 1.5795829 6513507
0.2192481 0.092510648 1.5765035 9079434
0.27237907 0.098043829 1.5710027 10197915
0.32490802 0.097864993 1.5748899 10197915
0.37718198 0.09771543 1.5760337 10197915
0.42509207 0.09754575 1.5802065 10197915
0.47517174 0.097432978 1.5783798 10197915
0.52491677 0.097320892 1.5765642 10132122
0.57476491 0.097206973 1.574901 6908265
0.6249249 0.097097293 1.572762 2960685
0.67496848 0.096981362 1.5712452 2894892
0.72511089 0.096869998 1.5692633 2894892
0.77263153 0.096706741 1.5729176 2894892
0.82491755 0.096551426 1.5746145 2894892
0.87693137 0.096406281 1.5753942 2894892
0.92919427 0.07392583 1.5746679 2894892
0.88339436 -0.65209424 1.627553 3223857
0.90203828 -0.65193743 1.6021526 4079166
1.0742931 -0.65230501 1.6192384 11711154
1.1070886 -0.65249914 1.6433095 11711154
0.2300628 -0.60117334 1.6153458 11711154
0.26407099 -0.60136491 1.6403067 11711154
0.8838222 -0.62503844 1.6273499 3289650
0.90214044 -0.62469107 1.6023949 4144959
1.0482161 -0.62190008 1.6003561 11711154
1.0740401 -0.62497866 1.6192846 11711154
1.1072061 -0.62509453 1.6436293 11711154
0.22921322 -0.57477546 1.6149468 11711154
0.26342195 -0.5752914 1.6400523 11711154
0.8840735 -0.57500052 1.6277099 5526612
0.90200239 -0.57498962 1.6032807 4737096
1.048725 -0.57444185 1.6011329 11711154
1.0745757 -0.57506496 1.6201041 11711154
1.1077743 -0.57499969 1.6444721 11711154
0.22883227 -0.52496666 1.6150916 8947848
0.26297405 -0.52500623 1.6401503 9145227
0.88429481 -0.5249992 1.6281096 6447714
0.90252453 -0.52434599 1.6032794 6447714
1.0483454 -0.52104205 1.6013083 11711154
1.0750518 -0.52513415 1.6208758 11645361
1.1071296 -0.52759397 1.644402 11579568
0.22882076 -0.47484103 1.6155082 6447714
0.26304629 -0.47502246 1.6406283 6447714
0.8846311 -0.47514611 1.6283491 5855577
0.90282756 -0.47499782 1.6035584 5855577
1.0483288 -0.49231604 1.6015402 11119017
1.0655404 -0.49507064 1.6141505 10790052
0.22821268 -0.42499149 1.6154872 6447714
0.2624115 -0.42519626 1.6405854 6447714
0.8848561 -0.42516115 1.6287446 2894892
0.90286142 -0.42383978 1.6042295 2894892
0.22829634 -0.37499803 1.6159724 6447714
0.26243514 -0.3750664 1.6410292 6447714
0.88494551 -0.37501165 1.6293238 2894892
0.90328401 -0.37509027 1.6043373 2894892
0.22772032 -0.32487938 1.6159755 6447714
0.26206344 -0.32543778 1.6411785 6447714
0.88541651 -0.32516938 1.6293814 2894892
0.90349424 -0.3250255 1.6047529 2894892
0.22766718 -0.2749761 1.6163615 6447714
0.2618196 -0.27504456 1.6414285 6447714
0.88565964 -0.27515873 1.629752 2894892
0.90384871 -0.27383694 1.6049881 2894892
0.22736421 -0.22479466 1.6165648 6447714
0.2617256 -0.22526187 1.6417822 6447714
0.88560545 -0.22501761 1.6305294 2894892
0.90394181 -0.22500341 1.6055448 2894892
0.22706087 -0.17503481 1.6167649 6447714
0.2611964 -0.17500117 1.6418209 6447714
0.88620943 -0.17498124 1.6304086 2894892
0.90416855 -0.1750384 1.6059376 2894892
0.22691537 -0.12482522 1.6170859 6447714
0.26129839 -0.12504308 1.6423209 6447714
0.88639939 -0.12498964 1.6308506 2894892
0.90478706 -0.12490482 1.6057975 2894892
0.22650233 -0.074930698 1.6172049 6447714
0.2606557 -0.075461239 1.6422706 6447714
0.88652509 -0.075273737 1.6313753 2894892
0.90463942 -0.074744701 1.6067013 2894892
0.22648388 -0.024964221 1.6176177 6447714
0.26066479 -0.025179222 1.6427041 6447714
0.88681251 -0.025010545 1.6316873 2894892
0.90502793 -0.024639482 1.6068743 2894892
0.22553799 0.024820147 1.6173472 6447714
0.2600764 0.025148859 1.6427006 6447714
0.88703185 0.025018789 1.6320908 2894892
0.90546477 0.025065187 1.6069765 2894892
0.22543167 0.074667841 1.6172336 6513507
0.26249173 0.078342266 1.6385187 7039851
0.32527202 0.097382165 1.6210734 10197915
0.37340212 0.097255021 1.6211178 10197915
0.42496234 0.097059347 1.6268598 10197915
0.4749676 0.096947283 1.6249814 10197915
0.52518344 0.096833408 1.6232232 7500402
0.57715505 0.096688733 1.6239682 2894892
0.62516838 0.096509621 1.62902 2894892
0.67522734 0.096397564 1.6271284 2894892
0.72516596 0.096283965 1.6254146 2894892
0.77499092 0.096174248 1.6233588 2894892
0.82514215 0.096061923 1.6214682 2894892
0.88621283 0.074329399 1.6311378 2894892
0.9054541 0.073407464 1.6076697 2894892
0.83981407 -0.65232557 1.6869292 4802889
0.85833049 -0.65222573 1.6617011 2894892
1.1326997 -0.65264505 1.6621077 11711154
1.1678129 -0.65280581 1.6878804 11711154
0.28866252 -0.60151929 1.6583561 11711154
0.32271236 -0.60164398 1.6833478 11711154
0.84038818 -0.62512529 1.686528 6250335
0.85852218 -0.6250003 1.6618242 4671303
1.1330312 -0.62515777 1.6625844 11711154
1.1675328 -0.62531358 1.687909 11711154
0.28834987 -0.57463318 1.6583562 11711154
0.32216564 -0.57498658 1.6831738 11711154
0.84070462 -0.57498318 1.6867995 6447714
0.85914326 -0.57501239 1.661677 6447714
1.1322565 -0.57492363 1.6624435 11711154
1.1658136 -0.57510924 1.6870726 11711154
0.2878851 -0.52501076 1.6584344 9276813
0.3220394 -0.52519822 1.6835032 9474192
0.84070462 -0.52532691 1.6874955 6447714
0.85914928 -0.52469993 1.6623758 6447714
1.130767 -0.53057694 1.6617271 11579568
1.1650602 -0.53666973 1.6868465 11579568
0.2879611 -0.47503996 1.6589148 6447714
0.32150564 -0.47500831 1.6835388 6447714
0.84112328 -0.47500506 1.6876318 5658198
0.85932201 -0.47472885 1.6628389 5723991
0.28731942 -0.42480582 1.6588728 6447714
0.3216252 -0.42499265 1.6840521 6447714
0.8413077 -0.42500252 1.6880807 2894892
0.85977882 -0.4249801 1.6629148 2894892
0.28737262 -0.3749519 1.6593348 6447714
0.32102564 -0.3750962 1.6840363 6447714
0.8416484 -0.37524021 1.6883148 2894892
0.85997963 -0.3750107 1.6633419 2894892
0.28695685 -0.32460433 1.6594585 6447714
0.32104224 -0.32500774 1.6844736 6447714
0.84190351 -0.32527754 1.6886686 2894892
0.86026841 -0.32457605 1.6636549 2894892
0.28674212 -0.27499765 1.6597211 6447714
0.32071152 -0.27522793 1.6846544 6447714
0.84195864 -0.27500966 1.6892978 2894892
0.86040902 -0.27503097 1.6641587 2894892
0.28661147 -0.22481635 1.6600533 6447714
0.32039762 -0.22495362 1.6848503 6447714
0.84235656 -0.22537425 1.6894521 2894892
0.86063904 -0.22499716 1.6645453 2894892
0.28613526 -0.17503376 1.6601253 6447714
0.32045281 -0.17499934 1.6853164 6447714
0.84279293 -0.17507109 1.6895633 2894892
0.86124426 -0.17499097 1.6644232 2894892
0.28621674 -0.12501743 1.660611 6447714
0.31981549 -0.12500085 1.6852727 6447714
0.84270024 -0.12538825 1.6903844 2894892
0.86120152 -0.12478476 1.6651846 2894892
0.28561112 -0.074692495 1.6605943 6447714
0.31977808 -0.075133234 1.6856703 6447714
0.84314436 -0.075413823 1.6904802 2894892
0.86143678 -0.074707173 1.6655666 2894892
0.28555152 -0.024881741 1.6609738 6447714
0.31955987 -0.025410417 1.6859319 6447714
0.8433845 -0.025217023 1.6908566 2894892
0.86187786 -0.024913847 1.6656638 2894892
0.28525114 0.025198143 1.6611793 6447714
0.31928331 0.025149219 1.6861591 6447714
0.84363759 0.025066881 1.6912177 2894892
0.86208957 0.024922 1.6660731 2894892
0.28458509 0.073510133 1.6610086 6447714
0.31937739 0.075509347 1.6847905 6645093
0.3754735 0.096654259 1.6781706 10132122
0.42482495 0.096542165 1.6764615 10197915
0.47497836 0.096430406 1.6745201 10132122
0.52501184 0.096318878 1.6725838 8224125
0.57338732 0.096194521 1.6722846 2894892
0.62496763 0.095986977 1.6791641 2894892
0.67495835 0.095878586 1.6769353 2894892
0.72483879 0.095767535 1.6749932 2894892
0.77493995 0.095654525 1.673183 2894892
0.84133416 0.075686604 1.6886712 2894892
0.86227512 0.073361829 1.6663433 2894892
0.79682118 -0.65269506 1.7455024 2894892
0.81510961 -0.65249658 1.7205867 2894892
