# .PCD v0.7 - Point Cloud Data file format
VERSION 0.7
FIELDS x y z rgb
SIZE 4 4 4 4
TYPE F F F U
COUNT 1 1 1 1
WIDTH 1202
HEIGHT 1
VIEWPOINT 0 0 0 1 0 0 0
POINTS 1202
DATA ascii
0.40180698 0.025012506 1.9475356 2763306
0.34884974 0.074810185 1.9007818 10197915
0.37462902 0.074878 1.9236237 10197915
0.40185007 0.075044677 1.9477446 10197915
0.34887037 0.10237731 1.9008943 10197915
0.3764222 0.10320083 1.9194028 10197915
0.42279652 0.10461077 1.9195366 10197915
0.47449112 0.10473725 1.9153481 10197915
0.52413195 0.10465597 1.9143287 10197915
0.57519507 0.10450894 1.9256607 10197915
0.62498033 0.10442965 1.9241996 10197915
0.67903841 0.10429528 1.9320502 10197915
0.72499502 0.10419972 1.9350725 10197915
0.77490187 0.10412252 1.9331666 10197915
0.82513088 0.10404146 1.931898 10197915
0.87527692 0.10396275 1.9302008 10197915
0.92495847 0.10388371 1.928733 10197915
0.97494918 0.10380303 1.9274708 10197915
1.0252632 0.10372298 1.9259839 10197915
1.0751057 0.10364475 1.9242966 10197915
1.124871 0.10356444 1.9230406 10197915
1.1749543 0.10348476 1.9215604 10197915
1.2253448 0.10340562 1.9198645 10197915
1.2752746 0.10332622 1.9183819 10197915
1.3247321 0.1032464 1.9171345 10197915
1.3748982 0.10316762 1.9154452 10197915
1.4249789 0.10308687 1.9141726 10197915
1.4746584 0.10293902 1.9261408 10197915
1.5152054 0.10287455 1.9249338 10197915
0.41116494 -0.62219411 1.9536215 2039583
0.41118971 -0.57490379 1.9538047 2039583
0.41124177 -0.52497756 1.9540211 2039583
0.41126165 -0.47504029 1.9542085 2039583
0.41061139 -0.42401883 1.9538065 2039583
0.41038045 -0.37508568 1.9537688 2039583
0.41042462 -0.3249363 1.9539793 2039583
0.41048142 -0.27493742 1.9541994 2039583
0.41051215 -0.22492865 1.9543971 2039583
0.41054326 -0.17507207 1.954594 2039583
0.41057411 -0.12536773 1.9547909 2039583
0.41064399 -0.075324252 1.955024 2039583
0.41036201 -0.024131473 1.9549482 2039583
0.40999284 0.025812814 1.9547912 2829099
0.41078007 0.075349599 1.9556584 10197915
0.42642546 0.10394471 1.9646189 10197915
0.47536001 0.10445756 1.9696819 10197915
0.52514505 0.10437726 1.9684198 10197915
0.5752663 0.10429759 1.9669179 10197915
0.62490541 0.1042199 1.9652002 10197915
0.67021084 0.10411965 1.969357 10197915
0.7246418 0.10398861 1.976422 10197915
0.77481377 0.10390893 1.9749075 10197915
0.82490903 0.10382936 1.9733953 10197915
0.8769021 0.10373382 1.9743583 10197915
0.92497581 0.10359703 1.9847203 10197915
0.97479534 0.10351916 1.9829707 10197915
1.0245409 0.10343903 1.9816929 10197915
1.0750172 0.10336009 1.979931 10197915
1.1254146 0.10327893 1.9786259 10197915
1.175335 0.10319969 1.9771081 10197915
1.2247701 0.10312244 1.9753709 10197915
1.2745394 0.10304342 1.9738656 10197915
1.324626 0.10296278 1.9725691 10197915
1.3746423 0.10288455 1.9708222 10197915
1.4249772 0.10280234 1.9697436 10197915
1.4752276 0.10272492 1.967764 10197915
1.5254101 0.10264526 1.9662386 9474708
1.5616176 0.10252304 1.9777927 4740198
0.44096348 0.10422888 2.0260603 10197915
0.47544199 0.10416038 2.0277019 10197915
0.52502453 0.10408308 2.0259204 10197915
0.57453465 0.10400333 2.0246451 10197915
0.62479949 0.10392493 2.0228515 10197915
0.67498684 0.10384414 2.0215459 10197915
0.72509962 0.10376597 2.0197573 10197915
0.77513218 0.10368543 2.0184565 10197915
0.82509327 0.1036075 2.0166726 10197915
0.87379605 0.10352507 2.0161901 10197915
0.92447191 0.10337315 2.0286176 10197915
0.9749831 0.10329317 2.0270479 10197915
1.0254166 0.10321328 2.02548 10197915
1.0749469 0.10313486 2.023941 10197915
1.1252257 0.10305523 2.0223789 10197915
1.175427 0.10297572 2.0208189 10197915
1.227129 0.10282657 2.0323532 10197915
1.2745867 0.10274249 2.03262 10197915
1.3245142 0.10266228 2.0313048 10197915
1.3747816 0.10258269 2.0297308 10197915
1.4253778 0.10250389 2.0278993 9079952
1.4750789 0.10242399 2.0265903 5266027
1.5247011 0.10234676 2.0247896 1846858
1.5742801 0.10226444 2.0239866 860737
1.6104884 0.10213269 2.0374033 860480
0.44597116 0.10397403 2.0741355 10197915
0.47497436 0.10392817 2.0732207 10197915
0.52524787 0.10384867 2.0716348 10197915
0.57544482 0.10376931 2.0700517 10197915
0.629103 0.10362949 2.079093 10197915
0.67510659 0.1035325 2.0823758 10197915
0.72503108 0.10345226 2.0810568 10197915
0.77486974 0.10337488 2.0792055 10197915
0.82506621 0.10329555 2.0776107 10197915
0.87475306 0.10321569 2.076297 10197915
0.92479479 0.10313664 2.0747058 10197915
0.97517914 0.1030584 2.0728397 10197915
1.0250688 0.10297957 2.0712543 10197915
1.0748736 0.10289815 2.0702014 10197915
1.1246041 0.1028223 2.0680909 10197915
1.1746873 0.10274182 2.0667639 10197915
1.2211218 0.10261962 2.0748222 10197915
1.2748332 0.10250373 2.0791714 10197915
1.3254808 0.10242379 2.0775497 10197915
1.3752075 0.10234527 2.0759573 7436417
1.424858 0.10226688 2.0743673 1847884
1.4752718 0.10218728 2.0727527 794173
1.5256076 0.10210783 2.071141 794688
1.5750285 0.1020298 2.0695586 926786
1.6274941 0.10188609 2.0797727 926529
1.6598877 0.10173228 2.0987971 926530
0.44924927 0.10380711 2.1056092 10197915
0.4761638 0.10368753 2.1198132 10197915
0.52504241 0.10360423 2.1194415 10197915
0.57509625 0.10352674 2.1175413 10197915
0.62068999 0.10342441 2.1220176 10197915
0.67531633 0.10328418 2.1308138 10197915
0.72508341 0.10320573 2.1291955 10197915
0.77477437 0.1031274 2.1275795 10197915
0.82526016 0.10304783 2.1259382 10197915
0.87566793 0.10296838 2.1242988 10197915
0.9251312 0.10289039 2.1226902 10197915
0.97451919 0.10281257 2.1210845 10197915
1.0246973 0.10273348 2.1194527 10197915
1.0747982 0.10265451 2.1178234 10197915
1.1267393 0.10249557 2.131181 10197915
1.1750895 0.1024114 2.1311653 10197915
1.2249095 0.10233442 2.129241 9935001
1.2746627 0.10225457 2.1279013 7699587
1.3251954 0.10217642 2.1259642 3689310
1.3752269 0.10209768 2.1243157 1124420
1.4247406 0.10201821 2.122983 993092
1.4746165 0.10193966 2.1213484 926785
1.5248414 0.10186199 2.1194222 794430
1.5749891 0.10178159 2.1180587 926529
1.6206199 0.10168027 2.122314 992836
1.6723799 0.10154383 2.1313424 992322
0.48111856 0.10341839 2.1706886 10197915
0.52483308 0.1033496 2.1692448 10197915
0.57472283 0.10327107 2.1675968 10197915
0.62819064 0.10315576 2.1719275 10197915
0.67463404 0.10302711 2.1812487 10197915
0.72469425 0.10294835 2.1795933 10197915
0.77511626 0.1028675 2.1782172 10197915
0.82502174 0.1027891 2.1765559 10197915
0.87528867 0.10271157 2.1745803 10197915
0.92548448 0.10263111 2.1732113 10197915
0.9751606 0.10255301 2.1715569 10197915
1.025192 0.1024759 2.1695902 10197915
1.0751634 0.10239578 2.1682279 10197915
1.1221243 0.10226077 2.1786144 10197915
1.1751833 0.10215084 2.1820316 9803157
1.2248703 0.10207278 2.1803644 3688797
1.2744809 0.10199486 2.1786997 927555
1.3248998 0.10191564 2.1770077 994118
1.3752409 0.10183655 2.1753185 928068
1.4246227 0.101759 2.1736619 926529
1.4748087 0.10168015 2.1719775 993092
1.5249175 0.10160143 2.170296 860480
1.5749483 0.10152284 2.1686175 926016
1.6249021 0.10144438 2.1669412 926786
1.6787713 0.10132089 2.1727214 992579
1.720093 0.10117044 2.188031 860736
0.48643529 0.10315704 2.2199366 10197915
0.52506936 0.10307896 2.2220364 10197915
0.57524288 0.1030035 2.2196894 10197915
0.62291658 0.10291769 2.2202215 10197915
0.67484242 0.10275427 2.2344694 10197915
0.72519863 0.1026753 2.2327521 10197915
0.77547795 0.10259642 2.2310374 10197915
0.82476807 0.10251916 2.2293568 10197915
0.87489432 0.10244058 2.2276475 10197915
0.92494398 0.10236204 2.2259407 10197915
0.97491682 0.10228368 2.2242365 10197915
1.0248138 0.10220546 2.2225354 10197915
1.0746338 0.10212732 2.2208364 10197915
1.1252816 0.10204791 2.2191091 8355711
1.1749486 0.10197002 2.2174156 3684408
1.2245398 0.10189226 2.2157247 2833228
1.2779382 0.10178025 2.2194314 861762
1.325038 0.10164138 2.2305281 862532
1.3752609 0.10156437 2.2284696 928325
1.4253954 0.10148412 2.2270768 927299
1.4754645 0.1014074 2.2250252 992579
1.5254424 0.10132741 2.2236381 1058371
1.5753584 0.10125087 2.2215912 794943
1.6251811 0.10117114 2.2202086 860480
1.6724101 0.10108168 2.2216063 993349
1.7249318 0.10092214 2.2348969 860993
1.7627857 0.10086287 2.2335846 728380
0.4925527 0.1028511 2.2776136 10197915
0.52531326 0.10279981 2.2764778 10197915
0.57486457 0.10272226 2.27476 10197915
0.62434095 0.10264482 2.2730458 10197915
0.67467433 0.10256603 2.2713008 10197915
0.72493029 0.10248738 2.2695589 10197915
0.77510935 0.10240883 2.2678194 10197915
0.82521158 0.10233039 2.266083 10197915
0.87523729 0.10225211 2.264349 10197915
0.9288193 0.10213294 2.2693827 10197915
0.97513068 0.10200058 2.2794704 10197915
1.0248767 0.10192094 2.278089 9803157
1.0750136 0.10184253 2.2763367 4408131
1.1250683 0.10176785 2.2738874 2302755
1.1750407 0.10168611 2.2728405 2039583
1.2249469 0.10160812 2.2710962 2500908
1.2727492 0.1015235 2.2713487 1584711
1.3251877 0.10135485 2.2864325 862019
1.375276 0.10127659 2.284667 927812
1.425287 0.10119848 2.2829044 928325
1.4752215 0.10112047 2.2811451 927043
1.5250785 0.10104257 2.2793875 993092
1.5748587 0.1009648 2.2776332 927043
1.6245626 0.10088713 2.2758818 794430
1.6751081 0.10080819 2.2741005 861250
1.7255752 0.10072934 2.2723217 1058885
1.7750474 0.10065203 2.2705781 728893
1.8025022 0.10060915 2.2696102 794172
0.49693525 0.1026488 2.3156223 10197915
0.52548379 0.10260419 2.3146162 10197915
0.57491446 0.10252698 2.3128736 10197915
0.62871611 0.10240627 2.3181367 10197915
0.67536533 0.10226934 2.3290122 10197915
0.72498953 0.10219189 2.3272486 10197915
0.77500558 0.10211571 2.3250995 10197915
0.82495594 0.10203584 2.3236945 10197915
0.87482136 0.10195993 2.3215528 10197915
0.92253155 0.1018729 2.3223124 10197915
0.97440219 0.10170235 2.3379722 10197915
1.0249426 0.10162354 2.3361604 10197915
1.0754054 0.10154487 2.3343518 4079166
1.1248399 0.1014678 2.3325801 2039583
1.1751475 0.10138935 2.3307765 2039583
1.2253779 0.10131102 2.3289762 2039583
1.274585 0.10123432 2.3272126 2305336
1.3246617 0.10115623 2.3254175 927811
1.3746616 0.10107827 2.3236253 927555
1.4245836 0.10100044 2.321836 862020
1.4753691 0.10092125 2.3200159 861507
1.5251371 0.10084366 2.3182321 795713
1.574828 0.10076617 2.3164508 993092
1.6253781 0.10068735 2.3146384 860994
1.674916 0.10061012 2.3128633 728638
1.7243769 0.10053299 2.3110907 1059142
1.7762675 0.10035779 2.327646 992579
1.8215363 0.10026314 2.3307211 794687
1.8575758 0.10012053 2.3462999 860737
1.7990032 0.099999629 2.3898718 1190983
1.8249953 0.099959254 2.3889067 992579
1.8740413 0.09988308 2.3870866 926529
0.52749199 0.10230629 2.3721282 10197915
0.57499325 0.10222066 2.3726785 10197915
0.62255913 0.10213499 2.3732214 10197915
0.67511362 0.10196047 2.3894181 10197915
0.72504616 0.10188279 2.3875976 10197915
0.77490205 0.1018052 2.3857796 10197915
0.82468283 0.10172772 2.3839643 10197915
0.87438738 0.10165039 2.3821521 10197915
0.92498928 0.10157166 2.380307 10197915
0.97551227 0.10149304 2.378464 10197915
1.0249883 0.10141605 2.3766603 10197915
1.0743887 0.10133918 2.3748586 7171437
1.1246814 0.10126094 2.3730254 2039583
1.1748961 0.1011828 2.3711939 2039583
1.2250332 0.10110478 2.3693655 2039583
1.2750933 0.10102689 2.3675401 2236962
1.3250766 0.10094914 2.3657179 1059397
1.3749826 0.10087147 2.3638978 861763
1.4248118 0.10079393 2.3620806 796226
1.4745648 0.10071652 2.3602662 796227
1.5287898 0.10056117 2.3721573 729664
1.5752541 0.10045545 2.3769922 795457
1.6252143 0.10037786 2.375139 926787
1.6746109 0.100299 2.3737295 860736
1.7248937 0.10022285 2.3714888 860481
1.7717546 0.10006466 2.3864403 1058628
1.6782298 0.099966906 2.4373538 860993
1.7254342 0.099893771 2.4355712 860994
1.7755151 0.099816181 2.4336796 860481
1.8245381 0.099740237 2.4318278 1059141
1.874464 0.099662893 2.4299417 992322
1.915524 0.099599272 2.4283907 861250
0.53404641 0.10196373 2.4368119 10197915
0.57407594 0.10190156 2.4353259 10197915
0.62404674 0.10182399 2.4334714 10197915
0.67493844 0.10174498 2.4315832 10197915
0.72575164 0.10166606 2.429698 10197915
0.77549177 0.10158885 2.4278522 10197915
0.82515639 0.10151171 2.4260089 10197915
0.87474561 0.10143472 2.4241686 10197915
0.92524916 0.10135631 2.4222949 10197915
0.97567505 0.10127801 2.4204235 10197915
1.0250362 0.10120136 2.4185915 10197915
1.0753076 0.1011233 2.4167264 10000536
1.1255023 0.10104539 2.4148641 2039583
1.174637 0.10096908 2.4130404 2039583
1.2246782 0.10089138 2.4111834 2039583
1.2746425 0.10081379 2.4093292 2039583
1.326838 0.10070985 2.4118636 1648693
1.3749987 0.10054951 2.4267838 927555
1.4246761 0.1004703 2.4253471 861762
1.4747785 0.10039258 2.423471 862019
1.5209796 0.10028607 2.4285455 928069
1.5747257 0.10012729 2.4412642 861251
1.6250401 0.10004932 2.4393635 927044
1.6536187 0.10000505 2.4382842 795457
1.5294173 0.099968776 2.4876556 928325
1.57469 0.099898808 2.4859145 927812
1.6249206 0.09982115 2.4839823 860994
1.6750729 0.099743612 2.4820533 926787
1.7251472 0.099666215 2.4801269 860993
1.7751439 0.099588938 2.4782038 860994
1.8250633 0.099511772 2.4762838 860994
1.8749052 0.099434748 2.4743667 1059141
1.9246702 0.099357814 2.4724522 992579
1.9574757 0.09930709 2.47119 926786
0.53948295 0.10173118 2.4803698 10197915
0.57513356 0.10167594 2.4790232 10197915
0.62498266 0.10159871 2.4771399 10197915
0.67475677 0.10152159 2.47526 10197915
0.72445464 0.10144461 2.4733829 10197915
0.77508944 0.10136615 2.4714699 10197915
0.82564574 0.10128782 2.4695601 10197915
0.87511581 0.10121116 2.4676914 10197915
0.92451066 0.10113467 2.4658263 10197915
0.97483641 0.1010567 2.4639249 10197915
1.025085 0.10097882 2.4620266 10197915
1.0752558 0.10090109 2.4601314 10197915
1.1253498 0.10082349 2.4582391 5131854
1.1753669 0.10074601 2.4563501 2039583
1.2269973 0.10056113 2.4748914 2039583
1.2749417 0.10047926 2.4745588 2039583
1.3232578 0.10039483 2.4746044 2105376
1.3750086 0.10020748 2.4935956 1517366
1.4255495 0.10012936 2.4916511 795970
1.4750036 0.10005289 2.4897487 927812
1.5042393 0.10000769 2.4886241 993605
1.3774216 0.099965848 2.5399528 2171428
1.4247838 0.099892825 2.5380974 861763
1.4751593 0.099815108 2.536123 927555
1.5244308 0.099739157 2.5341923 928069
1.5746514 0.099661693 2.5322247 994117
1.6247946 0.099584378 2.5302603 795457
1.6748595 0.099507183 2.5282984 795201
1.724847 0.099430077 2.52634 926530
1.7747568 0.099353105 2.5243843 795457
1.8256059 0.099274725 2.522392 729408
1.8753608 0.099197991 2.5204427 926787
1.925038 0.099121362 2.518496 1124677
1.9756501 0.099043302 2.5165131 926530
0.54408002 0.10149189 2.5255573 10197915
0.57519358 0.10144379 2.5243604 10197915
0.62491864 0.10136693 2.5224473 10197915
0.67456847 0.10129017 2.5205376 10197915
0.72517502 0.10121197 2.5185914 10197915
0.77570391 0.10113385 2.5166478 10197915
0.82512575 0.10105746 2.5147464 10197915
0.87447292 0.10098118 2.5128477 10197915
0.92477137 0.10090342 2.5109136 10197915
0.97499293 0.10082579 2.5089819 10197915
1.0251365 0.10074829 2.5070531 10197915
1.0752035 0.10067088 2.5051272 10197915
1.1292349 0.10050166 2.5197854 9013641
1.1754898 0.10039657 2.5245676 2763306
1.2224573 0.1002389 2.5393713 2039583
1.2752527 0.10012341 2.543956 2039583
1.324829 0.10004693 2.5420132 2039583
1.3526855 0.10000399 2.5409219 2039583
1.1977942 0.09999539 2.5953422 2039583
1.2252294 0.099953197 2.5942466 2039583
1.2747706 0.099876963 2.5922687 2039583
1.3242363 0.099800862 2.5902934 2039583
1.3746763 0.099723257 2.5882795 2039583
1.4250392 0.099645823 2.5862694 1582903
1.4753231 0.099568456 2.5842614 862019
1.5255288 0.099491216 2.5822568 993604
1.5756569 0.099414103 2.5802553 928325
1.6257075 0.099337123 2.5782568 862789
1.6756805 0.099260263 2.5762622 794944
1.7255764 0.099183507 2.57427 794944
1.7753949 0.099106848 2.5722804 926786
1.8251365 0.099030338 2.5702944 795457
1.8748018 0.098953962 2.5683122 729152
1.9243903 0.098877661 2.5663323 1058629
1.9749324 0.098799899 2.5643139 1058628
2.0192223 0.098731779 2.5625453 860737
0.54884678 0.10124358 2.5724177 10197915
0.5752551 0.10120288 2.5713832 10197915
0.62485158 0.10112638 2.5694396 10197915
0.67437249 0.10105002 2.5674994 10197915
0.72487044 0.10097215 2.5655215 10197915
0.77529055 0.1008944 2.5635455 10197915
0.82563305 0.10081676 2.5615726 10197915
0.87589788 0.10073925 2.5596032 10197915
0.9250412 0.10066345 2.5576777 10197915
0.97411013 0.10058781 2.5557554 10197915
1.0241472 0.10051063 2.5537949 10197915
1.0787107 0.10035887 2.5648651 10197915
1.1202121 0.10019487 2.5827756 10197915
1.172443 0.10003438 2.596354 7763574
1.0944726 0.099896714 2.6497655 10197915
1.1246849 0.099850357 2.648536 10197915
1.1742634 0.099774286 2.6465185 10197915
1.2248417 0.099696703 2.64446 2829099
1.2753416 0.099619225 2.6424048 2039583
1.3246908 0.09954349 2.6403964 2039583
1.3750354 0.099466242 2.6383469 2039583
1.4253024 0.099389121 2.6363015 2171426
1.4744242 0.099313766 2.6343026 862020
1.5245366 0.099236868 2.6322629 993091
1.5745718 0.09916009 2.6302264 928068
1.6245292 0.099083431 2.6281931 928325
1.6754707 0.099005282 2.6261203 861763
1.725273 0.098928876 2.6240933 860737
1.7749977 0.098852567 2.6220696 794944
1.8257017 0.098774768 2.6200058 860993
1.8752724 0.098698713 2.6179879 860994
1.9247665 0.098622799 2.6159744 860737
1.975235 0.098545343 2.6139202 1058628
2.0256245 0.098468013 2.6118691 992835
2.0633671 0.0984101 2.610333 926273
0.57854903 0.10094795 2.6200657 10197915
0.62478215 0.10087682 2.6182196 10197915
0.67524314 0.1007992 2.6162047 10197915
0.72455513 0.10072337 2.6142364 10197915
0.77486247 0.10064597 2.6122282 10197915
0.82509291 0.10056869 2.6102221 10197915
0.87524539 0.10049153 2.6082199 10197915
0.925322 0.10041451 2.60622 10197915
0.97532135 0.10033759 2.6042244 10197915
1.0252446 0.10026082 2.602231 10197915
1.0655538 0.1001988 2.6006215 10197915
1.0382837 0.099982947 2.6520526 10197915
1.0696303 0.099934846 2.6507766 10197915
1.1464968 0.09954948 2.6998932 10197915
1.1750593 0.099505775 2.6987078 10197915
1.2255373 0.099428527 2.6966133 6447714
1.2748424 0.099353105 2.694567 2039583
1.3240719 0.099277742 2.6925237 2039583
1.3743188 0.099200867 2.6904385 2039583
1.4244879 0.099124089 2.6883564 2039583
1.4745798 0.099047467 2.6862779 1648178
1.5245938 0.098970935 2.6842022 861763
1.5745306 0.098894522 2.6821296 862019
1.6243904 0.098818205 2.6800601 928325
1.6741731 0.098742016 2.677994 928582
1.7249594 0.098664321 2.6758873 860737
1.7756653 0.098586723 2.6737821 860737
1.8252152 0.098510899 2.671726 795200
1.8746893 0.098435186 2.6696723 860737
1.9251604 0.098357975 2.6675777 992579
1.9755521 0.098280862 2.6654868 926787
2.0247955 0.098205507 2.6634433 993092
2.075031 0.098128624 2.6613579 992836
2.1081252 0.098077975 2.6599844 926016
0.58416253 0.10067971 2.6705344 10197915
0.6247099 0.10061751 2.668884 10197915
0.67505282 0.10054024 2.6668351 10197915
0.72531849 0.10046312 2.6647897 10197915
0.77550721 0.10038612 2.6627471 10197915
0.8256191 0.10030926 2.6607077 10197915
0.87565398 0.10023246 2.6586709 10197915
0.92561257 0.1001558 2.6566379 10197915
0.9754948 0.10007928 2.654608 10197915
1.0134 0.10002112 2.6530654 10197915
0.8760798 0.0999633 2.7111163 10197915
0.92480928 0.099888727 2.7090933 10197915
0.97457099 0.099812567 2.7070282 10197915
1.0253608 0.09973488 2.7049215 10197915
1.0749698 0.099658944 2.702862 10197915
1.1212038 0.0995882 2.7009432 10197915
1.2486253 0.099115327 2.7499142 10197915
1.2754378 0.099074431 2.74878 2171169
1.3245419 0.098999508 2.7467008 2039583
1.3746849 0.098922975 2.7445774 2039583
1.4247509 0.098846585 2.7424579 2039583
1.4747394 0.098770298 2.7403417 2105376
1.5246513 0.098694153 2.7382288 1058880
1.5744853 0.098618105 2.7361188 861506
1.6253483 0.09854047 2.7339654 928068
1.6750278 0.098464675 2.7318614 993861
1.7246311 0.098388985 2.7297621 862533
1.7752579 0.098311722 2.7276189 795201
1.8258052 0.098234601 2.7254789 860737
1.875177 0.098159261 2.7233884 860737
1.9244732 0.098084018 2.7213013 860737
1.9747865 0.098007254 2.7191713 927043
2.0250216 0.097930595 2.7170448 861252
2.0751777 0.097854063 2.7149215 1058885
2.1252553 0.09777765 2.712801 992836
2.1535289 0.097734489 2.7116039 926273
0.58999676 0.10040106 2.7229893 10197915
0.62463546 0.10034805 2.7215514 10197915
0.67485559 0.1002712 2.7194672 10197915
0.72499955 0.10019446 2.717386 10197915
0.77506655 0.10011789 2.7153087 10197915
0.82505721 0.10004138 2.7132339 10197915
0.85058135 0.1000023 2.7121742 10197915
0.68488878 0.099975571 2.7737811 10197915
0.72580248 0.09991312 2.7720492 10197915
0.77574122 0.099836938 2.7699354 10197915
0.82560384 0.09976086 2.7678244 10197915
0.87539041 0.099684879 2.7657163 10197915
0.92510122 0.099609017 2.7636116 10197915
0.97473639 0.099533275 2.7615099 10197915
1.0242965 0.099457666 2.7594123 10197915
1.0749044 0.099380434 2.7572694 10197915
1.1254345 0.09930332 2.7551303 10197915
1.1747656 0.099228032 2.7530415 10197915
1.2229036 0.099154584 2.751003 10197915
1.3977889 0.098599218 2.799962 2039583
1.4250259 0.098557793 2.7987857 2039583
1.4760407 0.098480158 2.7965813 2039583
1.5258437 0.098404408 2.7944298 1910061
1.5755703 0.098328754 2.7922816 927556
1.6252202 0.098253205 2.7901361 861506
1.674794 0.098177768 2.7879941 928325
1.7242917 0.098102458 2.7858555 994118
1.7748359 0.098025583 2.7836719 862020
1.8253011 0.097948782 2.7814913 795458
1.8745681 0.097873807 2.7793624 860738
1.9248768 0.097797267 2.7771888 860994
1.9751073 0.097720854 2.7750185 860738
2.0252593 0.09764456 2.7728524 993092
2.0753334 0.097568363 2.7706885 861251
2.1253283 0.097492293 2.7685282 1059141
2.1752462 0.097416334 2.766371 992836
0.59606385 0.10011112 2.7775424 10197915
0.62569624 0.10006589 2.7762878 10197915
0.65986049 0.10001376 2.7748411 10197915
0.62680191 0.099772289 2.8332744 10197915
0.67559743 0.099698059 2.831166 10197915
0.72548056 0.099622138 2.8290105 10197915
0.77528721 0.09954638 2.8268585 10197915
0.82501876 0.099470705 2.8247104 10197915
0.87467408 0.099395163 2.8225644 10197915
0.92540646 0.099317953 2.8203723 10197915
0.9749099 0.099242643 2.8182337 10197915
1.0243379 0.099167436 2.8160975 10197915
1.0748382 0.099090621 2.8139162 10197915
1.1252604 0.09901388 2.8117378 10197915
1.1756045 0.098937273 2.8095622 10197915
1.2258706 0.098860793 2.80739 10197915
1.2760593 0.098784439 2.8052218 6250335
1.3250328 0.098709948 2.8031063 2039583
1.3727957 0.09863726 2.8010426 2039583
1.5974473 0.097995661 2.8498783 993861
1.6250846 0.097953737 2.8486593 927299
1.674548 0.097878717 2.8464773 861763
1.7250831 0.097802043 2.8442478 993861
1.7755395 0.097725503 2.8420217 928582
1.8259174 0.097649105 2.8398006 861251
1.8750741 0.097574539 2.8376317 795715
1.924155 0.097500093 2.8354666 926531
1.9743 0.097424008 2.8332541 860994
2.0243673 0.097348064 2.8310454 860994
2.074357 0.097272269 2.8288405 993349
2.1242683 0.097196549 2.8266394 860995
2.1741018 0.097120956 2.8244405 1124934
2.2215986 0.097048908 2.8223453 1124421
0.63270193 0.099459045 2.8924358 10197915
0.67421353 0.099396072 2.8906047 10197915
0.72514349 0.099318795 2.8883576 10197915
0.7759949 0.099241674 2.8861141 10197915
0.82558751 0.099166475 2.8839276 10197915
0.87510473 0.099091351 2.8817432 10197915
0.9245472 0.099016346 2.8795617 10197915
0.97508872 0.098939665 2.877332 10197915
1.0255529 0.098863125 2.8751056 10197915
1.0747679 0.098788485 2.8729355 10197915
1.1250775 0.098712161 2.8707161 10197915
1.1753099 0.098635972 2.8685 10197915
1.2254642 0.098559901 2.8662872 10197915
1.2755415 0.098483928 2.864078 10197915
1.3255419 0.09840811 2.8618731 2565927
1.3754655 0.098332383 2.8596706 2039583
1.4253116 0.098256759 2.8574717 2039583
1.4750818 0.098181263 2.8552761 2039583
1.5247746 0.098105878 2.8530836 2039583
1.5720869 0.098034136 2.8509974 1583417
1.8452568 0.097308464 2.8997679 1059142
1.8744369 0.097264349 2.8984528 927044
1.9245696 0.09718854 2.8961942 861508
1.9746246 0.097112857 2.8939388 992836
2.0246012 0.097037263 2.891686 860994
2.0745015 0.096961826 2.8894379 861251
2.1243231 0.096886516 2.8871939 993092
2.1752236 0.096809536 2.8849001 926786
2.224889 0.096734442 2.8826618 1190727
2.2698686 0.096666425 2.880635 1124934
0.7405079 0.098978847 2.9495444 10197915
0.77552676 0.098925889 2.9479663 10197915
0.82497704 0.098851144 2.9457388 10197915
0.8743515 0.098776489 2.9435146 10197915
0.92485344 0.098700128 2.9412384 10197915
0.97527725 0.098623864 2.9389668 10197915
1.0256231 0.098547742 2.9366982 10197915
1.0758917 0.098471746 2.9344332 10197915
1.1260829 0.098395869 2.9321718 10197915
1.1750042 0.098321892 2.9299676 10197915
1.2238518 0.098248027 2.9277666 10197915
1.2750032 0.098170683 2.9254615 10197915
1.3260751 0.098093465 2.9231603 6842472
1.3758814 0.098018169 2.920917 2039583
1.425611 0.097942978 2.9186759 2039583
1.4752645 0.097867899 2.9164383 2039583
1.524842 0.097792923 2.9142041 2039583
1.5743437 0.097718067 2.911974 2236962
1.6249452 0.09764158 2.9096947 993603
1.6754678 0.097565174 2.9074173 861507
1.7247393 0.097490676 2.9051976 862020
1.7751056 0.097414516 2.9029279 994117
1.8207201 0.097345538 2.9008727 994375
2.142122 0.096536025 2.9495785 927043
2.17521 0.096486159 2.9480543 927043
2.2247822 0.096411444 2.9457717 992323
2.2742782 0.096336856 2.9434927 1190727
2.3189952 0.096269451 2.9414334 1125191
0.64006573 0.09913072 2.9540706 10197915
0.67519253 0.099077605 2.9524877 10197915
0.71512318 0.099017233 2.9506884 10197915
1.0477234 0.098185234 2.9999685 10197915
1.0746188 0.098144688 2.9987299 10197915
1.1246898 0.098069265 2.9964249 10197915
1.1746832 0.097993918 2.9941227 10197915
1.2246001 0.097918674 2.9918244 10197915
1.2744402 0.09784358 2.9895294 10197915
1.3254166 0.097766742 2.9871819 10197915
1.375103 0.097691886 2.9848943 3421236
1.4247124 0.097617127 2.9826105 2039583
1.4754537 0.097540662 2.9802742 2039583
1.52491 0.097466126 2.9779966 2039583
1.5742903 0.097391687 2.9757228 2039583
1.6247976 0.097315609 2.9733975 1910062
1.675226 0.097239606 2.971076 928067
1.7255752 0.097163744 2.9687576 795971
1.7758466 0.097087972 2.9664426 862276
1.8260391 0.097012326 2.9641311 1059654
1.8761535 0.096936814 2.9618242 994118
1.9261901 0.096861422 2.9595206 992836
1.9761488 0.096786126 2.9572196 927300
2.0260298 0.096710943 2.9549229 993349
2.075834 0.0966359 2.9526296 860994
2.1172793 0.09657342 2.9507217 861251
0.64651066 0.098789848 3.0184419 10197915
0.67497611 0.098746955 3.0171313 10197915
0.72442728 0.09867242 3.0148537 10197915
0.77503723 0.098596141 3.0125239 10197915
0.82556963 0.098519996 3.0101969 10197915
0.87479401 0.098445848 3.0079308 10197915
0.92517191 0.098369919 3.0056114 10197915
0.97547275 0.098294094 3.0032952 10197915
1.0232477 0.098222107 3.0010948 10197915
1.4299574 0.097267553 3.0491228 2039583
1.4744189 0.097200781 3.0470295 2039583
1.5249827 0.097124852 3.0446486 2039583
1.5754678 0.09704902 3.0422721 2039583
1.6246456 0.096975163 3.0399566 2039583
1.6749754 0.096899599 3.0375881 1648952
1.725227 0.096824132 3.0352225 928068
1.7753996 0.096748792 3.0328608 795971
1.825495 0.096673563 3.0305018 993862
1.8755115 0.096598431 3.028147 994118
1.9254519 0.096523456 3.0257974 993605
1.9753138 0.096448593 3.0234494 992836
2.0250988 0.096373826 3.021106 993093
2.0748062 0.096299157 3.0187659 1059142
2.1256456 0.09622281 3.0163722 860995
2.1751988 0.096148409 3.0140398 861251
2.224674 0.096074142 3.0117114 927043
2.2752771 0.095998138 3.0093291 992322
2.3257999 0.095922269 3.0069504 1125191
2.3702435 0.095855512 3.0048578 1191241
0.67854613 0.098395921 3.0844946 10197915
0.7253083 0.0983257 3.082293 10197915
0.77578801 0.098249897 3.0799165 10197915
0.82493126 0.098176092 3.0776031 10197915
0.87400025 0.098102421 3.0752938 10197915
0.9242509 0.098026954 3.072928 10197915
0.97442436 0.097951606 3.0705659 10197915
1.0245209 0.09787637 3.0682073 10197915
1.0745404 0.097801253 3.0658526 10197915
1.1244835 0.097726271 3.0635021 10197915
1.1743499 0.097651392 3.0611548 10197915
1.2241399 0.097576603 3.0588107 10197915
1.2750951 0.097500101 3.0564117 10197915
1.3259709 0.097423688 3.0540166 10197915
1.3755293 0.097349256 3.0516837 8355711
1.4052311 0.097304687 3.0502865 2039583
1.8374115 0.096300453 3.0993073 927556
1.8760853 0.096242569 3.0974445 994118
1.9259214 0.096167997 3.0950449 994375
1.9756807 0.09609358 3.0926497 993605
2.0253627 0.096019246 3.0902574 927556
2.0749676 0.095945023 3.0878685 993093
2.1244962 0.09587092 3.0854833 1059142
2.1751828 0.095795065 3.0830426 926787
2.2257907 0.09571936 3.080606 861251
2.2750871 0.095645614 3.0782325 927300
2.3243072 0.09557198 3.0758622 992322
2.3746789 0.09549661 3.0734365 1191239
2.4212949 0.095426843 3.0711915 1257290
0.79333878 0.097862549 3.1495817 10197915
0.82554996 0.097814351 3.14803 10197915
0.8744548 0.097741187 3.1456759 10197915
0.92457008 0.097666226 3.1432631 10197915
0.9746092 0.097591355 3.1408534 10197915
1.0245711 0.097516581 3.1384473 10197915
1.0744567 0.097441949 3.1360452 10197915
1.1242659 0.097367413 3.1336462 10197915
1.1752734 0.097291127 3.131191 10197915
1.2249289 0.09721683 3.1287999 10197915
1.274508 0.097142652 3.1264126 10197915
1.3252802 0.097066678 3.1239669 10197915
1.3747072 0.096992724 3.121587 10197915
1.4240582 0.096918888 3.1192107 5460819
1.4745972 0.096843287 3.1167779 2039583
1.525057 0.096767798 3.1143479 2039583
1.5754383 0.096692398 3.111922 2039583
1.6257408 0.096617125 3.1094995 2039583
1.6759655 0.096541978 3.1070812 2105376
1.7261126 0.096466981 3.1046672 1190465
1.7761812 0.096392058 3.1022563 861762
1.8124347 0.096337818 3.1005099 795714
2.2900145 0.095254183 3.1496246 926530
2.3240056 0.095203534 3.1479497 926787
2.3743012 0.095128551 3.1454706 992322
2.4245169 0.095053703 3.1429954 1388104
2.4734018 0.094980843 3.1405864 1388618
0.68615937 0.098022915 3.154743 10197915
0.72493714 0.097964898 3.1528754 10197915
0.76754326 0.097901151 3.1508238 10197915
1.2842963 0.096753091 3.199187 10197915
1.3258575 0.096691146 3.1971381 10197915
1.3751444 0.096617676 3.1947095 10197915
1.4243561 0.096544325 3.1922839 10197915
1.4747859 0.096469186 3.1897993 2631720
1.5251372 0.096394144 3.1873183 2039583
1.5754094 0.096319214 3.1848407 2039583
1.6256043 0.096244395 3.1823671 2039583
1.674437 0.09617161 3.1799603 2039583
1.7244778 0.096097045 3.1774943 2171428
1.7744417 0.096022584 3.1750321 927811
1.8243272 0.095948234 3.1725736 861249
1.8754123 0.095872089 3.1700559 861764
1.9251422 0.095797963 3.1676052 994118
1.9747947 0.095723957 3.165158 994375
2.0256419 0.095648192 3.162653 993349
2.07514 0.095574416 3.1602137 927812
2.1245615 0.095500752 3.1577778 993349
2.1751714 0.095425323 3.1552835 1059398
2.2257009 0.095350005 3.1527932 992836
2.2660697 0.095289826 3.1508033 860481
0.69412804 0.097632676 3.2282708 10197915
0.7258715 0.097585365 3.2267063 10197915
0.77607375 0.097510539 3.224232 10197915
0.82619905 0.097435825 3.2217615 10197915
0.87624782 0.097361229 3.2192957 10197915
0.92622036 0.097286783 3.2168329 10197915
0.97611576 0.097212404 3.2143743 10197915
1.0259354 0.097138144 3.2119188 10197915
1.0756787 0.097064003 3.2094669 10197915
1.1253461 0.096989974 3.2070191 10197915
1.1749382 0.096916065 3.2045758 10197915
1.2244549 0.096842282 3.2021358 10197915
1.2582935 0.096791849 3.2004683 10197915
1.8250087 0.095557436 3.248656 927555
1.8760111 0.095481731 3.2460821 795458
1.9256275 0.09540806 3.2435782 862020
1.9751669 0.09533453 3.2410784 994118
2.0246308 0.095261104 3.2385817 994375
2.0753171 0.095185891 3.2360249 993605
2.1259234 0.095110781 3.2334712 927812
2.1751552 0.095037684 3.2309868 1059141
2.2243111 0.09496472 3.2285058 1059655
2.2746823 0.094889954 3.2259636 1059141
2.324975 0.094815299 3.2234261 926273
2.3751879 0.094740778 3.2208924 794945
2.4253223 0.094666362 3.2183616 992322
2.4753773 0.094592057 3.2158363 1453384
2.5253551 0.094517879 3.2133143 1388617
2.5522385 0.094478071 3.211961 1257289
0.82822865 0.09703698 3.2989559 10197915
0.87543035 0.096966907 3.2965736 10197915
0.92525661 0.096892983 3.2940602 10197915
0.97500628 0.09681914 3.2915502 10197915
1.0246806 0.096745402 3.2890432 10197915
1.0742786 0.096671768 3.28654 10197915
1.1251391 0.096596263 3.2839727 10197915
1.1759201 0.096520878 3.2814102 10197915
1.2252893 0.096447632 3.2789197 10197915
1.2745827 0.096374452 3.276432 10197915
1.3251309 0.096299417 3.2738807 10197915
1.3756005 0.096224479 3.2713339 10197915
1.4259914 0.096149683 3.268791 10197915
1.4749815 0.09607698 3.2663183 8158332
1.5238973 0.096004389 3.2638514 2039583
1.5740582 0.095929928 3.2613199 2039583
1.6241411 0.095855571 3.2587922 2039583
1.6741469 0.095781356 3.2562685 2039583
1.724075 0.095707238 3.2537487 2039583
1.7739261 0.095633246 3.2512338 1975082
2.3879855 0.094316565 3.2994113 860737
2.4248545 0.094262078 3.2975056 663359
2.4748261 0.094188228 3.2949214 926786
2.52472 0.094114468 3.2923417 1322056
2.574538 0.09404093 3.2897692 1388617
2.6072714 0.093992561 3.2880771 1389130
0.72685003 0.097187474 3.3040724 10197915
0.77555037 0.097115181 3.3016148 10197915
0.80392885 0.097073048 3.3001823 10197915
1.4304254 0.095731817 3.3489201 10197915
1.4751889 0.095665649 3.3466055 10197915
1.5253057 0.095591597 3.3440151 5658198
1.5753458 0.095517658 3.3414283 2039583
1.6253074 0.0954438 3.3388448 2039583
1.6751928 0.095370062 3.3362646 2039583
1.725 0.095296435 3.3336897 2039583
1.7747316 0.095222935 3.3311183 2039583
1.824386 0.095149562 3.3285518 1778736
1.8753028 0.095074318 3.3259194 927043
1.924803 0.095001146 3.3233595 795458
1.9742255 0.094928093 3.3208041 862020
2.0249054 0.09485317 3.3181837 1060167
2.075506 0.094778396 3.315567 1125960
2.1260271 0.094703734 3.3129561 993606
2.1751418 0.094631165 3.3104167 928069
2.2241805 0.094558656 3.3078806 1059141
2.2744672 0.094484322 3.3052804 1059655
2.3246746 0.094410121 3.3026843 1059398
2.3629405 0.094353557 3.3007057 993092
0.73481363 0.096759938 3.3848863 10197915
0.77500206 0.096700527 3.3828084 10197915
0.82620931 0.096624844 3.3801608 10197915
0.87595505 0.096551314 3.377588 10197915
0.9256255 0.096477918 3.3750203 10197915
0.97522038 0.096404627 3.3724566 10197915
1.0247397 0.096331432 3.3698962 10197915
1.0741842 0.09625835 3.3673394 10197915
1.1249233 0.09618333 3.3647161 10197915
1.1755843 0.096108466 3.3620961 10197915
1.2248006 0.096035734 3.3595521 10197915
1.2753057 0.095961109 3.3569412 10197915
1.3257328 0.095886566 3.3543336 10197915
1.3747218 0.095814154 3.3518007 10197915
1.4046259 0.095769949 3.3502543 10197915
2.0797944 0.094344206 3.3988967 1125704
2.1247702 0.094278015 3.3965127 1059911
2.1751235 0.094203971 3.3938446 993606
2.2253983 0.094129995 3.3911798 993862
2.2755933 0.094056129 3.3885186 1059398
2.3257101 0.093982384 3.3858616 1059911
2.3743966 0.093910739 3.3832808 1059654
2.4243584 0.093837216 3.3806329 993349
2.47559 0.093761869 3.377918 729409
2.525394 0.093688592 3.3752775 860737
2.5751212 0.093615495 3.3726444 1190727
2.6247706 0.093542486 3.3700137 1388361
2.6636324 0.093485288 3.367954 1323339
1.1331248 0.095737055 3.4490767 10197915
1.1752299 0.095675096 3.4468446 10197915
1.2242848 0.095602922 3.4442439 10197915
1.2746648 0.095528811 3.4415748 10197915
1.3249664 0.09545482 3.4389086 10197915
1.37519 0.09538091 3.4362459 10197915
1.425336 0.095307127 3.4335876 10197915
1.4754043 0.095233448 3.4309337 10197915
1.5253955 0.095159881 3.4282835 10197915
1.5753099 0.095086478 3.4256392 3618615
1.6251471 0.095013142 3.4229972 2039583
1.6749072 0.094939925 3.4203591 2039583
1.7245907 0.09486682 3.4177253 2039583
1.7741975 0.094793826 3.4150956 2039583
1.8251028 0.094718926 3.4123964 2039583
1.8759291 0.094644167 3.4097037 1582132
1.9253038 0.094571516 3.4070864 861506
1.9746023 0.094498985 3.4044731 795202
2.0251913 0.094424538 3.4017913 927556
2.0552375 0.094380341 3.4001989 1059911
0.74459553 0.096308708 3.4696717 10197915
0.77584565 0.096262738 3.4680152 10197915
0.82550532 0.096189655 3.4653828 10197915
0.87508899 0.096116714 3.462754 10197915
0.92459834 0.096043855 3.4601293 10197915
0.9740321 0.095971152 3.4575107 10197915
1.0248004 0.095896453 3.454819 10197915
1.0754899 0.095821865 3.4521322 10197915
1.1078364 0.095774271 3.4504173 10197915
1.8427823 0.09424144 3.4996624 2039583
1.8751812 0.09419398 3.4979 2039583
1.9258336 0.094119847 3.495147 1582390
1.9750018 0.094047859 3.4924731 861250
2.0240941 0.093975954 3.489804 729665
2.0745115 0.093902119 3.4870617 862020
2.1248488 0.09382841 3.4843245 994374
2.175108 0.093754798 3.4815912 994118
2.2252889 0.093681358 3.4788637 928069
2.2753909 0.093607984 3.4761391 993605
2.3254137 0.093534723 3.4734185 1059654
2.3753591 0.093461595 3.4707024 1059911
2.425226 0.093388557 3.4679909 1125447
2.4750147 0.093315639 3.4652834 1059398
2.5247273 0.093242884 3.4625807 927300
2.5743628 0.093170263 3.4598839 860738
2.6239195 0.093097709 3.4571896 1059655
2.674773 0.093023263 3.4544251 1257032
2.7228034 0.092952937 3.4518135 1257546
0.93366987 0.095572643 3.5490968 10197915
0.9742322 0.095513262 3.5468922 10197915
1.024866 0.095439143 3.5441389 10197915
1.0754217 0.0953651 3.5413895 10197915
1.1244576 0.095293298 3.5387232 10197915
1.1748586 0.095219485 3.5359824 10197915
1.2251819 0.095145777 3.5332456 10197915
1.275427 0.09507221 3.5305135 10197915
1.3255953 0.094998784 3.5277863 10197915
1.3756851 0.094925426 3.5250621 10197915
1.4256983 0.094852179 3.5223427 10197915
1.4756336 0.094779052 3.5196271 10197915
1.5254928 0.094706051 3.5169153 10197915
1.5752742 0.094633132 3.5142078 9934743
1.6249808 0.094560377 3.5115066 2039583
1.6746095 0.094487704 3.5088077 2039583
1.725577 0.094413072 3.5060358 2039583
1.7750521 0.094340615 3.5033457 2039583
1.8173995 0.094278611 3.5010424 2039583
2.6286683 0.092620961 3.5486755 860995
2.6752231 0.092553131 3.5460768 1059398
2.724525 0.092481308 3.5433247 1256776
2.775157 0.092407554 3.5404997 1257289
2.8074653 0.092360482 3.5386963 1454668
0.77819139 0.095800348 3.5575519 10197915
0.82476556 0.095732138 3.5550201 10197915
0.87563217 0.095657647 3.552253 10197915
0.90901822 0.095608748 3.5504372 10197915
1.7295183 0.093930848 3.5988634 2039583
1.7744983 0.09386532 3.5963521 2039583
1.8252076 0.093791433 3.5935211 2039583
1.8758374 0.093717657 3.5906949 2039583
1.9249448 0.093646109 3.5879538 2039583
1.9754183 0.093572609 3.5851376 1582391
2.0258124 0.093499184 3.582324 861250
2.0746908 0.093427964 3.5795953 664129
2.1249287 0.093354769 3.5767908 795971
2.1750889 0.093281686 3.5739908 862789
2.2251694 0.093208715 3.5711949 994118
2.2751734 0.093135893 3.5684049 993606
2.325098 0.093063153 3.5656178 928069
2.3749452 0.092990533 3.5628355 994118
2.4247141 0.092918009 3.5600569 1125704
2.4758241 0.092843533 3.557204 1191240
2.5254366 0.092771254 3.5544345 1190727
2.5749733 0.092699163 3.551672 1058886
2.6032484 0.092657998 3.5500948 927301
0.83145219 0.095239252 3.6489933 10197915
0.87471151 0.095176235 3.6465778 10197915
0.92535836 0.095102429 3.6437507 10197915
0.97592682 0.095028751 3.6409276 10197915
1.0249341 0.094957396 3.6381934 10197915
1.0738664 0.094886087 3.6354618 10197915
1.124205 0.094812743 3.6326518 10197915
1.1744658 0.094739497 3.6298463 10197915
1.2246493 0.094666392 3.6270447 10197915
1.2747554 0.094593383 3.6242471 10197915
1.3247843 0.094520509 3.6214554 10197915
1.3747363 0.094447754 3.6186676 10197915
1.424611 0.094375074 3.6158829 10197915
1.4744092 0.094302528 3.6131032 10197915
1.5241307 0.094230063 3.6103272 10197915
1.5737759 0.09415774 3.6075561 10197915
1.624802 0.094083399 3.6047075 8553090
1.6757482 0.094009198 3.6018646 2039583
1.7048267 0.093966834 3.6002414 2039583
2.5741689 0.092204653 3.6485522 1190983
2.6249766 0.092131063 3.6456409 1124678
2.6757023 0.092057556 3.6427324 993093
2.724901 0.091986246 3.63991 993093
2.7740231 0.091915071 3.6370933 1190983
2.8245115 0.091841906 3.6341994 1257033
2.8691647 0.091777213 3.6316388 1388618
0.78813493 0.095302358 3.6514113 10197915
0.80606711 0.095276251 3.6504104 10197915
1.6889035 0.093487442 3.6993129 4539717
1.7247255 0.093435556 3.6972594 2039583
1.7739177 0.093364269 3.694438 2039583
1.8245225 0.093290918 3.6915362 2039583
1.8750479 0.093217708 3.6886387 2039583
1.9254938 0.093144581 3.6857462 2039583
1.9758606 0.093071587 3.6828573 2039583
2.0261497 0.092998758 3.679975 1582646
2.0763593 0.092925988 3.6770957 861763
2.1250172 0.092855468 3.6743057 729922
2.1736009 0.09278506 3.6715193 730178
2.2235799 0.092712626 3.6686532 928326
2.2749469 0.092638187 3.6657076 1060168
2.3262334 0.09256389 3.6627672 994118
2.3759749 0.092491806 3.6599157 928325
2.4256384 0.092419833 3.6570675 1059654
2.4752252 0.09234798 3.6542239 1059911
2.5247345 0.092276223 3.6513844 1191753
0.82776678 0.094735339 3.7486925 10197915
0.875274 0.094666503 3.7459676 10197915
0.92424166 0.094595522 3.74316 10197915
0.97466242 0.094522454 3.7402685 10197915
1.0250063 0.094449513 3.7373819 10197915
1.075272 0.094376683 3.7345004 10197915
1.1254605 0.094303943 3.7316225 10197915
1.1755708 0.09423133 3.7287486 10197915
1.2256051 0.094158813 3.7258792 10197915
1.2755617 0.094086416 3.7230144 10197915
1.3254421 0.094014131 3.720154 10197915
1.3752457 0.093941987 3.7172987 10197915
1.4249731 0.093869925 3.714448 10197915
1.4746237 0.093797967 3.7116005 10197915
1.5256996 0.09372396 3.7086716 10197915
1.5751964 0.093652219 3.7058332 10197915
1.6246171 0.093580581 3.7029989 10197915
1.6635039 0.093524233 3.7007687 10197915
2.5942214 0.09165214 3.7496281 1191752
2.6255465 0.091607012 3.7477818 1257032
2.6747155 0.091536179 3.7448843 1125191
2.7238064 0.091465443 3.7419901 1059142
2.7743061 0.091392681 3.739013 1058372
2.8247259 0.091320015 3.7360406 1125448
2.875066 0.091247499 3.7330737 1191240
2.9253263 0.091175087 3.7301111 1257033
2.957808 0.091128282 3.7281966 1519946
0.80168748 0.094773144 3.7501879 10197915
1.745729 0.092874676 3.7996438 2039583
1.7748326 0.092832729 3.7979276 2039583
1.8253238 0.092759974 3.7949514 2039583
1.8757368 0.092687331 3.7919788 2039583
1.9245465 0.092616983 3.7891018 2039583
1.9748034 0.092544563 3.7861385 2039583
2.0249825 0.092472255 3.7831805 2039583
2.0750833 0.092400096 3.7802281 1779250
2.1251061 0.092328027 3.7772791 993092
2.1750498 0.092256054 3.7743351 795971
2.2249167 0.092184186 3.7713947 795458
2.2747054 0.092112437 3.76846 928070
2.325922 0.092038639 3.7654397 994631
2.3755548 0.091967121 3.7625151 1125704
2.4251099 0.091895737 3.7595942 994118
2.4745879 0.09182445 3.7566776 1059654
2.5239887 0.091753259 3.7537651 1059911
2.5688348 0.09168867 3.7511225 1191496
0.89475495 0.094100803 3.8498068 10197915
0.92463231 0.094057754 3.8480456 10197915
0.97489536 0.093985327 3.845082 10197915
1.025081 0.093913004 3.8421233 10197915
1.0751899 0.093840837 3.8391709 10197915
1.1252216 0.093768746 3.8362219 10197915
1.1751764 0.093696758 3.8332765 10197915
1.2250545 0.093624882 3.8303363 10197915
1.2748562 0.093553111 3.8274002 10197915
1.3245816 0.093481451 3.8244686 10197915
1.3742309 0.093409911 3.8215415 10197915
1.4238049 0.093338534 3.8186204 10197915
1.4748474 0.093264967 3.8156114 10197915
1.5258106 0.093191527 3.812607 10197915
1.5751525 0.093120426 3.8096981 10197915
1.6244192 0.093049437 3.8067932 10197915
1.6751462 0.092976339 3.8038034 10197915
1.721195 0.092909984 3.8010886 7960953
2.734889 0.090897217 3.8492258 1125704
2.7746105 0.09084034 3.8468165 1190471
2.8249583 0.09076824 3.8437631 1058885
2.8752255 0.090696216 3.8407135 1059142
2.9254138 0.090624332 3.8376698 1190983
2.975523 0.090552598 3.8346314 1257033
3.0240381 0.090483114 3.8316894 1388362
0.83491123 0.094187051 3.8533351 10197915
0.86956936 0.094137102 3.8512917 10197915
1.8984512 0.092095077 3.8999512 2039583
1.9251157 0.092056863 3.8983331 2039583
1.9752547 0.091985054 3.8952918 2039583
2.0253153 0.09191335 3.8922553 2039583
2.0752983 0.091841765 3.8892241 2039583
2.1252036 0.091770306 3.8861985 1975597
2.1750314 0.091698952 3.8831768 993348
2.2247815 0.091627695 3.8801587 993605
2.2744539 0.091556542 3.877146 795458
2.3240497 0.091485508 3.8741379 993606
2.375114 0.091412373 3.8710403 1060167
2.4260981 0.09133935 3.8679478 1125960
2.4754593 0.091268681 3.8649559 1059911
2.524744 0.091198102 3.8619666 1059654
2.5739529 0.091127641 3.8589828 1125190
2.6246204 0.091055125 3.8559122 1125960
2.6752067 0.090982668 3.8528438 1257289
2.7104185 0.090932243 3.8507087 1191752
1.0863742 0.093258098 3.9492021 10197915
1.1249712 0.093202844 3.9468617 10197915
1.1747613 0.093131527 3.9438417 10197915
1.2244744 0.093060337 3.9408264 10197915
1.2757123 0.092986941 3.9377184 10197915
1.3252718 0.092915945 3.9347124 10197915
1.3747551 0.092845075 3.9317112 10197915
1.4257562 0.092772029 3.9286182 10197915
1.4750878 0.092701405 3.925627 10197915
1.5243429 0.092630848 3.9226398 10197915
1.5751088 0.092558146 3.9195607 10197915
1.6257951 0.09248554 3.9164863 10197915
1.6748222 0.092415318 3.9135127 10197915
1.7237738 0.092345208 3.9105434 10197915
1.7742277 0.092272967 3.9074838 6974058
1.8246027 0.092200838 3.9044299 2039583
1.8733283 0.092131048 3.9014742 2039583
2.9755354 0.089969546 3.9484847 1125191
3.0239286 0.089900672 3.945462 1322569
3.0738065 0.089829728 3.9423485 1257033
3.1158311 0.089769937 3.939724 1322826
0.84733051 0.093600467 3.9636998 8158332
0.87487453 0.093561016 3.962029 7105644
0.9250471 0.093489155 3.9589863 9934743
0.97514361 0.093417391 3.9559476 10197915
1.0251622 0.093345754 3.9529138 10197915
1.0622264 0.093292661 3.9506652 10197915
2.1750071 0.091108575 3.9984732 2302756
2.2246337 0.091037989 3.9953744 927555
2.27578 0.090965182 3.9921801 994118
2.3252509 0.090894781 3.9890904 861250
2.374644 0.090824485 3.9860055 993093
2.4255512 0.090752043 3.982826 1125704
2.4747901 0.090681985 3.9797504 1126216
2.5239539 0.090612039 3.9766817 1060167
2.5746241 0.090539962 3.9735184 1059398
2.6252146 0.090468042 3.9703619 1125190
2.6757231 0.090396158 3.9672074 1125704
2.726151 0.090324402 3.9640577 1257289
2.7749279 0.090254985 3.9610124 1257289
2.8236296 0.090185724 3.9579718 1191240
2.8738232 0.090114288 3.9548368 1190471
2.9239373 0.090042971 3.9517069 1058629
2.950531 0.090005107 3.9500451 1058886
2.435293 -1.8049927 4.0463018 2039583
2.4357479 -1.7748805 4.0462108 2039583
2.4358304 -1.7250317 4.0464988 2039583
2.4359639 -1.6751784 4.0467939 2039583
2.4367077 -1.6266493 4.0466232 2039583
2.4375045 -1.5749891 4.0464921 2039583
2.4376585 -1.5247931 4.0467467 2039583
2.4378126 -1.4745905 4.0470028 2039583
2.4371004 -1.42664 4.0468922 2039583
2.4358652 -1.3752385 4.0465565 2039583
2.4359932 -1.3250149 4.0467677 2039583
2.4361691 -1.2753557 4.0469341 1974306
2.43628 -1.2256857 4.047245 1257803
2.4364431 -1.1754625 4.0475149 1256777
2.436605 -1.1252323 4.0477848 1323340
2.4376338 -1.0761396 4.0472288 1389133
2.4380181 -1.0245039 4.0473437 1520718
2.4381979 -0.97427285 4.0476427 1455183
2.4383783 -0.92403436 4.0479422 1389390
2.4385581 -0.8737886 4.0482411 1652304
2.4387388 -0.8235352 4.0485406 1389647
2.4389129 -0.77494997 4.0488291 1191755
2.4390874 -0.72635776 4.049119 1124937
2.4392672 -0.67608279 4.049418 1059144
2.4394476 -0.62580019 4.0497174 1125194
2.4385612 -0.58355004 4.0499167 1257035
1.375308 0.092246518 4.0484138 10197915
1.4261818 0.09217412 4.0452361 10197915
1.4753385 0.092104182 4.0421667 10197915
1.5244204 0.092034362 4.0391026 10197915
1.5750597 0.091962293 4.0359397 10197915
1.6256204 0.091890335 4.0327821 10197915
1.6744747 0.091820821 4.0297308 10197915
1.7248789 0.091749087 4.0265832 10197915
1.775206 0.091677457 4.0234399 10197915
1.8254538 0.091605976 4.0203023 6974058
1.8756241 0.091534615 4.0171704 2039583
1.925715 0.09146332 4.0140414 2039583
1.975729 0.091392145 4.0109181 2039583
2.0256641 0.091321088 4.0077987 2039583
2.0755227 0.091250129 4.0046854 2039583
2.1253028 0.091179274 4.0015759 2039583
2.3920553 -1.8156648 4.0927958 2039583
2.4127531 -1.8104373 4.0695128 2039583
2.4754641 -1.8119553 4.0759578 2039583
2.5013461 -1.8169994 4.0989127 2039583
2.3923731 -1.7749956 4.0927253 2039583
2.4147379 -1.7749859 4.0675292 2039583
2.4721391 -1.775182 4.0731378 2039583
2.5015476 -1.7746886 4.0992422 2039583
2.3925571 -1.7249453 4.0928726 2039583
2.4149194 -1.724972 4.067678 2039583
2.4723752 -1.7249647 4.0735264 2039583
2.5017893 -1.7239071 4.0996385 2039583
2.3933127 -1.6759762 4.0923691 2039583
2.4150634 -1.6750654 4.0678716 2039583
2.4726813 -1.6747346 4.0739775 2039583
2.5019581 -1.6883545 4.099915 2039583
2.3937533 -1.6249758 4.0922346 2039583
