# .PCD v0.7 - Point Cloud Data file format
VERSION 0.7
FIELDS x y z rgb
SIZE 4 4 4 4
TYPE F F F U
COUNT 1 1 1 1
WIDTH 746
HEIGHT 1
VIEWPOINT 0 0 0 1 0 0 0
POINTS 746
DATA ascii
0.29765514 -0.20048118 0.4491975 2894892
0.30045798 -0.20011996 0.4476788 2894892
0.29815984 -0.17526977 0.44901672 2894892
0.31947088 -0.17285441 0.43746895 2894892
0.29837379 -0.12539312 0.449085 2894892
0.32025009 -0.12500565 0.43722233 2894892
0.29851392 -0.076059453 0.44919103 2894892
0.32027623 -0.074964277 0.43739346 2894892
0.29866296 -0.025615761 0.44929621 2894892
0.32030967 -0.025004147 0.43755993 2894892
0.29887447 0.024225282 0.44936526 2894892
0.32040799 0.024998749 0.43768913 2894892
0.29901943 0.07327015 0.4494673 2894892
0.32043451 0.075037114 0.43785861 2894892
-0.35261303 0.11441644 0.44646505 10197915
-0.31955615 0.11449726 0.42747703 10197915
-0.27500334 0.11454669 0.42341405 10197915
-0.22499934 0.114591 0.42358038 10197915
-0.17500255 0.114633 0.42373729 10197915
-0.12499998 0.11467653 0.42389387 10197915
-0.075139247 0.11471907 0.42383021 10197915
-0.024881152 0.11476423 0.4234232 10197915
0.024990365 0.11480894 0.42308587 10197915
0.074991234 0.11485286 0.42324454 10197915
0.12499819 0.1148942 0.42340466 10197915
0.17499311 0.11493707 0.42356056 10197915
0.22499317 0.11498033 0.42372093 10197915
0.27599221 0.11470926 0.42493984 9737364
0.31868771 0.10979031 0.43296358 4671303
0.22510055 -0.20928156 0.48851177 2894892
0.26732644 -0.20416558 0.46563163 2894892
0.22766545 -0.17502555 0.48724678 2894892
0.27380261 -0.17497875 0.46222511 2894892
0.22785746 -0.12504323 0.48732769 2894892
0.27401954 -0.12497001 0.4622916 2894892
0.22799279 -0.07508821 0.48743883 2894892
0.27417818 -0.074930787 0.46239012 2894892
0.22808908 -0.025028694 0.4875721 2894892
0.27430108 -0.024963481 0.46250877 2894892
0.22828883 0.024998512 0.48764738 2894892
0.27451596 0.025036929 0.4625774 2894892
0.22851299 0.074990436 0.48771021 2894892
0.27472702 0.075034745 0.4626475 2894892
-0.36568576 0.11431376 0.4795455 10197915
-0.32499158 0.11436599 0.47349659 10197915
-0.275002 0.11440822 0.47368586 10197915
-0.2249942 0.11445147 0.4738631 10197915
-0.17499308 0.11449442 0.47403896 10197915
-0.12499905 0.1145373 0.47421548 10197915
-0.074807473 0.11458091 0.47410518 10197915
-0.025185071 0.11462633 0.4733319 10197915
0.024997093 0.11467032 0.47313517 10197915
0.074996822 0.11471322 0.47332904 10197915
0.12499667 0.11475637 0.47349703 10197915
0.17499499 0.11479916 0.47367692 10132122
0.22624817 0.11029895 0.48071417 5460819
0.273644 0.10852005 0.46211785 3552822
0.13045892 -0.2207468 0.53979367 2894892
0.17403233 -0.21546742 0.51618427 2894892
0.20196064 -0.21208753 0.50105023 2894892
0.13135111 -0.1750529 0.53947806 2894892
0.17573455 -0.17500287 0.51541036 2894892
0.20216124 -0.17472188 0.50107914 2894892
0.13152342 -0.12506096 0.53957033 2894892
0.17561263 -0.1250082 0.51566035 2894892
0.20218989 -0.12452127 0.50124878 2894892
0.1316919 -0.075012162 0.53966308 2894892
0.1756577 -0.075003363 0.51582229 2894892
0.20237817 -0.074558035 0.50133103 2894892
0.13192572 -0.025004009 0.53971988 2894892
0.17571482 -0.02500442 0.51597303 2894892
0.20257476 -0.024745081 0.5014078 2894892
0.13201356 0.024874505 0.53985739 2894892
0.17568713 0.025041176 0.51617414 2894892
0.20277436 0.024984458 0.50148511 2894892
0.13206969 0.074936345 0.540012 2894892
0.17563586 0.0749989 0.51638627 2894892
0.20299712 0.075033695 0.50154722 2894892
-0.41236225 0.11412282 0.5340001 10197915
-0.37495223 0.11418284 0.52405578 10197915
-0.32522494 0.11422688 0.52371055 10197915
-0.27499563 0.11427121 0.52339137 10197915
-0.22499989 0.11431438 0.52359003 10197915
-0.17500161 0.11435714 0.52378494 10197915
-0.12500905 0.11440007 0.52396911 10197915
-0.075013809 0.11444287 0.52417386 10197915
-0.024754163 0.11448769 0.52381968 10197915
0.024996962 0.11453101 0.52358675 10197915
0.074990429 0.11457369 0.52377743 10197915
0.12794656 0.1107104 0.53110921 6250335
0.17438556 0.10870372 0.51524758 4079166
0.20304736 0.10758896 0.50161713 2894892
0.033471178 -0.2575061 0.59225518 2894892
0.065306932 -0.25362304 0.57500327 2894892
0.034806885 -0.22499046 0.5916521 2894892
0.075485058 -0.22496672 0.56959248 2894892
0.10580918 -0.22373062 0.55315095 2894892
0.035014879 -0.17506123 0.59172267 2894892
0.075534359 -0.17499796 0.56975007 2894892
0.10604735 -0.1748175 0.55320162 2894892
0.035154007 -0.12509777 0.59182978 2894892
0.075554095 -0.1249994 0.5699175 2894892
0.10621887 -0.1247955 0.55329335 2894892
0.035317861 -0.075003475 0.59192729 2894892
0.075582258 -0.075003445 0.57009256 2894892
0.10638412 -0.074976116 0.55338758 2894892
0.035536546 -0.0250396 0.59199458 2894892
0.075598188 -0.025002496 0.57026809 2894892
0.10661754 -0.025005909 0.5534454 2894892
0.035676911 0.024901733 0.59210223 2894892
0.075625598 0.024998039 0.57043827 2894892
0.10679652 0.02516591 0.55353343 2894892
0.035820797 0.074999265 0.5922066 2894892
0.075596102 0.074960053 0.57063955 2894892
0.10691479 0.075299606 0.55365449 2894892
-0.4589878 0.11393224 0.58835125 10197915
-0.42411238 0.11399876 0.57526231 10197915
-0.37502828 0.11404296 0.57467103 10197915
-0.32472426 0.11408716 0.57438207 10197915
-0.27499539 0.11413178 0.57393658 10197915
-0.22523625 0.11417657 0.57334417 10197915
-0.17499867 0.11422057 0.5731923 10197915
-0.12499703 0.11426345 0.57338947 10197915
-0.07499183 0.11430617 0.57362193 10197915
-0.024994424 0.1143489 0.57383704 10197915
0.029360887 0.11107832 0.58142537 6974058
0.07421083 0.1088217 0.56886625 4605510
0.1068133 0.10753429 0.55374283 3223857
-0.061874393 -0.26908165 0.64391828 2894892
-0.026288047 -0.26473522 0.62463641 2894892
0.0093670506 -0.26036683 0.60531616 2894892
-0.061343458 -0.2250073 0.64379346 2894892
-0.024557604 -0.22501107 0.62384492 2894892
0.0097795483 -0.22499324 0.60522342 2894892
-0.0612331 -0.17515677 0.64391863 2894892
-0.024561454 -0.17500614 0.62403083 2894892
0.0099904723 -0.17492427 0.60529393 2894892
-0.06110274 -0.12501128 0.64403236 2894892
-0.024567509 -0.1249982 0.6242187 2894892
0.01012901 -0.12487239 0.6054036 2894892
-0.060864817 -0.075053826 0.64408749 2894892
-0.024570093 -0.075001001 0.62440544 2894892
0.010288197 -0.075003654 0.60550117 2894892
-0.060777351 -0.025121739 0.64422435 2894892
-0.024586892 -0.025006339 0.62459886 2894892
0.010512352 -0.024947053 0.60556376 2894892
-0.060457665 0.025149543 0.64423645 2894892
-0.024465822 0.024939433 0.62471652 2894892
0.01065098 0.02513878 0.60567415 2894892
-0.060121879 0.074851222 0.64423829 2894892
-0.0243265 0.075004421 0.62482584 2894892
0.010795392 0.074993998 0.60578024 2894892
-0.50569367 0.11374076 0.64300388 10197915
-0.47221649 0.11381457 0.62677509 10197915
-0.42499542 0.11386154 0.6246227 10197915
-0.37496218 0.11390434 0.6248889 10197915
-0.32496357 0.11394709 0.62507719 10197915
-0.27521777 0.11399271 0.62421644 10197915
-0.22468361 0.11403941 0.62317967 10197915
-0.17500883 0.11408292 0.62301737 10197915
-0.12499747 0.11412583 0.62324536 10197915
-0.069946595 0.11155125 0.63060004 7697781
-0.025612222 0.10900991 0.62182516 5197647
0.010763248 0.1076878 0.60561991 3815994
-0.15807018 -0.30568779 0.69595122 2894892
-0.13694645 -0.30313268 0.68450475 2894892
-0.15769413 -0.27501151 0.69586051 2894892
-0.12483887 -0.27486822 0.67804319 2894892
-0.086914144 -0.27205721 0.65748674 2894892
-0.15755485 -0.2252737 0.69596833 2894892
-0.12474521 -0.22501263 0.67817694 2894892
-0.086329259 -0.22501236 0.65734369 2894892
-0.15745482 -0.17498416 0.69609952 2894892
-0.12464426 -0.17492382 0.6783064 2894892
-0.086085387 -0.17499125 0.65739614 2894892
-0.15714125 -0.1249162 0.69611484 2894892
-0.12443233 -0.12505226 0.67837572 2894892
-0.085793182 -0.12500133 0.65742141 2894892
-0.15685275 -0.075168252 0.69614166 2894892
-0.12424089 -0.074996762 0.67845607 2894892
-0.085565135 -0.074960962 0.65748268 2894892
-0.15661167 -0.025009725 0.69619626 2894892
-0.12426906 -0.025001189 0.6786561 2894892
-0.085460596 -0.024898306 0.65761048 2894892
-0.15651242 0.024708994 0.69632566 2894892
-0.12430908 0.024993666 0.67886293 2894892
-0.085285887 0.025002666 0.6577006 2894892
-0.15638797 0.075018257 0.69644403 2894892
-0.12434845 0.074993193 0.67906868 2894892
-0.08509583 0.075102128 0.65778172 2894892
-0.5520795 0.11355283 0.69647068 10197915
-0.51941371 0.11363178 0.67814928 10197915
-0.47503862 0.11368116 0.67420381 10197915
-0.42499635 0.11372389 0.67445523 10197915
-0.37500948 0.11376666 0.67468935 10197915
-0.325021 0.11380918 0.6749776 10197915
-0.2747567 0.11385578 0.67389339 10197915
-0.22500515 0.11389915 0.67383868 10197915
-0.17058046 0.11216083 0.67942369 8553090
-0.12561907 0.10912209 0.67486161 5723991
-0.085533515 0.1077715 0.6575579 4342338
-0.2541354 -0.31732261 0.74800515 2894892
-0.22658883 -0.31398758 0.7330786 2894892
-0.18386611 -0.30881238 0.70992851 2894892
-0.25371405 -0.27491692 0.74793333 2894892
-0.2245988 -0.27509823 0.73214275 2894892
-0.18248448 -0.27500799 0.7093035 2894892
-0.25348464 -0.22497529 0.74799228 2894892
-0.22449325 -0.22501047 0.73227102 2894892
-0.18234427 -0.22489178 0.70941293 2894892
-0.25325075 -0.17535573 0.74804908 2894892
-0.22456418 -0.17501239 0.73249328 2894892
-0.18224502 -0.17500527 0.70954335 2894892
-0.2532568 -0.12502623 0.74823803 2894892
-0.22462997 -0.12501013 0.73271471 2894892
-0.18201658 -0.12494422 0.70960784 2894892
-0.25295523 -0.075056329 0.74825943 2894892
-0.2243576 -0.074984401 0.73275065 2894892
-0.18164663 -0.074953146 0.70958799 2894892
-0.25296623 -0.025562029 0.74844748 2894892
-0.22439568 -0.025000053 0.73295647 2894892
-0.18139151 -0.024999533 0.70963728 2894892
-0.2527267 0.025075171 0.74850458 2894892
-0.22446652 0.024996966 0.7331782 2894892
-0.18128911 0.025115006 0.70976484 2894892
-0.25268564 0.074149385 0.74866325 2894892
-0.22454716 0.074996829 0.73340636 2894892
-0.18116875 0.075000726 0.70988315 2894892
-0.56587702 0.11344416 0.73146629 10197915
-0.52517599 0.11350261 0.72309262 10197915
-0.47501561 0.11354604 0.72314775 10197915
-0.42498201 0.11358866 0.72343886 10197915
-0.37502539 0.1136312 0.72373354 10197915
-0.32503152 0.11367399 0.72393644 10197915
-0.27255705 0.11295521 0.72685128 9539985
-0.22573222 0.10911344 0.72840601 6118749
-0.18193409 0.10770566 0.70970267 4737096
-0.33897862 -0.35260224 0.79388547 9803157
-0.32477224 -0.32454953 0.78628546 5921370
-0.27944356 -0.32048646 0.76171827 2894892
-0.324325 -0.27508548 0.78622472 5789784
-0.27826685 -0.27489799 0.76124829 2894892
-0.32412779 -0.22500199 0.78630286 4868682
-0.27821627 -0.22500208 0.76140457 2894892
-0.32407621 -0.17510194 0.78645891 4013373
-0.27797526 -0.17494094 0.76145887 2894892
-0.32390884 -0.12501025 0.78655255 4013373
-0.27799258 -0.12499426 0.76165247 2894892
-0.32382527 -0.075124823 0.78669226 3947580
-0.27767906 -0.074987248 0.76166642 2894892
-0.32368147 -0.025018062 0.7867983 3947580
-0.27769601 -0.024922969 0.76186085 2894892
-0.32358792 0.024905618 0.78693306 4079166
-0.27746227 0.024982441 0.76191843 2894892
-0.32345217 0.075013258 0.78704351 5000268
-0.2773937 0.075085603 0.76206601 2894892
-0.61167693 0.11326024 0.78367954 10197915
-0.57501459 0.11331636 0.77487099 10197915
-0.52481306 0.11336464 0.77317524 10197915
-0.47501287 0.11340753 0.77329457 10197915
-0.42503586 0.1134501 0.77358198 10197915
-0.37494156 0.1134929 0.77382511 10197915
-0.32507461 0.10935058 0.78015828 7697781
-0.27830806 0.1078378 0.7614131 5263440
-0.35975763 -0.35511538 0.80514461 11711154
-0.35914978 -0.32499003 0.80492598 11711154
-0.35925782 -0.27498907 0.80516964 11711154
-0.34967542 -0.25753337 0.80003732 11711154
-0.35936338 -0.22498974 0.8054114 8224125
-0.34974417 -0.22509474 0.80019432 8618883
-0.35947791 -0.17499138 0.80565888 6447714
-0.34963119 -0.17080988 0.80033368 6447714
-0.35954568 -0.12490825 0.80588031 6447714
-0.34950101 -0.12596871 0.80042833 6447714
-0.35924238 -0.074999452 0.80589938 6447714
-0.34894979 -0.070612289 0.80033368 6447714
-0.35936514 -0.025001856 0.80615002 6447714
-0.34886354 -0.024870194 0.80045593 6447714
-0.35912374 0.024813663 0.80620241 6842472
-0.34873298 0.02738742 0.80057794 6974058
-0.35913447 0.074994177 0.80639416 10066329
-0.34863964 0.074970342 0.80070263 10066329
-0.65966141 0.11306379 0.83973032 10197915
-0.62378496 0.11313925 0.82367939 10197915
-0.5750199 0.11318379 0.82288295 10197915
-0.52496636 0.1132263 0.82321256 10197915
-0.47497708 0.11326889 0.8234905 10197915
-0.42501831 0.11331129 0.8238436 10197915
-0.37164846 0.10996646 0.81292045 10132122
-0.34870666 0.10683497 0.80085671 10066329
-0.70581245 0.11287282 0.89437479 10197915
-0.67211753 0.11294612 0.87841982 10197915
-0.62500513 0.11299868 0.87419766 10197915
-0.57559609 0.11304332 0.87357098 10197915
-0.52494746 0.11309121 0.87213302 10197915
-0.47494292 0.1131338 0.87242401 10197915
-0.42557204 0.11317702 0.87228757 10132122
-0.39516062 0.11323809 0.85973448 10132122
-0.75189102 0.11268549 0.94772798 10197915
-0.7194066 0.11276268 0.92997903 10197915
-0.67495012 0.11281168 0.92621434 10197915
-0.62501431 0.11285415 0.9265393 10197915
-0.57425135 0.11290067 0.92563361 10197915
-0.52500176 0.11294756 0.92412835 10197915
-0.47502396 0.11298978 0.92452788 10132122
-0.43414101 0.11303552 0.92082268 10000536
-0.76486737 0.1125847 0.98013896 10197915
-0.72517544 0.11263489 0.97443676 10197915
-0.6750806 0.11267725 0.97483575 10197915
-0.62500715 0.1127196 0.97523284 10197915
-0.57506722 0.11276201 0.97556764 10197915
-0.52509028 0.11280441 0.97591913 10132122
-0.47518069 0.11284713 0.97615439 10000536
-0.44361383 0.11290638 0.96460396 10000536
-0.81186324 0.11239092 1.0355262 10197915
-0.77494282 0.11245346 1.0244815 10197915
-0.72500783 0.11249617 1.0247056 10197915
-0.674927 0.11253873 1.0250372 10197915
-0.62498945 0.11258085 1.025476 10132122
-0.57495403 0.11262339 1.0258075 10066329
-0.52500188 0.11266545 1.0262648 10000536
-0.48243576 0.11271007 1.023482 10000536
-0.85825545 0.11220195 1.0893761 10197915
-0.82379162 0.11226767 1.0764141 10197915
-0.77496386 0.11231167 1.0758046 10197915
-0.72509819 0.11235417 1.0760981 10197915
-0.67504454 0.11239608 1.0766636 10197915
-0.62495512 0.11243872 1.0769588 10066329
-0.57497519 0.1124809 1.0773741 10000536
-0.52503169 0.11252302 1.0778285 10000536
-0.49281538 0.11257463 1.0692664 10000536
-0.90372413 0.11202022 1.140895 10197915
-0.8715691 0.11209149 1.1251889 10197915
-0.8249768 0.11213773 1.1230797 10197915
-0.77483237 0.11217972 1.1236387 10197915
-0.72483176 0.11222195 1.1240598 10197915
-0.67498219 0.11226441 1.1243485 10197915
-0.62500012 0.11230643 1.1248379 10066329
-0.57498145 0.11234877 1.1252275 10000536
-0.53015792 0.11239191 1.1236856 10000536
-0.95217669 0.11181616 1.1995536 10197915
-0.91931874 0.11189734 1.1804764 10197915
-0.87497276 0.11196487 1.1699648 10197915
-0.82506883 0.11200683 1.1704412 10197915
-0.7750293 0.11204929 1.1708084 10197915
-0.72485751 0.11209159 1.1712495 10197915
-0.67493552 0.1121335 1.1717649 10197915
-0.62497747 0.11217574 1.1721684 10132122
-0.57498157 0.11221781 1.1726458 10000536
-0.54016817 0.112262 1.1675829 10000536
-0.96439064 0.1117199 1.2305541 10197915
-0.92475975 0.11176737 1.2258294 10197915
-0.8750506 0.11182264 1.2214402 10197915
-0.82496649 0.11186518 1.2217726 10197915
-0.77484202 0.11190742 1.222234 10197915
-0.72498477 0.11194941 1.2226892 10197915
-0.67508745 0.11199144 1.223152 10197915
-0.62495291 0.1120333 1.223742 10197915
-0.57791811 0.11207896 1.2219957 10066329
-0.54832095 0.11215656 1.2032053 10000536
-1.013814 0.11152253 1.2864815 10197915
-0.97467673 0.11159933 1.2709683 10197915
-0.92499501 0.11164215 1.2710798 10197915
-0.87503284 0.11168402 1.2716175 10197915
-0.82490253 0.11172611 1.2721308 10197915
-0.77473211 0.11176842 1.272578 10197915
-0.72491848 0.11181017 1.2731171 10197915
-0.67493939 0.11185265 1.2734447 10197915
-0.62491864 0.11189447 1.2740141 10197915
-0.58850592 0.1119353 1.2706696 10197915
-1.0592238 0.11134133 1.3378286 10197915
-1.0225483 0.11141432 1.3229293 10197915
-0.97505826 0.1114666 1.3189125 10197915
-0.92500162 0.11150855 1.3194467 10197915
-0.87490654 0.11155095 1.3198417 10197915
-0.8251825 0.11159258 1.3204027 10197915
-0.77514672 0.11163466 1.3209032 10197915
-0.72480434 0.11167712 1.3213342 10197915
-0.6749658 0.11171877 1.3218963 10197915
-0.62643629 0.11176249 1.3213158 10197915
-0.5965637 0.11182845 1.3068322 10197915
-1.1029472 0.11115865 1.3902202 10197915
-1.0703204 0.11122969 1.3747448 10197915
-1.0249469 0.11128094 1.3705007 10197915
-0.97506791 0.11132305 1.3708619 10197915
-0.92514998 0.11136455 1.3715323 10197915
-0.8751936 0.11140689 1.3718942 10197915
-0.82520282 0.11144841 1.3725652 10197915
-0.77502906 0.11149072 1.3730458 10197915
-0.72496206 0.11153302 1.3734841 10197915
-0.67499584 0.11157449 1.3741181 10197915
-0.63613057 0.11161863 1.3703831 10197915
-1.150966 0.11095817 1.447722 10197915
-1.1191596 0.11102995 1.4317364 10197915
-1.0750858 0.11108334 1.4262439 10197915
-1.025099 0.11112516 1.4268245 10197915
-0.97507709 0.11116713 1.4273199 10197915
-0.92591494 0.11122533 1.4217329 10197915
-0.87486297 0.11127111 1.4211823 10197915
-0.8249346 0.11131328 1.4216022 10197915
-0.7749666 0.11135519 1.422137 10197915
-0.72515935 0.11139692 1.4226701 10197915
-0.67568493 0.11143906 1.4229666 10197915
-0.64584738 0.1114932 1.4127316 10197915
-1.1651574 0.11084697 1.4835352 9803157
-1.1252809 0.11089452 1.4788518 10197915
-1.0750394 0.11093623 1.4795384 10197915
-1.0249658 0.11097884 1.4798414 10197915
-0.97505432 0.11101992 1.4806554 10197915
-0.92417061 0.11108203 1.4741448 10197915
-0.87496048 0.1111259 1.4737283 10197915
-0.82489961 0.11116752 1.4743819 10197915
-0.77479804 0.11120974 1.4748402 10197915
-0.72496367 0.11125069 1.4756802 10197915
-0.6840902 0.11129902 1.4710231 10197915
-1.2177898 -0.56970906 1.5430392 6447714
-1.2178519 -0.52507317 1.5431174 6447714
-1.217948 -0.47514275 1.5431581 6447714
-1.2182515 -0.42500138 1.5428171 6447714
-1.2183232 -0.37507614 1.5429032 6447714
-1.2183969 -0.32505414 1.5429833 6447714
-1.2184658 -0.27498129 1.5430759 6447714
-1.2185304 -0.22499308 1.5431758 6447714
-1.218605 -0.17499928 1.5432574 6447714
-1.2186835 -0.12490931 1.5433303 6447714
-1.2187474 -0.074859068 1.543431 6447714
-1.2188107 -0.024938948 1.5435308 6447714
-1.2188795 0.024940869 1.5436193 6447714
-1.2189937 0.074555583 1.5436264 6447714
-1.2171873 0.10627372 1.5416275 6513507
-1.1752946 0.1107178 1.5271143 7303023
-1.1251055 0.11075976 1.5276971 10066329
-1.0748811 0.11080176 1.5282722 10197915
-1.0250347 0.11084343 1.5288466 10197915
-0.97515327 0.11088473 1.5295655 10197915
-0.92523438 0.11092684 1.5299975 10197915
-0.87506521 0.1109692 1.5304379 10197915
-0.82485944 0.11101076 1.5311556 10197915
-0.7748301 0.11105219 1.5318755 10197915
-0.72535402 0.11109517 1.5318613 10197915
-0.69495624 0.11115389 1.5201541 10197915
-1.2069913 -0.56970084 1.5629973 6447714
-1.1934321 -0.56974572 1.5880541 6447714
-1.2070485 -0.5249483 1.5630845 6447714
-1.1934953 -0.52503467 1.5881296 6447714
-1.2071524 -0.47491863 1.5631093 6447714
-1.1937394 -0.47527507 1.5878973 6447714
-1.2074662 -0.4250029 1.5627493 6447714
-1.1939029 -0.42497 1.5878142 6447714
-1.2074071 -0.37473699 1.5630786 6447714
-1.1938602 -0.37527096 1.5881131 6447714
-1.2073287 -0.32498851 1.5634392 6447714
-1.1937897 -0.32500663 1.5884616 6447714
-1.2074035 -0.27501497 1.5635183 6447714
-1.1938429 -0.27500814 1.5885812 6447714
-1.207469 -0.22498962 1.5636182 6447714
-1.1939026 -0.22500275 1.5886875 6447714
-1.2075413 -0.17500456 1.5637021 6447714
-1.193985 -0.17496197 1.5887566 6447714
-1.2076216 -0.12505983 1.5637691 6447714
-1.1940703 -0.12494628 1.5888153 6447714
-1.2076501 -0.075085975 1.5639356 6447714
-1.1941187 -0.074984938 1.5889448 6447714
-1.2077723 -0.02503966 1.5639292 6447714
-1.1941769 -0.025016263 1.5890599 6447714
-1.2076877 0.025223855 1.564306 6447714
-1.1940875 0.024739902 1.5894388 6447714
-1.2076421 0.075186625 1.5646046 6447714
-1.1941348 0.074767597 1.5895681 6447714
-1.2078347 0.10553461 1.5641453 6513507
-1.1861174 0.10739271 1.5846899 6513507
-1.1253511 0.11061546 1.5798697 8618883
-1.0753596 0.11065719 1.5804663 10197915
-1.0251106 0.11069875 1.5812192 10197915
-0.97698295 0.11074575 1.5793141 10197915
-0.9249149 0.11080734 1.5733734 10197915
-0.87473011 0.11084958 1.5738525 10197915
-0.82515687 0.11089063 1.5745554 10197915
-0.77521986 0.11093235 1.5751485 10197915
-0.73248005 0.11097129 1.5744773 10197915
-1.1734234 -0.56976295 1.6250285 6447714
-1.1736078 -0.52512342 1.6248853 6447714
-1.1740203 -0.47486261 1.624342 6447714
-1.1741918 -0.42501211 1.6242433 6447714
-1.1742724 -0.37501016 1.6243117 6447714
-1.1743497 -0.32500246 1.624388 6447714
-1.174399 -0.27500379 1.6245122 6447714
-1.1744704 -0.22501329 1.6246004 6447714
-1.1745389 -0.17501754 1.6246939 6447714
-1.1746116 -0.12497239 1.6247768 6447714
-1.1746899 -0.075007573 1.6248504 6447714
-1.1747301 -0.025038835 1.6249942 6447714
-1.174793 0.025026483 1.625096 6447714
-1.1752347 0.075056493 1.6244981 6447714
-1.1744016 0.10566652 1.624065 6513507
-1.1250868 0.11048763 1.6262337 6842472
-1.0746325 0.11053005 1.6267259 9934743
-1.0248064 0.11057126 1.6274643 10197915
-0.97268355 0.11062577 1.6241075 10197915
-0.92524534 0.11068071 1.6191225 10197915
-0.87526351 0.11072239 1.6197323 10197915
-0.82524776 0.11076411 1.620343 10197915
-0.77519023 0.11080588 1.6209531 10197915
-0.74138421 0.1108555 1.6136132 10197915
-1.1548727 -0.56983477 1.6593122 6447714
-1.1414518 -0.56982869 1.6841152 6447714
-1.1550775 -0.52464652 1.6591322 6447714
-1.1414948 -0.52497792 1.6842316 6447714
-1.1553034 -0.47498664 1.6589316 6447714
-1.1415857 -0.47496673 1.6842864 6447714
-1.1553681 -0.42500141 1.6590296 6447714
-1.1417924 -0.42519861 1.6841172 6447714
-1.1553029 -0.37465784 1.6593708 6447714
-1.1418771 -0.37525022 1.6841793 6447714
-1.1552075 -0.32497773 1.6597633 6447714
-1.1417745 -0.32503587 1.6845866 6447714
-1.1552694 -0.27498797 1.6598672 6447714
-1.1418492 -0.27501744 1.6846693 6447714
-1.1553468 -0.22503102 1.6599431 6447714
-1.1418999 -0.22499289 1.6847924 6447714
-1.1554016 -0.17506737 1.6600589 6447714
-1.1419824 -0.17498964 1.6848624 6447714
-1.1554585 -0.12506139 1.6601731 6447714
-1.1420157 -0.12500744 1.6850147 6447714
-1.1555353 -0.074895583 1.6602484 6447714
-1.1421313 -0.075127482 1.6850187 6447714
-1.1556135 -0.024879128 1.6603225 6447714
-1.142143 -0.025133677 1.6852158 6447714
-1.1556747 0.024842376 1.6604282 6447714
-1.1422094 0.025135623 1.6853129 6447714
-1.1559275 0.075258441 1.6601802 6447714
-1.1422642 0.074947797 1.6854302 6447714
-1.1556997 0.10542076 1.6604285 6513507
-1.1353902 0.10694752 1.6815903 6513507
-1.0750096 0.11039402 1.6758689 8092539
-1.0249417 0.1104357 1.6765019 10197915
-0.97483915 0.11047691 1.6773187 10197915
-0.92470014 0.1105192 1.6777694 10197915
-0.87474793 0.11056132 1.6782105 10197915
-0.82499504 0.11060175 1.6792156 10197915
-0.78044093 0.11066231 1.6712861 10197915
-1.1195647 -0.56986403 1.7245662 6447714
-1.1196089 -0.52501929 1.7246827 6447714
-1.1196942 -0.47501388 1.7247366 6447714
-1.1199174 -0.42485127 1.7245487 6447714
-1.1201457 -0.3749963 1.724342 6447714
-1.1201986 -0.32499185 1.7244599 6447714
-1.1202856 -0.27499804 1.7245258 6447714
-1.1203222 -0.22499944 1.7246656 6447714
-1.1204182 -0.17499427 1.7247111 6447714
-1.1204373 -0.12500054 1.7248935 6447714
-1.1206003 -0.075001135 1.7248095 6447714
-1.1207119 -0.02514483 1.7248225 6447714
-1.1209198 0.025007935 1.724656 6447714
-1.1211293 0.075005122 1.7244955 6447714
-1.1201718 0.10553648 1.7247032 6513507
-1.075292 0.11024949 1.7281084 6579300
-1.0252041 0.11029157 1.7286098 9408399
-0.97508663 0.11033285 1.7294152 10197915
-0.92528063 0.11037426 1.7300645 10197915
-0.87508214 0.11041645 1.7305673 10197915
-0.82484788 0.1104578 1.731374 10197915
-0.78782213 0.11053219 1.7160739 10197915
-1.1030418 -0.56981915 1.7551007 6447714
-1.0893754 -0.56992632 1.7803555 6447714
-1.1030936 -0.52500623 1.7552009 6447714
-1.0894495 -0.52498543 1.780416 6447714
-1.1031696 -0.47510239 1.7552778 6447714
-1.0895156 -0.47497502 1.7805125 6447714
-1.1032104 -0.42503083 1.7554189 6447714
-1.0898492 -0.42511681 1.7801126 6447714
-1.103292 -0.37495443 1.7554878 6447714
-1.0899768 -0.37502775 1.7800946 6447714
-1.1033167 -0.32480508 1.7556616 6447714
-1.0900204 -0.32506624 1.7802342 6447714
-1.1030812 -0.27496901 1.756313 6447714
-1.0897522 -0.27500305 1.7809465 6447714
-1.1031337 -0.22492088 1.7564359 6447714
-1.0898199 -0.22502188 1.7810408 6447714
-1.1032238 -0.17494144 1.7564878 6447714
-1.0898939 -0.17501025 1.7811223 6447714
-1.1032543 -0.12509932 1.7566487 6447714
-1.0899496 -0.12496735 1.7812371 6447714
-1.103336 -0.074890696 1.756718 6447714
-1.0900389 -0.07504645 1.781289 6447714
-1.1035866 -0.024165541 1.7564738 6447714
-1.0900382 -0.025093747 1.7815089 6447714
-1.1037896 0.024739319 1.7563142 6447714
-1.0901005 0.025095679 1.7816129 6447714
-1.1038612 0.074884057 1.7563992 6447714
-1.0902309 0.075034343 1.7815899 6447714
-1.1038843 0.10538122 1.7564656 6513507
-1.0861179 0.10617521 1.7792077 6513507
-1.024947 0.11016992 1.7727431 7566195
-0.974635 0.11021169 1.7734158 10132122
-0.92465353 0.11025278 1.774248 10197915
-0.87499762 0.11029404 1.7749126 10197915
-0.82793671 0.11033734 1.7740301 10197915
-1.065254 -0.56995302 1.8249335 6447714
-1.0653094 -0.52500576 1.8250279 6447714
-1.0653853 -0.4750092 1.8251091 6447714
-1.0657413 -0.42489567 1.8246669 6447714
-1.0658706 -0.37500194 1.8246431 6447714
-1.0659543 -0.32507905 1.8247104 6447714
-1.0663627 -0.27498755 1.8241731 6447714
-1.0664177 -0.22501941 1.8242885 6447714
-1.0664661 -0.17500454 1.8244215 6447714
-1.0665236 -0.12498403 1.824525 6447714
-1.0666573 -0.074978903 1.8245001 6447714
-1.0666082 -0.024968451 1.8248116 6447714
-1.066669 0.024970349 1.824916 6447714
-1.0668495 0.074971847 1.8248017 6447714
-1.0661842 0.10550889 1.8240671 6513507
-1.0250398 0.11004102 1.8193611 6513507
-0.97528464 0.1100828 1.8198656 9079434
-0.92511344 0.11012445 1.8205539 10197915
-0.87491298 0.11016512 1.8215991 10197915
-0.83790654 0.11020511 1.8187461 10197915
-1.0508718 -0.56992513 1.8515136 6447714
-1.0375985 -0.57010597 1.8760432 6447714
-1.0509317 -0.52508217 1.8515984 6447714
-1.0376318 -0.52500695 1.8761785 6447714
-1.0509869 -0.47486183 1.8517157 6447714
-1.0377102 -0.47500664 1.8762516 6447714
-1.0510471 -0.42502177 1.8518223 6447714
-1.0377859 -0.42497683 1.8763304 6447714
-1.0510019 -0.37330228 1.8521315 6447714
-1.0377457 -0.37509343 1.876622 6447714
-1.0508454 -0.32409173 1.8526353 6447714
-1.0374922 -0.32499748 1.877309 6447714
-1.0512393 -0.27508667 1.8521214 6447714
-1.0375713 -0.27499488 1.8773817 6447714
-1.0512887 -0.22483768 1.8522499 6447714
-1.0376104 -0.22498655 1.8775282 6447714
-1.0513489 -0.17496902 1.8523557 6447714
-1.0376972 -0.17499667 1.8775852 6447714
-1.0514092 -0.12509462 1.8524625 6447714
-1.0380343 -0.12517981 1.8771797 6447714
-1.0514694 -0.075214513 1.8525686 6447714
-1.0382127 -0.074957259 1.8770705 6447714
-1.0515296 -0.025328612 1.8526747 6447714
-1.0382109 -0.024912989 1.8772918 6447714
-1.051591 0.025330579 1.8527826 6447714
-1.0382702 0.024914874 1.8773992 6447714
-1.0516515 0.075227953 1.8528891 6447714
-1.0383914 0.07497073 1.8773926 6447714
-1.0516876 0.1051689 1.8529527 6513507
-1.0347506 0.10607122 1.8749681 6513507
-0.97481835 0.10994742 1.8690243 7171437
-0.92483675 0.10998888 1.869729 10066329
-0.87628716 0.11003137 1.869601 10197915
-0.84683275 0.11008825 1.8582432 10197915
-1.0123831 -0.570158 1.922644 6447714
-0.99847567 -0.57013464 1.9483445 6447714
-1.0124336 -0.52498937 1.9227427 6447714
-0.9986248 -0.52708244 1.9482561 6447714
-1.0124892 -0.47501254 1.9228609 6447714
-0.99899924 -0.47529113 1.9477905 6447714
-1.0125604 -0.42500484 1.9229494 6447714
-0.99905658 -0.42528495 1.9479024 6447714
-1.012606 -0.37499106 1.923082 6447714
-0.99911427 -0.37527293 1.9480144 6447714
-1.0126922 -0.32499734 1.9231415 6447714
-0.99917167 -0.32525522 1.9481267 6447714
-1.0127187 -0.27499738 1.9233102 6447714
-0.99922913 -0.27523178 1.9482387 6447714
-1.0127805 -0.22499242 1.9234157 6447714
-0.99928677 -0.22520258 1.948351 6447714
-1.0128459 -0.1749814 1.9235109 6447714
-0.99934417 -0.17516755 1.9484632 6447714
-1.0132252 -0.12478643 1.9230293 6447714
-0.99940169 -0.12512682 1.9485754 6447714
-1.0133256 -0.074911229 1.9230628 6447714
-0.99945915 -0.07508032 1.9486872 6447714
-1.0134643 -0.024974383 1.923026 6447714
-0.99951684 -0.025028056 1.9487996 6447714
-1.0133998 0.025134608 1.923359 6447714
-0.99950039 0.022016359 1.949035 6447714
-1.0130963 0.074928842 1.9241401 6447714
-0.99921721 0.07512328 1.9497898 6447714
-1.0129393 0.10526046 1.9230717 6513507
-0.97721124 0.10938845 1.923045 6513507
-0.924936 0.10984601 1.9214298 8355711
-0.88552463 0.10988725 1.9188738 10197915
-0.98417628 -0.57022494 1.9747733 6447714
-0.98438781 -0.5248332 1.97458 6447714
-0.98472607 -0.47500706 1.974165 6447714
-0.9847576 -0.42498749 1.9743299 6447714
-0.9848398 -0.37498814 1.974395 6447714
-0.9849084 -0.324983 1.9744885 6447714
-0.98494321 -0.27497184 1.9746398 6447714
-0.98500365 -0.22498056 1.9747469 6447714
-0.98507291 -0.17503458 1.9748371 6447714
-0.98509771 -0.12505718 1.9750079 6447714
-0.9851408 -0.075023174 1.9751459 6447714
-0.98528606 -0.025011858 1.9751011 6447714
-0.98559409 0.024830261 1.9747487 6447714
-0.98573381 0.075051159 1.97471 6447714
-0.98241431 0.10580805 1.9741311 6513507
-0.9258306 0.10969567 1.9755757 6645093
-0.89594907 0.10975782 1.9624532 8947848
-0.9606638 -0.57026118 2.0182235 6447714
-0.94671816 -0.57031959 2.0439949 6447714
-0.96075863 -0.52499318 2.0182447 6447714
-0.94704628 -0.52587587 2.0435817 6447714
-0.96047872 -0.47475991 2.0189803 6447714
-0.94697618 -0.47593436 2.0439305 6447714
-0.96039474 -0.42502156 2.0193546 6447714
-0.94688594 -0.42502236 2.0443189 6447714
-0.96045923 -0.37502146 2.019453 6447714
-0.94692469 -0.37507531 2.0444648 6447714
-0.96051162 -0.32501641 2.0195746 6447714
-0.94700766 -0.32498088 2.0445316 6447714
-0.9605571 -0.27500573 2.0197082 6447714
-0.94701838 -0.27487829 2.0447297 6447714
-0.96063191 -0.22498877 2.0197883 6447714
-0.94711906 -0.22491688 2.0447609 6447714
-0.96070135 -0.17496736 2.0198791 6447714
-0.94712734 -0.17493981 2.0449641 6447714
-0.96071225 -0.12493832 2.0200753 6447714
-0.94722813 -0.12497098 2.0449963 6447714
-0.96082973 -0.075080335 2.0200799 6447714
-0.94723624 -0.074978232 2.0451999 6447714
-0.96081018 -0.025109736 2.0203307 6447714
-0.94733691 -0.025002204 2.0452311 6447714
-0.96113569 0.025347998 2.0199506 6447714
-0.94739169 0.025004122 2.0453489 6447714
-0.96143901 0.075072855 2.0196078 6447714
-0.94739962 0.074991666 2.0455525 6447714
-0.96122611 0.1049819 2.0195968 6513507
-0.94175386 0.10703517 2.0376019 6513507
-0.94027889 -0.57022476 2.0558951 6447714
-0.94066852 -0.52405101 2.0553763 6447714
-0.94086319 -0.47499147 2.0552311 6447714
-0.9409129 -0.42490232 2.0553579 6447714
-0.94096226 -0.37492827 2.0554838 6447714
-0.9410345 -0.32506946 2.0555694 6447714
-0.94107538 -0.27508435 2.0557132 6447714
-0.94111568 -0.22509177 2.0558548 6447714
-0.94121045 -0.1749768 2.0558989 6447714
-0.94123715 -0.12521493 2.0560656 6447714
-0.94129181 -0.07496281 2.0561843 6447714
-0.94134635 -0.024704922 2.0563042 6447714
-0.94116145 0.02553934 2.0568638 6447714
-0.94100493 0.074902751 2.0573697 6447714
-0.94094455 0.10472549 2.0576112 6513507
