# .PCD v0.7 - Point Cloud Data file format
VERSION 0.7
FIELDS x y z rgb
SIZE 4 4 4 4
TYPE F F F U
COUNT 1 1 1 1
WIDTH 1169
HEIGHT 1
VIEWPOINT 0 0 0 1 0 0 0
POINTS 1169
DATA ascii
-0.22503048 0.11346559 1.2739309 9934743
-0.17493552 0.11349252 1.274233 9934743
-0.12502897 0.11351959 1.2743864 9934743
-0.074992567 0.11354618 1.2748357 9934743
-0.024933092 0.11357329 1.2750378 9934743
0.024940928 0.11360007 1.2753384 9934743
0.074942321 0.1136266 1.2757885 9934743
0.12496708 0.11365378 1.2759417 9934743
0.17389868 0.11368312 1.2747005 9934743
0.22493793 0.11371876 1.2708366 9934743
0.2750175 0.11374564 1.2711369 9934743
0.32525343 0.11377268 1.2714084 9934743
0.3595604 0.10768689 1.273614 9934743
0.34620824 -0.60144764 1.3471357 2894892
0.34773821 -0.57426262 1.3391429 2894892
0.35248983 -0.56905073 1.3143961 2894892
0.34778282 -0.525033 1.3388696 2894892
0.35264698 -0.525015 1.3135425 2894892
0.34777817 -0.47498187 1.3388497 2894892
0.35262722 -0.47503287 1.3135964 2894892
0.34777543 -0.42505613 1.3388193 2894892
0.35263443 -0.42509764 1.3135128 2894892
0.3477658 -0.37506953 1.3388245 2894892
0.35262394 -0.37507269 1.3135278 2894892
0.34776425 -0.32489967 1.3387872 2894892
0.35262251 -0.32491341 1.3134897 2894892
0.34775957 -0.27491567 1.338768 2894892
0.35261151 -0.27493674 1.3134992 2894892
0.34775114 -0.22505686 1.3387672 2894892
0.35261244 -0.22505243 1.3134558 2894892
0.34774852 -0.17495279 1.3387371 2894892
0.352606 -0.17498787 1.3134431 2894892
0.34774378 -0.12491141 1.3387194 2894892
0.35259926 -0.12492479 1.3134303 2894892
0.34774554 -0.074934348 1.3386617 2894892
0.35260311 -0.074953832 1.313369 2894892
0.34772801 -0.024957597 1.3387108 2894892
0.35258561 -0.024985272 1.3134176 2894892
0.34772316 0.024957122 1.3386925 3552822
0.35258028 0.024984794 1.3133988 3355443
0.34773082 0.074931033 1.3386052 10132122
0.35258806 0.074950524 1.313313 10132122
-0.75824291 0.11305153 1.3354341 3439302
-0.72479123 0.11309013 1.3251663 3306434
-0.67485845 0.11311717 1.3253778 4493525
-0.62503582 0.11314377 1.3257592 4427733
-0.57505405 0.1131705 1.3261079 3770065
-0.52491117 0.11319767 1.3262869 3111880
-0.47474524 0.11322431 1.3267386 2512521
-0.42482746 0.11325137 1.3269122 1585740
-0.37516442 0.11327774 1.3273648 5661295
-0.3251988 0.1133046 1.327679 9934743
-0.27493909 0.11333185 1.327859 9934743
-0.2249271 0.1133584 1.3283101 9934743
-0.17503066 0.11338526 1.3285891 9934743
-0.12497219 0.11341228 1.3288332 9934743
-0.075029127 0.11343887 1.3292526 9934743
-0.025061246 0.11346575 1.3295321 9934743
0.025069172 0.11349264 1.3298475 9934743
0.074945509 0.11351956 1.3300893 9934743
0.12484716 0.11354619 1.330475 9934743
0.17470226 0.11358262 1.3258857 9934743
0.22506438 0.11362439 1.3187268 9934743
0.27511483 0.11365151 1.3189026 9934743
0.33355471 0.1110674 1.3264189 9934743
0.35256073 0.1070877 1.3130312 9934743
0.33984101 -0.60880899 1.3802999 2894892
0.34101948 -0.57505405 1.3741313 2894892
0.34100258 -0.52503902 1.3741766 2894892
0.34100789 -0.47499499 1.3741069 2894892
0.34099045 -0.42498201 1.3741506 2894892
0.34099501 -0.37499931 1.3740796 2894892
0.34099895 -0.32501841 1.374019 2894892
0.34097764 -0.2750102 1.3740853 2894892
0.34097373 -0.22500226 1.3740593 2894892
0.34098095 -0.17502572 1.3739805 2894892
0.34096715 -0.12502104 1.3740059 2894892
0.34095895 -0.074987471 1.374001 2894892
0.34095922 -0.02498688 1.3739583 2894892
0.34095475 0.024986405 1.3739376 3815994
0.34094736 0.075014122 1.37393 10132122
-0.80133802 0.11290528 1.3975818 3638730
-0.77084267 0.11295668 1.380013 3572169
-0.72485828 0.11298697 1.3774571 3439816
-0.67494196 0.1130138 1.3777407 4165074
-0.62514752 0.11304068 1.3779911 4362196
-0.57504344 0.1130671 1.3785508 4099283
-0.52491659 0.11309438 1.3786464 3045573
-0.47505078 0.11312098 1.3790474 2448017
-0.42657363 0.11315623 1.3746711 1519948
-0.37520722 0.11318793 1.3729022 5135210
-0.32522979 0.11321472 1.3732295 9934743
-0.27504057 0.11324145 1.3736579 9934743
-0.22501875 0.11326872 1.3737789 9934743
-0.1749711 0.11329515 1.3743089 9934743
-0.12509084 0.1133221 1.3745301 9934743
-0.074994758 0.11334897 1.3748579 9934743
-0.024877906 0.11337584 1.3751823 9934743
0.024885714 0.11340252 1.375506 9934743
0.075049996 0.11342943 1.3758343 9934743
0.12524095 0.11345635 1.3761588 9934743
0.17692189 0.11349139 1.3727744 9934743
0.22491784 0.11352292 1.3701459 9934743
0.27479175 0.1135499 1.3703549 9934743
0.33299723 0.1094769 1.3721946 9934743
0.3310115 -0.61901635 1.4262854 2894892
0.33149475 -0.5749315 1.4237329 2894892
0.33148634 -0.52498478 1.4237305 2894892
0.33148003 -0.47500601 1.4237154 2894892
0.33147451 -0.42496327 1.4237059 2894892
0.33147883 -0.37495455 1.4236388 2894892
0.33146325 -0.32511151 1.4236695 2894892
0.33146504 -0.27507254 1.423622 2894892
0.33146217 -0.22493739 1.4235921 2894892
0.33145189 -0.17499956 1.4235971 2894892
0.33144945 -0.12506348 1.4235673 2894892
0.33144483 -0.075063542 1.4235516 2894892
0.33143985 -0.025032606 1.423529 2894892
0.33143491 0.025032129 1.4235097 4210752
0.33143097 0.075060256 1.42349 10132122
-0.81063867 0.11283547 1.4304256 3572680
-0.77507001 0.11286313 1.4263027 3638987
-0.72501695 0.11288992 1.426641 3441098
-0.67493677 0.11291675 1.42698 3836111
-0.62483579 0.11294357 1.4273195 4296146
-0.57490528 0.11297014 1.4277716 4296146
-0.52514851 0.11299698 1.4279939 3176900
-0.47497618 0.11302385 1.4283341 2184594
-0.42357367 0.11306275 1.4229271 1322569
-0.37520501 0.11309172 1.4216866 4543588
-0.32521302 0.11311853 1.4220294 9934743
-0.27490759 0.11314527 1.4224504 9934743
-0.22486925 0.11317215 1.4227877 9934743
-0.17495614 0.11319879 1.4231665 9934743
-0.12487236 0.11322564 1.423504 9934743
-0.074910484 0.11325264 1.4237101 9934743
-0.025074553 0.11327921 1.4241339 9934743
0.025082488 0.11330603 1.4244716 9934743
0.074965551 0.11333297 1.4247193 9934743
0.12487422 0.11335954 1.425144 9934743
0.17495281 0.11338628 1.425524 9934743
0.22505572 0.11341339 1.4257318 9934743
0.275181 0.11343995 1.426199 9934743
0.3261458 0.109026 1.4239002 9934743
0.31997943 -0.65699428 1.483768 2894892
0.32182178 -0.62484801 1.4741453 2894892
0.32182986 -0.57486808 1.4740572 2894892
0.32183054 -0.52503723 1.4740142 2894892
0.32182348 -0.47499096 1.4740057 2894892
0.32181606 -0.42501843 1.473997 2894892
0.32181418 -0.37504658 1.473964 2894892
0.32180271 -0.32507694 1.4739816 2894892
0.32180014 -0.27507189 1.4739486 2894892
0.32180279 -0.22492531 1.4738908 2894892
0.32179248 -0.17495927 1.4739013 2894892
0.32179564 -0.12506674 1.4738387 2894892
0.32177937 -0.07503131 1.4738796 2894892
0.32178295 -0.024999859 1.4738184 2894892
0.32177812 0.024999402 1.473798 4605510
0.32176578 0.075028077 1.4738171 10132122
-0.85173345 0.11270226 1.4865488 3044282
-0.82193017 0.11274575 1.4727753 3308994
-0.77499068 0.11277424 1.4713979 3572681
-0.72517747 0.1128009 1.4717488 3242950
-0.67493147 0.11282777 1.4720994 3506120
-0.62507087 0.11285448 1.4724447 3703242
-0.57518339 0.11288118 1.4727963 3637706
-0.52507216 0.11290776 1.4732708 3044545
-0.4751375 0.11293498 1.4733673 2184342
-0.42518312 0.11296122 1.4739684 1322569
-0.37519917 0.11298797 1.4743177 4477795
-0.32519919 0.11301521 1.4744141 9934743
-0.275168 0.11304149 1.4750161 9934743
-0.225118 0.1130688 1.4751129 9934743
-0.17504218 0.11309516 1.4757166 9934743
-0.1251478 0.11312214 1.4759369 9934743
-0.075023159 0.11314896 1.4762902 9934743
-0.024878193 0.11317578 1.4766369 9934743
0.024885995 0.11320242 1.476985 9934743
0.075078472 0.11322929 1.4773381 9934743
0.12509389 0.11325607 1.4776843 9934743
0.17492588 0.11328252 1.4781607 9934743
0.22498555 0.11330955 1.4783822 9934743
0.27486745 0.11333624 1.4787303 9934743
0.31932038 0.10814369 1.4745162 9934743
0.31151479 -0.66680294 1.5278552 2894892
0.31207195 -0.62475216 1.5249147 2894892
0.31207412 -0.5746758 1.5248599 2894892
0.31207839 -0.52492118 1.5247974 2894892
0.31206122 -0.47504824 1.524842 2894892
0.3120594 -0.42509708 1.5248008 2894892
0.31206298 -0.37502933 1.5247456 2894892
0.31205136 -0.32500291 1.5247618 2894892
0.31204516 -0.27505571 1.5247413 2894892
0.31204563 -0.22495277 1.524699 2894892
0.31203878 -0.17493017 1.5246952 2894892
0.31203866 -0.12498797 1.5246451 2894892
0.31202504 -0.074968137 1.5246723 2894892
0.31203058 -0.024990086 1.5246053 2894892
0.31202585 0.024989609 1.5245824 5000268
0.3120116 0.074964873 1.5246085 10197915
-0.86234885 0.11262329 1.5236278 2846133
-0.82506806 0.11265297 1.5189419 2913468
-0.77511752 0.11267914 1.5195792 3374789
-0.7251389 0.11270615 1.5198001 3177157
-0.67513502 0.1127326 1.5203004 3111621
-0.62490332 0.11276001 1.5203871 3111365
-0.57485199 0.11278653 1.520884 3242950
-0.5249902 0.11281291 1.521384 3243975
-0.47510406 0.11283987 1.5216031 2648743
-0.42519185 0.11286655 1.521963 1322312
-0.37483975 0.11289348 1.5223297 6384502
-0.32467014 0.1129203 1.522688 9934743
-0.27490023 0.11294693 1.5230466 9934743
-0.22489327 0.11297368 1.5234075 9934743
-0.1748656 0.11300019 1.5239096 9934743
-0.12481422 0.11302728 1.5241303 9934743
-0.074946538 0.11305395 1.5244899 9934743
-0.02505878 0.11308063 1.52485 9934743
0.025066694 0.11310744 1.5252111 9934743
0.075001627 0.11313413 1.525571 9934743
0.12496373 0.11316086 1.5259315 9934743
0.17494588 0.1131876 1.5262917 9934743
0.22495508 0.11321432 1.5266529 9934743
0.27498448 0.1132411 1.5270135 9934743
0.31119078 0.10753851 1.5244839 9934743
0.29894111 -0.7062754 1.5933666 2894892
0.30153286 -0.70350885 1.5798677 2894892
0.29898298 -0.67452902 1.5931203 2894892
0.30353385 -0.67452151 1.5694239 2894892
0.29897878 -0.62501949 1.5930982 2894892
0.30359152 -0.62500948 1.569077 2894892
0.2989746 -0.57551146 1.593076 2894892
0.30354124 -0.57495165 1.5692936 2894892
0.29897034 -0.52534473 1.5930536 2894892
0.3035832 -0.52494609 1.5690343 2894892
0.29892072 -0.47439596 1.5932677 2894892
0.30357254 -0.47494453 1.5690426 2894892
0.29863366 -0.42498466 1.5947186 2894892
0.30356708 -0.42494461 1.5690289 2894892
0.29862496 -0.37509808 1.5947196 2894892
0.30355787 -0.37494531 1.5690317 2894892
0.29861841 -0.32504681 1.5947082 2894892
0.30356172 -0.32494876 1.5689689 2894892
0.29862103 -0.27499729 1.5946512 2894892
0.30355248 -0.27495205 1.5689719 2894892
0.29860795 -0.22511582 1.5946752 2894892
0.3035467 -0.2250762 1.5689577 2894892
0.29860604 -0.17506842 1.5946412 2894892
0.30354393 -0.17508285 1.5689263 2894892
0.29860389 -0.12502348 1.5946071 2894892
0.30353811 -0.12497301 1.5689137 2894892
0.29860431 -0.075146906 1.5945617 2894892
0.30353108 -0.074982829 1.5689079 2894892
0.29859343 -0.025103349 1.5945736 2894892
0.3035399 -0.024995504 1.5688111 2894892
0.29858917 0.025102876 1.5945512 5526612
0.30353624 0.024995036 1.5687933 5329233
0.29859158 0.075143643 1.5944939 10197915
0.30351776 0.074979521 1.5688401 10197915
-0.90520924 0.11247706 1.585853 2039583
-0.87370908 0.11252343 1.5711114 2512264
-0.8251614 0.11255157 1.5703528 2649527
-0.77524763 0.11257824 1.5707253 3044799
-0.72531414 0.11260493 1.5710973 3111362
-0.67535365 0.11263163 1.5714698 2914242
-0.62515444 0.11265814 1.5719985 2979523
-0.57493401 0.11268528 1.5722185 3242950
-0.52490181 0.112712 1.5725912 3309511
-0.47484952 0.11273877 1.5729645 2781102
-0.42476982 0.11276552 1.5733377 1322568
-0.37467021 0.1127923 1.5737115 8685451
-0.32475904 0.11281864 1.5742366 9934743
-0.2750459 0.11284552 1.5744538 9934743
-0.22509167 0.1128725 1.5746706 9934743
-0.17511247 0.11289889 1.5751991 9934743
-0.12510782 0.11292565 1.5755719 9934743
-0.075084381 0.11295208 1.576098 9934743
-0.025033914 0.11297914 1.5763184 9934743
0.025041815 0.11300591 1.5766917 9934743
0.075139724 0.11303236 1.5772179 9934743
0.12504053 0.11305965 1.5772796 9934743
0.17496778 0.11308601 1.5778095 9934743
0.22491799 0.11311238 1.5783355 9934743
0.2807714 0.11145201 1.5824894 9934743
0.30345017 0.10687074 1.5686952 10000536
0.29250124 -0.71398038 1.6269078 9934743
0.29320806 -0.67502773 1.6231925 4144959
0.29319561 -0.62525719 1.6232129 2894892
0.29320037 -0.57524318 1.6231456 2829099
0.29318652 -0.52494591 1.6231717 2368548
0.29315707 -0.4751147 1.6232806 2302755
0.29283175 -0.42493445 1.6249342 3947580
0.29282907 -0.37490571 1.6248991 9079434
0.29282635 -0.32493165 1.6248707 9145227
0.29282245 -0.27495766 1.6248479 9079434
0.29281962 -0.22508958 1.6248146 8947848
0.29281107 -0.17506723 1.6248194 6250335
0.29281119 -0.12494252 1.6247717 2894892
0.29281354 -0.07497482 1.6247168 2894892
0.29279557 -0.025010146 1.6247662 2894892
0.29279163 0.025009662 1.6247388 5789784
0.29280087 0.074971572 1.6246496 10197915
-0.91762322 0.11238604 1.6285518 2039583
-0.87509984 0.11241643 1.6249907 2510454
-0.8250342 0.1124435 1.6252102 2781368
-0.77494228 0.1124702 1.6255969 2913469
-0.72505093 0.1124965 1.6261501 2781115
-0.67514181 0.11252381 1.6261952 2715837
-0.62497938 0.1125503 1.6267542 2781117
-0.57501709 0.11257657 1.6273073 3045057
-0.5250321 0.11260359 1.6275244 3309253
-0.475023 0.11263062 1.627737 2715828
-0.42499423 0.11265665 1.6284639 2440274
-0.37471309 0.11268385 1.628684 9934743
-0.32485589 0.11271049 1.6290648 9934743
-0.27497917 0.11273707 1.6294538 9934743
-0.22485074 0.11276348 1.6300095 9934743
-0.1749254 0.11279085 1.6300526 9934743
-0.12581572 0.11281778 1.6300608 9934743
-0.074904025 0.11286265 1.6215075 9934743
-0.024862362 0.11288913 1.6220165 9934743
0.024870163 0.11291564 1.6223986 9934743
0.074959144 0.11294262 1.6226573 9934743
0.12507434 0.11296917 1.623167 9934743
0.17521209 0.11299617 1.6234264 9934743
0.22537366 0.11302271 1.6239364 9934743
0.28575137 0.10867234 1.624378 10000536
0.28015628 -0.75326759 1.6912276 11711154
0.28334293 -0.72344404 1.6746057 11711154
0.28355449 -0.6749993 1.6734658 10790052
0.28355244 -0.62518209 1.6734282 4276545
0.2835559 -0.57514787 1.6733675 2894892
0.28353193 -0.52495915 1.6734494 2631720
0.28354797 -0.47503838 1.6733172 2039583
0.28354722 -0.42506424 1.6732802 2039583
0.2835246 -0.37503996 1.6733538 7960953
0.28352344 -0.32490873 1.6733136 8816262
0.28352451 -0.27488568 1.6732669 8816262
0.28352195 -0.22502488 1.6732324 8816262
0.2835179 -0.17500472 1.6732101 7237230
0.28350607 -0.12493331 1.6732281 2894892
0.28352728 -0.074969351 1.6730697 2894892
0.2834903 -0.025009064 1.6732235 2894892
0.28348583 0.025008582 1.6731976 6118749
0.28351554 0.074965984 1.6730008 10197915
-0.9565441 0.11226717 1.677992 2039583
-0.92469311 0.11229405 1.6732296 2039583
-0.87498921 0.11232058 1.6736244 2178919
-0.82492191 0.11234755 1.6738846 2384302
-0.77482426 0.112374 1.6744204 2517175
-0.72470808 0.11240098 1.6746811 2781372
-0.67456388 0.11242747 1.6752172 3375558
-0.62509102 0.11245414 1.6754686 3244230
-0.57524425 0.11248071 1.6758689 2979263
-0.52503544 0.11250719 1.6764053 2912700
-0.47514281 0.11253382 1.6768019 2451892
-0.42522642 0.11256046 1.6771985 4478309
-0.37494418 0.11258755 1.6774602 9934743
-0.32463303 0.1126141 1.6779981 9934743
-0.27499601 0.11264084 1.6782504 9934743
-0.22533315 0.11266705 1.6787871 9934743
-0.17495297 0.11269418 1.6790496 9934743
-0.12339049 0.11272453 1.6780318 9934743
-0.074945666 0.1127672 1.6698794 9934743
-0.025142286 0.11279384 1.670279 9934743
0.025150258 0.11282066 1.6706761 9934743
0.0750008 0.11284725 1.6710653 9934743
0.12487908 0.11287387 1.6714641 9934743
0.17500848 0.11290024 1.6720423 9934743
0.2249326 0.11292762 1.6720673 9934743
0.27728912 0.10886864 1.6724287 10066329
0.27278531 -0.76195192 1.7296181 11711154
0.27368119 -0.72498459 1.7249192 11711154
0.27369463 -0.67500824 1.724806 11711154
0.2736755 -0.62514478 1.724864 10921638
0.27367815 -0.5750584 1.7248027 4605510
0.27367982 -0.52497804 1.7247514 2894892
0.27366364 -0.47500774 1.7247902 2500134
0.27367201 -0.42503867 1.7247014 2171169
0.27366287 -0.37501523 1.7247089 6381921
0.27365732 -0.32482991 1.7246894 6513507
0.2736553 -0.27486393 1.7246577 6513507
0.27364975 -0.22501151 1.7246408 6513507
0.27365255 -0.17493866 1.7245821 6381921
0.27363682 -0.12486833 1.7246213 3026478
0.27366048 -0.074908629 1.724452 2894892
0.27362049 -0.024952861 1.7246169 2894892
0.27361682 0.024952393 1.7245913 6513507
0.2736488 0.074905396 1.7243798 10197915
-1.001025 0.11210902 1.7458481 2039583
-0.97073764 0.11216017 1.7283242 2039583
-0.9251644 0.11219201 1.7248586 2039583
-0.87511474 0.11221828 1.7254696 2046043
-0.82503551 0.11224579 1.7254754 2120104
-0.77494049 0.11227167 1.72629 2185900
-0.72481567 0.11229878 1.7265 2449841
-0.67490351 0.11232539 1.7269037 3242689
-0.62497252 0.11235197 1.7273178 3176383
-0.57477611 0.11237833 1.7279297 2977466
-0.52479517 0.11240577 1.7279323 2581170
-0.47472146 0.11245279 1.7180182 2386100
-0.42499888 0.1124793 1.7184228 6253689
-0.37490225 0.11250629 1.7186817 9934743
-0.32477647 0.11253273 1.7192386 9934743
-0.27498308 0.11255925 1.719644 9934743
-0.22481811 0.11258627 1.7199038 9934743
-0.17497629 0.11261284 1.7203046 9934743
-0.12547074 0.11263892 1.7208616 9934743
-0.075227544 0.11266598 1.7211213 10066329
-0.02496352 0.11269254 1.7216803 10132122
0.024971398 0.1127192 1.7220877 10132122
0.074929923 0.11274581 1.7224951 10132122
0.1249061 0.11277305 1.7225993 10197915
0.174909 0.11279912 1.7233088 10197915
0.22493841 0.11282577 1.7237161 10197915
0.27104443 0.1078046 1.7241858 10197915
0.2600469 -0.80171967 1.7959874 11711154
0.2637122 -0.77222484 1.7768753 11711154
0.26401606 -0.72501564 1.7752517 11711154
0.26404771 -0.67506367 1.775041 11711154
0.26399755 -0.62511259 1.7752594 11711154
0.26400471 -0.5750258 1.7751777 11119017
0.26402578 -0.5249455 1.7750239 4737096
0.26399732 -0.47493127 1.7751271 3223857
0.26400933 -0.4249849 1.7750206 3618615
0.26399648 -0.37504083 1.7750429 6316128
0.26400629 -0.32489622 1.7749478 6316128
0.26398027 -0.27488905 1.7750375 6316128
0.2639856 -0.22501467 1.7749677 6316128
0.26399043 -0.17494245 1.7748966 6316128
0.2639783 -0.12493735 1.7749182 3947580
0.26399639 -0.075002424 1.7747763 3092271
0.26395297 -0.025001766 1.7749594 3092271
0.26394904 0.025001291 1.7749348 7039851
0.26398557 0.074999146 1.7747011 10197915
-1.0119072 0.1120302 1.7827613 2039583
-0.97496861 0.11205714 1.7793865 2039583
-0.92468965 0.11208358 1.7799761 2039583
-0.87475246 0.11211017 1.7803985 2045779
-0.82516503 0.1121369 1.7806482 2184857
-0.77517897 0.1121635 1.7810756 2315414
-0.72480732 0.11218998 1.7816664 2710424
-0.67477536 0.1122166 1.7820891 3039128
-0.62509096 0.11224341 1.7823393 2907282
-0.57538092 0.11226953 1.7829294 1852800
-0.52527779 0.1122962 1.7833529 1722239
-0.4750787 0.11234584 1.7721506 2250125
-0.42500731 0.11237166 1.7730087 8619917
-0.37490743 0.11239874 1.7732127 9934743
-0.32502678 0.11242534 1.7736256 9934743
-0.27512723 0.11245189 1.7740508 9934743
-0.22495535 0.11247818 1.7746898 9934743
-0.17500693 0.11250562 1.7746681 9934743
-0.12503524 0.1125314 1.775529 10000536
-0.07503552 0.11255886 1.7755076 10197915
-0.025020583 0.11258464 1.7763695 10197915
0.025028495 0.11261133 1.7767905 10197915
0.074198812 0.11264025 1.7758204 10197915
0.1251279 0.11268695 1.7663156 10197915
0.17492899 0.11271346 1.7667308 10197915
0.225113 0.1127405 1.7669886 10197915
0.26292238 0.10750749 1.7731804 10197915
0.25354856 -0.80937976 1.8298331 11711154
0.25466889 -0.77497113 1.8239672 11711154
0.25464934 -0.72494954 1.8240279 11711154
0.25467154 -0.67493075 1.8238659 11711154
0.25462776 -0.62491232 1.8240525 11711154
0.25463557 -0.57496029 1.8239646 11711154
0.2546593 -0.52501452 1.8237997 8355711
0.25464049 -0.47506893 1.8238509 6513507
0.25462532 -0.42498741 1.8238871 6381921
0.2546289 -0.37497491 1.8238243 7631988
0.25463271 -0.32517162 1.8237597 7631988
0.25461668 -0.27516112 1.8237975 7500402
0.25463009 -0.22501734 1.8236847 7434609
0.254612 -0.17507905 1.8237332 7434609
0.2546156 -0.1251433 1.8236722 6776679
0.25462177 -0.075071365 1.8235942 6513507
0.25459617 -0.025002247 1.8236823 6513507
0.25459284 0.025001777 1.8236567 8553090
0.25461063 0.075068042 1.823517 10197915
-1.052773 0.11189996 1.8374275 2039583
-1.0231836 0.11193733 1.8267139 2039583
-0.97515571 0.11196482 1.826151 2039583
-0.9254418 0.11199129 1.8265823 2039583
-0.87532896 0.11201827 1.8268387 1852528
-0.82519418 0.1120446 1.8274519 1787264
-0.77503234 0.11207162 1.8277086 1919106
-0.72485107 0.11209798 1.8283225 1985926
-0.67501879 0.11212448 1.8287551 2051974
-0.62478876 0.11215153 1.829012 1919875
-0.57453245 0.11217793 1.8296268 1654651
-0.52500933 0.11220462 1.8298718 1788288
-0.47546369 0.11223061 1.8304862 2969978
-0.42513534 0.11225775 1.8307436 9934743
-0.37478703 0.11228418 1.8313593 9934743
-0.32478905 0.11231077 1.8317931 9934743
-0.27515039 0.11233753 1.8320394 9934743
-0.22548543 0.11236358 1.832655 9934743
-0.17503962 0.11239076 1.8329133 9934743
-0.12457002 0.11241725 1.8335304 9934743
-0.074834011 0.11244408 1.833777 10197915
-0.025077926 0.11247016 1.8343934 10197915
0.025085857 0.11249685 1.8348285 10197915
0.076167561 0.11252847 1.8330444 10197915
0.12491663 0.11257379 1.8236481 10197915
0.17507331 0.11259998 1.8243167 10197915
0.225004 0.11262751 1.8242677 10197915
0.25449392 0.10695143 1.8225499 10197915
0.24431762 -0.81968182 1.8779117 11711154
0.24475659 -0.77490234 1.8755859 11711154
0.24477126 -0.72502232 1.875466 11711154
0.24473901 -0.67500073 1.8755876 11711154
0.24475874 -0.62491322 1.8754416 11711154
0.24473739 -0.57489115 1.875509 11579568
0.24475744 -0.52494729 1.8753593 6908265
0.24474376 -0.47500265 1.8753874 6513507
0.24473217 -0.42498934 1.8754027 7960953
0.24473673 -0.3749764 1.8753365 11711154
0.24473076 -0.32517844 1.8753213 11711154
0.2447246 -0.27516782 1.8753114 11711154
0.2447288 -0.22494856 1.8752437 11711154
0.24471512 -0.17501202 1.8752705 11711154
0.24473001 -0.12514864 1.8751498 7829367
0.24470553 -0.075073615 1.8752321 6513507
0.24470982 -0.025002716 1.8751661 6513507
0.24470632 0.02500225 1.8751388 8553090
0.24469551 0.075070299 1.8751521 10197915
-1.0640569 0.11181346 1.8781731 2039583
-1.0248313 0.11184199 1.8746227 2039583
-0.97457588 0.11186868 1.8750706 2039583
-0.92468685 0.11189483 1.8757085 1977660
-0.87477416 0.11192174 1.8759596 1788546
-0.82483912 0.11194789 1.8765981 1787007
-0.77487755 0.11197482 1.8768494 2051461
-0.72489685 0.112001 1.8774886 1919877
-0.67527544 0.11202738 1.8779305 2118023
-0.62524611 0.11205434 1.8781822 1721471
-0.57519096 0.11208055 1.8788222 1589371
-0.52511275 0.11210757 1.8790736 1919872
-0.4750115 0.11213382 1.8797145 4940671
-0.42488402 0.11216084 1.8799666 9934743
-0.37473682 0.11218709 1.8806081 9934743
-0.32495022 0.11221354 1.8810517 9934743
-0.27475497 0.11224061 1.881304 9934743
-0.22453284 0.11226689 1.8819461 9934743
-0.17506747 0.11229362 1.8821857 9934743
-0.1255791 0.11231951 1.8828275 9934743
-0.075285666 0.11234663 1.8830808 10132122
-0.024971956 0.11237298 1.8837237 10197915
0.024979822 0.11239952 1.8841689 10197915
0.074955225 0.11242612 1.8846148 10197915
0.12494723 0.11245352 1.8846651 10197915
0.1749665 0.11247935 1.8855069 10197915
0.23575367 0.10869466 1.8789252 10197915
0.23392859 -0.85716367 1.9320443 11711154
0.2353396 -0.82538712 1.9246683 11711154
0.2352653 -0.77500218 1.9250121 11711154
0.23526216 -0.72492486 1.9249828 11711154
0.23524494 -0.67502797 1.9250287 11711154
0.23527259 -0.62486953 1.9248401 11711154
0.23524864 -0.57488161 1.9249209 10592673
0.23525245 -0.52507895 1.924857 6513507
0.23524891 -0.4750095 1.9248308 6513507
0.23524214 -0.42485332 1.9248209 9013641
0.23523207 -0.3748759 1.9248297 11711154
0.23523916 -0.32507715 1.92475 11711154
0.23523903 -0.27510154 1.9247047 11711154
0.23521863 -0.22495183 1.9247671 11711154
0.23522569 -0.17497957 1.9246857 11711154
0.23522916 -0.12500884 1.9246237 7500402
0.2352019 -0.074950442 1.9247203 6513507
0.23522942 -0.024986001 1.9245332 6513507
0.23522614 0.024985539 1.9245064 8487297
0.23519202 0.074947149 1.9246399 10197915
-1.1070547 0.11166953 1.9391772 2039583
-1.0744554 0.11171263 1.9263824 2039583
-1.0248101 0.1117394 1.9266258 2039583
-0.9751575 0.11176621 1.926869 2039583
-0.92507887 0.11179278 1.9273275 1786734
-0.87498504 0.11181856 1.9282089 1787520
-0.82486409 0.11184599 1.9282453 1918849
-0.77471393 0.11187264 1.9287041 2117511
-0.72494489 0.11189863 1.929371 1985669
-0.67514563 0.11192548 1.9296155 1920131
-0.6253314 0.11195153 1.930283 1655164
-0.57508779 0.1119782 1.9307429 1655677
-0.52482015 0.11200489 1.9312031 1985407
-0.47493562 0.1120318 1.9314483 6911620
-0.42501739 0.11205789 1.932117 9934743
-0.37508395 0.11208481 1.9323622 9934743
-0.32512009 0.11211093 1.9330312 9934743
-0.27513763 0.11213788 1.9332772 9934743
-0.22512823 0.11216402 1.9339468 9934743
-0.17509663 0.11219099 1.9341923 9934743
-0.12504162 0.11221716 1.9348632 9934743
-0.074960843 0.11224416 1.9351091 10132122
-0.024860118 0.11227035 1.9357802 10197915
0.024867907 0.11229673 1.9362355 10197915
0.070915781 0.11233501 1.9296491 10197915
0.12512934 0.11237643 1.9237726 10197915
0.17458393 0.11240272 1.9242226 10197915
0.23086813 0.10768687 1.9245659 10197915
0.22517291 -0.86739129 1.977648 11711154
0.22576317 -0.82496381 1.9745368 11711154
0.22577007 -0.77505416 1.9744567 11711154
0.22577189 -0.72506392 1.9744029 11711154
0.22576356 -0.67507565 1.9744023 11711154
0.22575022 -0.62484503 1.974426 11711154
0.22576761 -0.57477307 1.9742923 9079434
0.22574428 -0.52503651 1.9743694 6513507
0.22574739 -0.47497162 1.9743087 6052956
0.22574127 -0.42507246 1.9742957 10592673
0.22574098 -0.37517357 1.9742535 11711154
0.22573815 -0.32511419 1.9742243 11711154
0.22573823 -0.27505395 1.9741797 11711154
0.22573674 -0.22491488 1.9741439 11711154
0.22573027 -0.1750223 1.9741313 11711154
0.22572011 -0.12513065 1.9741391 7105644
0.22571038 -0.075077362 1.9741477 6513507
0.22573735 -0.025028154 1.9739615 6513507
0.22573437 0.02502769 1.9739336 8487297
0.22570086 0.075074032 1.9740648 10197915
-1.1195669 0.1115757 1.9833032 2039583
-1.0750204 0.11160487 1.9809091 2039583
-1.0247918 0.11163198 1.9811515 2039583
-0.97495395 0.1116575 1.9820825 1977920
-0.92509615 0.11168486 1.9820894 1788546
-0.87520528 0.11171132 1.9825597 1787007
-0.82488734 0.11173755 1.9832649 2051205
-0.77495086 0.11176405 1.9837339 1985413
-0.72540617 0.11179078 1.9839689 2118280
-0.67501247 0.11181705 1.9846749 1721470
-0.62459916 0.11184426 1.9849192 1654651
-0.57497925 0.11187012 1.9856178 1655933
-0.52728224 0.11191832 1.9744456 1985406
-0.47476971 0.11195109 1.9724466 8554122
-0.42502314 0.11197747 1.972912 9934743
-0.37525287 0.11200389 1.9733772 9934743
-0.32464284 0.11203074 1.9738503 9934743
-0.27482542 0.11205717 1.9743159 9934743
-0.22498438 0.11208363 1.9747816 9934743
-0.17511988 0.11211009 1.9752481 9934743
-0.12523176 0.11213654 1.9757149 9934743
-0.075320207 0.11216304 1.976181 10132122
-0.025384936 0.11218952 1.9766476 10197915
0.025393063 0.11221647 1.977123 10197915
0.078604341 0.11226701 1.9662912 10197915
0.12531817 0.11229662 1.9642977 10197915
0.17540458 0.11232373 1.9645382 10197915
0.22207381 0.10809938 1.9708984 10197915
0.21356776 -0.90595204 2.0381143 11711154
0.21573915 -0.87477171 2.0267789 11711154
0.21576028 -0.82493514 2.0266256 11711154
0.21577767 -0.77492225 2.0264912 11711154
0.21575814 -0.72500384 2.0265481 11711154
0.21578738 -0.67490315 2.0263517 11711154
0.21574016 -0.62461388 2.0265524 11711154
0.21577793 -0.57469666 2.0263133 7566195
0.21573001 -0.52488101 2.0265172 6513507
0.21575955 -0.47496954 2.0263195 6118749
0.21574825 -0.42515323 2.0263338 11711154
0.21573702 -0.37505865 2.0263479 11711154
0.2157463 -0.32505888 2.0262554 11711154
0.21573099 -0.27505943 2.0262907 11711154
0.21575196 -0.22487698 2.0261371 11711154
0.21572889 -0.1748804 2.0262125 11711154
0.21572597 -0.12498033 2.0261838 6710886
0.21573099 -0.075079761 2.0261133 6513507
0.21571992 -0.025090558 2.0261259 6513507
0.21571685 0.02509008 2.0260983 8421504
0.21572182 0.075076491 2.0260282 10197915
-1.1558416 0.11147712 2.0231667 2039583
-1.1249932 0.11149348 2.0234635 2039583
-1.0749512 0.11152001 2.0239451 2039583
-1.0248851 0.11154654 2.0244265 2039583
-0.97479534 0.11157309 2.0249085 1851754
-0.92468172 0.11159965 2.0253904 1787520
-0.87454432 0.1116262 2.0258727 1853056
-0.82438278 0.1116528 2.0263553 2117511
-0.77503437 0.11167897 2.0268297 1985669
-0.72566241 0.11170514 2.0273051 2118023
-0.67543006 0.11173175 2.0277884 1589372
-0.62517375 0.11175838 2.0282717 1654650
-0.57489341 0.11178505 2.0287554 1656189
-0.52378321 0.11183929 2.0154922 2575736
-0.47501361 0.11186762 2.0147097 9737621
-0.4250308 0.11189316 2.015671 9934743
-0.37501559 0.11191967 2.016149 9934743
-0.32497659 0.11194619 2.0166268 9934743
-0.27491385 0.11197273 2.0171049 9934743
-0.22483517 0.11200026 2.0170987 9934743
-0.17472927 0.11202585 2.0180621 9934743
-0.1245953 0.11205243 2.0185404 9934743
-0.074856594 0.1120793 2.018769 10132122
-0.025098536 0.11210517 2.0194907 10197915
0.02510648 0.11213182 2.0199707 10197915
0.074911565 0.11215869 2.0201993 10197915
0.1247443 0.11218464 2.0209217 10197915
0.17502047 0.11221132 2.0214026 10197915
0.21409723 0.10749947 2.024215 10197915
0.20580724 -0.91513419 2.0785336 11711154
0.20637845 -0.87514257 2.0755239 11711154
0.20638093 -0.82504326 2.0754676 11711154
0.20636554 -0.77505314 2.0755036 11711154
0.20634331 -0.72495675 2.0755746 11711154
0.2063427 -0.67496628 2.0755329 11711154
0.20637831 -0.62466329 2.0753038 11250603
0.20636666 -0.57456392 2.07532 6513507
0.20634149 -0.52501363 2.0754075 6513507
0.20634797 -0.47513798 2.0753286 7237230
0.20634036 -0.42505002 2.0753243 11711154
0.20635001 -0.37506938 2.0752304 11711154
0.20633936 -0.32509294 2.0752401 11711154
0.2063317 -0.27500752 2.0752366 11711154
0.20633592 -0.22481795 2.0751696 11711154
0.20632599 -0.17484336 2.0751772 11513775
0.20633556 -0.12508611 2.075084 6513507
0.20633684 -0.075009145 2.075032 6513507
0.20630491 -0.02493169 2.0751538 6513507
0.20630211 0.02493122 2.0751247 8355711
0.2063282 0.075005844 2.074945 10197915
-1.1696732 0.11137393 2.0716727 2039583
-1.1247574 0.1114051 2.0683668 2039583
-1.0748838 0.11143101 2.0691173 2039583
-1.0249776 0.11145796 2.0693476 1976113
-0.97505879 0.11148387 2.0700989 1723267
-0.92510372 0.11151085 2.0703297 1787264
-0.87513924 0.1115368 2.0710814 1984898
-0.82556814 0.11156306 2.0715692 2117511
-0.77554625 0.11159007 2.0718005 1985925
-0.72550637 0.11161605 2.0725529 1854082
-0.67543519 0.1116431 2.0727849 1589116
-0.6253497 0.11166907 2.0735381 1654907
-0.57522881 0.11169615 2.07377 1787517
-0.52509779 0.11172217 2.0745237 4677500
-0.47536162 0.11174855 2.0750134 9934743
-0.42517373 0.11177561 2.0752454 9934743
-0.37496698 0.11180169 2.0760005 9934743
-0.32516009 0.11182807 2.0764902 9934743
-0.274905 0.11185523 2.0767233 9934743
-0.22462238 0.1118813 2.0774791 9934743
-0.17474446 0.11190773 2.0779696 9934743
-0.12484714 0.11193522 2.0779285 9934743
-0.07493078 0.11196058 2.0789506 10132122
-0.024982171 0.11198705 2.0794425 10197915
0.024990039 0.11201353 2.0799336 10197915
0.074985884 0.11203998 2.080425 10197915
0.12499671 0.11206752 2.0803847 10197915
0.17503566 0.11209297 2.0814092 10197915
0.20606913 0.10674361 2.0747187 10197915
0.1940228 -0.95354319 2.1399343 11711154
0.19586249 -0.92455083 2.1303284 11711154
0.20060162 -0.92115802 2.1056468 11711154
0.19591656 -0.87510401 2.1300025 11711154
0.20063354 -0.87533277 2.1054401 11711154
0.19589292 -0.82508677 2.1300824 11711154
0.2006205 -0.82516479 2.1054635 11711154
0.19590409 -0.77507144 2.1299798 11711154
0.20060746 -0.77499455 2.1054878 11711154
0.19590144 -0.72505522 2.1299493 11711154
0.20062515 -0.72527361 2.1053519 11711154
0.19590217 -0.67519152 2.1299009 11711154
0.20061205 -0.67510623 2.1053748 11711154
0.19589914 -0.62488037 2.1298733 9671571
0.20060921 -0.6245079 2.105345 10395294
0.19586132 -0.5745824 2.1300249 6513507
0.20060639 -0.57478338 2.1053159 6513507
0.1958939 -0.52486223 2.1298118 6513507
0.20060359 -0.52506012 2.1052859 6513507
0.19588768 -0.47500432 2.1297998 8421504
0.200611 -0.47489843 2.1052034 7895160
0.19588482 -0.42499638 2.1297696 11711154
0.20058776 -0.42518565 2.1052804 11711154
0.19586812 -0.37499198 2.1298134 11711154
0.20059513 -0.37502691 2.1051974 11711154
0.19588627 -0.32498905 2.1296732 11711154
0.20060255 -0.32487315 2.1051147 11711154
0.19586965 -0.27498558 2.1297162 11711154
0.20057926 -0.27515692 2.1051917 11711154
0.19587737 -0.22513331 2.1296322 11711154
0.2005866 -0.22500604 2.1051085 11711154
0.19594832 -0.17464311 2.1292179 11053224
0.20063889 -0.17645665 2.1047935 11513775
0.19646408 -0.1249747 2.1264877 6513507
0.20116378 -0.12453005 2.1020136 6513507
0.1964436 -0.074881814 2.1265502 6513507
0.20116101 -0.074891172 2.1019843 6513507
0.19647071 -0.024922229 2.1263652 6513507
0.2011582 -0.025253687 2.1019547 6513507
0.19646789 0.024921754 2.1263351 8289918
0.20115533 0.02525321 2.1019247 8355711
0.1964353 0.074878514 2.1264603 10197915
0.20115255 0.074887916 2.1018956 10197915
-1.2134765 0.11121974 2.1376541 2039583
-1.1747862 0.11125387 2.1311204 2039583
-1.12472 0.11128034 2.1316278 2039583
-1.0750784 0.11130603 2.1324172 2039583
-1.0249665 0.11133253 2.132925 1786478
-0.97439557 0.11135985 2.1331513 1721985
-0.92467892 0.11141778 2.1176217 1787007
-0.87487912 0.11144414 2.1181223 2117254
-0.82505637 0.1114705 2.1186235 1985412
-0.77520949 0.11149686 2.1191247 2184329
-0.72533923 0.11152327 2.1196265 1655421
-0.6754455 0.11154964 2.1201279 1588859
-0.62465179 0.11157653 2.1206388 1589885
-0.57471031 0.11160295 2.1211412 1853308
-0.52474511 0.1116294 2.1216438 6517122
-0.47475618 0.11165585 2.1221464 9934743
-0.42474359 0.11168232 2.1226497 9934743
-0.37470725 0.11170881 2.123153 9934743
-0.32464713 0.11173528 2.1236563 9934743
-0.27456343 0.11176179 2.1241601 9934743
-0.22533517 0.11178785 2.124655 9934743
-0.17520416 0.11181436 2.1251593 9934743
-0.1250495 0.11184091 2.125664 9934743
-0.074870899 0.11186745 2.1261683 10132122
-0.024668593 0.11189405 2.1266732 10197915
0.024676263 0.11192014 2.1271696 10197915
0.074926004 0.11194675 2.1276751 10197915
0.12519948 0.11197333 2.1281807 10197915
0.18816297 0.10808268 2.1271391 10197915
0.2011508 0.1053647 2.1018775 10197915
0.18654627 -0.96241575 2.1788752 11711154
0.1873779 -0.92496687 2.1745112 11711154
0.18738662 -0.87495559 2.1744218 11711154
0.18736695 -0.82494664 2.1744792 11711154
0.18737566 -0.77493966 2.1743903 11711154
0.18737315 -0.72493231 2.17436 11711154
0.18736756 -0.67481661 2.1743436 11711154
0.18736523 -0.62526512 2.1743116 8421504
0.18736205 -0.57548344 2.1742854 6513507
0.18735968 -0.52503371 2.1742523 6316128
0.18735975 -0.47492361 2.1742074 9605778
0.18735725 -0.42492476 2.1741767 11711154
0.18734324 -0.37492859 2.1742046 11711154
0.18735757 -0.32493415 2.1740856 11711154
0.1873437 -0.2749393 2.1741142 11711154
0.18734404 -0.22506061 2.1740685 11711154
0.18733554 -0.17506903 2.174068 10790052
0.18733588 -0.12496797 2.1740224 6513507
0.1873416 -0.075091653 2.1739488 6513507
0.18733333 -0.025107782 2.1739461 6513507
0.18733072 0.025107305 2.1739154 8289918
0.18733369 0.075088374 2.1738555 10197915
-1.2511679 0.11111455 2.1805367 2039583
-1.2251208 0.11112831 2.1808066 2039583
-1.1748068 0.11115488 2.1813285 2039583
-1.1244688 0.1111815 2.1818509 2039583
-1.0750064 0.11120766 2.182364 1977146
-1.0255204 0.11123379 2.1828768 1723010
-0.97511095 0.11126042 2.1833997 1787007
-0.92467749 0.11132026 2.1670923 1918593
-0.87505841 0.11134711 2.1672966 2183304
-0.82541764 0.11137278 2.1681137 1920132
-0.77530175 0.11139926 2.1686294 2118279
-0.72472078 0.11142661 2.1688547 1523323
-0.67455488 0.11145316 2.1693602 1588602
-0.62482399 0.1114788 2.1701782 1589884
-0.57461232 0.11150535 2.1706953 1852535
-0.52482843 0.11153227 2.1709008 8554380
-0.47502184 0.11155801 2.1717203 9934743
-0.42518884 0.11158494 2.1719263 9934743
-0.37533763 0.11161076 2.1727462 9934743
-0.32500705 0.11163734 2.1732645 9934743
-0.27510786 0.11166427 2.173471 9934743
-0.22518079 0.1116901 2.1742914 9934743
-0.17523208 0.11171713 2.1744986 9934743
-0.12526007 0.11174297 2.1753199 9934743
-0.075261854 0.11176992 2.1755273 10132122
-0.025244793 0.11179585 2.1763494 10197915
0.025252828 0.1118225 2.1768692 10197915
0.075317405 0.11184961 2.1770773 10197915
0.12496265 0.11187582 2.1775875 10197915
0.17908899 0.10853922 2.1752329 10197915
-1.2809274 -1.0019596 2.2445579 2039583
0.1743447 -1.001792 2.2424481 11711154
-1.2793154 -0.97473413 2.2361376 2039583
0.17754962 -0.97242951 2.2257333 11711154
-1.2793064 -0.92543346 2.2360487 2110280
0.17783785 -0.92487431 2.2241907 11711154
-1.2793194 -0.87541842 2.2360711 1125448
0.1778421 -0.87483889 2.2241237 11711154
-1.2793323 -0.82540268 2.2360933 1125705
0.177826 -0.82480741 2.2241628 11711154
-1.2793452 -0.77538538 2.2361155 1389134
0.17784421 -0.77490604 2.224025 11711154
-1.2793438 -0.72518134 2.2360659 1652048
0.17783462 -0.72501028 2.2240303 11711154
-1.2793704 -0.67497945 2.236161 1914190
0.17783254 -0.67524678 2.2239969 11645361
-1.2793834 -0.62495905 2.2361827 2111312
0.17780924 -0.62561339 2.2240748 6974058
-1.2793753 -0.57493883 2.2360961 1848654
0.17784719 -0.57531965 2.2238321 6513507
-1.2794091 -0.52491826 2.236227 1453381
0.17780414 -0.52503818 2.2240124 5658198
-1.2794222 -0.47489512 2.2362502 2039583
0.17781523 -0.47501314 2.2239099 11382189
-1.2794347 -0.424871 2.2362726 2039583
0.1778129 -0.42486158 2.2238786 11711154
-1.2794474 -0.37484583 2.2362952 2039583
0.1777966 -0.37497219 2.2239177 11711154
-1.2794534 -0.32500559 2.2362812 2039583
0.17782134 -0.32495466 2.2237449 11711154
-1.2794728 -0.27516389 2.23634 2039583
0.17779167 -0.27493608 2.2238557 11711154
-1.2794719 -0.22495222 2.2362907 2039583
0.17782365 -0.22518526 2.2236445 11711154
-1.2794847 -0.17492355 2.2363117 2039583
0.17780709 -0.17517079 2.2236862 10395294
-1.2795116 -0.12507968 2.236407 2039583
0.17779106 -0.1250256 2.2237256 6513507
-1.2795242 -0.075048521 2.2364287 2039583
0.17781554 -0.074884623 2.2235537 6513507
-1.279537 -0.025016414 2.2364516 2039583
0.17777914 -0.024873862 2.2236989 6513507
-1.2795495 0.025016738 2.2364745 2039583
0.17777662 0.024873387 2.2236671 8289918
-1.2795627 0.07505089 2.2364967 2039583
0.17780805 0.074881352 2.2234592 10197915
-1.2742395 0.10717443 2.2303958 2039583
-1.2253287 0.11105984 2.2154872 2039583
-1.1751274 0.11108637 2.2160165 2039583
-1.1249024 0.1111129 2.2165456 2039583
-1.0755668 0.11113895 2.2170656 1849947
-1.0252941 0.11116552 2.2175951 1722497
-0.97499734 0.11119208 2.2181249 1721214
-0.92559153 0.11121818 2.2186458 2116998
-0.875247 0.11124476 2.2191765 2051975
-0.82487863 0.11127138 2.219707 2052487
-0.77540219 0.1112975 2.2202284 1854082
-0.72498578 0.11132414 2.2207599 1523323
-0.67454559 0.11135077 2.2212913 1588859
-0.62499857 0.11137695 2.221813 1589883
-0.57542849 0.11140313 2.2223358 2377329
-0.52491629 0.11142983 2.2228677 10000536
-0.47438008 0.11145651 2.2234004 9934743
-0.42473903 0.11148272 2.2239237 9934743
-0.37507463 0.11150896 2.2244468 9934743
-0.32538688 0.11153521 2.2249706 9934743
-0.27567571 0.11156147 2.2254941 9934743
-0.22501984 0.11158822 2.2260282 9934743
-0.1743398 0.111615 2.226562 9934743
-0.1245575 0.1116413 2.2270863 9934743
-0.07475172 0.1116676 2.2276115 10132122
-0.024922462 0.11169393 2.2281363 10197915
0.024930295 0.11172027 2.2286615 10197915
0.074806564 0.11174659 2.2291875 10197915
0.12470634 0.11177297 2.2297132 10197915
0.17417482 0.10732581 2.2251532 10197915
-1.2874566 -1.0098338 2.2785647 2039583
0.1675286 -1.0095764 2.2779496 11711154
-1.2864283 -0.97499013 2.2731795 2039583
0.16853361 -0.97489816 2.2726853 11711154
-1.2864575 -0.92480528 2.273283 2045518
0.16853103 -0.92471576 2.2726541 11711154
-1.2864401 -0.87509257 2.2731543 1059911
0.16852908 -0.87480122 2.2726204 11711154
-1.2864835 -0.82499391 2.2733302 1125706
0.16852655 -0.82516026 2.2725897 11711154
-1.2864571 -0.77480459 2.2731526 1454926
0.16853884 -0.77524853 2.272481 11711154
-1.2864918 -0.72508699 2.2732904 1586255
0.16851428 -0.72506982 2.2725644 11711154
-1.2865137 -0.67508429 2.27336 1979726
0.16854119 -0.67476118 2.2723799 10658466
-1.2865195 -0.62498814 2.2733459 2177361
0.16850242 -0.62512296 2.2725382 6513507
-1.2865205 -0.57498294 2.2733023 1782862
0.16850007 -0.57521611 2.2725065 6513507
-1.2865303 -0.52497649 2.2733145 1518914
0.16854167 -0.52490908 2.2722447 6447714
-1.2865516 -0.47506502 2.2733753 2039583
0.16852455 -0.47500688 2.2722893 11711154
-1.2865779 -0.4251509 2.2734756 2039583
0.16848555 -0.42483932 2.2724478 11711154
-1.2865881 -0.37504932 2.2734771 2039583
0.16850537 -0.37480476 2.2723012 11711154
-1.2865828 -0.32494476 2.2734075 2039583
0.16851006 -0.32490772 2.2722318 11711154
-1.2866151 -0.27493444 2.2735333 2039583
0.16850787 -0.27500996 2.2721994 11711154
-1.2866219 -0.22501731 2.2735169 2039583
0.16849796 -0.22511558 2.2722065 11711154
-1.2866207 -0.17500469 2.2734752 2039583
0.16850287 -0.17495334 2.2721364 10066329
-1.2866362 -0.12499015 2.2735043 2039583
0.1685009 -0.12492535 2.2721028 6513507
-1.2867036 -0.075069718 2.2738144 2039583
0.16845427 -0.075033918 2.2723017 6513507
-1.2866455 -0.025059713 2.2734678 2039583
0.16851783 -0.025016105 2.2719262 6513507
-1.2866591 0.025060041 2.2734895 2039583
0.16851546 0.025015628 2.2718933 8224125
-1.286742 0.075072028 2.2738833 2039583
0.16844712 0.075030617 2.2722051 10197915
-1.2790114 0.10764746 2.2723432 2039583
-1.2247162 0.11095371 2.2694366 2039583
-1.1746926 0.11097945 2.2703252 2039583
-1.1246395 0.11100653 2.2705166 1975854
-1.0745708 0.11103229 2.2714064 1723009
-1.0249387 0.11105847 2.2719419 1787264
-0.97528315 0.11108468 2.2724783 1852800
-0.92514795 0.11111183 2.27267 2183560
-0.87544286 0.11113804 2.2732067 1920132
-0.82525259 0.11116385 2.2740977 2250378
-0.77503353 0.11119105 2.2742906 1589372
-0.72479767 0.11121685 2.2751825 1523066
-0.67500031 0.11124314 2.2757196 1589372
-0.625655 0.11126987 2.2759025 1589882
-0.57534266 0.11129573 2.2767959 4610937
-0.52500731 0.11132298 2.2769895 10000536
-0.47464919 0.11134887 2.2778828 9934743
-0.42473364 0.11137521 2.2784216 9934743
-0.375274 0.11140199 2.2786052 9934743
-0.32530892 0.11142835 2.2791445 9934743
-0.27486014 0.11145429 2.2800398 9934743
-0.22485007 0.11148068 2.2805796 9934743
-0.17529193 0.11150754 2.2807639 9934743
-0.12634683 0.11156424 2.2656195 9934743
-0.075021856 0.11159639 2.2636058 10066329
-0.025325133 0.11162262 2.2641382 10197915
0.025333222 0.11164938 2.2646801 10197915
0.075077005 0.11167563 2.2652133 10197915
0.12484431 0.11170192 2.2657461 10197915
0.16690138 0.10702233 2.2705741 10197915
-1.3009069 -1.0255464 2.3486178 2039583
-1.2961999 -1.0198587 2.3240991 2039583
0.15836486 -1.0202748 2.3256776 11711154
-1.3009199 -0.97496003 2.3486414 2172202
-1.2958212 -0.97493339 2.3220911 2105893
0.1587965 -0.9750275 2.3233893 11711154
-1.300933 -0.92437267 2.3486655 1717069
-1.295812 -0.92524201 2.3220005 1848655
0.15881008 -0.92523831 2.3232749 11711154
-1.300946 -0.87475723 2.3486886 1059399
-1.2958554 -0.87543881 2.3221834 1059655
0.15880774 -0.87517458 2.3232436 11711154
-1.3009589 -0.82514083 2.3487122 1191755
-1.2958688 -0.8254202 2.3222067 1191499
0.15881364 -0.82511437 2.3231683 11711154
-1.300972 -0.7745502 2.3487358 1520719
-1.2958516 -0.77518743 2.3220739 1520719
0.15881087 -0.77505511 2.323139 11711154
-1.3009851 -0.72493172 2.3487589 1651278
-1.295868 -0.72495681 2.3221173 1585998
0.1587933 -0.72499627 2.3231859 11711154
-1.300998 -0.67531228 2.3487825 2177104
-1.2958952 -0.67504466 2.3222082 2111311
0.15879893 -0.67521507 2.3231118 9211020
-1.3010112 -0.62471879 2.3488064 2177105
-1.2959208 -0.62513047 2.3222992 2177361
0.15880476 -0.62543774 2.3230371 6513507
-1.301024 -0.57509732 2.3488297 1848654
-1.2959039 -0.57500118 2.3221664 1848654
0.15880188 -0.57537794 2.3230071 6513507
-1.3005216 -0.52487463 2.3461702 1715517
-1.2954389 -0.52494675 2.3197031 1649983
0.15879206 -0.5250535 2.3230143 7566195
-1.3005449 -0.47482243 2.3462462 2039583
-1.2954402 -0.47485909 2.3196635 2039583
0.15879796 -0.47500202 2.3229399 11711154
-1.3005377 -0.42525351 2.3461642 2039583
-1.2954657 -0.42476976 2.3197501 2039583
0.15879557 -0.42509019 2.3229079 11711154
-1.3005607 -0.37519947 2.3462405 2039583
-1.2954611 -0.37492043 2.3196826 2039583
0.15876986 -0.37504217 2.3229976 11711154
-1.3005736 -0.32465771 2.3462641 2039583
-1.2954668 -0.32507169 2.31967 2039583
0.15879074 -0.32485837 2.3228436 11711154
-1.3005972 -0.27459699 2.3463402 2039583
-1.2955034 -0.27509978 2.3198195 2039583
0.15878902 -0.27481157 2.3228083 11711154
-1.3005898 -0.2250331 2.3462579 2039583
-1.2955093 -0.22500689 2.3198049 2039583
0.15877096 -0.22504376 2.322859 11711154
-1.3006128 -0.17497045 2.3463342 2039583
-1.2955053 -0.17491335 2.3197389 2039583
0.15877642 -0.17499976 2.3227854 9737364
-1.300626 -0.12442467 2.3463581 2039583
-1.2955092 -0.12494107 2.3197114 2039583
0.15879756 -0.12482183 2.3226311 6513507
-1.300639 -0.074849963 2.3463812 2039583
-1.2955562 -0.074966662 2.3199127 2039583
0.1587801 -0.074921981 2.3226781 6513507
-1.3006518 -0.025274228 2.3464046 2039583
-1.2955691 -0.024989117 2.3199351 2039583
0.15875418 -0.025019741 2.3227687 6513507
-1.3006649 0.025274567 2.3464284 2039583
-1.2955817 0.024989447 2.3199575 2039583
0.15875196 0.025019266 2.322736 8158332
-1.3006781 0.074852265 2.3464518 2039583
-1.2955945 0.074969009 2.3199809 2039583
0.15877339 0.074918687 2.3225796 10197915
-1.3006858 0.10498818 2.3464658 2039583
-1.2879422 0.10726015 2.3214943 2039583
-1.2250342 0.11084113 2.3264873 2039583
-1.1742346 0.11086791 2.3270495 2039583
-1.1243695 0.1108942 2.3276007 1785445
-1.0744811 0.11092048 2.3281531 1722241
-1.0245687 0.11094681 2.3287053 1720957
-0.9746325 0.11097313 2.3292577 2051462
-0.92467284 0.11099947 2.3298109 2184073
-0.87468922 0.11102581 2.3303638 1920645
-0.82468224 0.11105216 2.3309174 2051973
-0.77465123 0.11107855 2.331471 1457530
-0.72459644 0.11110494 2.3320248 1523066
-0.67451787 0.11113135 2.3325789 1523835
-0.62441564 0.11115777 2.3331332 1654903
-0.57428944 0.11118419 2.3336878 7042434
-0.52413952 0.11121062 2.3342431 10000536
-0.47493079 0.11123655 2.3347871 9934743
-0.42569906 0.11126252 2.3353319 9934743
-0.37547842 0.11128899 2.3358877 9934743
-0.32523379 0.11131549 2.3364439 9934743
-0.27496526 0.11134198 2.3369999 9934743
-0.22467287 0.11136849 2.3375564 9934743
-0.17435645 0.11139502 2.3381135 9934743
-0.12395852 0.11145945 2.319463 9934743
-0.074968606 0.11148526 2.3200006 10066329
-0.024994787 0.11151163 2.3205488 10197915
0.025002662 0.11153799 2.3210979 10197915
0.075023763 0.11156437 2.3216472 10197915
0.12505773 0.11159223 2.3214567 10197915
0.15819845 0.10673212 2.3211219 10197915
-1.3074417 -1.057974 2.3826761 2039583
0.14606467 -1.0596951 2.3897641 11711154
0.15116179 -1.0536529 2.3632159 11711154
-1.3061465 -1.024955 2.3759027 2039583
0.1464154 -1.0251468 2.3879075 11711154
0.15160055 -1.0250374 2.3609056 11711154
-1.3061407 -0.97498769 2.3758299 2238510
0.1463985 -0.97517169 2.3879509 11711154
0.15159832 -0.97514087 2.3608732 11711154
-1.306127 -0.92479986 2.3757102 1585740
0.14642605 -0.92520392 2.3877637 11711154
0.15159634 -0.925246 2.3608398 11711154
-1.3061851 -0.87504584 2.3759747 993864
0.14640927 -0.87523144 2.3878067 11711154
0.15159406 -0.87535214 2.3608077 11711154
-1.3061671 -0.82506853 2.3758316 1257548
0.14639959 -0.82501739 2.3878131 11711154
0.15161112 -0.82513398 2.3606749 11711154
-1.3062443 -0.77488041 2.3761928 1454927
0.14639029 -0.77480227 2.3878169 11711154
0.15157086 -0.77491653 2.3608396 11711154
-1.3061793 -0.72501642 2.3758047 1717070
0.14640307 -0.72483635 2.3877058 11711154
0.15160702 -0.72503167 2.3606074 11711154
-1.3062098 -0.6749298 2.3759243 2308689
0.14641576 -0.67487645 2.3875952 7237230
0.15158562 -0.67481506 2.3606739 8092539
-1.306246 -0.62495357 2.3760684 2177105
0.14639147 -0.62515765 2.3876781 6513507
0.15158349 -0.62492841 2.360641 6513507
-1.3062463 -0.57497692 2.3760204 1848655
0.14641881 -0.57518953 2.3874915 6513507
0.15158139 -0.5750432 2.3606074 6513507
-1.3062534 -0.52499753 2.3760202 1780795
0.14637999 -0.52499181 2.3876488 9079434
0.15159848 -0.52482897 2.3604741 8421504
-1.306291 -0.47512773 2.376164 2039583
0.14636299 -0.47503093 2.3876929 11711154
0.15155809 -0.47495472 2.3606405 11711154
-1.3062845 -0.42514849 2.3760905 2039583
