# .PCD v0.7 - Point Cloud Data file format
VERSION 0.7
FIELDS x y z rgb
SIZE 4 4 4 4
TYPE F F F U
COUNT 1 1 1 1
WIDTH 1159
HEIGHT 1
VIEWPOINT 0 0 0 1 0 0 0
POINTS 1159
DATA ascii
0.8002888 0.10681647 1.0071539 2960685
0.67668521 -0.46799517 1.0861976 2894892
0.71543878 -0.46235937 1.0610079 2894892
0.67808938 -0.42500103 1.0853873 2894892
0.7165125 -0.42500231 1.0603975 2894892
0.67833829 -0.37507883 1.0853417 2894892
0.71656978 -0.37499976 1.0604768 2894892
0.67850858 -0.32500127 1.0853468 2894892
0.71661842 -0.32499754 1.0605608 2894892
0.67826384 -0.27500486 1.0856236 2894892
0.71664542 -0.27493188 1.0606629 2894892
0.67829585 -0.22499925 1.0857201 2894892
0.71672201 -0.22501086 1.0607265 2894892
0.67834902 -0.17501152 1.0858015 2894892
0.7167967 -0.17499964 1.0607982 2894892
0.67858076 -0.12509221 1.0857687 2894892
0.71683836 -0.12501265 1.0608851 2894892
0.67876494 -0.07498505 1.0857652 2894892
0.71691328 -0.074993975 1.0609561 2894892
0.67882991 -0.024990473 1.0858401 2894892
0.71724075 -0.024973188 1.0608572 2894892
0.67888212 0.024992999 1.0859237 2894892
0.7172994 0.024975741 1.0609386 2894892
0.67891669 0.074982733 1.0860163 2894892
0.7173782 0.074992962 1.0610018 2894892
-0.8583197 0.10954301 1.0896436 10197915
-0.82377589 0.10967205 1.0771377 10197915
-0.77487898 0.10978382 1.0772315 10197915
-0.72559273 0.10989914 1.0766728 10197915
-0.67501265 0.11003788 1.0709662 10197915
-0.62498397 0.11014819 1.0721021 10197915
-0.57492733 0.11025905 1.0731293 10197915
-0.52499092 0.11036931 1.0741889 10197915
-0.47510242 0.11047917 1.075372 10197915
-0.42518574 0.11058982 1.076322 10197915
-0.37494981 0.11070056 1.0774406 10197915
-0.3247582 0.110826 1.0748794 10197915
-0.27501494 0.11095422 1.0713184 10197915
-0.22501311 0.11106504 1.0722986 10197915
-0.17505993 0.11117504 1.0734496 10197915
-0.12508096 0.11128581 1.0744424 10197915
-0.075002827 0.11139633 1.0755584 10197915
-0.024973895 0.1115069 1.0766009 10197915
0.025006875 0.11161731 1.077667 10197915
0.074415646 0.11174808 1.0733204 10197915
0.12504528 0.11187119 1.07157 10197915
0.17508709 0.11198185 1.0726049 10197915
0.2250782 0.11209208 1.0737356 10197915
0.27501947 0.11220302 1.0746448 10197915
0.32498357 0.11231296 1.075814 10197915
0.37504831 0.11242369 1.0768617 10197915
0.42592978 0.11254186 1.0765069 10197915
0.47410116 0.11266642 1.0729896 10197915
0.52501488 0.11278797 1.0717908 10197915
0.57494015 0.11289788 1.0729493 10197915
0.62488842 0.11300887 1.0738765 10197915
0.67747521 0.10789739 1.0827597 4210752
0.71704769 0.10700335 1.0609338 3158064
0.58813238 -0.50586677 1.1437026 2894892
0.60929525 -0.50276071 1.1299468 2894892
0.58913457 -0.47500232 1.1431243 2894892
0.62476653 -0.47434169 1.1199524 2894892
0.65270787 -0.47145829 1.1017853 2894892
0.5891816 -0.42499316 1.1432099 2894892
0.62531972 -0.42499092 1.1197079 2894892
0.6527763 -0.42504352 1.1018487 2894892
0.58951914 -0.37512559 1.1431065 2894892
0.62535453 -0.37499571 1.1197991 2894892
0.65303218 -0.37439764 1.1018002 2894892
0.5896244 -0.32498428 1.1431574 2894892
0.62541115 -0.32501286 1.119879 2894892
0.65320009 -0.32500291 1.1018088 2894892
0.58967841 -0.27498364 1.1432385 2894892
0.62546176 -0.27501339 1.119966 2894892
0.65325403 -0.2749649 1.1018901 2894892
0.58971071 -0.22499219 1.1433333 2894892
0.625328 -0.2250852 1.1201693 2894892
0.65313226 -0.22433585 1.1020861 2894892
0.58976227 -0.17500892 1.143417 2894892
0.6252048 -0.17499131 1.1203661 2894892
0.6530146 -0.17494571 1.1022803 2894892
0.58997673 -0.12521866 1.1433936 2894892
0.62525737 -0.12499341 1.1204481 2894892
0.65325081 -0.12433426 1.1022428 2894892
0.59022844 -0.075078376 1.143348 2894892
0.62530631 -0.074974909 1.1205329 2894892
0.65346628 -0.075097449 1.1022195 2894892
0.59023929 -0.025090182 1.1434574 2894892
0.62536317 -0.024981502 1.1206135 2894892
0.65349931 -0.025116842 1.1023145 2894892
0.59028518 0.02509274 1.1435444 2894892
0.62541193 0.024983989 1.1207004 2894892
0.65354991 0.025119424 1.1023986 2894892
0.59036422 0.075096235 1.143611 2894892
0.62545282 0.074979953 1.1207896 2894892
0.65361619 0.075115375 1.1024745 2894892
-0.90366393 0.10923714 1.1403584 10197915
-0.87163889 0.10936792 1.1259557 10197915
-0.82496858 0.10948081 1.124504 10197915
-0.77496624 0.10959104 1.1256334 10197915
-0.7240091 0.10970963 1.1252092 10197915
-0.67502892 0.10982975 1.1232749 10197915
-0.62508351 0.10993972 1.1244268 10197915
-0.57503796 0.11004981 1.1256149 10197915
-0.52600497 0.11016837 1.1241004 10197915
-0.47484422 0.11028887 1.123311 10197915
-0.42491582 0.11039925 1.1243639 10197915
-0.37498167 0.11050935 1.1254858 10197915
-0.32382682 0.11062985 1.1246966 10197915
-0.27500397 0.11074755 1.1232706 10197915
-0.22497292 0.11085831 1.1242777 10197915
-0.17499618 0.11096855 1.1253928 10197915
-0.12598485 0.11108134 1.1253043 10197915
-0.075095698 0.11120642 1.12321 10197915
-0.025054438 0.1113172 1.1242244 10197915
0.024994548 0.11142734 1.1254061 10197915
0.07613986 0.11154936 1.124227 10197915
0.12493048 0.11166561 1.1231552 10197915
0.17488718 0.11177631 1.1241516 10197915
0.22494286 0.11188629 1.1253744 10197915
0.27501932 0.11199751 1.1263024 10197915
0.32502702 0.11212513 1.1230544 10197915
0.37499231 0.11223568 1.1240897 10197915
0.42496058 0.11234552 1.1252964 10197915
0.47615793 0.1124683 1.1239512 10197915
0.52501023 0.11258463 1.1228924 10197915
0.58302844 0.10916886 1.1343441 5987163
0.62473339 0.10717676 1.1197655 3552822
0.65358782 0.10658974 1.1025605 2960685
0.52397949 -0.5151825 1.1854007 2894892
0.56324553 -0.50948042 1.159881 2894892
0.52626318 -0.47503778 1.1840032 2894892
0.56431425 -0.47501084 1.159269 2894892
0.52635175 -0.42499855 1.1840842 2894892
0.56435895 -0.42500931 1.1593537 2894892
0.52639925 -0.37500057 1.1841508 2894892
0.56470221 -0.37491211 1.1592485 2894892
0.52643305 -0.32500139 1.1842562 2894892
0.56480742 -0.32500637 1.1592983 2894892
0.52647823 -0.27500969 1.1843473 2894892
0.56485635 -0.27499402 1.1593781 2894892
0.52664852 -0.22508465 1.1843355 2894892
0.56490844 -0.22500999 1.1594656 2894892
0.52692616 -0.17498915 1.1842951 2894892
0.56493694 -0.17500669 1.1595652 2894892
0.52699161 -0.12500966 1.1843575 2894892
0.56515765 -0.12484035 1.159536 2894892
0.52701849 -0.074998394 1.184449 2894892
0.56544799 -0.074984282 1.1594666 2894892
0.52701056 -0.025031146 1.1845865 2894892
0.56535107 -0.024919314 1.1596458 2894892
0.52671111 0.024988143 1.1848848 2894892
0.56506944 0.024989 1.1599452 2894892
0.52706909 0.074939176 1.1847812 2894892
0.56521422 0.074993342 1.1599706 2894892
-0.91738528 0.10906613 1.1754297 10197915
-0.8749873 0.10918004 1.1712537 10197915
-0.82487041 0.10929029 1.1724342 10197915
-0.7749368 0.10940019 1.173613 10197915
-0.72500032 0.1095098 1.1748692 10197915
-0.67496371 0.10962017 1.1759733 10197915
-0.62492114 0.10973029 1.1771533 10197915
-0.57497233 0.10983975 1.1784477 10197915
-0.52493781 0.10997239 1.1739534 10197915
-0.47512192 0.11009932 1.1707832 10197915
-0.42519984 0.11020954 1.1718776 10197915
-0.37508348 0.11031982 1.1730494 10197915
-0.32505777 0.11042999 1.1742197 10197915
-0.27503094 0.11053962 1.1755059 10197915
-0.22509785 0.11065004 1.1765573 10197915
-0.17506522 0.11076014 1.1777313 10197915
-0.12392171 0.11087953 1.1772175 10197915
-0.075656168 0.11101454 1.1711118 10197915
-0.025037332 0.11112946 1.171415 10197915
0.024973249 0.11123962 1.172576 10197915
0.075079866 0.11135056 1.1735864 10197915
0.12509337 0.1114603 1.1748606 10197915
0.17500852 0.1115702 1.1760206 10197915
0.22492447 0.11167979 1.1772544 10197915
0.27494013 0.11179042 1.1783001 10197915
0.32449549 0.11192176 1.1738653 10197915
0.37505639 0.11204991 1.1708087 10197915
0.42494828 0.11215981 1.1719563 10197915
0.47493985 0.11226946 1.1732235 10132122
0.52608764 0.1074275 1.1815943 4144959
0.56488264 0.10658415 1.1599478 3092271
0.43445602 -0.55319625 1.243541 2894892
0.45180249 -0.55058789 1.2322654 2894892
0.43728399 -0.52501291 1.2417672 2894892
0.47374627 -0.5224182 1.2180599 2894892
0.50042152 -0.51858151 1.2007194 2894892
0.43731853 -0.47501034 1.2418643 2894892
0.47506383 -0.47500169 1.2173133 2894892
0.5008142 -0.47393528 1.2005686 2894892
0.43735343 -0.4250007 1.2419567 2894892
0.47510839 -0.42500964 1.2174006 2894892
0.50089502 -0.42495304 1.2006304 2894892
0.43759924 -0.37519133 1.2419137 2894892
0.47514409 -0.37500909 1.2174954 2894892
0.50092804 -0.37507412 1.2007254 2894892
0.43783614 -0.325001 1.2418768 2894892
0.47517154 -0.32499298 1.2175945 2894892
0.50096107 -0.32518718 1.2008206 2894892
0.43787396 -0.27500901 1.2419685 2894892
0.47521624 -0.27500233 1.2176813 2894892
0.50101006 -0.2749652 1.2009064 2894892
0.43789038 -0.224975 1.242075 2894892
0.47524431 -0.22501937 1.2177812 2894892
0.50120395 -0.22320828 1.2009013 2894892
0.437933 -0.17496818 1.2421641 2894892
0.47528806 -0.17501321 1.2178684 2894892
0.50147265 -0.17511737 1.200839 2894892
0.43798429 -0.12502456 1.2422466 2894892
0.47532648 -0.12499119 1.2179613 2894892
0.50150329 -0.12512675 1.2009358 2894892
0.43827611 -0.075222224 1.2421758 2894892
0.47533548 -0.074985608 1.2180731 2894892
0.50155753 -0.074885964 1.2010185 2894892
0.43848646 -0.025033517 1.242155 2894892
0.47541028 -0.024997545 1.2181408 2894892
0.50158811 -0.024880074 1.2011154 2894892
0.43852234 0.02501771 1.2422495 2894892
0.47544613 0.025000118 1.2182349 2894892
0.50162631 0.024882603 1.2012072 2894892
0.43848094 0.075053759 1.2423935 2894892
0.47544724 0.074995324 1.2183503 2894892
0.5020014 0.075670712 1.2010818 2894892
-0.96402836 0.10874254 1.2298558 10197915
-0.92487508 0.10886262 1.2222549 10197915
-0.8749184 0.10897268 1.223398 10197915
-0.82506287 0.10908218 1.2246283 10197915
-0.77500427 0.10919196 1.2259057 10197915
-0.72494775 0.10930225 1.2270528 10197915
-0.67496133 0.10943326 1.222946 10197915
-0.62505049 0.109543 1.2241462 10197915
-0.57503951 0.10965277 1.2253988 10197915
-0.52367157 0.10977782 1.2235906 10197915
-0.47502285 0.10989412 1.2224162 10197915
-0.42490599 0.1100044 1.2235969 10197915
-0.37509349 0.11011383 1.2248107 10197915
-0.3251794 0.11022349 1.2260342 10197915
-0.27506697 0.11033325 1.2273444 10197915
-0.2252252 0.11046379 1.2232789 10197915
-0.1749882 0.11057484 1.2243372 10197915
-0.12502442 0.11068451 1.2255801 10197915
-0.074301556 0.11081483 1.2220823 10197915
-0.025018472 0.11092563 1.2226628 10197915
0.024949832 0.11103577 1.2237848 10197915
0.074913576 0.1111451 1.2251272 10197915
0.12497555 0.11125587 1.2261648 10197915
0.17503625 0.11136555 1.2274647 10197915
0.22466986 0.11149474 1.2236137 10197915
0.27496168 0.1116061 1.2246326 10197915
0.325822 0.11172263 1.2246727 10197915
0.37502372 0.11184766 1.2216203 10197915
0.43246081 0.10847488 1.2335939 5789784
0.47475401 0.10674908 1.2174337 3552822
0.50204253 0.10618088 1.2011267 2894892
0.34878895 -0.56570554 1.2992283 2894892
0.37244609 -0.56220806 1.2838495 2894892
0.41107091 -0.55659235 1.2587425 2894892
0.34880576 -0.52509815 1.2993122 2894892
0.37505704 -0.52499765 1.2822392 2894892
0.41226703 -0.52501887 1.2580384 2894892
0.34884229 -0.47507706 1.2994055 2894892
0.37506071 -0.47499448 1.2823538 2894892
0.4122937 -0.47502136 1.2581369 2894892
0.34885922 -0.42504144 1.2995114 2894892
0.37509766 -0.42500344 1.2824461 2894892
0.41231269 -0.42499828 1.2582432 2894892
0.34889579 -0.37500554 1.2996047 2894892
0.37513411 -0.37500408 1.2825406 2894892
0.41259444 -0.3747907 1.2581757 2894892
0.34908631 -0.32941559 1.2995872 2894892
0.37515238 -0.3250069 1.2826447 2894892
0.41281995 -0.32499012 1.2581477 2894892
0.34940273 -0.27510723 1.2995088 2894892
0.37518373 -0.27500182 1.2827414 2894892
0.41284838 -0.27497232 1.2582452 2894892
0.34942955 -0.22505596 1.2996086 2894892
0.37522686 -0.22498026 1.2828302 2894892
0.41288447 -0.2250167 1.258339 2894892
0.34945631 -0.17499706 1.2997081 2894892
0.37522674 -0.17498823 1.2829467 2894892
0.41289753 -0.17501852 1.2584466 2894892
0.3494831 -0.12493052 1.2998079 2894892
0.37526965 -0.12499873 1.2830368 2894892
0.41296205 -0.12496062 1.2585225 2894892
0.34950989 -0.074856192 1.2999076 2894892
0.37533724 -0.075010166 1.2831101 2894892
0.41333115 -0.074846148 1.258399 2894892
0.34952921 -0.038776688 1.2999791 2894892
0.3753016 -0.025015809 1.2832493 2894892
0.41340777 -0.025025319 1.2584656 2894892
0.37533 0.024999367 1.2833477 2894892
0.41343856 0.025027873 1.2585626 2894892
0.37541988 0.074999467 1.2834061 2894892
0.41352323 0.075004086 1.2586254 2894892
-1.0096754 0.10843114 1.2817868 10197915
-0.97472388 0.10854942 1.2722174 10197915
-0.9251824 0.10865936 1.2731529 10197915
-0.87516123 0.10876877 1.2745006 10197915
-0.82504344 0.10887889 1.2757249 10197915
-0.7750805 0.1089884 1.2770082 10197915
-0.72502017 0.10909742 1.2784795 10197915
-0.6750133 0.10923142 1.2736417 10197915
-0.62498128 0.1093407 1.2750189 10197915
-0.57613081 0.1094639 1.2722306 10197915
-0.52499491 0.10958337 1.271695 10197915
-0.47489312 0.10969348 1.27291 10197915
-0.42482358 0.10980266 1.2743374 10197915
-0.37491238 0.10991225 1.2755765 10197915
-0.32503778 0.1100226 1.2765985 10197915
-0.27506065 0.11013149 1.2780557 10197915
-0.22485499 0.11026429 1.2736324 10197915
-0.17500997 0.11037399 1.2747984 10197915
-0.12620473 0.11048826 1.2742214 10197915
-0.075058118 0.11061633 1.2715192 10197915
-0.025041681 0.11072633 1.2727197 10197915
0.025074838 0.11083631 1.2739836 10197915
0.075024359 0.11094616 1.2751802 10197915
0.12494215 0.11105537 1.2765338 10197915
0.17495707 0.11116523 1.2777619 10197915
0.22532907 0.11129743 1.2735817 10197915
0.27509266 0.1114084 1.2743908 10197915
0.32504267 0.1115176 1.2757427 9934743
0.37462851 0.10692836 1.2803451 4079166
0.41332784 0.10620675 1.2585272 3092271
0.27528697 -0.6013642 1.3469492 2894892
0.2851896 -0.57442409 1.3405714 2894892
0.32275808 -0.56943375 1.3161461 2894892
0.28545314 -0.5249809 1.3405167 2894892
0.32422361 -0.52499682 1.3152996 2894892
0.28548259 -0.47499731 1.3406146 2894892
0.32423991 -0.47499758 1.3154047 2894892
0.28566816 -0.42519444 1.3406093 2894892
0.3242799 -0.42500106 1.315498 2894892
0.28600964 -0.37499875 1.3405054 2894892
0.3242957 -0.37499711 1.3156049 2894892
0.28603277 -0.32500309 1.3406063 2894892
0.32458156 -0.32486939 1.3155353 2894892
0.28606489 -0.27501944 1.3407024 2894892
0.32481781 -0.27500203 1.3154986 2894892
0.2860603 -0.2250281 1.3408233 2894892
0.32484153 -0.2250057 1.3155993 2894892
0.28607872 -0.17500931 1.3409287 2894892
0.32486078 -0.17499126 1.3157083 2894892
0.28621617 -0.12511848 1.3409551 2894892
0.32490075 -0.12501042 1.3157952 2894892
0.28664604 -0.075010136 1.3407929 2894892
0.32493874 -0.075001411 1.3158883 2894892
0.28661928 -0.024998525 1.3409266 2894892
0.32518616 -0.024867214 1.3158462 2894892
0.28664133 0.025001077 1.3410292 2894892
0.32541764 0.024973987 1.3158091 2894892
0.28671196 0.074988306 1.3411009 2894892
0.32547668 0.074985623 1.3158894 2894892
-1.0559257 0.10811304 1.3350633 10197915
-1.0228195 0.10824299 1.3214898 10197915
-0.97505236 0.10835463 1.3209832 10197915
-0.92495686 0.10846435 1.3222854 10197915
-0.87489313 0.10857394 1.3236207 10197915
-0.8250007 0.1086834 1.324881 10197915
-0.7750048 0.1087925 1.3262854 10197915
-0.72491074 0.10890239 1.3275508 10197915
-0.67498457 0.10901082 1.3290917 10197915
-0.62646216 0.10912476 1.3284404 10197915
-0.57359374 0.10927863 1.3202465 10197915
-0.52493328 0.1093902 1.3202698 10197915
-0.47508782 0.10949928 1.3215849 10197915
-0.42513987 0.10960921 1.322769 10197915
-0.3748247 0.10971881 1.3242365 10197915
-0.32481316 0.10982844 1.3255206 10197915
-0.27497655 0.10993738 1.3268721 10197915
-0.22504205 0.11004711 1.3280885 10197915
-0.17500702 0.11015628 1.3295137 10197915
-0.12505025 0.11028826 1.3251405 10197915
-0.074888192 0.11042595 1.3194655 10197915
-0.024894314 0.11053518 1.3208405 10197915
0.024927083 0.11064429 1.3221445 10197915
0.07498312 0.11075386 1.3234892 10197915
0.12513725 0.11086415 1.3247007 10197915
0.17511706 0.11097379 1.3259708 10197915
0.22491765 0.11108187 1.3275172 10197915
0.28171146 0.10758302 1.3356676 5197647
0.32465333 0.10607567 1.3158501 3223857
0.19686368 -0.61272615 1.3979281 2829099
0.22169337 -0.60911989 1.3817885 2894892
0.25870594 -0.6036936 1.3577276 2894892
0.19691932 -0.57491994 1.39798 2894892
0.22520198 -0.57500154 1.3795849 2894892
0.26025867 -0.57497555 1.3567847 2894892
0.19692832 -0.52486193 1.3980913 2894892
0.22520337 -0.52499598 1.3797002 2894892
0.26027346 -0.52501577 1.3568921 2894892
0.19694537 -0.47498924 1.3981969 2894892
0.22521365 -0.47499371 1.3798115 2894892
0.26028273 -0.47499445 1.3570032 2894892
0.1973692 -0.42577663 1.3980364 2894892
0.22526675 -0.42499641 1.3798952 2894892
0.26051119 -0.42472988 1.3569715 2894892
0.19751661 -0.37485948 1.3980594 2894892
0.22525536 -0.37500271 1.3800186 2894892
0.26082698 -0.37502277 1.3568829 2894892
0.19752184 -0.3249568 1.3981725 2894892
0.22526744 -0.32500222 1.3801281 2894892
0.26085299 -0.32501754 1.3569832 2894892
0.19753693 -0.27516264 1.3982797 2894892
0.22528723 -0.27500534 1.3802313 2894892
0.26088372 -0.2749787 1.3570802 2894892
0.19754228 -0.22524394 1.3983928 2894892
0.22530536 -0.22501323 1.3803375 2894892
0.26087946 -0.22495803 1.3572006 2894892
0.19756226 -0.17508709 1.398497 2894892
0.22534813 -0.17501262 1.3804258 2894892
0.26091617 -0.17500663 1.357293 2894892
0.19775552 -0.12602371 1.398486 2894892
0.22536831 -0.12500508 1.3805294 2894892
0.26104334 -0.12489339 1.3573279 2894892
0.19812848 -0.074732639 1.3983634 2894892
0.22531262 -0.075001501 1.3806826 2894892
0.26137862 -0.074999861 1.3572263 2894892
0.19814365 -0.024912573 1.3984703 2894892
0.2254011 -0.025003284 1.3807423 2894892
0.26151472 -0.024987465 1.3572551 2894892
0.19815885 0.024915112 1.3985771 2894892
0.22542332 0.024993896 1.3808448 2894892
0.26153275 0.024965515 1.3573601 2894892
0.19817388 0.074750409 1.3986839 2894892
0.22536866 0.074983597 1.3809969 2894892
0.26145053 0.074968815 1.3575307 2894892
-1.1031713 0.10778111 1.3912292 10197915
-1.0705529 0.10792017 1.3750956 10197915
-1.024909 0.10803549 1.3724349 10197915
-0.97500181 0.10814422 1.3738936 10197915
-0.9249928 0.10825372 1.3752067 10197915
-0.87502491 0.10836238 1.376707 10197915
-0.82523489 0.10847126 1.3780494 10197915
-0.7762695 0.1086002 1.3738881 10197915
-0.72515607 0.10871696 1.3740157 10197915
-0.67498922 0.10882696 1.3752979 10197915
-0.62319773 0.10895095 1.3740009 10197915
-0.57489997 0.10907301 1.3711755 10197915
-0.52500707 0.10918155 1.3726621 10197915
-0.47501394 0.10929097 1.3739964 10197915
-0.42506045 0.10940044 1.3752903 10197915
-0.3750096 0.10950947 1.3767449 10197915
-0.32499751 0.10961862 1.378154 10197915
-0.27675346 0.10974256 1.3748155 10197915
-0.22522546 0.109864 1.3740147 10197915
-0.17511775 0.10997307 1.3754864 10197915
-0.12329256 0.11010455 1.3723286 10197915
-0.074991025 0.11021855 1.3715301 10197915
-0.025019914 0.11032872 1.3726592 10197915
0.025053013 0.11043816 1.3740224 10197915
0.074935913 0.11054698 1.3754548 10197915
0.12477801 0.11065582 1.3768494 10197915
0.17893697 0.1097663 1.3816576 8553090
0.22470796 0.10635549 1.3788418 3881787
0.26144952 0.10565739 1.3575391 2894892
0.13352284 -0.61937028 1.4391071 4868682
0.17079657 -0.61651689 1.4148724 2631720
0.13357277 -0.57501233 1.4391783 2894892
0.17223866 -0.57500994 1.4140315 2894892
0.13376611 -0.5251835 1.4391708 2894892
0.17225385 -0.52502096 1.41414 2894892
0.13413183 -0.47498998 1.439051 2894892
0.17224754 -0.47500959 1.4142607 2894892
0.13415112 -0.42498428 1.4391536 2894892
0.17270699 -0.42489266 1.4140776 2894892
0.13416146 -0.37499171 1.4392632 2894892
0.17283073 -0.37500209 1.4141152 2894892
0.1341771 -0.32501242 1.4393747 2894892
0.17283665 -0.32500064 1.4142272 2894892
0.13416624 -0.27500483 1.4394964 2894892
0.17286593 -0.27497783 1.4143257 2894892
0.13419445 -0.22500955 1.4395947 2894892
0.17285784 -0.22496165 1.4144467 2894892
0.13457219 -0.17519589 1.4394633 2894892
0.17288226 -0.17498016 1.4145494 2894892
0.13479571 -0.12495571 1.439437 2894892
0.17309353 -0.12489288 1.4145283 2894892
0.13481116 -0.075018197 1.4395429 2894892
0.17339538 -0.075046144 1.4144493 2894892
0.13475771 -0.025050521 1.439695 2894892
0.17349665 -0.025018368 1.4144998 2894892
0.13476807 0.025053067 1.4398077 2894892
0.17351472 0.02500698 1.414605 2894892
0.13484932 0.075014696 1.4398719 2894892
0.17343985 0.075022116 1.4147717 2894892
-1.1512463 0.10744166 1.4488294 10197915
-1.1204197 0.10758179 1.4313806 10197915
-1.0749183 0.10772736 1.421036 10197915
-1.0249361 0.10783675 1.422361 10197915
-0.97504342 0.10794597 1.4236796 10197915
-0.92524606 0.10805363 1.425341 10197915
-0.87515181 0.1081633 1.4266679 10197915
-0.82515335 0.10827228 1.4281031 10197915
-0.77418447 0.108409 1.4231291 10197915
-0.7248413 0.1085206 1.4235429 10197915
-0.6749422 0.10862888 1.4250969 10197915
-0.6250906 0.10873826 1.4263523 10197915
-0.57647759 0.10886335 1.4229498 10197915
-0.52508765 0.10898519 1.4219645 10197915
-0.474902 0.10909464 1.4233954 10197915
-0.42480782 0.10920392 1.4248182 10197915
-0.37500718 0.10931253 1.4262352 10197915
-0.32490847 0.1094218 1.4276609 10197915
-0.27352968 0.10955689 1.4233321 10197915
-0.22493452 0.10966881 1.4232219 10197915
-0.17499134 0.10977743 1.4247217 10197915
-0.12494859 0.10988699 1.4260528 10197915
-0.076196395 0.11000004 1.4257452 10197915
-0.02492905 0.11013419 1.4215865 10197915
0.024961907 0.11024309 1.4229918 10197915
0.075145595 0.11035267 1.4244065 10197915
0.13121302 0.10682171 1.4349499 4934475
0.17275275 0.10566152 1.4147645 3158064
0.044647522 -0.61953086 1.4969109 7829367
0.075199962 -0.61948758 1.4770401 6579300
0.10853222 -0.61939156 1.4553611 6381921
0.044661876 -0.57507414 1.4970053 4802889
0.075283758 -0.5749858 1.4770902 2894892
0.10853879 -0.57498443 1.4554609 2894892
0.044648334 -0.52511102 1.4971312 4802889
0.075271584 -0.52498877 1.4772139 2894892
0.10874888 -0.52461296 1.4554418 2894892
0.045037512 -0.47576275 1.4969932 4210752
0.075300783 -0.47501159 1.4773128 2894892
0.10913012 -0.47501916 1.4553101 2894892
0.045265701 -0.42490652 1.4969636 3947580
0.075285561 -0.42501438 1.477439 2894892
0.10913286 -0.42504913 1.4554251 2894892
0.045286436 -0.37496668 1.4970672 4144959
0.075268611 -0.37500876 1.477567 2894892
0.10915048 -0.37499204 1.4555309 2894892
0.045276906 -0.32501984 1.4971894 3026478
0.07529854 -0.3250097 1.4776638 2894892
0.10915887 -0.32492667 1.4556425 2894892
0.045267466 -0.27506453 1.4973129 2894892
0.075315751 -0.27498889 1.4777704 2894892
0.10916733 -0.27501464 1.4557538 2894892
0.045309577 -0.22492652 1.4974031 2894892
0.075312488 -0.22500268 1.4778895 2894892
0.10916447 -0.22501446 1.4558728 2894892
0.045287333 -0.17495556 1.4975346 2894892
0.075288184 -0.17502327 1.478022 2894892
0.10955808 -0.17462286 1.4557348 2894892
0.045701597 -0.12599529 1.4973797 2894892
0.075365312 -0.12497955 1.4780899 2894892
0.10980126 -0.12506534 1.4556922 2894892
0.04591576 -0.074959181 1.4973594 2894892
0.075322628 -0.074998893 1.4782337 2894892
0.10970584 -0.075012445 1.4558713 2894892
0.045906894 -0.024815252 1.4974828 2894892
0.075312734 -0.025026329 1.478357 2894892
0.1098181 -0.024958607 1.4559153 2894892
0.045910392 0.024817774 1.4975969 2894892
0.0753287 0.025014615 1.4784638 2894892
0.10982221 0.024923252 1.4560297 2894892
0.045926344 0.074977063 1.4977039 3092271
0.075331777 0.074988239 1.4785793 2894892
0.10973546 0.074992895 1.4562033 2894892
-1.1653627 0.10726554 1.4849396 9868950
-1.1236151 0.1073861 1.4787117 10197915
-1.0749865 0.10751408 1.4745928 10197915
-1.0266272 0.10763957 1.4709377 10197915
-0.97494149 0.10776307 1.4697022 10197915
-0.92493588 0.10787242 1.4710598 10197915
-0.8750273 0.10798102 1.4725411 10197915
-0.82522142 0.10808942 1.4740192 10197915
-0.77531183 0.10819804 1.4755007 10197915
-0.72530544 0.10830686 1.4769846 10197915
-0.6751948 0.10841592 1.4784716 10197915
-0.62498677 0.1085252 1.4799616 10197915
-0.57372046 0.10866188 1.4751685 10197915
-0.52492374 0.10877427 1.4750609 10197915
-0.47616282 0.10890535 1.4702365 10197915
-0.42532438 0.10902241 1.4701297 10197915
-0.3751494 0.10913168 1.4716029 10197915
-0.32507232 0.10924068 1.4730732 10197915
-0.27509934 0.10934901 1.4746665 10197915
-0.22502819 0.10945906 1.4758832 10197915
-0.17485546 0.10956728 1.4776099 10197915
-0.12498919 0.10967688 1.4788181 10197915
-0.073553525 0.10979795 1.4780509 10197915
-0.025035614 0.10992539 1.4740036 10197915
0.029382717 0.10893319 1.4800508 8487297
0.07465867 0.10604554 1.475687 4013373
0.10977011 0.10555908 1.4559906 3026478
-0.005689919 -0.61963618 1.5296491 11711154
0.020036874 -0.61962885 1.5129167 11711154
-0.0057155783 -0.57496333 1.5297703 11711154
0.020073535 -0.57498986 1.5129969 11711154
-0.0056873932 -0.52500618 1.5298688 11711154
0.02005429 -0.52498275 1.5131266 11711154
-0.0057236375 -0.47504184 1.5300092 11711154
0.020457832 -0.47480917 1.5129811 11711154
-0.0056954618 -0.4250004 1.5301071 11711154
0.020703506 -0.42500606 1.5129384 11711154
-0.0057030334 -0.37494907 1.5302291 11711154
0.020678582 -0.37502417 1.5130712 11711154
-0.0057177935 -0.32496321 1.5303566 4144959
0.020677218 -0.3249962 1.5131899 4079166
-0.0058303867 -0.27454051 1.5305476 2894892
0.020700857 -0.27499929 1.5132915 2894892
-0.0063678222 -0.22503985 1.531013 2894892
0.020668156 -0.22501282 1.513429 2894892
-0.0063295718 -0.17494625 1.5311048 2894892
0.020736024 -0.17500024 1.5135018 2894892
-0.0063347565 -0.12503505 1.5312253 2894892
0.021142244 -0.12480767 1.5133544 2894892
-0.0063641923 -0.074923694 1.5313611 2894892
0.02136974 -0.075033262 1.5133239 2894892
-0.0063357288 -0.024808595 1.5314602 2894892
0.021254603 -0.02508093 1.513515 2894892
-0.0063508358 0.024746506 1.5315857 2894892
0.021256274 0.02508351 1.5136306 2894892
-0.0063513238 0.074879169 1.5317041 8684676
0.02137981 0.075032704 1.5136678 8750469
-1.2116247 0.10694859 1.5379177 6513507
-1.1749908 0.10706732 1.5291986 7434609
-1.1250235 0.10717524 1.530889 10066329
-1.0771481 0.10728735 1.5303199 10197915
-1.0229461 0.10745659 1.5190413 10197915
-0.97483033 0.10756955 1.5184011 10197915
-0.92481118 0.10767822 1.5199351 10197915
-0.87468785 0.1077871 1.5214717 10197915
-0.82508689 0.10789485 1.5229899 10197915
-0.77517557 0.10800327 1.5245239 10197915
-0.72475237 0.10811278 1.5260695 10197915
-0.67484766 0.10822123 1.5275966 10197915
-0.62505358 0.10832883 1.5292661 10197915
-0.5749504 0.1084388 1.5305197 10197915
-0.52574879 0.10854691 1.5317199 10197915
-0.47401303 0.10872035 1.5179663 10197915
-0.42504296 0.1088308 1.5184436 10197915
-0.3750923 0.10893939 1.5199553 10197915
-0.32503799 0.10904817 1.5214763 10197915
-0.27488738 0.10915718 1.5229939 10197915
-0.22505206 0.10926554 1.5245051 10197915
-0.17512085 0.10937349 1.526162 10197915
-0.12508988 0.10948279 1.5275369 10197915
-0.074956641 0.10959174 1.5290571 10197915
-0.018669639 0.1077356 1.5300163 10066329
0.020678682 0.1051238 1.5138522 10000536
-1.2588991 0.10661782 1.5937861 6513507
-1.2245475 0.1067465 1.5812509 6513507
-1.1751537 0.10689144 1.5733013 6513507
-1.1251256 0.10700031 1.5747826 8618883
-1.0726198 0.10712792 1.5729936 10197915
-1.0250739 0.10725237 1.5691367 10197915
-0.97513819 0.10736124 1.5705688 10197915
-0.9251017 0.10747035 1.5719998 10197915
-0.87518179 0.10757735 1.573891 10197915
-0.82537103 0.10768598 1.5753152 10197915
-0.77524477 0.10779464 1.5769089 10197915
-0.725021 0.10790355 1.5784984 10197915
-0.67512202 0.10801173 1.5800807 10197915
-0.62772709 0.10812896 1.5779519 10197915
-0.57523066 0.10826393 1.5743027 10197915
-0.5240739 0.10838058 1.5744951 10197915
-0.47500294 0.10851651 1.5686146 10197915
-0.42495772 0.1086257 1.5700303 10197915
-0.37524679 0.10873359 1.5715889 10197915
-0.32521668 0.10884146 1.5733124 10197915
-0.27509081 0.10895092 1.5747297 10197915
-0.22508159 0.10905929 1.5762985 10197915
-0.17496908 0.10916808 1.5778695 10197915
-0.1249757 0.10927717 1.5792795 10197915
-0.075103857 0.10938412 1.5811561 10132122
-0.032206289 0.10950994 1.5742707 10066329
-1.2621297 -0.57172519 1.6205279 6645093
-1.2463499 -0.57184821 1.6448312 6579300
-1.2622713 -0.52500021 1.6206566 6447714
-1.2464689 -0.52500498 1.6449993 6447714
-1.2624009 -0.47499529 1.6208324 6447714
-1.2468067 -0.47552964 1.6448506 6447714
-1.2625426 -0.42499784 1.620994 6447714
-1.2470479 -0.42501789 1.6448591 6447714
-1.2625222 -0.37484545 1.6214035 6447714
-1.2470232 -0.37566033 1.6452688 6447714
-1.262491 -0.32500207 1.6218272 6447714
-1.2469946 -0.32498589 1.6456937 6447714
-1.2626228 -0.27499911 1.6219966 6447714
-1.2471217 -0.27501777 1.6458716 6447714
-1.2627661 -0.22496884 1.6221485 6447714
-1.2472777 -0.22525215 1.646006 6447714
-1.2628934 -0.1749777 1.6223319 6447714
-1.2477146 -0.17505443 1.6457106 6447714
-1.2628173 -0.12492216 1.6228249 6447714
-1.2476022 -0.12544985 1.646256 6447714
-1.2628537 -0.075009339 1.6231418 6447714
-1.2476503 -0.075036131 1.6465613 6447714
-1.2629786 -0.024980251 1.6233253 6447714
-1.2477809 -0.02524177 1.6467335 6447714
-1.2631122 0.024983766 1.6234962 6447714
-1.2479137 0.02524535 1.6469089 6447714
-1.263258 0.07500197 1.6236449 6447714
-1.2481786 0.074111395 1.6468672 6447714
-1.2628167 0.10351428 1.6237003 6513507
-1.2300984 0.10567448 1.6317775 6513507
-1.1748857 0.10670596 1.6200656 6513507
-1.1250197 0.10681522 1.621366 6776679
-1.0750499 0.10692204 1.6233455 9539985
-1.0249792 0.10703177 1.6246517 10197915
-0.97502905 0.10713837 1.6266319 10197915
-0.92519784 0.10724697 1.6280962 10197915
-0.87588543 0.10735579 1.6291816 10197915
-0.82540351 0.10750132 1.6217029 10197915
-0.77545339 0.10760891 1.6234611 10197915
-0.72540641 0.10771775 1.6249678 10197915
-0.67525572 0.10782583 1.6267333 10197915
-0.62240243 0.10796431 1.6223861 10197915
-0.57486176 0.10808149 1.6203804 10197915
-0.52481741 0.10818909 1.6221751 10197915
-0.47467071 0.10829835 1.6236329 10197915
-0.42464355 0.10840677 1.6252565 10197915
-0.37496257 0.10851361 1.6270386 10197915
-0.32518935 0.10862271 1.6283125 10197915
-0.2762627 0.10873231 1.6289766 10197915
-0.22514139 0.10887618 1.6222996 10197915
-0.17524542 0.10898475 1.6237838 10197915
-0.12525086 0.10909253 1.6255231 10132122
-0.075155146 0.10920154 1.6270138 10000536
-0.031315446 0.10933225 1.6194435 10000536
-1.2267908 -0.57182878 1.6749572 6513507
-1.2272228 -0.52505434 1.6746459 6447714
-1.2276198 -0.47489324 1.6744134 6447714
-1.2278419 -0.42500153 1.6744426 6447714
-1.2279806 -0.37499702 1.6746049 6447714
-1.2281052 -0.32499674 1.6747913 6447714
-1.2282673 -0.27504998 1.674914 6447714
-1.2287041 -0.22497217 1.6746169 6447714
-1.229161 -0.17502087 1.6742909 6447714
-1.2292504 -0.12502213 1.6745285 6447714
-1.2294747 -0.075012334 1.6745546 6447714
-1.2294773 -0.025022205 1.6749301 6447714
-1.2297143 0.024910264 1.6749408 6447714
-1.2303349 0.075141825 1.6743611 6447714
-1.2274468 0.10388784 1.6737987 6513507
-1.1764129 0.10649823 1.6713995 6513507
-1.1250155 0.10661704 1.6711706 6513507
-1.0752141 0.10672515 1.6727159 7303023
-1.0253116 0.10683238 1.6745454 10066329
-0.97496557 0.10694112 1.6762501 10197915
-0.92486435 0.10704987 1.6778054 10197915
-0.87410676 0.10716423 1.6783323 10197915
-0.82497942 0.10730529 1.6712157 10197915
-0.77476871 0.10741522 1.6725368 10197915
-0.72467619 0.10752273 1.6744053 10197915
-0.67471105 0.10763067 1.6760855 10197915
-0.62487721 0.10773759 1.677947 10197915
-0.57748616 0.10786039 1.674421 10197915
-0.52508295 0.10799459 1.6709119 10197915
-0.47501969 0.10810279 1.6725866 10197915
-0.42486501 0.10821009 1.6745404 10197915
-0.3746019 0.1083198 1.6759447 10197915
-0.32458276 0.10842735 1.6777552 10197915
-0.27323318 0.10854748 1.6771688 10197915
-0.22497731 0.10868382 1.6707259 10197915
-0.17484796 0.10879149 1.6725783 10132122
-0.12484971 0.10889886 1.6744245 10000536
-0.074979626 0.10900814 1.6757097 10000536
-0.031966615 0.10909966 1.6775119 10000536
-1.2051985 -0.5718627 1.7082168 6447714
-1.1890869 -0.57199842 1.7330331 6447714
-1.2056181 -0.52489018 1.7079252 6447714
-1.189497 -0.52498746 1.732756 6447714
-1.2056313 -0.47460535 1.7082833 6447714
-1.1894547 -0.47520667 1.7331945 6447714
-1.2055671 -0.42495474 1.7087559 6447714
-1.1893983 -0.4250032 1.7336603 6447714
-1.2057122 -0.37498263 1.7089075 6447714
-1.1895236 -0.37500539 1.7338421 6447714
-1.2058238 -0.32495806 1.7091099 6447714
-1.1896477 -0.3250218 1.7340271 6447714
-1.2060056 -0.27485475 1.7092056 6447714
-1.1898745 -0.27516851 1.7340517 6447714
-1.2064042 -0.22502352 1.7089674 6447714
-1.1902324 -0.22500552 1.7338772 6447714
-1.2062147 -0.17498323 1.7096348 6447714
-1.1900289 -0.17500761 1.7345661 6447714
-1.2063096 -0.12493157 1.709865 6447714
-1.1901309 -0.1250259 1.734786 6447714
-1.2064954 -0.074796982 1.7099557 6447714
-1.1903052 -0.075136624 1.7348906 6447714
-1.2065784 -0.024797667 1.7102033 6447714
-1.1903809 -0.025134208 1.7351506 6447714
-1.2068151 0.025073716 1.7102131 6447714
-1.1906049 0.024963187 1.7351826 6447714
-1.2070184 0.075107135 1.7102745 6447714
-1.1908443 0.074924573 1.7351874 6447714
-1.2065059 0.10316417 1.7112759 6513507
-1.1820332 0.10453225 1.7291586 6513507
-1.1250138 0.10640855 1.72357 6513507
-1.0749227 0.10651571 1.7255174 6513507
-1.0257968 0.10662504 1.7263747 8092539
-0.9748463 0.10677479 1.7181163 10197915
-0.92488354 0.10688195 1.7200016 10197915
-0.87481767 0.10699051 1.7215868 10197915
-0.82465392 0.10709807 1.7234794 10197915
-0.77473664 0.1072057 1.7252117 10197915
-0.72507507 0.10731339 1.7267826 10197915
-0.6749562 0.10742148 1.7285212 10197915
-0.62509781 0.10752838 1.7304039 10197915
-0.57265663 0.10767101 1.7247945 10197915
-0.52489597 0.10778777 1.7229939 10197915
-0.475164 0.10789423 1.7249111 10197915
-0.42509228 0.10800303 1.7264358 10197915
-0.37713772 0.10812306 1.7239207 10197915
-0.32478076 0.10826163 1.7192785 10197915
-0.27484187 0.10837 1.72084 10197915
-0.22480132 0.10847739 1.7227051 10132122
-0.17501573 0.10858484 1.724411 10000536
-0.12478109 0.10869382 1.7259822 10000536
-0.074796043 0.1088017 1.7276909 10000536
-0.032237243 0.10889292 1.7293041 10000536
-1.1641411 -0.57181728 1.771462 6447714
-1.1477733 -0.57202601 1.7966717 6447714
-1.1645299 -0.52500027 1.7712138 6447714
-1.147887 -0.52493513 1.7968508 6447714
-1.1646461 -0.47500187 1.7714139 6447714
-1.1480585 -0.47538972 1.7969589 6447714
-1.1645862 -0.42483571 1.771878 6447714
-1.1483289 -0.42642137 1.79691 6447714
-1.1645399 -0.37500328 1.7723279 6447714
-1.1482568 -0.37511799 1.7974069 6447714
-1.1646558 -0.32501647 1.7725214 6447714
-1.1483618 -0.32488525 1.7976227 6447714
-1.1648746 -0.27487546 1.7725654 6447714
-1.1484993 -0.2750214 1.7977856 6447714
-1.1652626 -0.22498661 1.772339 6447714
-1.1486119 -0.2249549 1.7979884 6447714
-1.1653953 -0.17498639 1.7725116 6447714
-1.1487406 -0.17524676 1.7981635 6447714
-1.1653657 -0.12485892 1.7729329 6447714
-1.1491328 -0.12720487 1.79792 6447714
-1.165357 -0.074994124 1.7733212 6447714
-1.1489741 -0.075256653 1.7985548 6447714
-1.1653229 -0.024984207 1.7737479 6447714
-1.1490952 -0.02533628 1.7987435 6447714
-1.1655543 0.025106393 1.7737685 6447714
-1.1492177 0.02533989 1.7989357 6447714
-1.1660943 0.074976519 1.7733108 6447714
-1.1493384 0.075281367 1.7991245 6447714
-1.1653293 0.10333611 1.7734723 6513507
-1.1274341 0.10584012 1.7818302 6513507
-1.0750923 0.10629078 1.7819446 6513507
-1.0240073 0.10640947 1.7815821 6645093
-0.97513551 0.10655367 1.7735176 9211020
-0.92487848 0.10666096 1.7755331 10197915
-0.87636179 0.1068 1.7685653 10197915
-0.8246153 0.10692184 1.7677882 10197915
-0.77485728 0.10702896 1.7695593 10197915
-0.72536451 0.10713613 1.7711557 10197915
-0.67504543 0.10724381 1.7731116 10197915
-0.62462664 0.107353 1.7747408 10197915
-0.57483256 0.10745953 1.7766789 10197915
-0.52493817 0.10756762 1.7782886 10197915
-0.47494596 0.10767458 1.7802339 10197915
-0.42521623 0.10778163 1.7820039 10197915
-0.37242424 0.1079224 1.7770633 10197915
-0.32485861 0.10804255 1.7742933 10197915
-0.27515569 0.10815137 1.7756065 10197915
-0.22648779 0.10829119 1.7685299 10066329
-0.17506717 0.10841057 1.7681787 10000536
-0.12537849 0.10851762 1.7699246 10000536
-0.075225689 0.10862633 1.7715241 10000536
-0.032320935 0.10871812 1.7731948 10000536
-1.1294898 -0.57201248 1.8248345 6447714
-1.1295916 -0.52501172 1.8250314 6447714
-1.1299601 -0.47508007 1.8248385 6447714
-1.1306092 -0.42498451 1.8242168 6447714
-1.1307292 -0.37498221 1.8244032 6447714
-1.1308405 -0.32500589 1.8246098 6447714
-1.1309683 -0.27498212 1.8247907 6447714
-1.1310774 -0.22500269 1.8249961 6447714
-1.1313039 -0.17509359 1.8250215 6447714
-1.1320785 -0.125002 1.8242073 6447714
-1.1322926 -0.074969813 1.8242514 6447714
-1.1322696 -0.024963731 1.8246645 6447714
-1.1323889 0.024967227 1.8248559 6447714
-1.1326457 0.07497634 1.8248359 6447714
-1.1294649 0.10361814 1.8248526 6513507
-1.0750397 0.10610271 1.829239 6513507
-1.0249215 0.10620959 1.8312769 6513507
-0.97470117 0.10631816 1.8329532 6776679
-0.92512673 0.10642386 1.8349715 9671571
-0.87399536 0.10657766 1.8258029 10197915
-0.82457441 0.10673628 1.8144343 10197915
-0.77461278 0.10684436 1.816081 10197915
-0.72492361 0.1069497 1.8182552 10197915
-0.67514157 0.10705813 1.8197149 10197915
-0.62525058 0.10716534 1.8215375 10197915
-0.57488918 0.10727286 1.8235568 10197915
-0.52479851 0.1073805 1.8253868 10197915
-0.4749884 0.10748825 1.8270266 10197915
-0.42507097 0.1075948 1.8290296 10197915
-0.37506029 0.10770302 1.8306766 10197915
-0.32494441 0.10780999 1.8326876 10197915
-0.27473193 0.10791861 1.8343416 10197915
-0.22379762 0.10807171 1.8252357 10132122
-0.17729661 0.10820133 1.8194721 10000536
-0.12488315 0.10833523 1.8160361 10000536
-0.074925974 0.10844341 1.8176603 10000536
-0.032408986 0.10853415 1.8193706 10000536
-1.1065887 -0.57203555 1.8601106 6447714
-1.0903866 -0.57225406 1.8850657 6447714
-1.1067078 -0.52498394 1.8602791 6447714
-1.0908172 -0.52502316 1.8847574 6447714
-1.1069962 -0.47450098 1.8602158 6447714
-1.0909052 -0.47509256 1.8849978 6447714
-1.106941 -0.42499629 1.8606728 6447714
-1.0906346 -0.42500401 1.8857907 6447714
-1.1070722 -0.37501603 1.8608446 6447714
-1.0907556 -0.37500775 1.8859786 6447714
-1.1071726 -0.32502455 1.8610673 6447714
-1.0908687 -0.325001 1.8861794 6447714
-1.1072935 -0.27502403 1.8612566 6447714
-1.0909686 -0.2750186 1.8864014 6447714
-1.1074183 -0.22496943 1.8614388 6447714
-1.0913875 -0.22522415 1.8861319 6447714
-1.1076123 -0.17475869 1.8615187 6447714
-1.0916383 -0.17495976 1.8861215 6447714
-1.1080325 -0.12499923 1.8612449 6447714
-1.0917517 -0.12507345 1.886322 6447714
-1.1077223 -0.074941792 1.8620995 6447714
-1.091423 -0.075056821 1.8872054 6447714
-1.1079116 -0.024922309 1.8621829 6447714
-1.0915377 -0.025021279 1.8874042 6447714
-1.1080227 0.02488691 1.8623874 6447714
-1.091653 0.025024801 1.8876028 6447714
-1.1080774 0.074928053 1.8626771 6447714
-1.0918797 0.074816279 1.8876276 6447714
-1.1081636 0.10313398 1.8625603 6513507
-1.0834543 0.10432693 1.8826346 6513507
-1.0250144 0.10600917 1.8815857 6513507
-0.97532445 0.10611567 1.8834758 6513507
-0.92515796 0.10622395 1.8851851 7368816
-0.87932611 0.10634545 1.8810775 9934743
-0.82491189 0.10654065 1.863409 10197915
-0.7747367 0.10664832 1.8652856 10197915
-0.72484767 0.10675455 1.8673519 10197915
-0.67485076 0.10686256 1.8690333 10197915
-0.62476254 0.10696923 1.8711073 10197915
-0.57494998 0.10707609 1.8729764 10197915
-0.52542329 0.10718312 1.8746395 10197915
-0.47503012 0.10729042 1.8767256 10197915
-0.42491794 0.10739794 1.8786062 10197915
-0.37509677 0.10750558 1.8802798 10197915
-0.32517105 0.10761188 1.8823485 10197915
-0.27514964 0.10771997 1.8840294 10197915
-0.22502598 0.10782667 1.8861064 10197915
-0.1728874 0.10802062 1.8674408 10066329
-0.12474894 0.10814308 1.8644099 10000536
-0.074995562 0.10824922 1.8664434 10000536
-0.032889497 0.10834067 1.8677248 10000536
-1.0655025 -0.57202917 1.9233967 6447714
-1.0493178 -0.57228154 1.9483252 6447714
-1.0659658 -0.52499521 1.9230374 6447714
-1.0494214 -0.52551758 1.9485172 6447714
-1.0659678 -0.47485909 1.9234099 6447714
-1.0494604 -0.47829005 1.9488119 6447714
-1.0657648 -0.42499986 1.9240987 6447714
-1.049201 -0.42565688 1.9496071 6447714
-1.0658791 -0.37501377 1.9242983 6447714
-1.0493115 -0.37561914 1.9498129 6447714
-1.0659882 -0.32499591 1.924503 6447714
-1.04939 -0.34010249 1.9499586 6447714
-1.0660939 -0.27498883 1.9247198 6447714
-1.0665195 -0.22487938 1.9244415 6447714
-1.0667669 -0.17500174 1.9244363 6447714
-1.0668753 -0.12495413 1.9246418 6447714
-1.0669301 -0.074937947 1.9249287 6447714
-1.0671341 -0.024977174 1.9249959 6447714
-1.0676652 0.024958132 1.9245515 6447714
-1.0678133 0.075059071 1.9247003 6447714
-1.0674322 0.10313857 1.9240507 6513507
-1.0251129 0.10579746 1.9347382 6513507
-0.97912818 0.10592433 1.9293718 6513507
-0.92508167 0.10606591 1.9249601 6513507
-0.87154382 0.10622124 1.9167868 9342606
-0.82487744 0.10633417 1.9153074 10197915
-0.77486694 0.10644128 1.9172293 10197915
-0.72515506 0.10654685 1.9193583 10197915
-0.67494452 0.10665434 1.9212948 10197915
-0.62502944 0.10676209 1.9230075 10197915
-0.5750131 0.10686833 1.925149 10197915
-0.52489609 0.10697644 1.9268688 10197915
-0.47467995 0.1070831 1.9290185 10197915
-0.42475608 0.10719 1.9309438 10197915
-0.37513533 0.10729708 1.9326444 10197915
-0.32501054 0.1074044 1.9345771 10197915
-0.27933928 0.10752329 1.9310333 10197915
-0.22490959 0.10767154 1.9251508 10197915
-0.17368852 0.10783184 1.9144059 10197915
-0.12499378 0.10793877 1.9156116 10066329
-0.075074114 0.10804408 1.917928 10000536
-0.032998085 0.10813631 1.9190129 10000536
-1.0323281 -0.57215273 1.9744949 6447714
-1.0324458 -0.52496427 1.9746715 6447714
-1.0325502 -0.47499701 1.9748832 6447714
-1.0326345 -0.42499667 1.9751312 6447714
-1.0331097 -0.37508303 1.9747738 6447714
-1.0335878 -0.32480392 1.9744133 6447714
-1.0338773 -0.274988 1.9743435 6447714
-1.0340012 -0.22500335 1.9745282 6447714
-1.0341072 -0.17505382 1.9747396 6447714
-1.0341792 -0.12507054 1.9750043 6447714
-1.050015 -0.057391088 1.9511199 6447714
-1.0341381 -0.075177252 1.9754401 6447714
-1.0500866 -0.025059361 1.9512527 6447714
-1.0344883 -0.025011096 1.9752793 6447714
-1.0506328 0.025451627 1.9507911 6447714
-1.034597 0.025014598 1.9754875 6447714
-1.0507499 0.075169474 1.950984 6447714
-1.0345923 0.075017668 1.9758714 6447714
-1.0508107 0.10265616 1.9510969 6513507
-1.0317912 0.10325088 1.9762352 6513507
-0.97166854 0.10579053 1.9672831 6513507
-0.92500639 0.1059019 1.9662052 6513507
-0.87497026 0.1060079 1.9684142 6974058
-0.82484066 0.10611589 1.9701788 9803157
-0.77460355 0.10622235 1.9723955 10197915
-0.7250762 0.10632908 1.9741285 10197915
-0.67544538 0.10643419 1.9763294 10197915
-0.62490904 0.10654309 1.9781096 10197915
-0.57467091 0.10665043 1.9800949 10197915
-0.52474868 0.10675617 1.9823078 10197915
-0.47512433 0.10686219 1.9842764 10197915
-0.42942017 0.10699325 1.9776983 10197915
-0.37536675 0.10713202 1.9739929 10197915
-0.32498935 0.10723969 1.9759773 10197915
-0.27103817 0.10739561 1.9679103 10197915
-0.22519821 0.10750919 1.9657966 10197915
-0.17527577 0.10761506 1.9679767 10197915
-0.12526716 0.10772292 1.9697044 10132122
-0.075147703 0.10782918 1.971893 10000536
-0.033112835 0.10792046 1.9731966 10066329
-1.0078306 -0.5723092 2.0122302 6447714
-0.99166834 -0.57225674 2.0371261 6447714
-1.0079688 -0.52499139 2.0123718 6447714
-0.9917565 -0.524997 2.0373449 6447714
-1.0080603 -0.47492149 2.0126066 6447714
-0.9918527 -0.47505015 2.03757 6447714
-1.0081652 -0.42493826 2.0128222 6447714
-0.99198645 -0.42509159 2.0377419 6447714
-1.0086627 -0.37479556 2.0124321 6447714
-0.99219042 -0.37531862 2.037801 6447714
-1.0088407 -0.32502729 2.0125306 6447714
-0.99264473 -0.32502952 2.0374792 6447714
-1.0089225 -0.27489877 2.0127838 6447714
-0.99271679 -0.27514294 2.0377433 6447714
-1.0085909 -0.22497995 2.013669 6447714
-0.99238908 -0.224997 2.0386233 6447714
-1.0087148 -0.17490076 2.0138543 6447714
-0.99249393 -0.17501485 2.0388379 6447714
-1.0088348 -0.12498679 2.0140438 6447714
-0.99261862 -0.12485637 2.0390234 6447714
-1.0088913 -0.075105764 2.0143313 6447714
-0.99264354 -0.075019702 2.0393593 6447714
-1.0094661 -0.025028635 2.0138226 6447714
-0.99296635 -0.025542377 2.0392342 6447714
-1.0095725 0.025032146 2.0140345 6447714
-0.99341559 0.025164537 2.0389225 6447714
-1.0096787 0.075103439 2.0142462 6447714
-0.99344265 0.075004429 2.0392559 6447714
-1.0098188 0.10318723 2.0126317 6513507
-0.98272693 0.10421795 2.0293994 6513507
-0.92462361 0.10567199 2.0242112 6513507
-0.87475914 0.10577732 2.0264928 6513507
-0.82480246 0.10588478 2.0282876 7368816
-0.77473807 0.10599055 2.0305779 10000536
-0.72498828 0.1060966 2.0326092 10197915
-0.67811877 0.10620943 2.0312872 10197915
-0.62481457 0.10636996 2.021682 10197915
-0.5751335 0.10647592 2.0236959 10197915
-0.52535331 0.1065821 2.0257144 10197915
-0.4754737 0.1066885 2.0277364 10197915
-0.42249611 0.10685207 2.0171719 10197915
-0.37519702 0.10696071 2.0171423 10197915
-0.32537946 0.10706701 2.0191474 10197915
-0.27505076 0.10717538 2.0209322 10197915
-0.22461823 0.10728205 2.0232024 10197915
-0.17492172 0.10738914 2.0249536 10197915
-0.125127 0.10749439 2.0272071 10197915
-0.075231567 0.10760187 2.0289652 10197915
-0.033653047 0.10768964 2.0308881 10197915
-0.9671663 -0.57244301 2.0748656 6447714
-0.96769297 -0.52504271 2.074409 6447714
-0.96779585 -0.47503212 2.0746279 6447714
-0.96788919 -0.42498502 2.0748591 6447714
-0.96813154 -0.37482378 2.0748639 6447714
-0.96860433 -0.32500127 2.0745106 6447714
-0.96870273 -0.27500051 2.0747342 6447714
-0.96880239 -0.22501278 2.0749567 6447714
-0.96941793 -0.17496848 2.0743845 6447714
-0.96953022 -0.12505546 2.0745869 6447714
-0.96964693 -0.074999519 2.0747814 6447714
-0.96980506 -0.024765182 2.0749164 6447714
-0.97024524 0.024925545 2.0746117 6447714
-0.97047538 0.074989699 2.0746329 6447714
-0.96940243 0.1031376 2.0741141 6513507
-0.92452914 0.10548943 2.0701487 6513507
-0.87480551 0.10559528 2.0722253 6513507
-0.82498145 0.10570131 2.0743062 6513507
-0.77505785 0.10580755 2.0763915 8355711
-0.72503304 0.10591402 2.0784805 10197915
-0.67097694 0.1060582 2.0734136 10197915
-0.62556148 0.1061883 2.0668998 10197915
-0.57518882 0.10629453 2.0692501 10197915
-0.5247137 0.10640304 2.0710797 10197915
-0.47498971 0.10650788 2.0734038 10197915
-0.4251622 0.10661503 2.0752058 10197915
-0.37524137 0.10672025 2.0775378 10197915
-0.3252131 0.10682781 2.0793481 10197915
-0.27509463 0.1069335 2.0816891 10197915
-0.22760041 0.1070418 2.0818577 10197915
-0.17496052 0.10720886 2.0702283 10197915
-0.12448295 0.10731641 2.0723054 10197915
-0.074761853 0.10742234 2.0743511 10197915
-0.033541419 0.10751018 2.0760467 10197915
-0.95092452 -0.55419844 2.1000204 6447714
-0.93469787 -0.5724951 2.1248777 6447714
-0.95092046 -0.52316052 2.1002595 6447714
-0.93487024 -0.52505171 2.1249664 6447714
-0.95056152 -0.47484508 2.1011748 6447714
-0.93449348 -0.47499987 2.1259274 6447714
-0.95067888 -0.42528117 2.1013677 6447714
-0.93458676 -0.4249928 2.1261561 6447714
-0.9507702 -0.37525788 2.101604 6447714
-0.93467265 -0.37500626 2.1264014 6447714
-0.95087129 -0.32479358 2.101826 6447714
-0.9347595 -0.32503995 2.1266437 6447714
-0.9509626 -0.27474782 2.102061 6447714
-0.93488371 -0.27503216 2.1268251 6447714
-0.95110708 -0.22472788 2.102216 6447714
-0.93515956 -0.22522657 2.1267757 6447714
-0.95168394 -0.17501207 2.1017001 6447714
-0.93558842 -0.17503075 2.1264935 6447714
-0.95178527 -0.12452418 2.101923 6447714
-0.93570554 -0.12498564 2.1266887 6447714
-0.95188469 -0.074896358 2.1021428 6447714
-0.93574184 -0.074897222 2.1270084 6447714
-0.95198429 -0.025258081 2.1023629 6447714
-0.93594462 -0.02492992 2.1270697 6447714
-0.95165813 0.026364101 2.1032531 6447714
-0.93562448 0.024765881 2.1279376 6447714
-0.95167118 0.074949019 2.1035974 6447714
-0.93553048 0.074884959 2.1284614 6447714
-0.95177788 0.10244703 2.1032832 6513507
-0.93059516 0.10357584 2.1233265 6513507
-0.87528092 0.10540394 2.1200185 6513507
-0.82473934 0.10551021 2.1224561 6513507
-0.77495402 0.1056171 2.1242964 6710886
-0.72507775 0.10572193 2.1267152 9276813
-0.67465836 0.10582905 2.1288695 10197915
-0.62457681 0.10593656 2.1307213 10197915
