# .PCD v0.7 - Point Cloud Data file format
VERSION 0.7
FIELDS x y z rgb
SIZE 4 4 4 4
TYPE F F F U
COUNT 1 1 1 1
WIDTH 1168
HEIGHT 1
VIEWPOINT 0 0 0 1 0 0 0
POINTS 1168
DATA ascii
-0.62502432 0.10907479 1.2245842 10132122
-0.57507271 0.10906913 1.2244742 10197915
-0.52512616 0.10906303 1.2244534 10197915
-0.47508335 0.10905782 1.2242569 10197915
-0.42494601 0.1090508 1.2244083 10197915
-0.37491426 0.10904561 1.2242101 10197915
-0.32498792 0.10903974 1.2241451 10197915
-0.27496782 0.10903317 1.2242107 10197915
-0.22495252 0.10902795 1.224013 10197915
-0.17504375 0.10902188 1.2239916 10197915
-0.12503895 0.10901666 1.2237948 10197915
-0.074938841 0.10900968 1.2239466 10197915
-0.024945179 0.10900448 1.2237487 10197915
0.024238244 0.10681295 1.217243 9342606
-1.011059 0.10881153 1.2849257 9934743
-0.97507739 0.10885606 1.275419 9934743
-0.92509103 0.10884956 1.2754755 9934743
-0.87497902 0.10884386 1.2753757 9934743
-0.82513672 0.10883784 1.2753358 9934743
-0.77529699 0.10883216 1.2752386 9934743
-0.72520012 0.10882612 1.2752006 9934743
-0.67511028 0.10882072 1.2750385 10000536
-0.62502354 0.10881436 1.275063 10132122
-0.57507569 0.10880914 1.2748697 10197915
-0.52513278 0.10880268 1.2749257 10197915
-0.47506332 0.10879695 1.2748264 10197915
-0.42499745 0.10879155 1.2746634 10197915
-0.37507308 0.10878503 1.2747195 10197915
-0.32501784 0.10877933 1.2746197 10197915
-0.27496967 0.10877331 1.274582 10197915
-0.22505981 0.10876812 1.2743887 10197915
-0.17502236 0.10876146 1.2744752 10197915
-0.1248588 0.10875586 1.2743448 10197915
-0.074963547 0.10875035 1.274213 10197915
-0.025075313 0.10874413 1.2742077 10197915
0.013197887 0.10873903 1.2742778 9803157
-1.0576669 0.10853568 1.3395138 9934743
-1.023695 0.10860493 1.32528 9934743
-0.9751187 0.10860598 1.3238986 9934743
-0.9250167 0.1085996 1.3239285 9934743
-0.87505925 0.10859342 1.3239264 9934743
-0.82510477 0.10858791 1.3237863 9934743
-0.77515495 0.10858206 1.3237146 9934743
-0.72493917 0.10857657 1.3235767 9934743
-0.67486304 0.10857017 1.3236066 10132122
-0.6250689 0.10856451 1.3235008 10197915
-0.57500541 0.10855851 1.3234638 10197915
-0.52508354 0.10855336 1.3232526 10197915
-0.47502995 0.10854734 1.3232198 10197915
-0.42498353 0.10854092 1.3232501 10197915
-0.37521517 0.10853532 1.3231447 10197915
-0.32517663 0.10852926 1.3231075 10197915
-0.27500957 0.10852407 1.3228995 10197915
-0.22498229 0.10851768 1.3229303 10197915
-0.1750991 0.10851153 1.3229281 10197915
-0.12522113 0.10850603 1.322788 10197915
-0.075073257 0.10850054 1.3226492 10197915
-0.024932625 0.10849431 1.3226448 9803157
0.013699692 0.10848904 1.3227277 6974058
-1.1055949 0.10824411 1.3972056 9934743
-1.0718393 0.10833191 1.3793666 9934743
-1.0249668 0.1083414 1.376393 9934743
-0.975021 0.10833599 1.3762431 9934743
-0.92493689 0.10832952 1.3762834 9934743
-0.87500089 0.10832331 1.3762888 9934743
-0.82492959 0.10831846 1.3760207 9934743
-0.7750026 0.10831221 1.3760221 9934743
-0.72508448 0.10830683 1.3758727 10066329
-0.6750257 0.10830037 1.3759128 10197915
-0.62511808 0.10829532 1.375685 10197915
-0.57507139 0.10828807 1.3758821 10197915
-0.52503085 0.10828368 1.3755368 10197915
-0.4751389 0.10827705 1.3756163 10197915
-0.4251076 0.10827181 1.3754281 10197915
-0.37522691 0.10826555 1.3754294 10197915
-0.32520595 0.10825951 1.3753967 10197915
-0.2749081 0.10825387 1.375281 10197915
-0.22490023 0.1082486 1.3750917 10197915
-0.1750394 0.10824198 1.3751715 10197915
-0.12490007 0.10823615 1.3750999 10197915
-0.074906379 0.10823055 1.374984 10197915
-0.025063897 0.10822508 1.3748349 7566195
0.014241162 0.10821933 1.3750081 6513507
-1.1185353 0.10808096 1.4291422 9934743
-1.0752218 0.10809314 1.4257382 9934743
-1.0251544 0.10808729 1.4256613 9934743
-0.97509491 0.10808087 1.4256983 9934743
-0.92504162 0.10807566 1.4255075 9934743
-0.87499046 0.10806981 1.4254304 9934743
-0.82475108 0.10806397 1.4253535 9934743
-0.77490771 0.10805818 1.4252743 10000536
-0.72526997 0.1080524 1.4252006 10132122
-0.67504352 0.10804653 1.4251237 10197915
-0.62482578 0.10804068 1.4250462 10197915
-0.57500494 0.10803431 1.4250844 10197915
-0.52518994 0.10802909 1.4248933 10197915
-0.47498819 0.10802325 1.4248163 10197915
-0.42478892 0.10801738 1.4247389 10197915
-0.374989 0.10801099 1.4247768 10197915
-0.32519969 0.10800639 1.4244702 10197915
-0.27521366 0.10799997 1.4245095 10197915
-0.22503598 0.10799413 1.4244326 10197915
-0.17486686 0.10798827 1.4243553 10197915
-0.12509531 0.1079819 1.4243933 10197915
-0.075130858 0.10797667 1.4242022 10197915
-0.024977887 0.10797083 1.4241248 6645093
0.014750422 0.10796561 1.4241784 6513507
-1.1627121 0.10783866 1.4771786 9934743
-1.1251801 0.10786536 1.4710957 9934743
-1.0751467 0.10785954 1.4710158 9934743
-1.0251249 0.10785504 1.4706843 9934743
-0.97510445 0.10784791 1.470858 9934743
-0.92509115 0.10784341 1.4705257 9934743
-0.87508386 0.10783631 1.4706991 9934743
-0.8252846 0.10783117 1.4704925 9934743
-0.77528542 0.10782534 1.4704163 10132122
-0.72529495 0.10781955 1.4703339 10197915
-0.67530674 0.10781372 1.4702578 10197915
-0.62512255 0.10780723 1.4703031 10197915
-0.57514751 0.10780276 1.4699709 10197915
-0.52517724 0.10779563 1.4701449 10197915
-0.47500741 0.10779111 1.4698137 10197915
-0.42484742 0.107784 1.4699852 10197915
-0.3746894 0.10777881 1.4697814 10197915
-0.32473865 0.10777301 1.4696993 10197915
-0.27479687 0.10776719 1.4696233 10197915
-0.22485697 0.1077614 1.4695412 10197915
-0.17492585 0.10775558 1.4694649 10197915
-0.12479574 0.10774914 1.4695104 10197915
-0.075075306 0.10774399 1.4693037 10197915
-0.025160262 0.10773818 1.4692274 6579300
0.015217632 0.10773285 1.4692883 6513507
-1.2089365 0.10756632 1.5310955 9934743
-1.1744648 0.10762064 1.5197326 9934743
-1.1250559 0.10761786 1.5190809 9934743
-1.0746516 0.10761201 1.518995 9934743
-1.0248796 0.10760625 1.5189134 9934743
-0.97511619 0.10760049 1.5188323 9934743
-0.92493612 0.10759395 1.5188898 9934743
-0.87497097 0.10758889 1.5186682 9934743
-0.82522374 0.10758311 1.5185869 10000536
-0.77526826 0.10757731 1.5185051 10197915
-0.72490215 0.10757145 1.5184259 10197915
-0.67474771 0.10756566 1.5183405 10197915
-0.62502193 0.10755991 1.5182592 10197915
-0.57487935 0.10755337 1.5183169 10197915
-0.52495223 0.10754829 1.5180954 10197915
-0.47524244 0.10754254 1.5180141 10197915
-0.42532474 0.10753674 1.5179324 10197915
-0.37499648 0.10753089 1.5178534 10197915
-0.32487985 0.1075251 1.5177679 10197915
-0.27519143 0.10751933 1.5176868 10197915
-0.22508638 0.10751281 1.5177444 10197915
-0.17498773 0.10750772 1.5175227 10197915
-0.12510368 0.10750264 1.5173038 10197915
-0.075018324 0.10749541 1.5174989 10066329
-0.02493554 0.10749033 1.5172771 6513507
0.015715413 0.10748488 1.5173503 6513507
-1.2570341 0.10727568 1.5885879 9934743
-1.2231736 0.10735372 1.572643 9934743
-1.1753068 0.10735871 1.5705248 9934743
-1.1251435 0.1073529 1.5704401 9934743
-1.0749891 0.1073471 1.5703554 9934743
-1.0250535 0.10734133 1.5702713 9934743
-0.97491014 0.10733555 1.5701863 9934743
-0.92498684 0.10732897 1.5702548 9934743
-0.87506855 0.10732398 1.5700175 9934743
-0.82494128 0.10731819 1.5699326 10132122
-0.7750327 0.10731243 1.5698479 10197915
-0.72491622 0.10730662 1.5697631 10197915
-0.67480135 0.10730082 1.5696784 10197915
-0.62491137 0.10729426 1.569746 10197915
-0.57502806 0.10728928 1.5695095 10197915
-0.52514637 0.10728351 1.5694253 10197915
-0.47505704 0.10727772 1.5693407 10197915
-0.42496952 0.10727194 1.5692559 10197915
-0.37489054 0.10726613 1.5691711 10197915
-0.32481354 0.10726035 1.5690863 10197915
-0.27474573 0.10725458 1.5690017 10197915
-0.22489695 0.10724801 1.5690707 10197915
-0.17505474 0.10724303 1.5688331 10197915
-0.12500307 0.10723724 1.5687482 10197915
-0.074953079 0.10723148 1.5686641 9934743
-0.024912205 0.10722569 1.5685787 6513507
0.016246861 0.10722011 1.5686623 6513507
-1.3043362 0.106991 1.6449218 9934743
-1.2712592 0.10706802 1.6291898 9934743
-1.2250303 0.10708184 1.6254002 9934743
-1.1751342 0.10707431 1.6256545 9934743
-1.1250123 0.10706941 1.625398 9934743
-1.0751256 0.10706366 1.6253064 9934743
-1.0252401 0.10705789 1.6252234 9934743
-0.97513789 0.10705125 1.6253045 9934743
-0.92504084 0.10704721 1.6248767 9934743
-0.87495023 0.1070397 1.625129 10132122
-0.82486397 0.10703479 1.624873 10197915
-0.77500528 0.10702905 1.6247807 10197915
-0.72515601 0.10702328 1.6246978 10197915
-0.6750831 0.10701662 1.624779 10197915
-0.62524551 0.10701264 1.62435 10197915
-0.57518345 0.107006 1.6244353 10197915
-0.52513123 0.10699935 1.6245162 10197915
-0.47485855 0.10699441 1.6242598 10197915
-0.42481336 0.10698866 1.6241676 10197915
-0.3750017 0.10698289 1.6240847 10197915
-0.32496625 0.10697625 1.6241658 10197915
-0.27516684 0.10697226 1.6237373 10197915
-0.22514223 0.10696561 1.6238226 10197915
-0.17490302 0.10695896 1.6239017 10197915
-0.12466892 0.10695402 1.6236465 10197915
-0.074885525 0.10694829 1.6235549 9868950
-0.025111446 0.10694253 1.6234723 6513507
0.016815508 0.10693681 1.6235672 6513507
-1.3170686 0.10682569 1.6772771 9934743
-1.2750791 0.10683587 1.6742969 9934743
-1.2250675 0.10682865 1.674486 9934743
-1.1750559 0.10682289 1.6743959 9934743
-1.1250505 0.10681713 1.6743058 9934743
-1.0750502 0.1068114 1.6742162 9934743
-1.025062 0.10680709 1.6738465 9934743
-0.97507393 0.10679987 1.6740355 9934743
-0.92508984 0.10679415 1.6739452 10066329
-0.87511116 0.10678838 1.6738549 10197915
-0.82479608 0.10678331 1.6736263 10197915
-0.77482671 0.10677758 1.6735325 10197915
-0.72521526 0.10677115 1.6735848 10197915
-0.67525792 0.1067654 1.6734948 10197915
-0.62496227 0.10676032 1.6732662 10197915
-0.57466996 0.1067538 1.6733131 10197915
-0.5250774 0.10674886 1.6730821 10197915
-0.47549105 0.10674243 1.6731343 10197915
-0.4252142 0.10673735 1.672906 10197915
-0.37494639 0.10673085 1.6729529 10197915
-0.32502684 0.1067251 1.672863 10197915
-0.27476922 0.10672001 1.6726348 10197915
-0.22451486 0.10671354 1.6726816 10197915
-0.17495988 0.10670854 1.6724505 10197915
-0.12541059 0.10670211 1.6725032 10197915
-0.075172082 0.10669707 1.6722749 9737364
-0.02494185 0.10669057 1.6723218 6513507
0.017319677 0.1066857 1.6722454 6513507
-1.3657919 0.10652489 1.7367613 9934743
-1.325129 0.10657305 1.7264365 9934743
-1.2752306 0.10656627 1.7265505 9934743
-1.2250972 0.10656261 1.7260498 9934743
-1.1749753 0.10655475 1.726364 9934743
-1.1250901 0.1065501 1.7260644 9934743
-1.0749775 0.10654432 1.7259767 9934743
-1.0248644 0.10653857 1.7258784 9934743
-0.9750008 0.10653179 1.7259918 9934743
-0.92490196 0.10652816 1.7254919 10132122
-0.87480968 0.1065203 1.7258058 10197915
-0.82495683 0.10651668 1.7253034 10197915
-0.7751174 0.10650887 1.72562 10197915
-0.72527736 0.10650422 1.7253209 10197915
-0.67520303 0.10649844 1.7252338 10197915
-0.62513858 0.10649271 1.7251352 10197915
-0.57531482 0.10648595 1.7252483 10197915
-0.52525848 0.1064823 1.7247487 10197915
-0.4752104 0.10647445 1.7250627 10197915
-0.42492467 0.10646971 1.7247683 10197915
-0.37488747 0.106464 1.7246699 10197915
-0.32508832 0.1064572 1.7247833 10197915
-0.27506351 0.10645357 1.7242835 10197915
-0.22503784 0.10644574 1.7245972 10197915
-0.17502022 0.10644209 1.7240974 10197915
-0.12500897 0.10643424 1.7244116 10197915
-0.074998498 0.10643061 1.7239114 9605778
-0.025001632 0.10642276 1.7242253 6513507
0.017857211 0.10641785 1.7241458 6513507
-1.4107661 0.10626837 1.7875748 9934743
-1.3748076 0.10629451 1.7816411 9934743
-1.3249166 0.10628793 1.7817153 9934743
-1.2746525 0.10628217 1.7816185 9934743
-1.2247664 0.10627732 1.7813529 9934743
-1.1748873 0.10627075 1.7814275 9934743
-1.12501 0.10626592 1.7811619 9934743
-1.0751432 0.10625932 1.7812359 9934743
-1.0249076 0.10625358 1.7811396 9934743
-0.97504961 0.10624874 1.7808739 10132122
-0.92519575 0.10624216 1.7809482 10197915
-0.87497628 0.10623641 1.780852 10197915
-0.82513756 0.10623158 1.780586 10197915
-0.77529669 0.10622502 1.7806606 10197915
-0.72509336 0.10621926 1.7805641 10197915
-0.67490357 0.10621524 1.780133 10197915
-0.62471247 0.10620777 1.7803715 10197915
-0.57452554 0.10620202 1.7802752 10197915
-0.52471483 0.10619719 1.7800101 10197915
-0.4749105 0.10619061 1.7800843 10197915
-0.42473969 0.10618486 1.7799878 10197915
-0.37494826 0.10618004 1.7797226 10197915
-0.32515678 0.10617348 1.779797 10197915
-0.27500224 0.10616774 1.7797005 10197915
-0.22523019 0.10616291 1.7794353 10197915
-0.1750849 0.10615714 1.7793438 10197915
-0.12458045 0.10615052 1.779412 10197915
-0.074816905 0.10614569 1.7791466 9474192
-0.025061961 0.10613912 1.7792205 6513507
0.018426761 0.10613415 1.7791373 6513507
-1.4573097 0.10600004 1.8407245 9934743
-1.4239105 0.10605513 1.8292344 9934743
-1.3748996 0.10605248 1.8285666 9934743
-1.3252119 0.10604776 1.8282843 9934743
-1.2755287 0.10604114 1.8283707 9934743
-1.2250913 0.10603629 1.8280928 9934743
-1.1746621 0.10602961 1.8281721 9934743
-1.1249925 0.10602488 1.8278899 9934743
-1.0753344 0.10601827 1.8279766 9934743
-1.0252963 0.10601256 1.827878 10000536
-0.97488815 0.10600772 1.8275999 10197915
-0.92448431 0.10600104 1.8276795 10197915
-0.8748433 0.10599633 1.8273969 10197915
-0.82520968 0.10598969 1.827484 10197915
-0.775199 0.10598399 1.8273858 10197915
-0.72481978 0.10597915 1.8271072 10197915
-0.6748184 0.10597348 1.8270035 10197915
-0.62520897 0.10596686 1.82709 10197915
-0.57522017 0.10596116 1.8269917 10197915
-0.52523631 0.10595546 1.8268933 10197915
-0.47488615 0.1059506 1.8266153 10197915
-0.42491165 0.10594493 1.8265113 10197915
-0.37532723 0.10593832 1.826598 10197915
-0.32536504 0.10593261 1.8264997 10197915
-0.27503356 0.10592777 1.8262218 10197915
-0.22470488 0.10592112 1.8263013 10197915
-0.1747589 0.1059154 1.826203 10197915
-0.12520394 0.1059107 1.8259212 10197915
-0.075267076 0.10590497 1.8258286 9342606
-0.024963133 0.1058983 1.8259081 6513507
0.018910274 0.10589327 1.8258215 6513507
-1.5016133 0.10574742 1.8907479 9934743
-1.4715521 0.10579821 1.8801847 9934743
-1.4252504 0.10580402 1.8779427 9934743
-1.3753839 0.10579833 1.8778421 9934743
-1.3251362 0.10579361 1.8775456 9934743
-1.2748932 0.10578688 1.8776387 9934743
-1.2250431 0.1057812 1.877538 9934743
-1.1748153 0.10577649 1.8772417 9934743
-1.1245848 0.10576977 1.8773347 9934743
-1.075145 0.10576517 1.8770341 9934743
-1.0253145 0.10575945 1.8769397 10132122
-0.97510916 0.10575273 1.8770325 10197915
-0.92529094 0.10574704 1.8769318 10197915
-0.87509042 0.10574234 1.8766356 10197915
-0.82489765 0.10573561 1.8767288 10197915
-0.7750957 0.10572993 1.8766282 10197915
-0.72491521 0.10572523 1.8763319 10197915
-0.67473495 0.1057185 1.876425 10197915
-0.62494916 0.10571284 1.8763243 10197915
-0.57478863 0.10570813 1.8760284 10197915
-0.52501184 0.10570247 1.8759216 10197915
-0.47524044 0.1056968 1.8758272 10197915
-0.4250972 0.10569007 1.8759201 10197915
-0.37533817 0.10568439 1.8758196 10197915
-0.32519454 0.10567968 1.8755239 10197915
-0.27506393 0.10567296 1.8756169 10197915
-0.22532091 0.1056673 1.8755162 10197915
-0.17519709 0.1056626 1.8752205 10197915
-0.12507911 0.10565589 1.8753135 10197915
-0.074964531 0.10565116 1.8750179 9211020
-0.024858978 0.10564446 1.8751109 6513507
0.019419838 0.1056394 1.8750213 6513507
-1.5188056 0.10552645 1.9340041 9934743
-1.4743855 0.10554131 1.9300516 9934743
-1.4247346 0.10553566 1.9299483 9934743
-1.3746988 0.10553107 1.9296319 9934743
-1.3246529 0.10552429 1.9297403 9934743
-1.2746261 0.1055197 1.9294245 9934743
-1.2245929 0.10551291 1.9295324 9934743
-1.1745749 0.10550833 1.9292161 9934743
-1.1245545 0.10550155 1.9293246 9934743
-1.0745459 0.10549697 1.9290086 10132122
-1.0245376 0.1054902 1.9291168 10197915
-0.97493452 0.10548455 1.9290136 10197915
-0.92494577 0.10547997 1.9286976 10197915
-0.87494975 0.10547319 1.9288058 10197915
-0.82497007 0.1054686 1.9284898 10197915
-0.7749868 0.10546181 1.928598 10197915
-0.72501606 0.10545723 1.9282821 10197915
-0.67504513 0.10545046 1.9283901 10197915
-0.62508351 0.10544587 1.9280746 10197915
-0.5751251 0.10543911 1.9281827 10197915
-0.52517259 0.10543452 1.9278669 10197915
-0.47522658 0.10542775 1.9279749 10197915
-0.42528298 0.10542315 1.9276593 10197915
-0.37534958 0.10541641 1.9277675 10197915
-0.3254151 0.10541184 1.927452 10197915
-0.27509049 0.10540392 1.927771 10197915
-0.22477713 0.10540039 1.9272428 10197915
-0.17485593 0.10539362 1.9273508 10197915
-0.12495234 0.10538904 1.9270353 10197915
-0.075043589 0.10538228 1.9271432 9079434
-0.02514904 0.10537769 1.9268279 6513507
0.019957621 0.10537148 1.9269457 6513507
-1.5668334 0.10524118 1.9904728 9934743
-1.5255084 0.10526358 1.985134 9934743
-1.475261 0.10525786 1.9850266 9934743
-1.4246123 0.10525332 1.9846866 9934743
-1.3747884 0.10524646 1.9848118 9934743
-1.3249725 0.10524203 1.9844738 9934743
-1.2751614 0.10523518 1.9845986 9934743
-1.2253541 0.10523074 1.9842607 9934743
-1.1747321 0.1052238 1.9843843 9934743
-1.1245229 0.10521809 1.9842771 10066329
-1.074736 0.10521366 1.9839392 10197915
-1.0249492 0.10520684 1.9840639 10197915
-0.97517103 0.10520236 1.983726 10197915
-0.92498153 0.10519668 1.9836191 10197915
-0.87480718 0.1051886 1.9839749 10197915
-0.82463408 0.10518532 1.9834044 10197915
-0.77487183 0.10517849 1.9835292 10197915
-0.72512275 0.10517403 1.9831917 10197915
-0.67496049 0.10516834 1.9830844 10197915
-0.62522358 0.10516153 1.9832096 10197915
-0.57507396 0.10515584 1.9831026 10197915
-0.5249294 0.10515013 1.9829952 10197915
-0.47520936 0.10514572 1.9826576 10197915
-0.42507392 0.10514002 1.9825506 10197915
-0.37536186 0.1051332 1.9826757 10197915
-0.32523903 0.10512752 1.9825683 10197915
-0.2747153 0.10512297 1.982229 10197915
-0.2250154 0.10511614 1.9823543 10197915
-0.175322 0.10511171 1.9820169 10197915
-0.12481327 0.10510481 1.9821399 10197915
-0.07471744 0.10509912 1.9820328 8947848
-0.025044313 0.10509468 1.9816954 6513507
0.020526052 0.10508833 1.9818292 6513507
-1.6068419 0.10504982 2.0285368 9934743
-1.5748527 0.1050462 2.0284672 9934743
-1.5251894 0.10504057 2.0283587 9934743
-1.4755312 0.10503496 2.0282502 9934743
-1.425037 0.10502924 2.0281398 9934743
-1.3745483 0.10502353 2.0280294 9934743
-1.3249065 0.10501792 2.0279207 9934743
-1.2752699 0.1050123 2.0278125 9934743
-1.2247971 0.10500659 2.0277019 9934743
-1.1751713 0.10500099 2.0275934 9934743
-1.1255506 0.10499537 2.0274856 10132122
-1.0750945 0.10498967 2.0273752 10197915
-1.0246437 0.10498396 2.0272651 10197915
-0.97503912 0.10497835 2.0271571 10197915
-0.92543983 0.10497273 2.0270486 10197915
-0.87500554 0.10496704 2.0269384 10197915
-0.82457656 0.10496133 2.0268281 10197915
-0.77499318 0.10495573 2.0267196 10197915
-0.72541541 0.10495011 2.0266118 10197915
-0.67500263 0.1049444 2.0265009 10197915
-0.6245954 0.10493872 2.0263915 10197915
-0.57503378 0.10493309 2.0262833 10197915
-0.52547711 0.1049275 2.026175 10197915
-0.47508612 0.10492179 2.0260649 10197915
-0.42470056 0.1049161 2.0259547 10197915
-0.37516019 0.10491051 2.0258462 10197915
-0.32562506 0.1049049 2.0257385 10197915
-0.27525571 0.1048992 2.0256286 10197915
-0.22489189 0.1048935 2.0255182 10197915
-0.17453353 0.10488783 2.0254083 10197915
-0.1250198 0.10488221 2.0253 10197915
-0.075511381 0.10487662 2.025192 8882055
-0.025169246 0.10487092 2.0250823 6513507
0.020972982 0.10486569 2.0249815 6513507
-1.6559583 0.10474174 2.0894501 9934743
-1.6221132 0.10480656 2.0760658 9934743
-1.5747664 0.10481215 2.0738423 9934743
-1.5252904 0.10480794 2.0734615 9934743
-1.4753797 0.10480226 2.0733595 9934743
-1.4250537 0.10479522 2.0735083 9934743
-1.3751563 0.10478963 2.0733974 9934743
-1.3248373 0.10478527 2.0730233 9934743
-1.2745235 0.10477826 2.0731716 9934743
-1.224642 0.10477262 2.0730615 9934743
-1.1752039 0.10476843 2.0726805 10066329
-1.1253312 0.10476276 2.072578 10197915
-1.0750425 0.10475574 2.0727267 10197915
-1.0251825 0.1047501 2.0726154 10197915
-0.97490209 0.10474579 2.0722418 10197915
-0.92462558 0.10473876 2.072391 10197915
-0.87478185 0.10473315 2.0722795 10197915
-0.82494527 0.10473026 2.0716367 10197915
-0.77512282 0.1047219 2.0720568 10197915
-0.72529501 0.10471627 2.0719459 10197915
-0.67504114 0.10471194 2.0715728 10197915
-0.62480319 0.10470494 2.0717211 10197915
-0.57499135 0.1046993 2.0716109 10197915
-0.52475822 0.104695 2.0712371 10197915
-0.47453174 0.10468796 2.0713866 10197915
-0.42473638 0.10468237 2.0712748 10197915
-0.37452385 0.10467803 2.0709016 10197915
-0.32473707 0.10467246 2.0707817 10197915
-0.27539465 0.1046655 2.0709407 10197915
-0.22518809 0.10466117 2.0705683 10197915
-0.17500001 0.10465417 2.0707176 10197915
-0.12523663 0.10464857 2.0706067 10197915
-0.075050674 0.10464423 2.0702326 8750469
-0.024874525 0.10463722 2.0703819 6513507
0.021442126 0.104632 2.0702784 6513507
-1.6688719 0.10457911 2.1212685 9934743
-1.6248542 0.10457417 2.1211679 9934743
-1.5746788 0.1045685 2.121053 9934743
-1.5253891 0.10456296 2.1209407 9934743
-1.4752246 0.1045573 2.1208258 9934743
-1.4250656 0.10455167 2.1207116 9934743
-1.374912 0.10454602 2.1205969 9934743
-1.3247639 0.10454036 2.1204824 9934743
-1.2755007 0.10453483 2.1203697 9934743
-1.2253633 0.10452917 2.1202552 9934743
-1.1752311 0.10452354 2.1201408 10197915
-1.1251045 0.10451787 2.1200264 10197915
-1.0749836 0.10451224 2.1199117 10197915
-1.0248675 0.10450659 2.1197975 10197915
-0.97475708 0.10450095 2.1196828 10197915
-0.92465204 0.10449533 2.1195688 10197915
-0.87455255 0.10448969 2.1194541 10197915
-0.82533705 0.10448413 2.1193421 10197915
-0.77524817 0.10447849 2.1192272 10197915
-0.72516477 0.10447286 2.119113 10197915
-0.6750868 0.10446724 2.1189983 10197915
-0.62501413 0.10446159 2.1188843 10197915
-0.57494676 0.10445594 2.1187696 10197915
-0.52488488 0.1044503 2.1186557 10197915
-0.47482845 0.10444467 2.1185412 10197915
-0.42477748 0.10443904 2.1184275 10197915
-0.37473184 0.10443339 2.1183126 10197915
-0.32469159 0.10442777 2.1181986 10197915
-0.27465677 0.10442214 2.1180842 10197915
-0.2246273 0.1044165 2.1179698 10197915
-0.1746033 0.10441088 2.1178558 10197915
-0.12458463 0.10440524 2.1177411 10197915
-0.074571379 0.10439961 2.1176274 8553090
-0.024563506 0.10439397 2.1175129 6513507
0.021930235 0.10438874 2.1174071 6513507
-1.716675 0.10428759 2.1789424 9934743
-1.6745875 0.10432354 2.1709564 9934743
-1.6250328 0.10431797 2.1708407 9934743
-1.5754849 0.1043124 2.1707244 9934743
-1.5254997 0.10430837 2.1703002 9934743
-1.47551 0.10430116 2.170491 9934743
-1.4255335 0.10429715 2.1700668 9934743
-1.3755571 0.10428996 2.1702571 9934743
-1.3251349 0.10428429 2.1701393 9934743
-1.275179 0.10428026 2.1697154 9934743
-1.225214 0.10427306 2.1699059 10132122
-1.1752667 0.10426904 2.1694822 10197915
-1.1253146 0.10426186 2.1696725 10197915
-1.0753759 0.10425781 2.1692483 10197915
-1.0254366 0.10425062 2.1694386 10197915
-0.97505289 0.10424495 2.1693211 10197915
-0.92513514 0.10424095 2.1688976 10197915
-0.87520713 0.10423374 2.1690879 10197915
-0.82529801 0.10422973 2.1686642 10197915
-0.775383 0.10422254 2.1688545 10197915
-0.72548252 0.10421853 2.1684308 10197915
-0.67558044 0.10421132 2.1686213 10197915
-0.62523431 0.10420568 2.1685035 10197915
-0.57535481 0.10420165 2.1680801 10197915
-0.52501732 0.10419594 2.1679728 10197915
-0.47468522 0.10419036 2.1678448 10197915
-0.42482367 0.10418317 2.168035 10197915
-0.37450466 0.10417752 2.1679177 10197915
-0.32463855 0.10417349 2.1674943 10197915
-0.27478823 0.10416631 2.1676846 10197915
-0.22493075 0.10416228 2.1672614 10197915
-0.17509334 0.10415513 2.1674514 10197915
-0.12480141 0.10414948 2.1673343 10197915
-0.074964941 0.10414546 2.1669104 8487297
-0.025138739 0.10413827 2.1671011 6513507
0.022443769 0.10413293 2.1669896 6513507
-1.7589903 0.10406591 2.2229395 9934743
-1.7248524 0.10406209 2.222858 9934743
-1.6750336 0.10405651 2.2227385 9934743
-1.6252204 0.10405091 2.2226193 9934743
-1.5754122 0.10404534 2.2225001 9934743
-1.5256096 0.10403976 2.2223806 9934743
-1.4758127 0.10403419 2.2222617 9934743
-1.4250985 0.10402851 2.2221406 9934743
-1.3743902 0.10402283 2.222019 9934743
-1.3246093 0.10401725 2.2218997 9934743
-1.2748334 0.10401165 2.2217808 10066329
-1.2250632 0.10400609 2.2216618 10197915
-1.1752982 0.10400052 2.2215428 10197915
-1.1255383 0.10399494 2.2214236 10197915
-1.0757841 0.10398936 2.2213044 10197915
-1.0251139 0.10398369 2.2211831 10197915
-0.97444892 0.10397802 2.2210622 10197915
-0.92471093 0.10397244 2.2209432 10197915
-0.87497801 0.10396688 2.220824 10197915
-0.82525069 0.10396129 2.2207048 10197915
-0.77552831 0.10395573 2.2205858 10197915
-0.72489089 0.10395006 2.2204647 10197915
-0.67425895 0.1039444 2.2203438 10197915
-0.62455291 0.10393882 2.2202246 10197915
-0.57485223 0.10393324 2.2201059 10197915
-0.52515692 0.10392768 2.2199869 10197915
-0.47546685 0.10392213 2.2198682 10197915
-0.42486221 0.10391646 2.2197468 10197915
-0.37426296 0.10391078 2.2196259 10197915
-0.32458904 0.10390522 2.2195067 10197915
-0.27492052 0.10389965 2.219388 10197915
-0.22525732 0.10389408 2.2192693 10197915
-0.17559944 0.10388853 2.2191505 10197915
-0.12502739 0.10388285 2.2190294 10197915
-0.074460857 0.1038772 2.2189085 8355711
-0.024819108 0.10387163 2.2187893 6513507
0.022979073 0.10386627 2.2186751 6513507
-1.813224 0.10369433 2.2962868 9934743
-1.7743038 0.10378405 2.2779551 9934743
-1.7251226 0.10378223 2.2771192 9934743
-1.6750331 0.10377301 2.2776978 9934743
-1.6249487 0.10377104 2.2768731 9934743
-1.5748596 0.10376545 2.2767503 9934743
-1.5252576 0.10375811 2.2769799 9934743
-1.4751817 0.1037525 2.2768569 9934743
-1.4246459 0.10374867 2.2763822 9934743
-1.3750539 0.10374132 2.2766113 9934743
-1.3254708 0.10373758 2.276139 10000536
-1.2749479 0.10373015 2.276366 10132122
-1.2248991 0.10372455 2.2762434 10197915
-1.1753372 0.10372082 2.2757711 10197915
-1.125297 0.10371522 2.2756486 10197915
-1.0748003 0.10370776 2.2758753 10197915
-1.0247731 0.10370217 2.2757523 10197915
-0.97522807 0.10369846 2.275281 10197915
-0.92474252 0.10369102 2.2755072 10197915
-0.87473148 0.10368542 2.2753847 10197915
-0.82520771 0.1036817 2.2749128 10197915
-0.77520484 0.1036761 2.2747898 10197915
-0.72474599 0.10366868 2.2750173 10197915
-0.67475647 0.10366308 2.2748945 10197915
-0.62524933 0.10365937 2.2744224 10197915
-0.57480139 0.1036519 2.2746494 10197915
-0.52435958 0.10364806 2.2741752 10197915
-0.47486764 0.10364074 2.2744045 10197915
-0.42537701 0.10363703 2.2739329 10197915
-0.37495568 0.10362958 2.2741597 10197915
-0.3250038 0.10362402 2.2740369 10197915
-0.27553436 0.10362026 2.2735653 10197915
-0.22512397 0.10361284 2.273792 10197915
-0.17472088 0.10360904 2.2733185 10197915
-0.12526569 0.10360169 2.2735474 10197915
-0.075340763 0.10359611 2.2734249 8224125
-0.024959153 0.10359228 2.2729511 6513507
0.023543611 0.10358507 2.2731824 6513507
-1.853336 0.10350049 2.3348353 9934743
-1.8242602 0.10349724 2.3347623 9934743
-1.7748355 0.10349175 2.3346379 9934743
-1.7254153 0.10348625 2.3345137 9934743
-1.6750324 0.10348061 2.3343868 9934743
-1.6246547 0.103475 2.3342605 9934743
-1.5742823 0.10346939 2.3341341 9934743
-1.524884 0.10346391 2.3340096 9934743
-1.4754912 0.1034584 2.3338857 9934743
-1.4251348 0.10345279 2.3337591 9934743
-1.374784 0.10344717 2.3336325 9934743
-1.3244389 0.10344155 2.3335061 10132122
-1.2750673 0.10343607 2.3333819 10197915
-1.2257006 0.10343056 2.3332582 10197915
-1.1753716 0.10342496 2.3331313 10197915
-1.1250482 0.10341935 2.3330047 10197915
-1.07473 0.10341375 2.3328784 10197915
-1.0244172 0.10340814 2.332752 10197915
-0.97507751 0.10340266 2.3326283 10197915
-0.92574281 0.10339715 2.332504 10197915
-0.87544638 0.10339156 2.3323774 10197915
-0.82515532 0.10338594 2.3322511 10197915
-0.7748698 0.10338033 2.3321245 10197915
-0.72458959 0.10337472 2.3319983 10197915
-0.6743148 0.10336915 2.3318722 10197915
-0.62501216 0.10336364 2.3317482 10197915
-0.57571477 0.10335814 2.3316243 10197915
-0.52545613 0.10335255 2.3314977 10197915
-0.47520301 0.10334696 2.3313718 10197915
-0.42495534 0.10334136 2.3312452 10197915
-0.37471306 0.10333575 2.3311193 10197915
-0.32447624 0.10333015 2.3309929 10197915
-0.27424484 0.10332456 2.3308666 10197915
-0.22498477 0.10331906 2.3307426 10197915
-0.1757299 0.1033136 2.3306193 10197915
-0.12551461 0.10330801 2.330493 10197915
-0.075304776 0.1033024 2.3303666 8092539
-0.025100382 0.1032968 2.3302405 6513507
0.024133272 0.10329132 2.3301165 6513507
-1.8691854 0.10329707 2.3746319 9934743
-1.8248277 0.10329214 2.3745186 9934743
-1.775547 0.10328665 2.3743925 9934743
-1.7252859 0.10328105 2.374264 9934743
-1.6750299 0.10327546 2.3741353 9934743
-1.6247796 0.10326988 2.3740067 9934743
-1.574535 0.10326433 2.3738787 9934743
-1.5252805 0.10325882 2.3737528 9934743
-1.4750464 0.10325324 2.3736246 9934743
-1.4248178 0.10324766 2.3734961 9934743
-1.3755791 0.1032422 2.3733699 10066329
-1.3253615 0.1032366 2.3732419 10197915
-1.275149 0.10323101 2.3731136 10197915
-1.224942 0.10322543 2.3729851 10197915
-1.1747406 0.10321984 2.3728566 10197915
-1.1255283 0.10321439 2.372731 10197915
-1.0753375 0.1032088 2.3726027 10197915
-1.0251522 0.10320322 2.3724744 10197915
-0.97497231 0.10319765 2.3723462 10197915
-0.92479759 0.10319206 2.3722177 10197915
-0.8746286 0.10318648 2.3720896 10197915
-0.8244648 0.10318089 2.3719611 10197915
-0.77529001 0.10317544 2.3718359 10197915
-0.725137 0.10316988 2.3717077 10197915
-0.67498946 0.1031643 2.3715796 10197915
-0.62484729 0.10315873 2.3714511 10197915
-0.57471049 0.10315313 2.3713231 10197915
-0.52457917 0.10314756 2.3711948 10197915
-0.47445342 0.103142 2.3710673 10197915
-0.42531562 0.10313652 2.3709412 10197915
-0.37520042 0.10313094 2.3708131 10197915
-0.32509077 0.10312539 2.3706851 10197915
-0.27498639 0.10311982 2.3705571 10197915
-0.22488746 0.10311425 2.3704288 10197915
-0.17479399 0.10310867 2.3703008 10197915
-0.12470588 0.1031031 2.3701727 10197915
-0.074623197 0.10309752 2.3700449 7960953
-0.024545919 0.10309196 2.3699169 6513507
0.024544189 0.1030865 2.369791 6513507
-1.9106575 0.10308942 2.4158752 9934743
-1.8745542 0.10308548 2.4157822 9934743
-1.8244145 0.1030799 2.4156525 8487297
-1.77428 0.10307436 2.4155219 9737364
-1.724151 0.10306879 2.4153914 9934743
-1.6750293 0.10306332 2.4152639 9934743
-1.6259134 0.1030579 2.4151359 9934743
-1.5758002 0.10305231 2.4150059 9934743
-1.5256926 0.10304676 2.4148757 9934743
-1.4755903 0.10304121 2.4147453 9934743
-1.4254934 0.10303564 2.4146149 9934743
-1.3754017 0.10303008 2.4144843 10132122
-1.3253158 0.10302452 2.4143548 10197915
-1.2752352 0.103019 2.4142241 10197915
-1.2251599 0.10301341 2.414094 10197915
-1.1750898 0.10300786 2.413964 10197915
-1.1250253 0.10300231 2.4138329 10197915
-1.0749663 0.10299674 2.4137037 10197915
-1.0249128 0.10299119 2.4135733 10197915
-0.97486442 0.10298566 2.4134436 10197915
-0.9248215 0.10298009 2.4133127 10197915
-0.87478399 0.10297453 2.4131832 10197915
-0.82475168 0.10296898 2.4130526 10197915
-0.7747252 0.10296346 2.4129231 10197915
-0.72470385 0.1029579 2.4127924 10197915
-0.67468786 0.10295233 2.412663 10197915
-0.62467736 0.1029468 2.4125323 10197915
-0.57467216 0.10294125 2.4124026 10197915
-0.52467245 0.10293568 2.412272 10197915
-0.47467813 0.10293016 2.4121428 10197915
-0.42468914 0.10292461 2.4120123 10197915
-0.37470549 0.10291904 2.4118826 10197915
-0.3247273 0.10291351 2.4117527 10197915
-0.27475449 0.10290796 2.4116223 10197915
-0.22478706 0.10290242 2.4114928 10197915
-0.17482501 0.10289687 2.4113629 10197915
-0.12486836 0.10289132 2.4112332 10197915
-0.074917056 0.10288579 2.4111032 7895160
-0.024971154 0.10288027 2.4109728 6513507
0.024969364 0.10287471 2.4108434 6513507
-1.8505594 -1.1043825 2.4774499 2039583
-1.8278345 -1.1071161 2.4904311 2039583
-1.8506384 -1.0746633 2.4775558 2039583
-1.8306442 -1.075173 2.4889855 2039583
-1.8507719 -1.0244427 2.477735 2039583
-1.8312554 -1.0249687 2.4888911 2039583
-1.8510531 -0.97531819 2.4781113 2039583
-1.8313991 -0.97499019 2.4890637 2039583
-1.8512417 -0.93845528 2.4783635 2039583
-1.8315448 -0.92504418 2.4892352 2039583
-1.8316042 -0.87505043 2.4894552 2039583
-1.8322942 -0.8252005 2.4893136 2039583
-1.8500309 -0.7622003 2.4794927 2039583
-1.8322828 -0.77522945 2.4895747 2039583
-1.8501291 -0.72525853 2.4796245 2039583
-1.8320656 -0.72497278 2.4899549 2039583
-1.8502628 -0.67497063 2.479804 2039583
-1.8321875 -0.67494792 2.49014 2039583
-1.8503966 -0.62467557 2.4799831 2039583
-1.8323227 -0.62500036 2.4903171 2039583
-1.8505274 -0.57539976 2.4801586 2039583
-1.8331761 -0.57505482 2.4900823 2039583
-1.8506616 -0.52509016 2.4803381 2039583
-1.8332936 -0.52503884 2.4902706 2039583
-1.8508658 -0.47479072 2.4806116 2039583
-1.8333774 -0.47505745 2.4904768 2039583
-1.8511559 -0.42964068 2.4810004 2039583
-1.8336058 -0.42493665 2.4906006 2039583
-1.833919 -0.37513897 2.4906757 2039583
-1.8345469 -0.32497299 2.4905708 2039583
-1.8347696 -0.27495021 2.4906981 2039583
-1.8500425 -0.21595815 2.482265 2039583
-1.8343859 -0.22534525 2.4911702 2039583
-1.8501519 -0.17483337 2.4824116 2039583
-1.8341125 -0.17527553 2.4915802 2039583
-1.850283 -0.12547748 2.4825881 2039583
-1.8347772 -0.12529033 2.4914551 2039583
-1.850417 -0.075086087 2.4827678 2039583
-1.8353289 -0.074632756 2.4913971 2039583
-1.850551 -0.024687437 2.4829473 2039583
-1.8353348 -0.024773944 2.4916472 2039583
-1.8506823 0.024689777 2.4831231 2039583
-1.8354651 0.024776282 2.4918253 2039583
-1.8510466 0.075112402 2.4836123 2039583
-1.8357223 0.074649379 2.4919312 2039583
-1.9525763 0.10287439 2.4585752 9934743
-1.9250184 0.10287132 2.4585023 9934743
-1.8740915 0.10282748 2.4593456 8026746
-1.8305043 0.10202419 2.4779277 2039583
-1.775009 0.10285479 2.4581068 4934475
-1.7250165 0.10284924 2.4579747 8684676
-1.675029 0.1028437 2.4578421 9934743
-1.6250472 0.1028382 2.45771 9934743
-1.5750705 0.10283263 2.4575779 9934743
-1.5250994 0.1028271 2.4574454 9934743
-1.4751337 0.10282158 2.4573133 9934743
-1.4251732 0.10281605 2.4571812 10000536
-1.375218 0.10281053 2.4570489 10197915
-1.3252686 0.10280499 2.4569168 10197915
-1.2753243 0.10279944 2.4567847 10197915
-1.2253853 0.10279393 2.4566524 10197915
-1.1754518 0.10278842 2.4565203 10197915
-1.1245047 0.10278275 2.4563856 10197915
-1.0745821 0.10277725 2.4562533 10197915
-1.0246648 0.10277172 2.456121 10197915
-0.97475284 0.10276618 2.4559891 10197915
-0.92536646 0.10264937 2.4774442 10197915
-0.87503004 0.10263914 2.4782093 10197915
-0.82469207 0.10263824 2.4771755 10197915
-0.77486491 0.10263041 2.4774926 10197915
-0.72505486 0.10262723 2.4769096 10197915
-0.67524123 0.10261939 2.477226 10197915
-0.62543893 0.10261619 2.4766436 10197915
-0.57511967 0.10261065 2.4765091 10197915
-0.52481991 0.10260044 2.4772739 10197915
-0.47452149 0.10259953 2.4762409 10197915
-0.42473105 0.10259169 2.4765575 10197915
-0.37495932 0.10258849 2.4759755 10197915
-0.32518253 0.10258067 2.4762914 10197915
-0.27541864 0.10257749 2.4757094 10197915
-0.22513738 0.10257193 2.4755752 10197915
-0.17487417 0.10256173 2.4763398 10197915
-0.12461498 0.10256083 2.4753067 10197915
-0.074861437 0.10255302 2.4756229 7697781
-0.025127938 0.10254981 2.4750414 6513507
0.025126129 0.10254427 2.4749067 6513507
0.050695486 0.10242558 2.4973006 6513507
-1.8053575 -1.1100866 2.5032678 2039583
-1.7731968 -1.1141171 2.5216362 2039583
-1.7364841 -1.1188142 2.5426075 2039583
-1.8058231 -1.0744666 2.5031822 2039583
-1.775252 -1.0749894 2.5206556 2039583
-1.7369634 -1.0750347 2.5425563 2039583
-1.8064542 -1.0251982 2.5030732 2039583
-1.7754389 -1.0249693 2.520813 2039583
-1.7370844 -1.0249815 2.5427408 2039583
-1.8064004 -0.97458678 2.50336 2039583
-1.7753507 -0.9750976 2.5211089 2039583
-1.7372581 -0.97498369 2.5428963 2039583
-1.8059953 -0.92494267 2.503845 2039583
-1.7749271 -0.92498332 2.5216098 2039583
-1.7378992 -0.92531478 2.5427811 2039583
-1.8060844 -0.87498403 2.5040481 2039583
-1.7750399 -0.8750276 2.5217974 2039583
-1.7382594 -0.87497395 2.5428309 2039583
-1.8067272 -0.82440972 2.5039384 2039583
-1.775136 -0.82506537 2.5220006 2039583
-1.7383429 -0.82492781 2.5430381 2039583
-1.8070884 -0.77501738 2.5039811 2039583
-1.7752954 -0.77503234 2.5221608 2039583
-1.7384362 -0.77493978 2.5432394 2039583
-1.8072249 -0.72506839 2.504159 2039583
-1.7753953 -0.72499162 2.5223589 2039583
-1.7386447 -0.72507578 2.5433743 2039583
-1.8073757 -0.67500871 2.5043266 2039583
-1.7748231 -0.67500257 2.5229409 2039583
-1.7387316 -0.67509401 2.5435791 2039583
-1.8075025 -0.62494159 2.5045099 2039583
-1.7749416 -0.62499982 2.5231302 2039583
-1.738852 -0.62500846 2.5437646 2039583
-1.8083678 -0.57486629 2.5042691 2039583
-1.7750747 -0.57498974 2.5233014 2039583
-1.7390192 -0.57491553 2.5439241 2039583
-1.8084747 -0.52500945 2.5044615 2039583
-1.7751899 -0.52497238 2.5234914 2039583
-1.7390751 -0.52496898 2.5441458 2039583
-1.8085769 -0.47514504 2.504657 2039583
-1.7752867 -0.47494683 2.5236921 2039583
-1.7393661 -0.47535408 2.5442321 2039583
-1.8087124 -0.42517972 2.5048339 2039583
-1.7754302 -0.42494583 2.5238633 2039583
-1.7401339 -0.42499459 2.5440485 2039583
-1.8085183 -0.37435248 2.5052032 2039583
-1.7749995 -0.37510732 2.5243669 2039583
-1.7403033 -0.37500003 2.5442069 2039583
-1.8089797 -0.32509023 2.5051906 2039583
-1.7749511 -0.32506356 2.5246508 2039583
-1.7403015 -0.32483104 2.5444629 2039583
-1.8091283 -0.27497369 2.5053606 2039583
-1.7750274 -0.27503636 2.524859 2039583
-1.7404358 -0.27490067 2.5446405 2039583
-1.8093196 -0.22469357 2.5055072 2039583
-1.7751626 -0.22497052 2.5250385 2039583
-1.7410762 -0.22569531 2.5445242 2039583
-1.8094115 -0.17448075 2.5057089 2039583
-1.7753317 -0.17502441 2.5251942 2039583
-1.7414883 -0.17499278 2.5445464 2039583
-1.8100156 -0.12416137 2.5056195 2039583
-1.7756176 -0.12526532 2.5252845 2039583
-1.7415855 -0.12448649 2.5447476 2039583
-1.8103769 -0.074740514 2.5056643 2039583
-1.7747891 -0.075347416 2.5260093 2039583
-1.7409822 -0.07486964 2.5453448 2039583
-1.8105069 -0.024915088 2.5058436 2039583
-1.7749164 -0.025117423 2.5261922 2039583
-1.7411062 -0.025309641 2.545526 2039583
-1.8106374 0.024917472 2.5060229 2039583
-1.7750454 0.025119824 2.526377 2039583
-1.7418206 0.024899088 2.5453734 2039583
-1.8107663 0.074757144 2.5062022 2039583
-1.775174 0.075364366 2.5265558 2039583
-1.7421154 0.074873537 2.545459 2039583
-2.01351 0.10241766 2.5485942 9934743
-1.9723904 0.10252034 2.5276935 9934743
-1.9244689 0.1025283 2.5249982 7697781
-1.8827538 0.10263911 2.502507 3355443
-1.8116907 0.10155212 2.5041289 2039583
-1.7750274 0.1019875 2.516541 2039583
-1.7283211 0.10209672 2.5287194 2434341
-1.6750282 0.10250081 2.524322 4408131
-1.6252609 0.1024928 2.5246727 7105644
-1.5749704 0.10248726 2.5245361 9013641
-1.5252209 0.10248429 2.5239143 9934743
-1.4754628 0.10247629 2.5242655 10000536
-1.4251887 0.10247073 2.5241289 10132122
-1.3749338 0.10247011 2.5230401 10197915
-1.3246753 0.10245967 2.5238557 10197915
-1.2744175 0.10245413 2.5237193 10197915
-1.2246908 0.10245112 2.5230975 10197915
-1.1749742 0.10244312 2.5234485 10197915
-1.1247324 0.10243758 2.5233123 10197915
-1.0750282 0.1024346 2.522691 10197915
-1.0253211 0.10242662 2.523042 10197915
-0.97509575 0.10242107 2.5229053 10197915
-0.92489833 0.10229771 2.5456097 10197915
-0.87528443 0.10229223 2.5454733 10197915
-0.82462054 0.10228667 2.5453348 10197915
-0.77501762 0.1022812 2.5451989 10197915
-0.72541982 0.10227574 2.5450628 10197915
-0.67477244 0.10227013 2.5449235 10197915
-0.62518537 0.10226469 2.5447879 10197915
-0.57560366 0.10225921 2.5446515 10197915
-0.5249725 0.10225364 2.544513 10197915
-0.47434697 0.10224807 2.544374 10197915
-0.42478138 0.1022426 2.5442376 10197915
-0.37522104 0.10223714 2.5441022 10197915
-0.32461175 0.10223155 2.5439632 10197915
-0.27506214 0.10222607 2.5438273 10197915
-0.22551793 0.10222063 2.5436914 10197915
-0.17492497 0.10221508 2.5435529 10197915
-0.12433753 0.10220949 2.5434139 10197915
-0.074809328 0.10220403 2.5432782 7500402
-0.025286473 0.10219855 2.5431426 6513507
0.025284633 0.10219298 2.5430038 6513507
0.051621806 0.10219011 2.5429318 6513507
-1.6625345 -1.1532301 2.584717 2039583
-1.6420833 -1.1558034 2.5963976 2039583
-1.7114251 -1.1219578 2.5569205 2039583
-1.6744682 -1.1248521 2.5780375 2039583
-1.6426089 -1.1253722 2.596252 2039583
-1.7118087 -1.074994 2.5569396 2039583
-1.6747762 -1.0749946 2.578115 2039583
-1.6434001 -1.0751127 2.5960555 2039583
-1.7119859 -1.0250832 2.5570915 2039583
-1.6749076 -1.0250026 2.5782938 2039583
-1.6435062 -1.0250416 2.5962496 2039583
-1.7120851 -0.97496331 2.5572903 2039583
-1.6749496 -0.97500211 2.5785251 2039583
-1.6436077 -0.9748286 2.5964475 2039583
-1.7127873 -0.92470425 2.5571437 2039583
-1.6751621 -0.92496234 2.5786572 2039583
-1.6437463 -0.92500943 2.5966208 2039583
-1.7130876 -0.87502426 2.557225 2039583
-1.6752211 -0.87498075 2.5788772 2039583
-1.6441424 -0.87588543 2.5966442 2039583
-1.7132305 -0.82497764 2.5573983 2039583
-1.6753652 -0.824992 2.5790491 2039583
-1.6447686 -0.82507473 2.5965452 2039583
-1.7133112 -0.77505141 2.557606 2039583
-1.6754644 -0.77499682 2.5792475 2039583
-1.644858 -0.77503198 2.5967481 2039583
-1.7135056 -0.72499192 2.5577483 2039583
-1.6756222 -0.72499543 2.5794115 2039583
-1.645015 -0.72498375 2.5969133 2039583
-1.714343 -0.67499191 2.5575259 2039583
-1.6757066 -0.67501706 2.579617 2039583
-1.6451727 -0.67492956 2.5970776 2039583
-1.7144587 -0.62500203 2.5577123 2039583
-1.6755481 -0.62485904 2.579963 2039583
-1.6453718 -0.627074 2.5972071 2039583
-1.7142689 -0.57468981 2.5580781 2039583
-1.6748662 -0.57516181 2.5806062 2039583
-1.6453201 -0.5752787 2.5975006 2039583
-1.7139431 -0.52495778 2.5585167 2039583
-1.6745297 -0.52502662 2.5810544 2039583
-1.6455204 -0.52475214 2.5976422 2039583
-1.7142835 -0.47476122 2.5585775 2039583
-1.6746163 -0.47503695 2.5812578 2039583
-1.6455985 -0.47463015 2.5978527 2039583
-1.7149498 -0.42503178 2.5584486 2039583
-1.6747345 -0.42497465 2.5814455 2039583
-1.6457158 -0.42515236 2.598037 2039583
-1.715139 -0.37502947 2.5585947 2039583
-1.6749775 -0.37493765 2.5815606 2039583
-1.6463044 -0.37692034 2.5979464 2039583
-1.7151173 -0.32507426 2.5588629 2039583
-1.6749628 -0.3249929 2.5818241 2039583
-1.6467434 -0.32504332 2.5979595 2039583
-1.7154834 -0.27511239 2.558907 2039583
-1.6751593 -0.27497533 2.581965 2039583
-1.6468632 -0.27447706 2.5981483 2039583
-1.715737 -0.2246953 2.5590177 2039583
-1.6751182 -0.22491756 2.5822434 2039583
-1.6469799 -0.22497952 2.5983326 2039583
-1.716457 -0.17517689 2.5588582 2039583
-1.675586 -0.17488641 2.5822299 2039583
-1.6470973 -0.17547487 2.5985179 2039583
-1.7164534 -0.12510459 2.5591145 2039583
-1.6753782 -0.1251128 2.582603 2039583
-1.6478385 -0.1260033 2.598345 2039583
-1.7165453 -0.075227834 2.5593164 2039583
-1.6756243 -0.074834332 2.5827174 2039583
-1.6481272 -0.074278496 2.5984435 2039583
-1.7167298 -0.025399569 2.559464 2039583
-1.6756837 -0.024611559 2.5829389 2039583
-1.6482444 -0.024761062 2.5986283 2039583
-1.7174673 0.025592593 2.5593004 2039583
-1.6758019 0.024613906 2.5831215 2039583
-1.6483619 0.024763405 2.5988135 2039583
-1.7170444 0.075400569 2.559797 2039583
-1.6746411 0.074677661 2.5840406 2039583
-1.647689 0.074307844 2.5994501 2039583
-2.0575385 0.10217781 2.5961549 9934743
-2.0252016 0.10217427 2.5960646 9934743
-1.9756224 0.10216881 2.595926 7763574
-1.9432906 0.10216524 2.5958354 2039583
-1.7170076 0.10075277 2.5599473 2039583
-1.6725382 0.10150152 2.5852191 2039583
-1.6262761 0.10197242 2.5953143 2039583
-1.574872 0.10212479 2.5948079 2631720
-1.5253409 0.10211935 2.5946693 5789784
-1.4758147 0.1021139 2.5945313 9211020
-1.4252176 0.10210835 2.5943902 10000536
-1.3746262 0.10210276 2.5942483 10000536
-1.325116 0.10209733 2.5941103 10132122
-1.2756116 0.10209189 2.5939715 10197915
-1.2250361 0.10208631 2.5938303 10197915
-1.1744661 0.10208076 2.593689 10197915
-1.1249776 0.10207533 2.5935512 10197915
-1.0754946 0.10206988 2.5934126 10197915
-1.024941 0.10206433 2.5932715 10197915
-0.97439283 0.10205876 2.5931306 10197915
-0.92492563 0.10205332 2.5929916 10197915
-0.87546355 0.1020479 2.5928535 10197915
-0.82493192 0.10204232 2.5927131 10197915
-0.77440566 0.10203677 2.5925715 10197915
-0.72495967 0.10203134 2.5924335 10197915
-0.67551911 0.10202591 2.5922949 10197915
-0.62500918 0.10202036 2.592154 10197915
-0.57450449 0.10201478 2.5920129 10197915
-0.52508003 0.10200936 2.5918748 10197915
-0.47566071 0.10200392 2.591737 10197915
-0.42517242 0.10199838 2.5915959 10197915
-0.37468961 0.10199284 2.5914545 10197915
-0.3252863 0.10198738 2.5913167 10197915
-0.27481446 0.10198183 2.5911753 10197915
-0.22434808 0.10197629 2.5910347 10197915
-0.17496073 0.10197087 2.5908968 10197915
-0.12557869 0.10196543 2.5907586 10197915
-0.075128563 0.10195986 2.5906177 7500402
-0.0246839 0.10195435 2.5904768 6513507
0.024682149 0.10194892 2.5903389 6513507
0.051509537 0.10194595 2.5902638 6513507
-1.6163174 -1.1590995 2.611115 2039583
-1.5731709 -1.1646347 2.6357582 2039583
-1.5488722 -1.167966 2.6496358 2039583
-1.6180294 -1.1248091 2.6103091 2039583
-1.5751479 -1.124994 2.6348298 2039583
-1.5489676 -1.1252241 2.6497986 2039583
-1.6187831 -1.0750009 2.6101334 2039583
-1.575304 -1.0750004 2.6349947 2039583
-1.5490553 -1.085766 2.6499491 2039583
-1.6189111 -1.0250031 2.6103122 2039583
-1.5753828 -1.0249975 2.6352034 2039583
-1.6189677 -0.97499883 2.6105332 2039583
-1.5754642 -0.97502482 2.6354115 2039583
-1.619157 -0.92493951 2.6106806 2039583
-1.5755897 -0.92504376 2.6355946 2039583
-1.6191145 -0.87442833 2.6109641 2039583
-1.5752896 -0.87523603 2.6360188 2039583
-1.6193501 -0.82497591 2.6110802 2039583
-1.5754143 -0.8252297 2.6362019 2039583
-1.6194777 -0.77501142 2.6112623 2039583
-1.5759667 -0.77503425 2.6361425 2039583
-1.6195585 -0.72499728 2.6114686 2039583
-1.5760304 -0.72503656 2.6363578 2039583
-1.6197354 -0.67497557 2.6116216 2039583
-1.5761487 -0.67499417 2.6365457 2039583
-1.6202644 -0.6247251 2.6115761 2039583
-1.5762949 -0.6249817 2.6367171 2039583
-1.6207385 -0.57492536 2.6115582 2039583
-1.5768921 -0.57527006 2.6366274 2039583
-1.620852 -0.52494311 2.6117463 2039583
-1.5772928 -0.52505821 2.6366549 2039583
-1.6209621 -0.47499609 2.6119363 2039583
-1.5774039 -0.4750011 2.6368463 2039583
-1.6211203 -0.42495942 2.6121018 2039583
-1.5775672 -0.42501506 2.6370063 2039583
-1.6217742 -0.3746509 2.6119852 2039583
-1.5776876 -0.37506101 2.6371922 2039583
-1.6220789 -0.32488132 2.6120634 2039583
-1.5782828 -0.32529914 2.6371045 2039583
-1.6221975 -0.2749618 2.612251 2039583
-1.5786492 -0.27503341 2.6371505 2039583
-1.6223369 -0.22495532 2.6124251 2039583
-1.5787733 -0.22499467 2.6373358 2039583
-1.6221277 -0.17464188 2.6127994 2039583
-1.5785506 -0.17530772 2.6377144 2039583
-1.6225799 -0.12457828 2.6127949 2039583
-1.5783945 -0.12535794 2.6380582 2039583
-1.6226662 -0.074694581 2.6130013 2039583
-1.578869 -0.075621665 2.6380391 2039583
-1.6227826 -0.024899764 2.6131878 2039583
-1.5792392 -0.025137017 2.6380849 2039583
-1.6228998 0.024902161 2.6133733 2039583
-1.5793533 0.025139421 2.6382754 2039583
-1.6230148 0.074711218 2.61356 2039583
-1.5794674 0.075423196 2.6384654 2039583
-2.1021428 0.10192871 2.6455209 9934743
-2.0746818 0.10192574 2.6454432 9934743
-2.025255 0.10192028 2.6453025 9803157
-1.9868153 0.10191607 2.6451929 2039583
-1.6230756 0.10070109 2.6136587 2039583
-1.5771239 0.10164642 2.6381946 2039583
-1.5257928 0.10186555 2.6438818 2039583
-1.4753277 0.10186005 2.6437385 3289650
-1.424868 0.10185451 2.6435947 6974058
-1.3744137 0.10184895 2.643451 9803157
-1.3250613 0.10184355 2.6433105 10000536
-1.2757144 0.10183812 2.6431699 10000536
-1.2252764 0.10183261 2.6430264 10000536
-1.1748438 0.10182709 2.6428828 10197915
-1.1244167 0.10182155 2.6427393 10197915
-1.0750911 0.10181613 2.6425989 10197915
-1.0257705 0.10181072 2.6424584 10197915
-0.97535974 0.1018052 2.6423147 10197915
-0.92495412 0.10179965 2.6421711 10197915
-0.8745541 0.10179414 2.6420279 10197915
-0.82415962 0.10178863 2.6418846 10197915
-0.77486587 0.10178319 2.6417444 10197915
-0.72557741 0.10177779 2.6416039 10197915
-0.67519909 0.10177226 2.6414602 10197915
-0.62482613 0.10176674 2.6413169 10197915
-0.57445872 0.10176121 2.6411734 10197915
-0.52409685 0.1017557 2.6410306 10197915
-0.47483492 0.10175028 2.6408901 10197915
-0.42557833 0.10174489 2.6407499 10197915
