# .PCD v0.7 - Point Cloud Data file format
VERSION 0.7
FIELDS x y z rgb
SIZE 4 4 4 4
TYPE F F F U
COUNT 1 1 1 1
WIDTH 1177
HEIGHT 1
VIEWPOINT 0 0 0 1 0 0 0
POINTS 1177
DATA ascii
-0.4755463 0.11221741 2.2203743 6447714
-0.4253819 0.11220947 2.2198863 6447714
-0.37523028 0.11220039 2.2200377 6447714
-0.32507879 0.11219246 2.2195494 6447714
-0.27494481 0.11218336 2.2197008 6447714
-0.22526972 0.11217492 2.2195339 6447714
-0.17514578 0.11216699 2.2190461 6447714
-0.12502964 0.11215791 2.2191973 6447714
-0.087784223 0.11215276 2.2184215 6447714
-1.8060466 0.11234687 2.2788281 10197915
-1.7748083 0.11234158 2.2787211 10197915
-1.7246432 0.11233307 2.2785482 10197915
-1.6744857 0.11232455 2.2783759 10197915
-1.6252818 0.11231621 2.2782066 10197915
-1.5751392 0.1123077 2.278034 10197915
-1.5250045 0.1122992 2.2778616 10197915
-1.4748777 0.1122907 2.2776892 10197915
-1.4247577 0.11228219 2.2775166 10197915
-1.3746457 0.11227371 2.2773442 10197915
-1.324541 0.11226521 2.2771719 10197915
-1.2753893 0.11225687 2.2770028 10197915
-1.2252998 0.11224837 2.2768304 10197915
-1.1752179 0.11223988 2.2766581 10197915
-1.1251434 0.1122314 2.2764862 10197915
-1.0750767 0.1122229 2.2763135 7039851
-1.0250176 0.11221441 2.2761414 6447714
-0.97496605 0.11220591 2.275969 6447714
-0.92492205 0.11219744 2.2757971 6447714
-0.87488556 0.11218894 2.275625 6447714
-0.82485664 0.11218046 2.2754529 6447714
-0.77483523 0.11217196 2.2752805 6447714
-0.72482145 0.11216348 2.2751086 6447714
-0.6748153 0.11215501 2.2749364 6447714
-0.62481683 0.11214653 2.2747648 6447714
-0.57482564 0.11213803 2.2745929 6447714
-0.52484208 0.11212956 2.2744207 6447714
-0.47486609 0.1121211 2.2742486 6447714
-0.42489764 0.11211262 2.2740767 6447714
-0.37493688 0.11210414 2.2739048 6447714
-0.3249836 0.11209566 2.2737329 6447714
-0.2750378 0.1120872 2.2735612 6447714
-0.22509962 0.11207873 2.2733896 6447714
-0.17516896 0.11207027 2.2732179 6447714
-0.12524587 0.1120618 2.273046 6447714
-0.088514544 0.11205557 2.2729197 6447714
-1.8214701 0.1122824 2.3164527 10197915
-1.775282 0.11227456 2.3162909 10197915
-1.7252519 0.1122661 2.3161161 10197915
-1.6752292 0.11225761 2.3159411 10197915
-1.6252143 0.11224914 2.3157663 10197915
-1.5752068 0.11224066 2.3155916 10197915
-1.5252068 0.11223217 2.3154166 10197915
-1.4752146 0.11222371 2.3152418 10197915
-1.4252299 0.11221523 2.3150671 10197915
-1.3752525 0.11220676 2.3148921 10197915
-1.3252828 0.1121983 2.3147175 10197915
-1.2753205 0.11218982 2.3145425 10197915
-1.2253659 0.11218136 2.314368 10197915
-1.1754187 0.11217289 2.3141935 10197915
-1.1254792 0.11216442 2.3140187 9539985
-1.0755472 0.11215595 2.3138442 6447714
-1.0256226 0.1121475 2.3136694 6447714
-0.9757058 0.11213903 2.3134949 6447714
-0.92579627 0.11213059 2.3133202 6447714
-0.87589443 0.11212213 2.3131461 6447714
-0.82504058 0.11211349 2.3129678 6447714
-0.77419472 0.11210489 2.3127902 6447714
-0.72431564 0.11209641 2.3126156 6447714
-0.67444414 0.11208797 2.3124413 6447714
-0.62458014 0.11207952 2.3122671 6447714
-0.57472366 0.11207107 2.3120928 6447714
-0.52487481 0.11206262 2.3119185 6447714
-0.47503334 0.11205418 2.3117442 6447714
-0.42519939 0.11204572 2.3115697 6447714
-0.3753731 0.11203726 2.3113956 6447714
-0.32220921 0.11199997 2.327059 6447714
-0.27513322 0.11198569 2.330415 6447714
-0.22492243 0.11197852 2.329493 6447714
-0.17471457 0.11196867 2.330061 6447714
-0.12450865 0.11196017 2.3298838 6447714
-0.089263894 0.11195584 2.3288376 6447714
-1.9026666 0.11215509 2.3957317 10197915
-1.8706063 0.11217292 2.382592 10197915
-1.8248601 0.11217847 2.3749793 10197915
-1.7750376 0.11216936 2.3751943 10197915
-1.7252132 0.11216161 2.3746221 10197915
-1.6754088 0.11215246 2.3748369 10197915
-1.625108 0.11214395 2.3746569 10197915
-1.574815 0.11213543 2.374476 10197915
-1.5250342 0.11212771 2.3739047 10197915
-1.4747539 0.11211918 2.373724 10197915
-1.4249843 0.11211007 2.3739388 10197915
-1.3752123 0.11210232 2.3733671 10197915
-1.3249612 0.11209243 2.3739738 10197915
-1.2747264 0.11208533 2.3730071 10197915
-1.2244841 0.1120768 2.3728263 10197915
-1.1747487 0.11206769 2.3730419 10197915
-1.1250175 0.11205997 2.3724699 7368816
-1.0753002 0.11205084 2.3726854 6447714
-1.0250905 0.11204235 2.3725045 6447714
-0.97440314 0.11203446 2.3719299 6447714
-0.92470282 0.11202535 2.3721447 6447714
-0.87501198 0.11201763 2.3715737 6447714
-0.8253293 0.1120085 2.3717883 6447714
-0.77515781 0.11200002 2.3716087 6447714
-0.72451097 0.11199213 2.3710339 6447714
-0.67484576 0.11198304 2.3712492 6447714
-0.62519491 0.1119753 2.3706779 6447714
-0.57505101 0.11196683 2.3704984 6447714
-0.52492636 0.11195694 2.3711045 6447714
-0.47480804 0.11194985 2.3701391 6447714
-0.42468691 0.11194137 2.3699591 6447714
-0.37507457 0.11193226 2.3701746 6447714
-0.32899138 0.11190552 2.3806138 6447714
-0.2742534 0.11187942 2.3898432 6447714
-0.22473244 0.11187103 2.3896639 6447714
-0.17521884 0.11186265 2.3894849 6447714
-0.12571265 0.11185428 2.3893058 6447714
-0.091062471 0.11184841 2.3891807 6447714
-1.9195607 0.11208373 2.4373467 10197915
-1.8750052 0.11207622 2.4371829 10197915
-1.8243811 0.11206764 2.4369967 10197915
-1.7747766 0.11205926 2.4368141 10197915
-1.7251798 0.11205088 2.4366314 10197915
-1.6745787 0.11204232 2.4364452 10197915
-1.6249968 0.11203393 2.4362628 10197915
-1.5754225 0.11202554 2.4360802 10197915
-1.5248441 0.11201698 2.4358947 10197915
-1.4742731 0.11200842 2.4357085 10197915
-1.4247216 0.11200005 2.4355259 10197915
-1.3751773 0.11199165 2.435344 10197915
-1.3246292 0.11198312 2.435158 10197915
-1.2750999 0.11197475 2.4349756 10197915
-1.225578 0.11196634 2.4347935 10197915
-1.1750528 0.11195781 2.4346077 8882055
-1.1245354 0.11194927 2.434422 6447714
-1.0750363 0.1119409 2.4342396 6447714
-1.0255439 0.11193249 2.4340577 6447714
-0.97504979 0.11192396 2.4338717 6447714
-0.92456293 0.11191542 2.433686 6447714
-0.87509328 0.11190704 2.4335039 6447714
-0.82563108 0.11189868 2.4333222 6447714
-0.77516717 0.11189014 2.4331367 6447714
-0.72471082 0.1118816 2.4329507 6447714
-0.67426246 0.11187308 2.4327652 6447714
-0.62483031 0.11186472 2.4325838 6447714
-0.57540554 0.11185636 2.4324012 6447714
-0.52497977 0.11184782 2.4322164 6447714
-0.47456166 0.11183929 2.4320307 6447714
-0.42515931 0.11183093 2.4318488 6447714
-0.37576446 0.11182257 2.4316669 6447714
-0.32536912 0.11181406 2.4314818 6447714
-0.27498147 0.11180551 2.4312959 6447714
-0.22460149 0.11179702 2.4311111 6447714
-0.1742292 0.11178847 2.4309254 6447714
-0.12487179 0.11178013 2.4307444 6447714
-0.091635004 0.11177451 2.4306219 6447714
-1.9617878 0.11201408 2.4805257 10197915
-1.9257156 0.11200798 2.4803908 10197915
-1.8752205 0.11199944 2.4802012 10197915
-1.8247328 0.1119909 2.4800124 10197915
-1.7752832 0.11198253 2.4798272 10197915
-1.7248111 0.11197401 2.4796379 10197915
-1.6743466 0.11196548 2.4794495 10197915
-1.6249191 0.11195713 2.479264 10197915
-1.5754995 0.11194878 2.4790795 10197915
-1.5250577 0.11194024 2.4788902 10197915
-1.4746237 0.11193171 2.4787018 10197915
-1.4252262 0.11192337 2.4785163 10197915
-1.3748072 0.11191484 2.478328 10197915
-1.3243961 0.11190631 2.4781387 10197915
-1.2750211 0.11189798 2.4779544 10197915
-1.2256535 0.11188963 2.4777696 10197915
-1.1752651 0.11188108 2.477581 7368816
-1.1248841 0.11187259 2.4773924 6447714
-1.0755391 0.11186424 2.4772072 6447714
-1.0251735 0.11185572 2.4770193 6447714
-0.97481555 0.11184721 2.4768302 6447714
-0.9254927 0.11183888 2.4766462 6447714
-0.87514985 0.11183036 2.4764569 6447714
-0.8248148 0.11182185 2.4762688 6447714
-0.77551419 0.11181352 2.4760847 6447714
-0.72519433 0.11180499 2.4758952 6447714
-0.67488194 0.1117965 2.4757078 6447714
-0.6256038 0.11178816 2.4755232 6447714
-0.57530671 0.11177967 2.4753344 6447714
-0.5250172 0.11177117 2.4751465 6447714
-0.47473529 0.11176266 2.4749582 6447714
-0.4244611 0.11175418 2.4747696 6447714
-0.37522027 0.11174584 2.4745858 6447714
-0.32496122 0.11173735 2.4743977 6447714
-0.27470979 0.11172884 2.4742088 6447714
-0.22549129 0.11172052 2.474025 6447714
-0.17525497 0.11171202 2.4738369 6447714
-0.12502629 0.11170357 2.4736485 6447714
-0.092227735 0.11169799 2.473526 6447714
-2.0044885 0.11194169 2.5252576 10197915
-1.9751085 0.11193674 2.525146 10197915
-1.9247471 0.11192822 2.5249541 10197915
-1.8743943 0.11191971 2.5247619 10197915
-1.8250974 0.11191139 2.5245745 10197915
-1.7758079 0.11190307 2.5243862 10197915
-1.7254772 0.11189457 2.5241947 10197915
-1.6751541 0.11188605 2.5240026 10197915
-1.6248389 0.11187756 2.5238106 10197915
-1.5745314 0.11186906 2.5236194 10197915
-1.5242311 0.11186055 2.5234277 10197915
-1.4749866 0.11185224 2.5232399 10197915
-1.4257489 0.11184394 2.5230522 10197915
-1.3754717 0.11183545 2.5228605 10197915
-1.3252019 0.11182693 2.5226691 10197915
-1.2749397 0.11181846 2.5224774 10197915
-1.2246851 0.11180994 2.5222857 9474192
-1.1744382 0.11180147 2.5220945 6447714
-1.1241989 0.11179298 2.5219028 6447714
-1.0750138 0.11178467 2.5217154 6447714
-1.0258358 0.11177636 2.521528 6447714
-0.97561878 0.11176788 2.5213363 6447714
-0.92540985 0.11175939 2.5211453 6447714
-0.87520838 0.11175092 2.5209539 6447714
-0.82501459 0.11174243 2.5207629 6447714
-0.77482826 0.11173395 2.5205715 6447714
-0.72464967 0.11172549 2.5203798 6447714
-0.67447871 0.11171701 2.5201886 6447714
-0.62431532 0.11170854 2.5199976 6447714
-0.57415944 0.11170006 2.5198066 6447714
-0.52505589 0.11169177 2.5196192 6447714
-0.47595975 0.11168345 2.5194323 6447714
-0.42582643 0.11167499 2.5192413 6447714
-0.37570083 0.11166652 2.5190504 6447714
-0.32558265 0.11165806 2.5188591 6447714
-0.27547219 0.1116496 2.5186684 6447714
-0.22536932 0.11164113 2.5184772 6447714
-0.17527401 0.11163267 2.5182865 6447714
-0.12518634 0.1116242 2.5180957 6447714
-0.092841782 0.11161873 2.5179725 6447714
-2.0231121 0.11186244 2.5715358 10197915
-1.9750262 0.11185422 2.571347 10197915
-1.9248124 0.11184574 2.571152 10197915
-1.8746061 0.11183728 2.5709572 10197915
-1.8244072 0.1118288 2.5707626 10197915
-1.7752838 0.11182051 2.5705717 10197915
-1.7251002 0.11181205 2.5703769 10197915
-1.6749239 0.11180355 2.5701826 10197915
-1.6247557 0.11179509 2.5699875 10197915
-1.5745946 0.11178663 2.569793 10197915
-1.5255084 0.11177832 2.5696025 10197915
-1.4753627 0.11176988 2.5694079 10197915
-1.4252243 0.11176141 2.5692132 10197915
-1.3750936 0.11175293 2.5690186 10197915
-1.3249706 0.11174448 2.5688241 10197915
-1.274855 0.11173602 2.56863 10197915
-1.2247473 0.11172756 2.5684354 7829367
-1.1746469 0.11171909 2.5682406 6447714
-1.1245542 0.11171065 2.5680466 6447714
-1.0755346 0.11170237 2.5678558 6447714
-1.0254568 0.11169393 2.5676615 6447714
-0.97538668 0.11168546 2.5674675 6447714
-0.9253242 0.11167701 2.5672731 6447714
-0.87526911 0.11166858 2.5670791 6447714
-0.82522172 0.1116601 2.566885 6447714
-0.77518171 0.11165167 2.5666902 6447714
-0.72514963 0.11164322 2.5664961 6447714
-0.67512488 0.11163476 2.5663021 6447714
-0.62510771 0.11162633 2.566108 6447714
-0.57509816 0.11161789 2.5659139 6447714
-0.52509618 0.11160943 2.5657198 6447714
-0.47510171 0.11160101 2.5655258 6447714
-0.42511484 0.11159256 2.5653317 6447714
-0.37513551 0.11158413 2.5651383 6447714
-0.32516375 0.11157569 2.564944 6447714
-0.27519953 0.11156725 2.56475 6447714
-0.22524296 0.11155882 2.5645568 6447714
-0.17529377 0.11155039 2.5643625 6447714
-0.12535225 0.11154196 2.5641685 6447714
-0.093478292 0.11153658 2.564045 6447714
-1.9663819 -1.163694 2.6315656 2565927
-1.9435214 -1.1670207 2.6461511 4934475
-1.9674404 -1.125002 2.6309571 2039583
-1.9436725 -1.125005 2.6461258 2039583
-1.9674206 -1.0750283 2.6310537 2039583
-1.9440619 -1.0757257 2.6459587 2039583
-1.9674988 -1.0250524 2.6310863 2039583
-1.9445037 -1.0251371 2.6457622 2039583
-1.9675713 -0.97502679 2.6311235 2039583
-1.9445239 -0.9751476 2.6458321 2039583
-1.9675682 -0.92495137 2.6312106 2039583
-1.9445747 -0.92501879 2.645884 2039583
-1.9676265 -0.87492198 2.6312547 2039583
-1.9446241 -0.87488812 2.6459358 2039583
-1.9676828 -0.82493746 2.6313035 2039583
-1.9446955 -0.82489276 2.6459742 2039583
-1.9677207 -0.77495134 2.6313641 2039583
-1.9447035 -0.77503294 2.6460524 2039583
-1.9677306 -0.72496194 2.6314399 2039583
-1.9447255 -0.72503245 2.6461217 2039583
-1.9672953 -0.67474508 2.6318021 2039583
-1.9443002 -0.67576993 2.6464753 2039583
-1.9670898 -0.62494099 2.6320162 2039583
-1.9440823 -0.62500173 2.6466994 2039583
-1.9671456 -0.57497638 2.6320655 2039583
-1.9441828 -0.57520604 2.6467185 2039583
-1.9671879 -0.5250107 2.6321311 2039583
-1.9441664 -0.52524382 2.6468122 2039583
-1.9672585 -0.475043 2.6321788 4281967
-1.9442106 -0.47481322 2.6468697 6651542
-1.9672843 -0.4250721 2.632246 5536163
-1.9442044 -0.42468837 2.6469569 7376815
-1.9671363 -0.37518853 2.6324217 5273763
-1.9442917 -0.37504119 2.6469839 6653097
-1.9665893 -0.32499444 2.632838 4682658
-1.9443812 -0.32539368 2.6470103 5930664
-1.9666436 -0.27501532 2.6328878 4223137
-1.9443748 -0.27526179 2.6470973 5076899
-1.9667103 -0.22508237 2.632926 3368089
-1.9449471 -0.22556911 2.6468155 3827609
-1.9668323 -0.17529187 2.6329346 3171994
-1.9452077 -0.17434509 2.6467359 3434136
-1.9667915 -0.12540063 2.6330438 2975128
-1.9452494 -0.12500478 2.6467922 3304091
-1.9668033 -0.07526996 2.6331196 2776979
-1.9452897 -0.075662367 2.646847 2711443
-1.9668455 -0.025090449 2.6331768 2250638
-1.9453326 -0.02522127 2.6469057 2184588
-1.9668896 0.025091177 2.6332314 2183817
-1.9453751 0.025222003 2.6469619 2382221
-1.9669321 0.075274982 2.6332901 9080726
-1.9454169 0.075667448 2.6470201 8883862
-2.06638 0.1117842 2.6196351 9934743
-2.025013 0.11177722 2.6194718 9868950
-1.9684694 0.10681365 2.6309819 9868950
-1.9369928 0.10871176 2.6349151 10000536
-1.875916 0.11175206 2.6188822 10197915
-1.8258696 0.11174363 2.6186841 10197915
-1.7758303 0.11173519 2.6184862 10197915
-1.7257986 0.11172675 2.6182885 10197915
-1.6757752 0.11171831 2.6180909 10197915
-1.6257584 0.11170986 2.6178932 10197915
-1.5757496 0.11170143 2.6176956 10197915
-1.5257484 0.11169299 2.6174977 10197915
-1.4757546 0.11168457 2.6172998 10197915
-1.4257683 0.11167614 2.6171024 10197915
-1.3757896 0.11166771 2.616905 10197915
-1.3258188 0.11165929 2.6167076 10197915
-1.2758551 0.11165084 2.6165099 9934743
-1.2258991 0.11164241 2.616312 6447714
-1.1759506 0.11163399 2.6161151 6447714
-1.1260097 0.11162554 2.6159177 6447714
-1.0749907 0.11161695 2.6157155 6447714
-1.0239798 0.11160835 2.615514 6447714
-0.97406179 0.11159993 2.6153169 6447714
-0.92415136 0.11159152 2.6151197 6447714
-0.87424827 0.1115831 2.6149218 6447714
-0.82435292 0.11157467 2.6147249 6447714
-0.77446514 0.11156626 2.6145279 6447714
-0.72458476 0.11155783 2.6143303 6447714
-0.67471194 0.11154943 2.6141334 6447714
-0.62484664 0.11154103 2.6139367 6447714
-0.57498884 0.11153261 2.6137388 6447714
-0.5251385 0.1115242 2.6135418 6447714
-0.47529584 0.11151579 2.6133454 6447714
-0.42546049 0.11150739 2.6131475 6447714
-0.37563282 0.11149897 2.6129508 6447714
-0.32581258 0.11149058 2.6127541 6447714
-0.2749171 0.11148199 2.6125526 6447714
-0.22402939 0.11147342 2.6123519 6447714
-0.17423202 0.11146498 2.6121547 6447714
-0.12444215 0.11145661 2.6119578 6447714
-0.094138652 0.11145149 2.6118381 6447714
-1.8684987 -1.2025409 2.6939695 11711154
-1.9180872 -1.1705753 2.6623776 7105644
-1.8797883 -1.1746644 2.6868086 9211020
-1.9189006 -1.1250043 2.6619329 2039583
-1.8800192 -1.1249623 2.686753 2039583
-1.9193071 -1.0747682 2.6617584 2039583
-1.880015 -1.0749793 2.6868281 2039583
-1.9193115 -1.0246905 2.6618395 2039583
-1.8796932 -1.0252833 2.6871285 2039583
-1.9190307 -0.97494715 2.6621008 2039583
-1.8793668 -0.97500885 2.6874123 2039583
-1.9190041 -0.92499804 2.662204 2039583
-1.8793707 -0.92501253 2.6874969 2039583
-1.9191321 -0.87504715 2.6622024 2039583
-1.8794843 -0.87497169 2.6875036 2039583
-1.9191277 -0.82505035 2.6622925 2039583
-1.8794788 -0.82497054 2.6875949 2039583
-1.9191911 -0.77501023 2.6623323 2039583
-1.8797239 -0.77518308 2.6875162 2039583
-1.9191926 -0.72501081 2.6624198 2039583
-1.8803067 -0.72492439 2.6872375 2039583
-1.9192734 -0.67500728 2.6624475 2039583
-1.8804122 -0.67497522 2.687247 2039583
-1.919314 -0.62504673 2.6625082 2039583
-1.8803864 -0.62497759 2.687345 2039583
-1.9193588 -0.57499659 2.6625609 2039583
-1.8804464 -0.57498109 2.6873956 2039583
-1.9194053 -0.52498823 2.6626148 2435114
-1.8805636 -0.5250234 2.6874003 3622487
-1.9193447 -0.47501981 2.6627362 8362928
-1.880443 -0.47502136 2.6875653 6193575
-1.9195249 -0.42504966 2.6627059 8034482
-1.8806443 -0.42492867 2.6875153 5667491
-1.9195026 -0.37499213 2.662802 7113901
-1.880592 -0.37500846 2.687638 5405091
-1.9195817 -0.32492983 2.6628389 6062505
-1.8806453 -0.32504556 2.6876807 4616607
-1.9195267 -0.27499849 2.6629567 5076898
-1.8806815 -0.27498862 2.6877489 3828379
-1.920161 -0.22483376 2.6626358 3827865
-1.8807896 -0.22510965 2.6877563 3302551
-1.9205965 -0.17502159 2.662442 3303065
-1.8806837 -0.17495877 2.6879144 2710161
-1.9203509 -0.12476941 2.6626806 3106713
-1.8809463 -0.12499128 2.6878259 2513552
-1.9205692 -0.075137183 2.6626253 2579858
-1.880674 -0.074871369 2.6880898 2382223
-1.9205198 -0.02537217 2.6627381 2053516
-1.8810278 -0.024774175 2.6879401 2184588
-1.9205619 0.025372889 2.6627991 2316685
-1.8810681 0.024774868 2.6880047 2118280
-1.9206926 0.075142242 2.6627941 8621206
-1.880991 0.074672945 2.6881306 8029844
-2.1112959 0.11170292 2.6695669 9934743
-2.0746849 0.11169676 2.6694195 9934743
-2.0347493 0.11169003 2.6692586 9934743
-1.9204601 0.10594079 2.6628656 9868950
-1.88071 0.10669223 2.6847448 9934743
-1.8251678 0.1116547 2.6684141 10197915
-1.7752869 0.11164629 2.6682131 10197915
-1.7254138 0.11163791 2.6680126 10197915
-1.6744398 0.1116293 2.6678069 10197915
-1.6245818 0.1116209 2.6676061 10197915
-1.5747309 0.11161251 2.6674054 10197915
-1.5248878 0.1116041 2.6672049 10197915
-1.4750524 0.11159569 2.6670041 10197915
-1.4252239 0.11158731 2.6668031 10197915
-1.3754035 0.11157888 2.6666021 10197915
-1.3244835 0.11157031 2.6663973 10197915
-1.2746778 0.11156192 2.6661966 8026746
-1.22488 0.11155353 2.6659958 6447714
-1.1750895 0.11154514 2.6657953 6447714
-1.1253065 0.11153674 2.6655948 6447714
-1.0744251 0.11152815 2.6653898 6447714
-1.0246571 0.11151976 2.6651895 6447714
-0.97489679 0.11151136 2.664989 6447714
-0.92514396 0.11150298 2.6647887 6447714
-0.87539858 0.11149462 2.6645882 6447714
-0.82455546 0.11148605 2.6643836 6447714
-0.77482516 0.11147767 2.6641831 6447714
-0.72510248 0.11146928 2.6639826 6447714
-0.67538714 0.11146089 2.6637824 6447714
-0.62567931 0.11145253 2.6635823 6447714
-0.57487452 0.11144395 2.6633773 6447714
-0.52518183 0.11143558 2.6631773 6447714
-0.47549662 0.1114272 2.6629772 6447714
-0.42471495 0.11141865 2.6627727 6447714
-0.37504473 0.11141028 2.6625729 6447714
-0.32538208 0.1114019 2.6623724 6447714
-0.27462351 0.11139335 2.662168 6447714
-0.22497588 0.11138497 2.661968 6447714
-0.17533578 0.11137662 2.6617682 6447714
-0.12460022 0.11136805 2.6615636 6447714
-0.094823971 0.11136303 2.6614435 6447714
-1.8542408 -1.2047317 2.7030649 11711154
-1.8220781 -1.2093214 2.7235823 11711154
-1.7899889 -1.2139015 2.7440524 11711154
-1.8543971 -1.1750652 2.7030146 10066329
-1.8251789 -1.1748568 2.721663 11053224
-1.7908984 -1.1755474 2.7435372 11711154
-1.8544837 -1.1250693 2.7030435 2039583
-1.8246342 -1.1250105 2.7220907 2039583
-1.7904156 -1.124994 2.7439299 2565927
-1.8544999 -1.0750735 2.7031164 2039583
-1.8247082 -1.0750265 2.7221255 2039583
-1.7904539 -1.0749993 2.743989 2039583
-1.8545164 -1.0250747 2.7031894 2039583
-1.8247206 -1.0250039 2.7222056 2039583
-1.7905189 -1.0248991 2.7440319 2039583
-1.8546035 -0.97507387 2.703218 2039583
-1.8248152 -0.97498012 2.7222269 2039583
-1.7905447 -0.97489905 2.7440996 2039583
-1.8546201 -0.925071 2.7032902 2039583
-1.8247923 -0.92499012 2.7223244 2039583
-1.79057 -0.92500126 2.7441657 2039583
-1.854637 -0.87506479 2.7033632 2039583
-1.8248466 -0.87499648 2.7223761 2039583
-1.7906083 -0.87499803 2.7442245 2039583
-1.8547517 -0.8248741 2.7033734 2039583
-1.8249093 -0.82503653 2.7224183 2039583
-1.7906797 -0.82488912 2.744262 2039583
-1.8550143 -0.77415419 2.7032905 2039583
-1.824957 -0.77507472 2.7224698 2039583
-1.7906858 -0.77477777 2.7443428 2039583
-1.8554975 -0.72516853 2.7030644 2039583
-1.8249524 -0.72507536 2.7225599 2039583
-1.7907242 -0.72476757 2.7444017 2039583
-1.8556284 -0.67495376 2.7030661 2039583
-1.8249935 -0.67507279 2.7226148 2039583
-1.7907822 -0.67485839 2.7444489 2039583
-1.8556676 -0.62505442 2.7031236 2039583
-1.8251002 -0.62503415 2.7226295 2039583
-1.7908013 -0.62494761 2.7445195 2039583
-1.855618 -0.5751459 2.7032387 2039583
-1.8250349 -0.57499367 2.7227573 2040099
-1.7908396 -0.57493126 2.7445791 2175296
-1.8557774 -0.52477056 2.7032218 3823220
-1.825137 -0.52502006 2.722775 3498638
-1.7909046 -0.52501619 2.7446215 2710415
-1.8557575 -0.47485971 2.7033176 4879520
-1.8251656 -0.47501081 2.7228379 3631256
-1.7909493 -0.47520262 2.7446764 3303062
-1.855747 -0.42526525 2.7034078 4221850
-1.8252088 -0.42496368 2.7228994 3499671
-1.7909548 -0.42528269 2.7447565 3237269
-1.8558874 -0.37488541 2.7034025 4354207
-1.8252008 -0.37501842 2.7229836 3499672
-1.790994 -0.37525746 2.7448146 2644623
-1.8558778 -0.32480705 2.7034924 3828123
-1.8252854 -0.32500133 2.723016 3368600
-1.791451 -0.32579276 2.7446058 2644879
-1.8558863 -0.27536735 2.7035692 3367830
-1.8253906 -0.27487856 2.7230315 2842002
-1.7918742 -0.27514911 2.7444201 2182791
-1.8559866 -0.22497876 2.7035899 2775439
-1.8252794 -0.22489165 2.7231879 2446732
-1.7919135 -0.22512686 2.7444799 2249610
-1.8559972 -0.17473501 2.7036662 2842259
-1.8253353 -0.17497306 2.7232327 2974356
-1.7919512 -0.17510237 2.7445385 2777233
-1.8560367 -0.12545341 2.7037241 2645907
-1.8255272 -0.12480901 2.7231953 2645906
-1.7919902 -0.12507585 2.7445979 2646160
-1.8560774 -0.075049594 2.7037826 2712212
-1.8255844 -0.074643679 2.7232428 2514320
-1.7920288 -0.075047113 2.7446561 2316426
-1.8561174 -0.024643632 2.7038407 2513550
-1.8254695 -0.024821864 2.7233984 2184330
-1.7920669 -0.025016172 2.7447164 1986950
-1.8561568 0.024644321 2.7038987 1920390
-1.8255086 0.024822582 2.7234559 1854083
-1.7921059 0.025016887 2.7447746 1721983
-1.8564205 0.075733908 2.7038147 7832210
-1.8257034 0.074648649 2.723418 7437712
-1.7921442 0.075052083 2.7448337 7109520
-2.1568265 0.1116183 2.7214341 9934743
-2.1240256 0.1116128 2.7212999 9934743
-2.0787876 0.11160517 2.7211139 9868950
-1.8569996 0.1064025 2.7034969 9934743
-1.8253328 0.10600755 2.7229865 9934743
-1.7871827 0.10752802 2.7372315 10000536
-1.7250136 0.11154559 2.719661 10197915
-1.6741825 0.11153703 2.7194524 10197915
-1.6244885 0.11152864 2.7192485 10197915
-1.574802 0.11152029 2.7190447 10197915
-1.5251229 0.11151192 2.7188406 10197915
-1.4754514 0.11150357 2.7186365 10197915
-1.4257874 0.11149519 2.7184324 10197915
-1.3750021 0.11148664 2.7182243 10197915
-1.3242248 0.1114781 2.7180157 9934743
-1.2745836 0.11146974 2.7178116 6447714
-1.2249495 0.11146135 2.7176077 6447714
-1.1753229 0.11145303 2.7174044 6447714
-1.1257038 0.11144466 2.7172003 6447714
-1.0749646 0.11143612 2.7169919 6447714
-1.0242335 0.11142758 2.7167838 6447714
-0.97463697 0.11141922 2.7165797 6447714
-0.92504793 0.11141086 2.7163763 6447714
-0.87546641 0.11140251 2.7161729 6447714
-0.82589239 0.11139416 2.7159688 6447714
-0.77519923 0.11138561 2.7157612 6447714
-0.72451389 0.11137707 2.715553 6447714
-0.67496234 0.11136873 2.7153494 6447714
-0.62541831 0.11136039 2.7151461 6447714
-0.57588166 0.11135206 2.7149427 6447714
-0.52522683 0.11134353 2.7147348 6447714
-0.47457978 0.11133499 2.7145264 6447714
-0.42506573 0.11132666 2.7143233 6447714
-0.37555903 0.1113183 2.7141199 6447714
-0.32493496 0.11130981 2.7139122 6447714
-0.27431858 0.11130126 2.7137043 6447714
-0.22483453 0.11129294 2.7135012 6447714
-0.17535786 0.11128459 2.7132978 6447714
-0.12476443 0.11127609 2.7130902 6447714
-0.095535837 0.11127114 2.71297 6447714
-1.7052088 -1.250796 2.7980964 11711154
-1.7647516 -1.2173595 2.7601542 11711154
-1.7257086 -1.2229929 2.7850599 11711154
-1.7661102 -1.1748598 2.7593577 11711154
-1.7268788 -1.1751059 2.7843943 11711154
-1.766233 -1.1250064 2.7593665 3355443
-1.7269086 -1.1250101 2.7844579 4671303
-1.7662724 -1.0750312 2.7594237 2039583
-1.7269377 -1.074993 2.7845225 2039583
-1.7660614 -1.0248907 2.7596374 2039583
-1.7267395 -1.0251614 2.7847328 2039583
-1.7655112 -0.97508967 2.7600753 2039583
-1.7262068 -0.9750157 2.7851562 2039583
-1.7655516 -0.92496908 2.7601318 2039583
-1.7261854 -0.92500705 2.7852542 2039583
-1.7655728 -0.87496048 2.7602034 2039583
-1.7262976 -0.87499595 2.7852664 2039583
-1.7656564 -0.825064 2.760231 2039583
-1.7263049 -0.82498395 2.7853448 2039583
-1.7656521 -0.77505106 2.760318 2039583
-1.7262806 -0.77500886 2.7854464 2039583
-1.765694 -0.72497809 2.7603755 2039583
-1.7263938 -0.72503489 2.7854552 2039583
-1.765726 -0.67496049 2.7604406 2039583
-1.7263796 -0.67501509 2.7855487 2039583
-1.7657996 -0.62494087 2.7604754 2039583
-1.7264966 -0.62503552 2.7855568 2039583
-1.7658548 -0.5749771 2.7605224 2178392
-1.726506 -0.57508636 2.7856348 1651274
-1.7658328 -0.52495259 2.7606215 2644877
-1.7273707 -0.52501041 2.7851675 1587546
-1.7658849 -0.47486842 2.760673 3171474
-1.7273017 -0.47501972 2.7852955 1785181
-1.7659584 -0.42483962 2.7607083 2842255
-1.727488 -0.42506984 2.785259 1785181
-1.7659959 -0.37492433 2.7607672 2644878
-1.7274528 -0.37498915 2.785367 1522011
-1.7664155 -0.32472536 2.7605848 2447243
-1.7274684 -0.32490394 2.7854383 1389912
-1.7667938 -0.27500701 2.7604277 2183046
-1.7274935 -0.2749936 2.7855067 1324119
-1.7668387 -0.22496495 2.7604799 2183815
-1.7275281 -0.22503291 2.7855692 1324119
-1.7669264 -0.17508562 2.7605095 2513804
-1.7277924 -0.17503266 2.7854831 1324375
-1.7671216 -0.12542854 2.7604675 2448267
-1.727502 -0.12476569 2.7857525 1258581
-1.7669849 -0.07548409 2.7606373 2249862
-1.7277409 -0.07514783 2.7856832 1192018
-1.7670225 -0.025161844 2.7606981 2052227
-1.727675 -0.025390703 2.785809 1389909
-1.7670612 0.025162557 2.7607577 1655161
-1.7277122 0.025391439 2.7858691 1125967
-1.7670988 0.075489163 2.7608173 6912398
-1.7278535 0.075152807 2.7858622 6385019
-2.2041614 0.11153034 2.7753572 9934743
-2.1753223 0.11152551 2.7752366 9868950
-2.1245708 0.11151696 2.7750242 9868950
-1.7671223 0.10637236 2.7608538 9934743
-1.7270926 0.10604684 2.7844014 10000536
-1.6750665 0.11144132 2.7731419 10197915
-1.6243917 0.11143279 2.7729297 10197915
-1.5748758 0.11142446 2.7727222 10197915
-1.5253674 0.11141613 2.7725153 10197915
-1.4747155 0.11140761 2.7723031 10197915
-1.4252219 0.11139926 2.7720962 10197915
-1.3757358 0.11139093 2.7718885 10197915
-1.3251066 0.11138242 2.7716765 8026746
-1.2744853 0.11137391 2.7714643 6447714
-1.2250218 0.11136558 2.7712569 6447714
-1.1755656 0.11135726 2.77105 6447714
-1.1249671 0.11134875 2.7708383 6447714
-1.0743761 0.11134023 2.7706263 6447714
-1.0249426 0.11133192 2.7704196 6447714
-0.97551632 0.1113236 2.7702124 6447714
-0.92494845 0.11131508 2.7700007 6447714
-0.87438798 0.11130658 2.769789 6447714
-0.82498431 0.11129826 2.7695825 6447714
-0.77558804 0.11128996 2.7693751 6447714
-0.72505063 0.11128146 2.7691638 6447714
-0.67452091 0.11127295 2.7689524 6447714
-0.62514699 0.11126462 2.7687457 6447714
-0.57578045 0.11125634 2.768539 6447714
-0.52527356 0.11124783 2.7683272 6447714
-0.47477439 0.11123934 2.7681158 6447714
-0.42428291 0.11123085 2.7679043 6447714
-0.37494639 0.11122254 2.7676978 6447714
-0.32561725 0.11121424 2.7674911 6447714
-0.27514857 0.11120574 2.7672796 6447714
-0.22468756 0.11119726 2.7670689 6447714
-0.17423427 0.11118877 2.7668576 6447714
-0.12493505 0.11118048 2.7666507 6447714
-0.097422123 0.11117584 2.7665355 6447714
-1.7010312 -1.251987 2.8007605 11711154
-1.6696502 -1.2560264 2.8207808 11711154
-1.6367501 -1.2608109 2.8417685 11711154
-1.7010506 -1.2253134 2.8007925 11711154
-1.6749232 -1.2249466 2.8174663 11711154
-1.6374024 -1.2251061 2.8414118 11711154
-1.7010683 -1.1748561 2.8008654 11711154
-1.6750551 -1.1749431 2.8174684 11711154
-1.6374373 -1.1750633 2.8414712 11711154
-1.7011435 -1.1250015 2.8009012 5526612
-1.6750335 -1.1250148 2.8175628 6381921
-1.637511 -1.1249405 2.8415115 7631988
-1.7011412 -1.0751109 2.8009858 2039583
-1.6751089 -1.0750475 2.8175998 2039583
-1.6375301 -1.0748925 2.8415828 2039583
-1.7012166 -1.0252528 2.8010218 2039583
-1.6751171 -1.0249957 2.8176775 2039583
-1.6375645 -1.0250772 2.8416443 2039583
-1.7012341 -0.97478622 2.8010943 2039583
-1.6751194 -0.97498363 2.8177617 2039583
-1.6376047 -0.9751032 2.8416984 2039583
-1.7012708 -0.92490649 2.8011551 2039583
-1.6751978 -0.92500675 2.8177938 2039583
-1.6376081 -0.92497277 2.8417833 2039583
-1.7013073 -0.87502456 2.8012149 2039583
-1.6752188 -0.87499076 2.8178649 2039583
-1.6376652 -0.87499541 2.8418298 2039583
-1.7013439 -0.82514 2.8012745 2039583
-1.6752954 -0.82493055 2.8178973 2039583
-1.6377162 -0.82501441 2.8418813 2039583
-1.7013801 -0.77525383 2.8013351 2039583
-1.6752601 -0.77494818 2.8180056 2039583
-1.6377949 -0.77495539 2.8419142 2039583
-1.7014167 -0.72536522 2.8013954 2039583
-1.675372 -0.7249648 2.8180156 2039583
-1.6377441 -0.7249698 2.8420303 2039583
-1.7014531 -0.67547458 2.8014555 2039583
-1.6753304 -0.67497909 2.8181281 2039583
-1.6377791 -0.6749838 2.8420935 2039583
-1.7014709 -0.62499088 2.8015285 2039583
-1.6754638 -0.62503195 2.8181241 2039583
-1.6378949 -0.62484062 2.8420994 2039583
-1.7016577 -0.57409751 2.8014946 1650241
-1.6753724 -0.57504022 2.8182685 2109248
-1.6378547 -0.57484913 2.8422117 2765888
-1.7023736 -0.52490735 2.80112 1454412
-1.6754943 -0.52500975 2.8182728 2045776
-1.6379224 -0.52501249 2.8422523 3294038
-1.7024623 -0.47503567 2.8011465 1652304
-1.6755233 -0.47501367 2.8183384 2177618
-1.6388212 -0.47512546 2.8417583 3031125
-1.7024728 -0.42474794 2.8012242 1586511
-1.6748656 -0.42486435 2.8188424 1980498
-1.6381942 -0.42545709 2.8422434 2834004
-1.7025094 -0.37485388 2.8012834 1388877
-1.6747174 -0.3749668 2.819021 1783120
-1.6379279 -0.3751047 2.8424971 2571604
-1.7025462 -0.32495773 2.8013446 1190730
-1.6748191 -0.32502952 2.8190382 1717584
-1.6380624 -0.32493025 2.842495 2308947
-1.7025827 -0.27505934 2.8014035 1191499
-1.6748784 -0.27504525 2.8190842 1454413
-1.6381973 -0.27475682 2.8424923 1848398
-1.7026193 -0.22515887 2.8014646 1191755
-1.6747035 -0.22502704 2.8192778 1388877
-1.6381208 -0.22493413 2.8426249 1651534
-1.7026557 -0.17525627 2.8015242 1191756
-1.6750042 -0.17488642 2.8191721 1389390
-1.6381558 -0.1754759 2.8426862 1652047
-1.702692 -0.1253515 2.8015842 1059400
-1.6749794 -0.12509605 2.8192706 1454925
-1.6380812 -0.12519111 2.8428183 1586510
-1.7027287 -0.075444624 2.8016446 927557
-1.6748058 -0.074867867 2.8194671 1322827
-1.6383386 -0.074569307 2.8427396 1257034
-1.7027652 -0.025535591 2.8017054 1125961
-1.6750513 -0.02464994 2.8193917 1257290
-1.6382616 -0.024733033 2.8428714 1125448
-1.7028027 0.025536338 2.8017664 1059141
-1.6750875 0.024650637 2.8194537 1125191
-1.6382967 0.024733726 2.8429317 1125448
-1.702839 0.07544969 2.8018262 6384246
-1.6749134 0.074872889 2.8196483 6318454
-1.6384436 0.074574269 2.842921 6450296
-2.2510562 0.11143842 2.8314505 9868950
-2.225163 0.11143409 2.8313398 9868950
-2.1757355 0.11142575 2.8311291 9868950
-2.146317 0.11142083 2.8310032 9868950
-1.7028613 0.10563084 2.8018632 10000536
-1.6753182 0.10622621 2.8193431 10000536
-1.6346748 0.10673166 2.8396213 10066329
-1.5749526 0.11132476 2.8285623 10197915
-1.5244471 0.11131627 2.8283465 10197915
-1.4751241 0.11130799 2.8281357 10197915
-1.4258078 0.11129969 2.827925 10197915
-1.3753251 0.11129119 2.8277092 9737364
-1.3248504 0.11128271 2.8274944 6447714
-1.2755566 0.1112744 2.8272836 6447714
-1.2250968 0.11126593 2.8270681 6447714
-1.1746447 0.11125746 2.8268521 6447714
-1.1253736 0.11124917 2.8266418 6447714
-1.0749367 0.11124069 2.8264265 6447714
-1.0245075 0.11123222 2.826211 6447714
-0.97525871 0.11122395 2.8260002 6447714
-0.92484474 0.11121547 2.8257854 6447714
-0.87443841 0.11120699 2.8255699 6447714
-0.82521176 0.11119872 2.8253598 6447714
-0.77482069 0.11119023 2.8251443 6447714
-0.7244373 0.11118177 2.8249295 6447714
-0.67523301 0.1111735 2.824719 6447714
-0.62486476 0.11116502 2.8245037 6447714
-0.57450414 0.11115657 2.8242888 6447714
-0.5253222 0.11114829 2.8240788 6447714
-0.47497681 0.11113982 2.823863 6447714
-0.42463911 0.11113136 2.8236482 6447714
-0.37547943 0.11112311 2.8234386 6447714
-0.3251569 0.11111464 2.8232234 6447714
-0.27484193 0.11110617 2.8230088 6447714
-0.22570449 0.1110979 2.8227985 6447714
-0.17540474 0.11108947 2.8225839 6447714
-0.12511259 0.11108102 2.8223691 6447714
-0.098214991 0.11107647 2.8222539 6447714
-1.6118504 -1.2642477 2.8576529 11711154
-1.5739903 -1.2697235 2.8818052 11711154
-1.547811 -1.273252 2.8985064 11711154
-1.6123149 -1.2250566 2.8574214 11711154
-1.5754249 -1.2249964 2.8809648 11711154
-1.5478735 -1.2248496 2.8985474 11711154
-1.6123236 -1.1751078 2.8575001 11711154
-1.5755118 -1.1749771 2.8809922 11711154
-1.5479356 -1.1752461 2.8985913 11711154
-1.6124084 -1.1249889 2.8575301 8487297
-1.5755343 -1.1250421 2.881062 9737364
-1.5479403 -1.1252294 2.8986716 10658466
-1.6124518 -1.0750378 2.8575866 2039583
-1.5756184 -1.0750633 2.881093 2039583
-1.5479738 -1.0748154 2.8987341 2039583
-1.6124632 -1.0249999 2.8576622 2039583
-1.5755595 -1.0249962 2.8812122 2039583
-1.5479783 -1.0247928 2.8988149 2039583
-1.612496 -0.97495842 2.8577247 2039583
-1.5756282 -0.97496921 2.8812544 2039583
-1.5484685 -0.97797096 2.898581 2039583
-1.6125108 -0.92499995 2.8577986 7434609
-1.5756545 -0.92498279 2.8813186 10066329
-1.5489687 -0.92577916 2.898349 9145227
-1.6125576 -0.8749541 2.8578525 7895160
-1.5757257 -0.8749944 2.8813589 11711154
-1.5490023 -0.87536657 2.898412 11711154
-1.612619 -0.82499182 2.8578973 7829367
-1.57573 -0.82500398 2.8814394 11711154
-1.5490358 -0.82495183 2.8984742 11711154
-1.6126438 -0.77502728 2.8579638 7895160
-1.5757815 -0.77501184 2.8814905 11711154
-1.5490694 -0.7745347 2.8985372 11711154
-1.6126909 -0.72497618 2.8580182 7895160
-1.5754291 -0.72486162 2.8817966 11711154
-1.5488204 -0.72828615 2.8987734 11711154
-1.6126932 -0.67500597 2.8581002 7895160
-1.5749605 -0.67505246 2.8821788 11711154
-1.5482404 -0.67502791 2.8992324 11711154
-1.6127331 -0.62511921 2.8581581 7895160
-1.5749521 -0.62499756 2.8822687 11711154
-1.548273 -0.6257953 2.8992937 11711154
-1.6127894 -0.57514489 2.8582053 5857896
-1.5750372 -0.5749411 2.8822985 7765381
-1.5483068 -0.57535982 2.8993573 7699847
-1.6128472 -0.52508479 2.8582525 4280412
-1.5750606 -0.52492267 2.8823681 3754329
-1.5483406 -0.52492207 2.8994198 2768210
-1.6137255 -0.47500011 2.8577754 3951450
-1.5751501 -0.47494486 2.8823929 3491415
-1.5483739 -0.47448227 2.8994827 2702675
-1.6137391 -0.425046 2.8578508 3556952
-1.5751554 -0.42496473 2.8824751 3228502
-1.5484076 -0.42404011 2.8995459 2571347
-1.613741 -0.37508994 2.8579338 3162967
-1.5751107 -0.37498185 2.8825853 2768724
-1.5484405 -0.37479693 2.8996072 2242897
-1.6137593 -0.32513097 2.8580055 2702676
-1.5751556 -0.32495502 2.882643 2374226
-1.5484731 -0.32555166 2.8996687 1914447
-1.6138151 -0.27509177 2.8580532 2111312
-1.5751987 -0.27496725 2.8826957 1979983
-1.5485067 -0.27510315 2.8997316 1783118
-1.6138778 -0.22497256 2.8580968 1782862
-1.5752661 -0.22501914 2.8827391 1651533
-1.5485406 -0.22465241 2.8997943 1585741
-1.6140211 -0.17461991 2.8580899 1783632
-1.5753944 -0.17519428 2.8827386 1388619
-1.548574 -0.17419946 2.8998573 1190728
-1.6138111 -0.12416585 2.8583093 1586511
-1.5751958 -0.12546319 2.8829501 1388876
-1.5486068 -0.12494572 2.899919 1191241
-1.6131099 -0.074616037 2.858839 1257290
-1.5744326 -0.075260207 2.8835208 1191241
-1.5486364 -0.080495395 2.8999743 1125192
-1.6131443 -0.024872482 2.8589008 1059656
-1.5744649 -0.025087228 2.8835833 1059656
-1.6131785 0.024873188 2.8589611 1191496
-1.5745014 0.025087949 2.883646 1125447
-1.613212 0.074620977 2.8590226 6516088
-1.5745339 0.075265221 2.883708 6713210
-2.2746575 0.11133847 2.8897479 9868950
-2.2254074 0.1113302 2.8895328 9868950
-2.1929781 0.11132476 2.8893917 9868950
-1.6132348 0.10541824 2.8590603 10000536
-1.574883 0.10620047 2.883141 10066329
-1.524688 0.11121251 2.8864779 10197915
-1.4743508 0.11120406 2.8862588 10197915
-1.4240215 0.1111956 2.8860393 10197915
-1.3748975 0.11118736 2.8858254 7631988
-1.3257813 0.11117909 2.8856108 6447714
-1.2754743 0.11117064 2.8853917 6447714
-1.2251753 0.1111622 2.8851726 6447714
-1.1748835 0.11115374 2.8849533 6447714
-1.1245996 0.11114532 2.8847342 6447714
-1.0743234 0.11113685 2.8845148 6447714
-1.0240546 0.11112842 2.8842959 6447714
-0.97499025 0.11112018 2.8840818 6447714
-0.925933 0.11111194 2.883868 6447714
-0.87568694 0.1111035 2.8836491 6447714
-0.82544863 0.11109506 2.8834298 6447714
-0.77521759 0.11108663 2.8832109 6447714
-0.72499436 0.11107817 2.8829918 6447714
-0.67477888 0.11106975 2.8827729 6447714
-0.62457097 0.11106131 2.8825543 6447714
-0.57437062 0.11105288 2.8823352 6447714
-0.52417785 0.11104445 2.8821163 6447714
-0.47399279 0.11103602 2.8818977 6447714
-0.42500997 0.11102779 2.8816841 6447714
-0.37603432 0.11101957 2.8814704 6447714
-0.32587177 0.11101114 2.8812518 6447714
-0.27571675 0.11100272 2.8810334 6447714
-0.22556938 0.11099429 2.8808148 6447714
-0.1754296 0.11098587 2.8805962 6447714
-0.12529744 0.11097746 2.8803775 6447714
-0.099040426 0.11097301 2.8802621 6447714
-1.5120704 -1.3034868 2.9212646 11711154
-1.4816227 -1.3078499 2.9406893 11711154
-1.522553 -1.2749014 2.9146233 11711154
-1.4833211 -1.2749615 2.9396594 11711154
-1.522704 -1.2249843 2.9146104 11711154
-1.483415 -1.2249894 2.9396834 11711154
-1.5226543 -1.1749231 2.9147263 11711154
-1.4834173 -1.1750798 2.9397647 11711154
-1.5226923 -1.1249064 2.9147844 11382189
-1.4834243 -1.1250356 2.9398446 11711154
-1.5227926 -1.0749866 2.9148061 2105376
-1.4835112 -1.0749866 2.9398739 3158064
-1.5227379 -1.0250636 2.9149206 2039583
-1.4837239 -1.025301 2.9398203 2039583
-1.5233831 -0.97478062 2.9145947 2039583
-1.4844933 -0.9750061 2.9394133 2039583
-1.5237275 -0.9249742 2.914458 8553090
-1.4844619 -0.92502332 2.9395161 7434609
-1.5238075 -0.87497765 2.9144938 11711154
-1.4845409 -0.87504357 2.9395492 11711154
-1.5238239 -0.82502639 2.9145629 11711154
-1.4846255 -0.82498437 2.9395795 11711154
-1.5238583 -0.77502525 2.914624 11711154
-1.4845104 -0.7750001 2.9397361 11711154
-1.5239251 -0.72497666 2.9146674 11711154
-1.4846737 -0.7250098 2.9397154 11711154
-1.5239246 -0.67497224 2.9147489 11711154
-1.4846269 -0.6749469 2.9398296 11711154
-1.5238981 -0.62491751 2.9148505 11711154
-1.484722 -0.62509853 2.9398513 11711154
-1.5240363 -0.57495636 2.9148488 7831690
-1.4846858 -0.57510066 2.9399602 8292240
-1.5239604 -0.52499211 2.9149818 2177104
-1.4847751 -0.52503341 2.9399843 1454154
-1.5241121 -0.47497764 2.9149654 1979726
-1.4847646 -0.4750331 2.9400764 1717325
-1.5241206 -0.42496356 2.9150436 1980239
-1.4848182 -0.4250308 2.940125 1651532
-1.5240387 -0.37494344 2.9151776 1914447
-1.4847918 -0.375027 2.9402254 1388106
-1.5242084 -0.32506597 2.9151559 1717326
-1.4849926 -0.32487854 2.9401808 1388362
-1.5240843 -0.27508944 2.915318 1453899
-1.48476 -0.27493834 2.940414 1124678
-1.5243154 -0.22506496 2.9152517 1322313
-1.4850982 -0.22493535 2.9402819 1125191
-1.5243582 -0.17494871 2.9153106 1454411
-1.4847809 -0.17498215 2.9405675 1388874
-1.52402 -0.12472633 2.915611 1323339
-1.4851624 -0.12505463 2.9404082 1323081
-1.5246869 -0.075069383 2.9152694 1323082
-1.4854145 -0.075492226 2.9403293 1191239
-1.5252113 -0.025360685 2.9150164 1125447
-1.4861289 -0.025208894 2.9399574 993605
-1.5252453 0.025361424 2.9150779 927300
-1.4861611 0.025209622 2.9400213 861249
-1.5255085 0.075197473 2.9149938 6712697
-1.4858836 0.075129315 2.9402814 6778745
-1.5243092 0.10535786 2.9158106 10066329
-1.4836795 0.10643852 2.9407775 10066329
-1.4246067 0.11108755 2.9466031 9211020
-1.3744519 0.11107913 2.9463797 6447714
-1.3255281 0.11107093 2.9461617 6447714
-1.2753885 0.11106251 2.9459388 6447714
-1.2252566 0.1110541 2.9457159 6447714
-1.1751323 0.11104571 2.9454925 6447714
-1.1250154 0.11103729 2.9452693 6447714
-1.0749062 0.11102887 2.9450464 6447714
-1.0248046 0.11102046 2.9448237 6447714
-0.97471064 0.11101206 2.9446003 6447714
-0.92462426 0.11100365 2.9443774 6447714
-0.87454534 0.11099526 2.9441543 6447714
-0.82447416 0.11098685 2.9439321 6447714
-0.77563131 0.11097865 2.9437144 6447714
-0.72557509 0.11097027 2.9434915 6447714
-0.67552632 0.11096187 2.9432688 6447714
-0.62548512 0.11095346 2.9430461 6447714
-0.57545167 0.11094507 2.9428234 6447714
-0.52542567 0.11093666 2.9426007 6447714
-0.47540718 0.11092826 2.9423783 6447714
-0.42539641 0.11091989 2.9421554 6447714
-0.37539303 0.11091147 2.9419332 6447714
-0.32539737 0.11090311 2.9417102 6447714
-0.27540916 0.1108947 2.941488 6447714
-0.22542861 0.11088632 2.9412656 6447714
-0.17545551 0.11087795 2.9410434 6447714
-0.12549005 0.11086956 2.9408207 6447714
-1.4580238 -1.3111451 2.9557428 11711154
-1.4236946 -1.316137 2.977643 8750469
-1.3949909 -1.3201931 2.9959548 6447714
-1.458369 -1.2749455 2.9555824 11711154
-1.4254968 -1.2749799 2.9765615 9013641
-1.3950888 -1.2749103 2.9959669 6447714
-1.4583296 -1.225039 2.9556918 11711154
-1.4255358 -1.2249222 2.9766212 9013641
-1.3951348 -1.2248745 2.996022 6447714
-1.4584417 -1.1749985 2.9557045 11711154
-1.425611 -1.1749085 2.9766557 9013641
-1.3951565 -1.1750448 2.9960916 6447714
-1.4584022 -1.1250862 2.955812 11711154
-1.4256122 -1.1249882 2.9767418 8947848
-1.3952094 -1.1252111 2.99614 6447714
-1.4585046 -1.0750419 2.9558306 4013373
-1.42522 -1.0748153 2.977071 5592405
-1.3948736 -1.0763702 2.9964364 6447714
-1.4587913 -1.0244219 2.9557328 2039583
-1.424788 -1.0250175 2.9774337 4342338
-1.3942519 -1.025293 2.9969192 6447714
-1.4594512 -0.97497308 2.955394 2039583
-1.424711 -0.97501284 2.9775629 4342338
-1.3943002 -0.97515464 2.9969718 6447714
-1.4594876 -0.9249199 2.9554529 6776679
-1.4247568 -0.92500454 2.9776201 6316128
-1.3943498 -0.92501426 2.997025 6447714
-1.459519 -0.87497795 2.9555185 11711154
-1.4248899 -0.87499559 2.9776151 8882055
-1.3943988 -0.87487304 2.9970748 6447714
-1.4595551 -0.82492089 2.9555788 11711154
-1.4248222 -0.82507366 2.9777474 8816262
-1.3944478 -0.82472968 2.9971294 6447714
-1.4595958 -0.77497697 2.9556353 11711154
-1.4248602 -0.77501404 2.9778006 8882055
-1.3944398 -0.77482778 2.9972172 6447714
-1.4596359 -0.72503358 2.9556947 11711154
-1.4248939 -0.72495311 2.9778695 8882055
-1.3944696 -0.72517478 2.9972818 6447714
-1.4596082 -0.67496663 2.9557943 11711154
-1.4249431 -0.67497963 2.9779155 8882055
-1.3944993 -0.6755197 2.9973443 6447714
-1.4597862 -0.62501794 2.9557655 11711154
-1.4250193 -0.62491369 2.9779541 8882055
-1.3944727 -0.62535858 2.9974463 6447714
-1.4595978 -0.57506758 2.9559698 8752276
-1.4249701 -0.57498223 2.978066 8487555
-1.3945595 -0.57496113 2.9974768 6447714
-1.4598079 -0.52499491 2.9559202 1257032
-1.4250751 -0.52509332 2.9780862 7501433
-1.3948889 -0.52565539 2.9973488 6447714
-1.4597383 -0.47503865 2.9560475 1519946
-1.4250565 -0.47506735 2.9781811 7501176
-1.395578 -0.47429818 2.9969933 6447714
-1.4598024 -0.42496052 2.95609 1519946
-1.4250458 -0.42503732 2.9782712 7566969
-1.3956082 -0.42464247 2.9970572 6447714
-1.4599074 -0.37500602 2.9561067 1322568
-1.42513 -0.37496093 2.9783003 7501177
-1.3956379 -0.37498468 2.9971225 6447714
-1.4597563 -0.3250348 2.9562869 1256775
-1.4251485 -0.32492876 2.9783714 7566969
-1.3956678 -0.32532474 2.9971864 6447714
-1.4600052 -0.27484149 2.9562109 1124933
-1.4251724 -0.27502823 2.9784424 6251109
-1.3956974 -0.27566272 2.9972508 6447714
-1.4598849 -0.22523291 2.9563699 1058884
-1.4254515 -0.22499171 2.9783461 4211526
-1.395692 -0.22567825 2.9973364 6447714
-1.4599993 -0.175028 2.956383 1257031
-1.4251133 -0.17513415 2.9786472 4277319
-1.3957927 -0.17478999 2.9973578 6447714
-1.4599898 -0.12493264 2.9564722 1191494
-1.4250103 -0.12522323 2.9787934 4277319
-1.3957884 -0.12418047 2.9974461 6447714
-1.4606181 -0.074136652 2.9561548 1124932
-1.4255697 -0.074736543 2.9785228 4211526
-1.3958181 -0.074509844 2.9975095 6447714
-1.4609836 -0.02449267 2.9560058 1059139
-1.4252958 -0.024681391 2.9787819 4277062
-1.395848 -0.024837082 2.9975734 6447714
-1.4610146 0.024493361 2.9560697 860477
-1.4253231 0.02468208 2.9788439 4408648
-1.3958778 0.024837792 2.997637 6447714
-1.4610457 0.074706197 2.9561336 6712952
-1.4256667 0.07469596 2.9787095 7763832
-1.3959074 0.074514799 2.9977012 6447714
-2.3237832 0.11123844 2.9506052 9868950
-2.2747197 0.11123022 2.950387 9868950
-2.2403781 0.11122445 2.9502339 9868950
-1.4610649 0.10532475 2.9561715 10132122
-1.4239519 0.10550378 2.9798558 7960953
-1.3959265 0.10556392 2.9977417 6447714
-1.3535455 -1.3510419 3.022352 6447714
-1.3254629 -1.3551167 3.0402665 6447714
-1.3694245 -1.3237156 3.0122647 6447714
-1.330277 -1.3251823 3.0372443 6447714
-1.3700975 -1.2750671 3.0119154 6447714
-1.331043 -1.2749738 3.0368392 6447714
-1.3700911 -1.2251196 3.0120039 6447714
-1.3311098 -1.22499 3.0368814 6447714
-1.3701781 -1.1751069 3.0120296 6447714
-1.3311651 -1.1750039 3.0369282 6447714
-1.3701888 -1.1249675 3.0121081 6447714
-1.3311747 -1.1249526 3.0370066 6447714
-1.3702006 -1.0748881 3.0121832 6447714
-1.3311925 -1.0750264 3.0370791 6447714
-1.3702091 -1.0249305 3.0122635 6447714
-1.3312241 -1.0250337 3.0371411 6447714
-1.3702652 -0.97497141 3.0123093 6447714
-1.3312235 -0.97497565 3.037226 6447714
-1.3702682 -0.92501062 3.012393 6447714
-1.3313311 -0.92504269 3.037241 6447714
-1.3703258 -0.87498564 3.0124366 6447714
-1.3313098 -0.87510669 3.0373373 6447714
-1.3703991 -0.82495725 3.0124769 6447714
-1.3313752 -0.82510608 3.0373802 6447714
-1.3703561 -0.77505225 3.0125866 6447714
-1.33134 -0.77503985 3.037487 6447714
-1.3695548 -0.72489172 3.0131824 6447714
-1.330496 -0.72511089 3.0381079 6447714
-1.3694912 -0.67489928 3.0133069 6447714
-1.3304627 -0.67499399 3.0382133 6447714
-1.3695114 -0.62497681 3.013377 6447714
-1.3305182 -0.62505722 3.0382624 6447714
-1.3695135 -0.57505292 3.0134594 6447714
-1.3305203 -0.57505244 3.0383434 6447714
-1.3698872 -0.52481389 3.0133042 6447714
-1.3305125 -0.52497792 3.0384331 6447714
-1.3705281 -0.47512281 3.0129783 6447714
-1.3305618 -0.4749012 3.0384841 6447714
-1.3706187 -0.42520273 3.0130029 6447714
-1.3306118 -0.42482299 3.038537 6447714
-1.3706067 -0.37522334 3.0130963 6447714
-1.3306563 -0.37487546 3.0385914 6447714
-1.3706684 -0.32512856 3.0131395 6447714
-1.3315154 -0.32499927 3.0381277 6447714
-1.3707159 -0.27497575 3.0131958 6447714
-1.3315706 -0.27480567 3.0381763 6447714
-1.3707622 -0.22482149 3.0132468 6447714
-1.3316075 -0.22481248 3.0382364 6447714
-1.3707054 -0.17477627 3.0133688 6447714
-1.3317075 -0.1750297 3.0382547 6447714
-1.3707341 -0.12484281 3.0134315 6447714
-1.3319224 -0.12546258 3.0382009 6447714
-1.3707638 -0.074907266 3.0134974 6447714
-1.3317509 -0.075526133 3.0383945 6447714
-1.3707927 -0.024969572 3.0135615 6447714
-1.3317796 -0.025175862 3.03846 6447714
-1.3708228 0.024970289 3.0136294 6447714
-1.3318082 0.0251766 3.0385251 6447714
-1.3708524 0.074912287 3.0136909 6447714
-1.3318371 0.075531214 3.0385909 6447714
-2.3737702 0.11113389 3.0140755 9868950
-2.3248999 0.11112571 3.0138533 9868950
-2.2898176 0.11111982 3.0136943 9868950
-1.3710467 0.10594704 3.0126476 6447714
-1.3301505 0.1068782 3.0322552 6447714
-1.2740502 0.11094954 3.0090759 6447714
-1.2240927 0.11094117 3.0088487 6447714
-1.1741431 0.11093279 3.0086217 6447714
-1.1242007 0.11092444 3.0083945 6447714
-1.0742657 0.11091606 3.0081673 6447714
-1.0243386 0.11090769 3.0079405 6447714
-0.974419 0.11089931 3.0077133 6447714
-0.92450684 0.11089094 3.0074868 6447714
-0.87460214 0.11088258 3.0072601 6447714
-0.82470512 0.11087422 3.0070329 6447714
-0.77481556 0.11086585 3.0068057 6447714
-0.72493351 0.11085749 3.0065789 6447714
-0.67505908 0.11084913 3.0063529 6447714
-0.62519205 0.11084076 3.0061255 6447714
-0.57533264 0.11083241 3.0058992 6447714
-0.52548069 0.11082405 3.0056725 6447714
-0.47563618 0.1108157 3.005446 6447714
