# .PCD v0.7 - Point Cloud Data file format
VERSION 0.7
FIELDS x y z rgb
SIZE 4 4 4 4
TYPE F F F U
COUNT 1 1 1 1
WIDTH 1155
HEIGHT 1
VIEWPOINT 0 0 0 1 0 0 0
POINTS 1155
DATA ascii
-0.35261121 0.10923684 0.44646278 10197915
-0.31953108 0.1095349 0.4274925 10197915
-0.27500871 0.10967154 0.4235566 10197915
-0.22514793 0.10977086 0.42351526 10197915
-0.17495571 0.10986985 0.42359686 10197915
-0.12500255 0.10997187 0.42336145 10197915
-0.075003169 0.11006621 0.42372543 10197915
-0.025077133 0.11016842 0.42352742 10197915
0.02512347 0.11027043 0.42333165 10197915
0.074989825 0.1103671 0.42352939 10197915
0.12492832 0.11046276 0.42382172 10197915
0.17516826 0.11056802 0.42335531 10197915
0.22499792 0.11066712 0.42333987 10197915
0.27499336 0.1107621 0.42369866 10197915
0.3194989 0.11079995 0.42782199 10197915
0.35240421 0.11063974 0.44624284 10197915
-0.36575511 0.10880271 0.47978517 10197915
-0.32499701 0.1089562 0.47385934 10197915
-0.27517843 0.10905339 0.47400737 10197915
-0.22479972 0.10916132 0.47335696 10197915
-0.17500529 0.10925879 0.47347867 10197915
-0.12501106 0.10935302 0.47389394 10197915
-0.075122707 0.10944895 0.47414893 10197915
-0.024914091 0.10956044 0.47318968 10197915
0.024992486 0.10965583 0.47349569 10197915
0.074996397 0.10975016 0.47390226 10197915
0.12508643 0.10984582 0.47421816 10197915
0.17499769 0.10995834 0.47311091 10197915
0.22500099 0.11005264 0.47352278 10197915
0.27499485 0.1101473 0.47391543 10197915
0.32515126 0.11024524 0.47404954 10197915
0.36550838 0.11025964 0.47941655 10197915
-0.41192693 0.10805871 0.53306019 10197915
-0.37494713 0.10824732 0.5236544 10197915
-0.32501197 0.10834147 0.52406609 10197915
-0.27477285 0.10843996 0.52418065 10197915
-0.22522131 0.10854528 0.52360529 10197915
-0.17499405 0.10864691 0.52345324 10197915
-0.1250069 0.10874066 0.52390289 10197915
-0.07486321 0.10883693 0.52417988 10197915
-0.025011476 0.10894035 0.52381933 10197915
0.024849284 0.10904351 0.52348435 10197915
0.074999832 0.10914011 0.52373272 10197915
0.12500331 0.10923366 0.5241912 10197915
0.17500205 0.10933957 0.52365136 10197915
0.22483504 0.10943563 0.52389467 10197915
0.27499244 0.10953934 0.52355981 10197915
0.32504746 0.10963305 0.52403736 10197915
0.37514043 0.10973665 0.52368712 10197915
0.4124133 0.10968511 0.53394794 10197915
-0.45941281 0.10728922 0.58820307 10197915
-0.42397007 0.10753339 0.57400769 10197915
-0.37503153 0.1076365 0.57352865 10197915
-0.32500878 0.10772957 0.5740422 10197915
-0.27501127 0.10782295 0.57452577 10197915
-0.2249589 0.10792614 0.57421792 10197915
-0.17502859 0.10803857 0.57313401 10197915
-0.12501259 0.10813162 0.57364905 10197915
-0.075000666 0.10822511 0.57412845 10197915
-0.025004428 0.10831819 0.57463139 10197915
0.024953377 0.10842712 0.57384086 10197915
0.07498306 0.10853347 0.573268 10197915
0.12498625 0.10862707 0.57373649 10197915
0.17499587 0.10872022 0.57423794 10197915
0.22519761 0.10881732 0.57445347 10197915
0.27476153 0.10892468 0.57372737 10197915
0.32495221 0.10902921 0.57333261 10197915
0.37494001 0.10912179 0.57387704 10197915
0.42411977 0.10920451 0.57510179 10197915
0.45911226 0.10910916 0.58855927 10197915
-0.50526541 0.10654029 0.64193237 10197915
-0.47195703 0.10680195 0.62596518 10197915
-0.42500415 0.10692608 0.62344283 10197915
-0.37499365 0.10701925 0.62394661 10197915
-0.32501122 0.10711153 0.62451309 10197915
-0.27534619 0.10721082 0.62446475 10197915
-0.22470431 0.10732005 0.62375647 10197915
-0.17500538 0.10742421 0.62331146 10197915
-0.12500209 0.1075169 0.62385875 10197915
-0.075012743 0.10760967 0.62438542 10197915
-0.025009256 0.10770228 0.62493122 10197915
0.025282282 0.10781762 0.62367469 10197915
0.074992456 0.10792191 0.62322074 10197915
0.12498731 0.10801498 0.62373054 10197915
0.17499588 0.10810741 0.62429214 10197915
0.2250039 0.10820042 0.62480402 10197915
0.27496243 0.10830741 0.62417459 10197915
0.32496181 0.10841971 0.62311006 10197915
0.37496054 0.10851271 0.62362313 10197915
0.4250015 0.10860549 0.62416101 10197915
0.47234187 0.10866534 0.62695646 10197915
0.50594568 0.10852975 0.64347601 10197915
-0.55245829 0.10576338 0.6977309 10197915
-0.51943588 0.10606106 0.67877507 10197915
-0.47515312 0.10621825 0.67312056 10197915
-0.42496878 0.1063128 0.67353678 10197915
-0.37495574 0.10640475 0.67414272 10197915
-0.32498512 0.10649744 0.67467993 10197915
-0.27459261 0.10659879 0.67457408 10197915
-0.22507513 0.10670245 0.67414147 10197915
-0.17502597 0.10681361 0.67317897 10197915
-0.12502697 0.10690593 0.67375004 10197915
-0.074997537 0.10699804 0.67434084 10197915
-0.024993777 0.10709035 0.67491573 10197915
0.025007116 0.10720226 0.67388171 10197915
0.074723899 0.1072982 0.67411065 10197915
0.12500465 0.10740696 0.67338681 10197915
0.17501783 0.10749901 0.67398274 10197915
0.22498588 0.10759152 0.67453361 10197915
0.2753962 0.10769596 0.67418748 10197915
0.32503146 0.10779565 0.67409188 10197915
0.37467676 0.10789452 0.67406899 10197915
0.42500848 0.108 0.67362171 10197915
0.47501385 0.10809228 0.67419225 10197915
0.51964295 0.10812594 0.67867976 10197915
0.55232948 0.10796154 0.69740486 10197915
-0.56562877 0.10533082 0.73092014 10197915
-0.52501291 0.10547946 0.72536933 10197915
-0.4748278 0.10559266 0.72426593 10197915
-0.42517322 0.1057071 0.72297543 10197915
-0.37508261 0.10580041 0.72347975 10197915
-0.32501185 0.10589293 0.72404343 10197915
-0.2749919 0.10598385 0.72472864 10197915
-0.22491296 0.10607716 0.72523361 10197915
-0.17498797 0.10619068 0.72405964 10197915
-0.12538743 0.10629698 0.72342604 10197915
-0.075039148 0.10639676 0.7234394 10197915
-0.025032444 0.10648857 0.72405618 10197915
0.025015021 0.10658023 0.72469014 10197915
0.075352222 0.10667805 0.72486508 10197915
0.12498084 0.10678668 0.72404814 10197915
0.17452778 0.10688676 0.72390324 10197915
0.22498634 0.10699322 0.72339857 10197915
0.27499527 0.10708452 0.72405195 10197915
0.32508984 0.10717666 0.724657 10197915
0.37554684 0.10727814 0.72455323 10197915
0.42499322 0.1073828 0.72402543 10197915
0.47474036 0.10747785 0.7243306 10197915
0.5249933 0.10758938 0.72337335 10197915
0.56537694 0.10758925 0.72992951 10197915
-0.61276525 0.10457356 0.78512102 10197915
-0.57496393 0.10478999 0.77357787 10197915
-0.52501684 0.10488143 0.77421123 10197915
-0.47501451 0.1049732 0.77482772 10197915
-0.42490572 0.10508867 0.7735275 10197915
-0.37502614 0.10518189 0.77400589 10197915
-0.32501453 0.10527204 0.77475369 10197915
-0.27554947 0.10537508 0.77436006 10197915
-0.22503656 0.10548145 0.77386582 10197915
-0.1750266 0.10557207 0.77457935 10197915
-0.12451804 0.10568309 0.77370447 10197915
-0.074977994 0.10578137 0.77371407 10197915
-0.024994396 0.10587205 0.77441669 10197915
0.0249695 0.10596334 0.77506357 10197915
0.074619293 0.10607469 0.77402294 10197915
0.12498373 0.10617191 0.77425492 10197915
0.17555609 0.10627606 0.77395582 10197915
0.22499429 0.10638053 0.77343857 10197915
0.27497533 0.10647197 0.77408028 10197915
0.32496202 0.10656361 0.77470577 10197915
0.37471884 0.10665603 0.77522743 10197915
0.42499122 0.1067717 0.77393365 10197915
0.47531834 0.10686798 0.77423424 10197915
0.52497447 0.10698023 0.77312297 10197915
0.57487357 0.1070701 0.7738722 10197915
0.61216569 0.10701056 0.78478175 10197915
-0.65880924 0.10381567 0.8395521 10197915
-0.62383676 0.10404533 0.82646841 10197915
-0.5754143 0.10417294 0.8239035 10197915
-0.52501696 0.10428836 0.82265025 10197915
-0.47502288 0.10437933 0.82332814 10197915
-0.42497608 0.10446925 0.82410294 10197915
-0.37497756 0.10455952 0.82484263 10197915
-0.32499519 0.10465127 0.82545292 10197915
-0.27438045 0.10475771 0.824974 10197915
-0.22524332 0.10486511 0.82417345 10197915
-0.17502391 0.10498212 0.82276422 10197915
-0.12502627 0.10507311 0.82344073 10197915
-0.075010963 0.10516379 0.82414383 10197915
-0.025011735 0.10525417 0.82487679 10197915
0.025006233 0.10534491 0.82557714 10197915
0.075384833 0.10546067 0.82429701 10197915
0.1249393 0.10555664 0.82449239 10197915
0.17498311 0.10567649 0.82282335 10197915
0.2250146 0.10576667 0.82357782 10197915
0.27502891 0.10585821 0.82421178 10197915
0.32488844 0.10594785 0.82498151 10197915
0.37515977 0.10604376 0.82530546 10197915
0.42495129 0.10615924 0.82394618 10197915
0.4749763 0.10625033 0.82462543 10197915
0.52487379 0.10636853 0.82306445 10197915
0.57503062 0.10646094 0.82365453 10197915
0.62404639 0.10653982 0.82515687 10197915
0.65856844 0.10644295 0.83866364 10197915
-0.70518714 0.10306542 0.89330357 6645093
-0.67209238 0.10332146 0.8777656 9276813
-0.62496793 0.10343623 0.87602973 10132122
-0.57472736 0.10353732 0.87592751 10197915
-0.52499926 0.10368411 0.87199908 10197915
-0.47499418 0.10377332 0.8728258 10197915
-0.42494217 0.1038644 0.87350506 10197915
-0.37496379 0.10395447 0.87426001 10197915
-0.32501787 0.10404369 0.87507051 10197915
-0.27502629 0.104134 0.87580806 10197915
-0.22471747 0.10422934 0.87618023 10197915
-0.17561938 0.10436595 0.87299228 10197915
-0.1250331 0.10447172 0.87255675 10197915
-0.075050853 0.10456138 0.87333679 10197915
-0.025023166 0.10465195 0.87406188 10197915
0.025011601 0.10474197 0.87482357 10197915
0.075010255 0.10483218 0.87556577 10197915
0.12505274 0.10492321 0.87625152 10197915
0.17482716 0.10504793 0.87414044 10197915
0.2249995 0.1051693 0.87236226 10197915
0.27498853 0.10525963 0.87309366 10197915
0.32494143 0.10534943 0.87386578 10197915
0.37494117 0.10544024 0.87456173 10197915
0.42502499 0.10552977 0.87537187 10197915
0.47499183 0.10562009 0.87609941 10197915
0.52513033 0.10574194 0.87427902 10197915
0.57436347 0.10585144 0.87332296 10197915
0.62497813 0.10595696 0.87291437 10197915
0.67200291 0.10601103 0.8761192 10197915
0.70521796 0.10587375 0.89272207 10197915
-0.75116694 0.10232493 0.94632125 6513507
-0.71907538 0.10260142 0.92894697 6513507
-0.67504859 0.10273431 0.92523396 6513507
-0.62499285 0.10282271 0.92613459 6776679
-0.57469267 0.10291775 0.92653239 7895160
-0.52568799 0.10305902 0.92294407 9211020
-0.47499597 0.10316804 0.92226249 10132122
-0.42502308 0.1032568 0.9231196 10197915
-0.37500972 0.1033451 0.92402047 10197915
-0.32500607 0.10343643 0.92467314 10197915
-0.27496219 0.10352612 0.92546338 10197915
-0.22497539 0.10361444 0.92636108 10197915
-0.17431957 0.10372996 0.92514437 10197915
-0.1256943 0.10385373 0.92292142 10197915
-0.075003542 0.10395875 0.92256641 10197915
-0.025004828 0.10404842 0.92335457 10197915
0.02498569 0.1041379 0.92415524 10197915
0.074965097 0.10422809 0.92489523 10197915
0.12498283 0.10431682 0.92576236 10197915
0.17521012 0.1044104 0.9262675 10197915
0.22498326 0.1045339 0.92425519 10197915
0.27438891 0.10464845 0.92291439 10197915
0.32495868 0.10474999 0.9228248 10197915
0.37497944 0.10484067 0.92353284 10197915
0.42498827 0.10492919 0.92441654 10197915
0.47498623 0.10501941 0.92515773 10197915
0.52497286 0.10510904 0.92594689 10197915
0.57567388 0.10522261 0.92489523 10197915
0.62493485 0.1053252 0.9245072 10197915
0.67459744 0.10544335 0.92291027 10197915
0.7189306 0.10547677 0.9273684 10197915
0.75096816 0.10532348 0.94508421 10197915
-0.76279092 -0.41885644 0.97898936 6513507
-0.72453254 -0.4212231 0.98917884 6513507
-0.69188458 -0.42393109 0.99786788 6513507
-0.76324803 -0.37499788 0.97942716 6513507
-0.72523564 -0.37500995 0.98958391 6513507
-0.69313633 -0.37563661 0.99815136 6513507
-0.76334429 -0.3249521 0.98004055 6513507
-0.72507572 -0.3249549 0.99026477 6513507
-0.69426811 -0.32606211 0.99848133 6513507
-0.76366359 -0.27489591 0.98059487 6513507
-0.72527236 -0.27506313 0.99084932 6513507
-0.69555879 -0.27583382 0.99877894 6513507
-0.76379198 -0.22500858 0.98119825 6513507
-0.72508222 -0.22496568 0.99153942 6513507
-0.69660723 -0.22663349 0.99912632 6513507
-0.76403981 -0.17487055 0.98177177 6513507
-0.72523975 -0.17508669 0.99213457 6513507
-0.69794649 -0.17693715 0.99940366 6513507
-0.76429886 -0.12502538 0.98234016 6513507
-0.72514707 -0.12498997 0.99280053 6513507
-0.69885659 -0.13034457 0.99975562 6513507
-0.76438177 -0.074888505 0.98295832 6513507
-0.72542548 -0.075195655 0.99336278 6513507
-0.69970518 -0.096525304 0.99996102 6513507
-0.76473546 -0.024856715 0.98350179 6513507
-0.72668165 -0.025276311 0.99366432 6513507
-0.76485187 0.024909636 0.98410714 6513507
-0.72780323 0.024836609 0.99400568 6513507
-0.76511174 0.075051866 0.98467869 6513507
-0.7289744 0.074744992 0.99432963 6513507
-0.76221895 0.10151757 0.97741061 6513507
-0.72543973 0.10179065 0.97745562 6513507
-0.67501533 0.1021328 0.97436607 6513507
-0.62498319 0.102221 0.97527784 6513507
-0.57497847 0.10231034 0.97609466 6513507
-0.52417225 0.10242545 0.97493291 6513507
-0.47495618 0.10253013 0.97436726 6710886
-0.42574334 0.10263255 0.97398609 7697781
-0.37502021 0.10275044 0.97258639 8882055
-0.32499084 0.10283894 0.97347414 9868950
-0.27504784 0.1029278 0.97431672 10197915
-0.2250181 0.10301705 0.97514248 10197915
-0.17495912 0.10310636 0.97597146 10197915
-0.12416833 0.10322537 0.97448653 10197915
-0.074968323 0.10332569 0.97427583 10197915
-0.025042102 0.10341563 0.97502744 10197915
0.024984026 0.10354535 0.97254908 10197915
0.075007714 0.103636 0.9732607 10197915
0.12500279 0.10372332 0.97423774 10197915
0.17496787 0.10381308 0.97501034 10197915
0.22501892 0.10390148 0.9759112 10197915
0.27572557 0.10402338 0.97418243 10197915
0.32503074 0.1041218 0.97414333 10197915
0.37504241 0.10421135 0.97494221 10197915
0.42430601 0.10432534 0.9736256 10197915
0.47498113 0.10443096 0.97321922 10197915
0.52496564 0.10451946 0.97409689 10197915
0.57497692 0.10460924 0.97488058 10197915
0.62495679 0.10469756 0.97577274 10197915
0.67562687 0.10482185 0.97384018 10197915
0.7250964 0.10491782 0.97401941 10197915
0.76574033 0.10489753 0.98226804 10197915
-0.65348506 -0.45042247 1.0077887 6513507
-0.61959499 -0.45245132 1.0168166 6513507
-0.57278657 -0.45526496 1.0292865 6513507
-0.52340913 -0.45818371 1.0424411 6513507
-0.49731791 -0.45988449 1.0493907 6513507
-0.66683352 -0.4242059 1.0045568 6513507
-0.62504613 -0.42508972 1.0157099 6513507
-0.57509971 -0.42501083 1.0290552 6513507
-0.52513504 -0.42499551 1.0424044 6513507
-0.49821377 -0.4277238 1.0495621 6513507
-0.66823936 -0.3747589 1.0048127 6513507
-0.62523735 -0.37500387 1.0162994 6513507
-0.57522178 -0.37491527 1.0296624 6513507
-0.52521074 -0.37508965 1.0430219 6513507
-0.49933058 -0.38430312 1.0498182 6513507
-0.66939044 -0.32468653 1.0051451 6513507
-0.62509876 -0.32503062 1.0169731 6513507
-0.5750736 -0.32506475 1.0303386 6513507
-0.52584612 -0.32518542 1.0434891 6513507
-0.67064649 -0.27482331 1.005447 6513507
-0.62520939 -0.27501085 1.0175834 6513507
-0.57530546 -0.27497843 1.0309165 6513507
-0.52717954 -0.27519202 1.0437717 6513507
-0.67185026 -0.22472152 1.0057651 6513507
-0.62515259 -0.2250092 1.0182368 6513507
-0.57505262 -0.22508416 1.0316211 6513507
-0.52814054 -0.22518203 1.0441544 6513507
-0.67303467 -0.17482667 1.0060861 6513507
-0.62513709 -0.17501999 1.0188806 6513507
-0.57516849 -0.17498577 1.0322304 6513507
-0.52947855 -0.17522871 1.0444342 6513507
-0.6742664 -0.12472227 1.006397 6513507
-0.62522674 -0.12507148 1.0194944 6513507
-0.57521343 -0.1249385 1.0328578 6513507
-0.5305981 -0.12537202 1.044772 6513507
-0.70069855 -0.059186529 1.0001726 6513507
-0.67523199 -0.075027555 1.0067743 6513507
-0.62512243 -0.07498344 1.0201614 6513507
-0.57501048 -0.074961662 1.0335509 6513507
-0.53177369 -0.07532037 1.0450971 6513507
-0.70152879 -0.021971896 1.0004261 6513507
-0.67506957 -0.024952514 1.0074568 6513507
-0.62522179 -0.025050031 1.0207727 6513507
-0.57539952 -0.02498715 1.0340849 6513507
-0.53307831 -0.025339315 1.0453875 6513507
-0.70276523 0.027155703 1.0007232 6513507
-0.67516005 0.02495933 1.0080703 6513507
-0.62500513 0.024987616 1.0214715 6513507
-0.57498682 0.024970619 1.0348332 6513507
-0.53406912 0.024761593 1.0457631 6513507
-0.70390034 0.076008685 1.0010444 6513507
-0.67517793 0.075096712 1.0087063 6513507
-0.62530351 0.074888416 1.0220283 6513507
-0.57521021 0.074960545 1.0354122 6513507
-0.53539842 0.074771784 1.0460463 6513507
-0.70426649 0.10104825 1.0012662 6513507
-0.67342281 0.10116883 1.0075576 6513507
-0.62364835 0.10138171 1.0161177 6513507
-0.57416457 0.10148592 1.0236499 6513507
-0.52638698 0.10165302 1.0274699 6513507
-0.47508281 0.10191122 1.0248958 6513507
-0.42421612 0.10201878 1.0243629 6513507
-0.37517306 0.102134 1.0229062 6513507
-0.3250832 0.10222216 1.0238311 6579300
-0.27496842 0.10231061 1.0247355 7303023
-0.22500755 0.10239968 1.0255672 8289918
-0.17569782 0.10249604 1.0256972 9342606
-0.12502316 0.10262273 1.0235684 10197915
-0.075049296 0.10271039 1.0245141 10197915
-0.024990065 0.10280055 1.0252712 10197915
0.02499643 0.10293364 1.0225087 10197915
0.074984133 0.10302331 1.023296 10197915
0.12499785 0.10311116 1.024232 10197915
0.17503668 0.10320005 1.0250922 10197915
0.22497892 0.10328759 1.0260431 10197915
0.2739864 0.10339601 1.0251378 10197915
0.32503176 0.10351116 1.0240128 10197915
0.37505916 0.1036 1.024878 10197915
0.42580569 0.103723 1.0230641 10197915
0.47498581 0.1038229 1.0228792 10197915
0.5250144 0.10391136 1.0237703 10197915
0.57500619 0.10400067 1.0245879 10197915
0.62502187 0.10408793 1.0255708 10197915
0.67512238 0.10417809 1.0263364 10197915
0.72431308 0.10429622 1.0246649 10197915
0.77501249 0.10439975 1.024426 10197915
0.81113011 0.10436141 1.0334157 10197915
-0.47157335 -0.46126032 1.0562512 6513507
-0.42414162 -0.46408826 1.0688869 6513507
-0.37443051 -0.46704757 1.0821308 6513507
-0.32830518 -0.46995434 1.0944163 6513507
-0.47343117 -0.42483142 1.0562204 6513507
-0.42520487 -0.42499793 1.0691016 6513507
-0.37534916 -0.42501125 1.0824217 6513507
-0.32994953 -0.42523876 1.0945475 6513507
-0.47477487 -0.37481675 1.0564994 6513507
-0.42516693 -0.37490851 1.0697522 6513507
-0.37523702 -0.37507483 1.0830905 6513507
-0.33116832 -0.37527838 1.0948609 6513507
-0.50089025 -0.31578824 1.0502768 6513507
-0.47519812 -0.32501107 1.0570229 6513507
-0.4251205 -0.32508671 1.0704014 6513507
-0.37491104 -0.3250156 1.0838164 6513507
-0.33209682 -0.32524988 1.0952514 6513507
-0.50193489 -0.27288121 1.0505458 6513507
-0.47500351 -0.27500784 1.0577137 6513507
-0.42509308 -0.27499175 1.0710477 6513507
-0.37513512 -0.27502128 1.0843949 6513507
-0.33338475 -0.27529481 1.0955459 6513507
-0.50325286 -0.22367381 1.0508223 6513507
-0.47528499 -0.22501007 1.0582775 6513507
-0.42532033 -0.22498654 1.0716263 6513507
-0.37532094 -0.22501796 1.0849835 6513507
-0.33462012 -0.22530966 1.0958534 6513507
-0.50433737 -0.17343517 1.051174 6513507
-0.47520038 -0.1750699 1.058938 6513507
-0.42515606 -0.17498451 1.0723087 6513507
-0.37518033 -0.17504694 1.08566 6513507
-0.33594459 -0.17536555 1.0961382 6513507
-0.50552106 -0.12420109 1.051487 6513507
-0.47499928 -0.12498723 1.0596312 6513507
-0.42496663 -0.12501843 1.0729979 6513507
-0.37503889 -0.1249299 1.0863379 6513507
-0.33692431 -0.12555517 1.0965126 6513507
-0.50683522 -0.074290678 1.0517734 6513507
-0.47530201 -0.075024121 1.0601884 6513507
-0.42523164 -0.074955776 1.073567 6513507
-0.37504661 -0.07502275 1.0869737 6513507
-0.33806035 -0.075358056 1.0968512 6513507
-0.50788033 -0.024117032 1.0521353 6513507
-0.47514784 -0.025118826 1.0608672 6513507
-0.42535943 -0.024909044 1.0741713 6513507
-0.37533021 -0.025047839 1.0875361 6513507
-0.3393487 -0.025444001 1.0971438 6513507
-0.50911546 0.025362195 1.0524373 6513507
-0.47502276 0.025115231 1.0615423 6513507
-0.42488611 0.024873808 1.0749335 6513507
-0.37515864 0.024979901 1.0882212 6513507
-0.3406094 0.0245375 1.0974455 6513507
-0.51048487 0.075350203 1.0527103 6513507
-0.47526455 0.075033456 1.0621157 6513507
-0.42512313 0.074974418 1.0755112 6513507
-0.37513453 0.075016536 1.0888664 6513507
-0.34182689 0.074284166 1.097756 6513507
-0.51027173 0.10097812 1.0525079 6513507
-0.47353432 0.10111488 1.0593249 6513507
-0.42399478 0.10127887 1.0669688 6513507
-0.37422356 0.10132065 1.0747041 6513507
-0.32583025 0.10153743 1.0765419 6513507
-0.27500141 0.10167737 1.0764506 6513507
-0.22502585 0.10176538 1.0773695 6513507
-0.17463644 0.101873 1.0767519 6513507
-0.12488864 0.10204238 1.0709898 7171437
-0.074892476 0.10213234 1.0717536 8224125
-0.02495929 0.10221884 1.0727853 9211020
0.024987895 0.10230674 1.0737079 10066329
0.075019121 0.10239543 1.0745825 10197915
0.12498838 0.10248277 1.0755541 10197915
0.17496912 0.10257088 1.0764658 10197915
0.22503529 0.10265885 1.077402 10197915
0.27604342 0.10277677 1.0760478 10197915
0.32494363 0.10293256 1.0712537 10197915
0.37509602 0.10302425 1.0719002 10197915
0.42497116 0.10311323 1.0727283 10197915
0.47500768 0.10320011 1.0737447 10197915
0.52505416 0.10328818 1.0746732 10197915
0.57503629 0.10337729 1.0755023 10197915
0.62502867 0.10346355 1.0765672 10197915
0.67510563 0.10355361 1.0773369 10197915
0.7258504 0.10368056 1.0751976 10197915
0.77431089 0.10381359 1.0721897 10197915
0.82359123 0.10390017 1.0731077 10197915
0.85764056 0.10378756 1.0878292 10197915
-0.21339354 -0.50158739 1.1247125 6513507
-0.17218028 -0.50405723 1.1356916 6513507
-0.13367045 -0.50640273 1.1459496 6513507
-0.30383256 -0.47008759 1.1009527 6513507
-0.27483591 -0.47290549 1.1086633 6513507
-0.22524619 -0.47503218 1.1218836 6513507
-0.17532219 -0.47493574 1.1352274 6513507
-0.13517101 -0.47545558 1.145947 6513507
-0.30464816 -0.42405355 1.1013225 6513507
-0.27483052 -0.42499667 1.109277 6513507
-0.22510791 -0.42500973 1.1225615 6513507
-0.17506984 -0.42500246 1.1359288 6513507
-0.13602898 -0.42534143 1.1463569 6513507
-0.30589041 -0.37427214 1.101627 6513507
-0.27495024 -0.3750042 1.109883 6513507
-0.22520037 -0.37501806 1.1231737 6513507
-0.17515761 -0.37499276 1.1365491 6513507
-0.13725966 -0.37536299 1.1466631 6513507
-0.30720931 -0.32437435 1.1019114 6513507
-0.27511621 -0.3250128 1.1104774 6513507
-0.22513638 -0.32490355 1.1238313 6513507
-0.17505902 -0.32511893 1.137208 6513507
-0.13850476 -0.32542109 1.1469704 6513507
-0.3084819 -0.2743836 1.1022109 6513507
-0.2752578 -0.2750079 1.1110792 6513507
-0.22502041 -0.27501503 1.1245009 6513507
-0.17490581 -0.27501318 1.1378899 6513507
-0.13972612 -0.27544734 1.1472799 6513507
-0.30975351 -0.22449319 1.1025082 6513507
-0.27542901 -0.22499453 1.1116714 6513507
-0.22512265 -0.22501029 1.1251113 6513507
-0.17497262 -0.22500984 1.1385109 6513507
-0.14093257 -0.22551894 1.147596 6513507
-0.31070474 -0.17439972 1.1028939 6513507
-0.27520347 -0.17505598 1.1123699 6513507
-0.22526108 -0.17500116 1.1257145 6513507
-0.1750672 -0.17500399 1.1391267 6513507
-0.14217548 -0.17566431 1.1479036 6513507
-0.31183559 -0.12455022 1.1032287 6513507
-0.27492467 -0.12493306 1.1130855 6513507
-0.22505581 -0.1251103 1.1264062 6513507
-0.17521536 -0.1249701 1.1397257 6513507
-0.14341614 -0.12579431 1.1482108 6513507
-0.31321204 -0.074787252 1.1034961 6513507
-0.27505276 -0.074934892 1.1136901 6513507
-0.22497296 -0.0750385 1.1270689 6513507
-0.17529923 -0.075020462 1.1403381 6513507
-0.14461659 -0.075917177 1.1485255 6513507
-0.31444353 -0.024811888 1.1038057 6513507
-0.27508876 -0.0249268 1.1143187 6513507
-0.22524418 -0.025009293 1.1276344 6513507
-0.17531769 -0.025050398 1.1409723 6513507
-0.14588214 -0.026242422 1.1488204 6513507
-0.3157385 0.025382781 1.1041015 6513507
-0.27523643 0.024944615 1.1149169 6513507
-0.22536477 0.024985477 1.1282401 6513507
-0.17541231 0.025068402 1.1415806 6513507
-0.14708996 0.023492487 1.1491345 6513507
-0.31679618 0.075491577 1.1044581 6513507
-0.27524862 0.074870139 1.1155517 6513507
-0.22528654 0.074999213 1.1289003 6513507
-0.17556809 0.075014539 1.1421787 6513507
-0.14826934 0.072591238 1.1494455 6513507
-0.31558457 0.10074254 1.1047653 6513507
-0.27344015 0.10098359 1.112396 6513507
-0.22400095 0.10105522 1.1203773 6513507
-0.17349505 0.10115114 1.126847 6513507
-0.12527134 0.10139861 1.1230992 6513507
-0.075030886 0.10149591 1.1237087 6513507
-0.025004499 0.10158218 1.1247766 6513507
0.024955444 0.10167044 1.1256717 6710886
0.073929377 0.10177495 1.1250799 7631988
0.1250757 0.10190069 1.1231065 8882055
0.17501251 0.10198811 1.1240672 9934743
0.22494176 0.10207465 1.1250992 10197915
0.27495691 0.10216385 1.1259282 10197915
0.32535821 0.1023033 1.1227119 10197915
0.37513617 0.10239359 1.1234158 10197915
0.42498794 0.10248049 1.1244023 10197915
0.47500366 0.10256829 1.1253505 10197915
0.52494729 0.10265592 1.1262944 10197915
0.57433999 0.10278659 1.1236334 10197915
0.62504822 0.1028856 1.1237731 10197915
0.67506331 0.10297405 1.1246617 10197915
0.72507137 0.10306168 1.1256177 10197915
0.77576983 0.10319275 1.1231371 10197915
0.82493651 0.10329168 1.1230265 10197915
0.87160462 0.10333487 1.1270645 10197915
0.90524614 0.10318831 1.144493 10197915
-0.10902935 -0.50762492 1.1525176 6513507
-0.074081205 -0.50992674 1.1618252 6513507
-0.024344726 -0.51284617 1.1750758 6513507
0.025714289 -0.51590133 1.1884104 6513507
0.059733357 -0.51787251 1.197474 6513507
-0.10982832 -0.4745079 1.152727 6513507
-0.07508938 -0.47501209 1.1620021 6513507
-0.025310766 -0.47499916 1.1752994 6513507
0.024622252 -0.47499564 1.1886421 6513507
0.058328882 -0.4755685 1.1976392 6513507
-0.11106116 -0.42457864 1.1530366 6513507
-0.075148769 -0.42500943 1.1626252 6513507
-0.025324652 -0.42499259 1.1759371 6513507
0.024625909 -0.42500567 1.1892809 6513507
0.057143755 -0.42569956 1.1979598 6513507
-0.11226637 -0.37463361 1.1533525 6513507
-0.075167201 -0.37499851 1.1632583 6513507
-0.025345622 -0.37499759 1.1765698 6513507
0.024664637 -0.3750113 1.18993 6513507
0.05600515 -0.37574103 1.198294 6513507
-0.11351816 -0.32463172 1.1536552 6513507
-0.07521946 -0.32499799 1.1638826 6513507
-0.025371889 -0.32501334 1.1772007 6513507
0.024646875 -0.32501191 1.1905633 6513507
0.054752443 -0.32590172 1.1985958 6513507
-0.11476729 -0.27468869 1.1539611 6513507
-0.07529024 -0.27499995 1.1645032 6513507
-0.025388675 -0.2750119 1.1778343 6513507
0.024677917 -0.27499849 1.1912107 6513507
0.053657748 -0.27638897 1.1989359 6513507
-0.11593938 -0.22471452 1.1542859 6513507
-0.074918523 -0.2249075 1.1652427 6513507
-0.02500562 -0.22511362 1.1785747 6513507
0.024686046 -0.22497927 1.1918529 6513507
0.052472413 -0.22686525 1.1992518 6513507
-0.11721089 -0.17469902 1.154586 6513507
-0.074861668 -0.17501326 1.1658946 6513507
-0.02493402 -0.17503084 1.179235 6513507
0.024708314 -0.17496587 1.1924977 6513507
0.051323146 -0.17829348 1.1995651 6513507
-0.11839304 -0.12469275 1.1549087 6513507
-0.074892133 -0.12502962 1.1665244 6513507
-0.024903445 -0.12502685 1.1798803 6513507
0.024689043 -0.12499709 1.1931311 6513507
0.050419956 -0.13795917 1.1998391 6513507
-0.11973568 -0.07464245 1.1551876 6513507
-0.074945599 -0.075073257 1.1671493 6513507
-0.024996484 -0.074970044 1.1804957 6513507
0.023949448 -0.07523673 1.1935688 6513507
-0.12087681 -0.024656126 1.1555204 6513507
-0.075014524 -0.025064692 1.1677688 6513507
-0.024909662 -0.024954105 1.1811575 6513507
0.022640079 -0.025248889 1.1938572 6513507
-0.12208375 0.025122752 1.1558341 6513507
-0.075079463 0.025037214 1.1683919 6513507
-0.024923 0.024971958 1.1817912 6513507
0.02145588 0.024777807 1.1941799 6513507
-0.12341757 0.07512641 1.1561203 6513507
-0.075016096 0.075061992 1.1690481 6513507
-0.024988592 0.074989855 1.1824136 6513507
0.0204571 0.074741565 1.1945509 6513507
-0.12039708 0.10069345 1.1560565 6513507
-0.073222823 0.10085944 1.1638763 6513507
-0.024297601 0.10092782 1.1709521 6513507
0.024987668 0.10098165 1.1774825 6513507
0.076100282 0.10114552 1.1768415 6513507
0.12447089 0.10131533 1.1708202 6513507
0.17497411 0.10141022 1.1712627 6579300
0.22494945 0.10149856 1.1721511 7434609
0.27491426 0.10158507 1.1731933 8487297
0.32515907 0.10167152 1.17428 9474192
0.37519899 0.10175865 1.1752846 10132122
0.42502779 0.10184578 1.1762481 10197915
0.4750399 0.10193378 1.1771756 10197915
0.52504039 0.10202032 1.178219 10197915
0.57569569 0.1021585 1.1751511 10197915
0.62454635 0.10230564 1.171057 10197915
0.67507488 0.10240118 1.1714507 10197915
0.72509831 0.10248882 1.1724089 10197915
0.77500725 0.10257434 1.1735184 10197915
0.82500118 0.10266287 1.1743999 10197915
0.87498081 0.10274988 1.1753926 10197915
0.91930008 0.1027761 1.1804373 10197915
0.95101511 0.10263823 1.1968409 10197915
0.19386496 -0.55079681 1.2328891 6513507
0.2298113 -0.55292869 1.2424653 6513507
0.25416064 -0.55436993 1.2489525 6513507
0.084824204 -0.51921344 1.2041607 6513507
0.12537214 -0.52173471 1.2149609 6513507
0.17495346 -0.52455634 1.2281712 6513507
0.22486708 -0.52490586 1.2415026 6513507
0.25353348 -0.52666759 1.2491393 6513507
0.08358904 -0.47471187 1.2043993 6513507
0.124878 -0.47499022 1.2154267 6513507
0.1745936 -0.47500804 1.2287081 6513507
0.22487181 -0.47500038 1.2421415 6513507
0.25245556 -0.47774684 1.2494755 6513507
0.082400128 -0.42470443 1.2047203 6513507
0.12495313 -0.42500192 1.216085 6513507
0.1746877 -0.42500469 1.2293719 6513507
0.22462803 -0.42512318 1.2427137 6513507
0.25093502 -0.42759642 1.24971 6513507
0.081251502 -0.37475127 1.2050512 6513507
0.12501745 -0.37501267 1.2167411 6513507
0.17479455 -0.37502337 1.2300397 6513507
0.2244059 -0.37512225 1.2432928 6513507
0.25010997 -0.39406547 1.2499179 6513507
0.080010131 -0.32475296 1.2053578 6513507
0.12507705 -0.32501122 1.2173951 6513507
0.17487951 -0.32504183 1.2307007 6513507
0.22340889 -0.32518721 1.2436645 6513507
0.078870483 -0.27472508 1.2056934 6513507
0.12515055 -0.27501819 1.2180539 6513507
0.17498305 -0.27502865 1.2313663 6513507
0.22226548 -0.2752066 1.2439975 6513507
0.077712744 -0.22475915 1.2060218 6513507
0.12521967 -0.22501348 1.218712 6513507
0.17508999 -0.22501481 1.2320347 6513507
0.2211905 -0.22525501 1.2443478 6513507
0.076506615 -0.17479113 1.2063385 6513507
0.12525338 -0.17501792 1.2193584 6513507
0.17515945 -0.17497967 1.2326919 6513507
0.22005036 -0.17526625 1.244682 6513507
0.074795425 -0.12484349 1.2065187 6513507
0.124825 -0.12498306 1.2198837 6513507
0.17524804 -0.12496702 1.2333548 6513507
0.21879242 -0.12531467 1.2449841 6513507
0.04869746 -0.069514565 1.2002531 6513507
0.074509434 -0.075020388 1.2070794 6513507
0.12483187 -0.075074628 1.2205225 6513507
0.17513499 -0.074930832 1.2339634 6513507
0.2178552 -0.075308576 1.2453728 6513507
0.047630079 -0.022400528 1.2005701 6513507
0.074597657 -0.025015395 1.2077421 6513507
0.12437121 -0.02497647 1.2210398 6513507
0.1745089 -0.02512229 1.2344335 6513507
0.21611364 -0.025170706 1.2455475 6513507
0.046474539 0.026396796 1.2008846 6513507
0.074637659 0.02503334 1.2083914 6513507
0.12445644 0.024941446 1.2216997 6513507
0.17452531 0.025074463 1.2350787 6513507
0.2149111 0.024587728 1.245862 6513507
0.045266856 0.075971559 1.2011954 6513507
0.074590407 0.075023234 1.2090183 6513507
0.12461422 0.074929997 1.222381 6513507
0.17450063 0.075074047 1.2357099 6513507
0.21388936 0.074609965 1.2462279 6513507
0.046304036 0.10007453 1.2017803 6513507
0.078525357 0.10051396 1.2092365 6513507
0.12734658 0.10073762 1.2124265 6513507
0.17620297 0.10078951 1.2188771 6513507
0.22495389 0.10086828 1.2233999 6513507
0.27496985 0.10095614 1.2245662 6513507
0.32506871 0.10104387 1.22553 6513507
0.37504491 0.10112707 1.2268419 6842472
0.42452759 0.10122095 1.2272009 7829367
0.47491172 0.1013662 1.2235117 9276813
0.52502936 0.10145492 1.2243954 10132122
0.57497782 0.10154069 1.2254915 10197915
0.62557346 0.10168641 1.2217989 10197915
0.67508775 0.10177962 1.2222185 10197915
0.7250247 0.10186506 1.2233428 10197915
0.77494073 0.10195254 1.2242949 10197915
0.82494348 0.10203861 1.2253757 10197915
0.87503016 0.10212582 1.2263762 10197915
0.92509907 0.10221246 1.2274129 10197915
0.96272767 0.10224034 1.2312399 10197915
0.28031346 -0.55592757 1.2559197 7566195
0.32596275 -0.55866438 1.2680801 9211020
0.37580222 -0.56164664 1.2813591 10197915
0.42352718 -0.56456298 1.294071 10724259
0.27825183 -0.52473116 1.2557672 6513507
0.32469538 -0.52501464 1.2681715 6513507
0.37483567 -0.52502328 1.2815689 6513507
0.42199594 -0.52526629 1.2941644 6513507
0.27709705 -0.47477245 1.2560966 6513507
0.32486561 -0.47501391 1.2688558 6513507
0.37488994 -0.47511908 1.2822192 6513507
0.42073748 -0.47513139 1.2944676 6513507
0.2759859 -0.42477342 1.2564384 6513507
0.3250542 -0.42499402 1.269546 6513507
0.37465882 -0.42500859 1.2827979 6513507
0.41926712 -0.42529643 1.2947114 6513507
0.24911198 -0.35838956 1.250107 6513507
0.27499804 -0.37494165 1.256812 6513507
0.32516193 -0.37494743 1.2702134 6513507
0.37487882 -0.37500796 1.2834944 6513507
0.41814372 -0.37527657 1.2950507 6513507
0.24835527 -0.32133588 1.250378 6513507
0.27449 -0.32498813 1.2573138 6513507
0.32482249 -0.32499972 1.2707609 6513507
0.37506312 -0.32501441 1.2841822 6513507
0.41705155 -0.32531559 1.2953972 6513507
0.24721898 -0.27299955 1.2506919 6513507
0.27466503 -0.27501452 1.2579985 6513507
0.32468492 -0.2751205 1.2713608 6513507
0.3749662 -0.27488545 1.2847993 6513507
0.41603747 -0.27534541 1.2957639 6513507
0.24613586 -0.22350451 1.2510345 6513507
0.27481163 -0.22502254 1.2586772 6513507
0.32462707 -0.22498848 1.2719854 6513507
0.37491477 -0.22501723 1.2854204 6513507
0.41495255 -0.22535385 1.2961134 6513507
0.2450615 -0.17418684 1.2513776 6513507
0.27494186 -0.17496468 1.2593517 6513507
0.32477328 -0.17504488 1.2726631 6513507
0.37458459 -0.17503019 1.2859707 6513507
0.41338158 -0.17527688 1.296333 6513507
0.24386634 -0.12421496 1.2516972 6513507
0.27512321 -0.12496822 1.2600377 6513507
0.32498223 -0.12503549 1.2733582 6513507
0.37474343 -0.1249777 1.2866533 6513507
0.41211602 -0.12542661 1.2966317 6513507
0.24273148 -0.074050099 1.2520348 6513507
0.27519798 -0.075081475 1.2606951 6513507
0.32516655 -0.074923873 1.2740471 6513507
0.37488544 -0.075086407 1.2873279 6513507
0.41116381 -0.075532332 1.2970148 6513507
0.24135165 -0.024692781 1.2522961 6513507
0.27504921 -0.025013609 1.2612947 6513507
0.32518476 -0.024856396 1.2746905 6513507
0.37517592 -0.025077976 1.288045 6513507
0.40998751 -0.025631795 1.297338 6513507
0.23996088 0.02542837 1.2525648 6513507
0.27448076 0.025093842 1.261783 6513507
0.32464758 0.024752889 1.2751818 6513507
0.37510523 0.025237583 1.2886689 6513507
0.4089326 0.024381742 1.2976954 6513507
0.23881504 0.07529179 1.2528957 6513507
0.27450016 0.075096615 1.2624271 6513507
0.32449341 0.074887432 1.275781 6513507
0.37460965 0.074956685 1.2891716 6513507
0.40762988 0.074794978 1.297991 6513507
0.23938365 0.10021614 1.2533662 6513507
0.27907321 0.10045914 1.2601275 6513507
0.32712248 0.10050901 1.2669631 6513507
0.3764967 0.10054237 1.2736305 6513507
0.42563403 0.10060851 1.2773961 6513507
0.47498289 0.1007569 1.2732819 6513507
0.52491152 0.10084219 1.2744173 6776679
0.57492632 0.10092945 1.2754056 7697781
0.62362111 0.10105142 1.2733399 8816262
0.67500389 0.1011718 1.2718463 10000536
0.72502226 0.1012568 1.2730191 10197915
0.77498835 0.10134428 1.2739788 10197915
0.82504249 0.10142896 1.2751843 10197915
0.87504554 0.1015154 1.2762355 10197915
0.92486465 0.1016007 1.2773439 10197915
0.9755004 0.10173195 1.27483 10197915
1.0117772 0.10165911 1.2866673 10197915
0.44758013 -0.56473005 1.3004946 10658466
0.47530589 -0.56752604 1.3078656 11053224
0.52548099 -0.57049686 1.3212335 11316396
0.57546067 -0.57349288 1.3345484 11513775
0.61665332 -0.57535565 1.3455292 11645361
0.44669935 -0.5230391 1.3007919 6513507
0.47477955 -0.5249905 1.3082684 6513507
0.52511239 -0.52498621 1.3217155 6513507
0.57524705 -0.52500546 1.3351096 6513507
0.61563009 -0.52543509 1.3458939 6513507
0.44568759 -0.47368059 1.3011523 6513507
0.47505277 -0.47500917 1.3089815 6513507
0.52501142 -0.47514811 1.3223265 6513507
0.57471281 -0.47499657 1.3356068 6513507
0.61416239 -0.47518057 1.3461432 6513507
0.44459882 -0.42402706 1.3014957 6513507
0.47485736 -0.42512193 1.3095669 6513507
0.52462864 -0.42486638 1.3228663 6513507
0.57461721 -0.42503601 1.3362194 6513507
0.61297178 -0.42544526 1.3464611 6513507
0.44351622 -0.37428591 1.3018417 6513507
0.47496763 -0.37500292 1.3102357 6513507
0.52472758 -0.37498519 1.3235289 6513507
0.57492661 -0.3750149 1.3369406 6513507
0.61195964 -0.37547845 1.3468287 6513507
0.44187182 -0.32445931 1.3020391 6513507
0.47468296 -0.32493994 1.310798 6513507
0.52504617 -0.32499507 1.3242539 6513507
0.57526141 -0.32499507 1.3376688 6513507
0.61089975 -0.32545385 1.3471845 6513507
0.44081959 -0.27431768 1.3023983 6513507
0.47489262 -0.27500236 1.311492 6513507
0.52501768 -0.27516532 1.3248827 6513507
0.57471627 -0.2749455 1.3381629 6513507
0.60931766 -0.27530456 1.3474025 6513507
0.43971065 -0.22444814 1.3027389 6513507
0.47500348 -0.22511567 1.3121597 6513507
0.52486062 -0.22490942 1.3254827 6513507
0.57461935 -0.22501369 1.3387753 6513507
0.6082198 -0.22568868 1.3477435 6513507
0.43859452 -0.17460001 1.3030779 6513507
0.47475961 -0.17497247 1.3127366 6513507
0.52463585 -0.17500669 1.3260601 6513507
0.57491314 -0.175052 1.3394915 6513507
0.60719877 -0.17567395 1.3481086 6513507
0.43758816 -0.12466203 1.3034467 6513507
0.47500405 -0.12499238 1.3134388 6513507
0.52485079 -0.12502703 1.3267555 6513507
0.57514161 -0.12502301 1.3401923 6513507
0.6062054 -0.12586394 1.3484806 6513507
0.43581524 -0.074484736 1.3036133 6513507
0.47470063 -0.075057521 1.3139949 6513507
0.52520442 -0.075119704 1.3274872 6513507
0.57484692 -0.074928641 1.3407537 6513507
0.60454631 -0.075950354 1.3486747 6513507
0.43480125 -0.024469653 1.3039821 6513507
0.47499108 -0.025052579 1.3147112 6513507
0.52479434 -0.024978295 1.328018 6513507
0.57462889 -0.025004143 1.3413321 6513507
0.60349083 -0.026708303 1.3490222 6513507
0.43374899 0.025169903 1.304335 6513507
0.47481516 0.024944602 1.3153032 6513507
0.52464992 0.025059359 1.32862 6513507
0.57493752 0.025022121 1.3420539 6513507
0.60247296 0.02298375 1.3493843 6513507
0.43254501 0.075143039 1.3046522 6513507
0.47478509 0.075079009 1.3159374 6513507
0.52489382 0.074939318 1.3293216 6513507
0.57519674 0.075046681 1.342762 6513507
0.60148335 0.069897726 1.349719 6513507
0.44076061 0.10017183 1.3069878 6513507
0.47900608 0.10028148 1.311565 6513507
0.52688831 0.10030904 1.3178996 6513507
0.57565606 0.10033252 1.3242193 6513507
0.62503558 0.10044072 1.3234538 6513507
0.67500639 0.10058715 1.31959 6579300
0.72496152 0.10067403 1.3206073 7566195
0.77499819 0.10075754 1.3219019 8553090
0.82498175 0.10084561 1.3228174 9605778
0.87505049 0.10092964 1.3240809 10197915
0.92520398 0.10101532 1.3252047 10197915
0.97502548 0.1011011 1.326287 10197915
1.0240976 0.10117538 1.328173 10197915
1.0589156 0.10107488 1.342026 10197915
0.71013397 -0.60000926 1.3701893 11711154
0.78199852 -0.60006535 1.3893882 11711154
0.81434035 -0.60003698 1.3980293 11711154
0.64152551 -0.57422429 1.3521887 11645361
0.67500818 -0.57501113 1.3611244 11711154
0.72491962 -0.57504368 1.374458 11711154
0.77447748 -0.57498592 1.3876991 11711154
0.81005543 -0.57537234 1.3971996 11711154
0.64050508 -0.52434421 1.3525535 6513507
0.67470449 -0.52503675 1.3616817 6579300
0.72460979 -0.52499127 1.3750153 6710886
0.7748087 -0.52497602 1.3884268 6842472
0.80902314 -0.52558202 1.3975594 6974058
0.63946599 -0.47445878 1.3529131 6513507
0.67504197 -0.47499788 1.3624117 6513507
0.72499555 -0.47499821 1.3757571 6513507
0.77522427 -0.47500294 1.389176 6513507
0.80808473 -0.47577325 1.397947 6513507
0.63787341 -0.42455342 1.3531255 6513507
0.67482138 -0.42497447 1.3629909 6513507
0.72496343 -0.42513376 1.3763849 6513507
0.77468401 -0.42498013 1.3896699 6513507
0.80653405 -0.42550841 1.3981727 6513507
0.63682598 -0.37455633 1.3534845 6513507
0.67482454 -0.37517163 1.363628 6513507
0.72478032 -0.37481654 1.376979 6513507
0.77471852 -0.37503019 1.3903182 6513507
0.80541462 -0.37615809 1.3985047 6513507
0.63574451 -0.32469037 1.3538327 6513507
0.67485106 -0.32498944 1.3642765 6513507
0.72482413 -0.32503158 1.3776274 6513507
0.77511263 -0.32498544 1.3910617 6513507
0.80448121 -0.32668692 1.3988872 6513507
0.6345343 -0.27485523 1.3541454 6513507
0.67503273 -0.27486217 1.3649653 6513507
0.72502428 -0.27517211 1.3783171 6513507
0.7749334 -0.2749899 1.3916545 6513507
0.80308688 -0.27610323 1.3991609 6513507
0.63306898 -0.22464006 1.3543963 6513507
0.67489487 -0.22500263 1.3655652 6513507
0.72493821 -0.2249888 1.3789357 6513507
0.77457166 -0.22504887 1.3921945 6513507
0.80189401 -0.22829168 1.3994528 6513507
0.63207966 -0.17470019 1.3547686 6513507
0.67466229 -0.17497329 1.3661425 6513507
0.72464687 -0.17504621 1.3794953 6513507
0.77503365 -0.17502551 1.3929565 6513507
0.80111772 -0.18530685 1.3997947 6513507
0.63094103 -0.1246565 1.3551035 6513507
0.67500567 -0.12498116 1.3668724 6513507
0.72513479 -0.12503046 1.380264 6513507
0.77468824 -0.12525043 1.393502 6513507
0.62973058 -0.074890271 1.355417 6513507
0.67490888 -0.074762538 1.3674881 6513507
0.72472316 -0.075138345 1.3807917 6513507
0.77287954 -0.075105846 1.3936574 6513507
0.62823391 -0.024765791 1.3556571 6513507
0.67478091 -0.025098717 1.368089 6513507
0.7248413 -0.024983207 1.3814639 6513507
0.77202541 -0.025082458 1.3940691 6513507
0.6271987 0.025207264 1.3560188 6513507
0.6748274 0.024952561 1.3687395 6513507
0.7248714 0.025107302 1.3821127 6513507
0.77104598 0.024589669 1.3944416 6513507
0.62641293 0.075206347 1.3564478 6513507
0.67517555 0.074908443 1.3694712 6513507
0.72495228 0.075417511 1.3826731 6513507
0.76982003 0.075301863 1.3946502 6513507
0.82339001 0.099962078 1.3947192 6513507
0.63661313 0.10013493 1.3502998 6513507
0.67553496 0.10012309 1.3575844 6513507
0.72561246 0.10020111 1.3593358 6513507
0.77488673 0.10021042 1.3665681 6513507
0.82536197 0.10028894 1.3683449 6513507
0.87491232 0.10029836 1.3756129 6908265
0.92484719 0.1003847 1.3766592 7895160
0.97486508 0.10046735 1.3780202 8816262
1.0245572 0.10055862 1.3786191 9737364
1.0715275 0.10069127 1.3753998 10197915
1.1020275 0.1006024 1.3876115 10197915
0.8349992 -0.60007977 1.403548 11711154
0.87433773 -0.60013348 1.4140574 11711154
0.92465168 -0.60013044 1.4274993 11711154
0.97817189 -0.60019279 1.4417973 11711154
1.0085446 -0.60008103 1.4499133 11711154
0.83542973 -0.57467318 1.4039841 11711154
0.87491673 -0.57499135 1.4145321 11711154
0.92454255 -0.57501948 1.4277914 11711154
0.97475004 -0.57519877 1.4412024 11711154
1.0038676 -0.57542193 1.4489787 11711154
0.83378083 -0.52463633 1.4041835 6974058
0.87470543 -0.52499866 1.4151158 7105644
0.92504096 -0.5250414 1.4285623 7237230
0.97486699 -0.52501833 1.441874 7368816
1.0025969 -0.52705544 1.4492569 7631988
0.83282179 -0.47466472 1.404569 6513507
0.87499905 -0.47513059 1.4158304 6513507
0.92499202 -0.47503811 1.4291885 6513507
0.97506708 -0.47484231 1.4425694 6513507
1.0017434 -0.47980091 1.449633 6513507
0.83181924 -0.42467126 1.4049374 6513507
0.87496066 -0.42500761 1.4164598 6513507
0.92462468 -0.42497763 1.4297299 6513507
0.97466564 -0.4251509 1.4430959 6513507
1.0004426 -0.432919 1.4498843 6513507
0.83015084 -0.37471589 1.4051334 6513507
0.87469667 -0.37499928 1.4170299 6513507
0.92509222 -0.37496823 1.4304938 6513507
0.97409606 -0.37525684 1.4435822 6513507
0.82916844 -0.32473266 1.4055078 6513507
0.87495816 -0.32514107 1.4177352 6513507
0.92489094 -0.32497704 1.4310782 6513507
0.97266567 -0.32510361 1.4438404 6513507
0.82820117 -0.27470776 1.4058884 6513507
0.87497389 -0.27496871 1.4183807 6513507
0.92465097 -0.2750015 1.4316523 6513507
0.97154176 -0.2752834 1.4441766 6513507
0.82660359 -0.22469249 1.4061 6513507
0.87477219 -0.2249842 1.4189646 6513507
0.92516947 -0.22501293 1.4324294 6513507
0.97055447 -0.22532898 1.4445513 6513507
0.82559747 -0.17468965 1.4064693 6513507
0.87491953 -0.17518151 1.4196415 6513507
0.92478311 -0.17495343 1.4329654 6513507
0.96910471 -0.17522931 1.4448029 6513507
0.79935968 -0.12133506 1.4001422 6513507
0.82511842 -0.12484659 1.4069823 6513507
0.87486005 -0.12502691 1.4202657 6513507
0.9246847 -0.12497547 1.433578 6513507
0.96804804 -0.12536325 1.445158 6513507
0.79806119 -0.071101114 1.400437 6513507
0.82449365 -0.075163908 1.4074454 6513507
0.87496388 -0.074939072 1.4209337 6513507
0.9252072 -0.07494013 1.4343562 6513507
0.96696341 -0.075520068 1.4455047 6513507
0.79713947 -0.023062536 1.4008038 6513507
0.82496923 -0.025084168 1.408214 6513507
0.8747707 -0.025139932 1.4215183 6513507
0.92470253 -0.024784716 1.4348625 6513507
0.96543479 -0.025570946 1.4457347 6513507
0.79602343 0.025455179 1.4011254 6513507
0.82523519 0.025232598 1.4089289 6513507
0.87488848 0.024919078 1.4221897 6513507
0.92482769 0.024980618 1.4355321 6513507
0.96449637 0.024705641 1.4461269 6513507
0.79453492 0.075881444 1.4013721 6513507
0.82460386 0.075300291 1.409341 6513507
0.87501222 0.075812772 1.4224896 6513507
0.92514718 0.076207139 1.4353284 6513507
0.96460634 0.077154733 1.4451857 6513507
1.0248603 0.099869668 1.4349445 6513507
1.0745939 0.09986455 1.4434191 6513507
1.1245782 0.099948905 1.4446383 6513507
0.94797945 0.10000277 1.411606 6513507
0.97474098 0.10004807 1.4122456 6513507
1.0263095 0.10014676 1.4125466 6776679
1.0748519 0.10021636 1.414731 8355711
1.1147333 0.10023672 1.4195355 9013641
1.0291389 -0.60021102 1.4554136 11711154
1.074405 -0.60023606 1.4675068 11711154
1.1251429 -0.60028756 1.4810616 11711154
1.1727523 -0.60028726 1.4937811 11711154
1.0286146 -0.57469201 1.4555997 11711154
1.0745691 -0.57498473 1.4678732 11711154
1.1249075 -0.57497203 1.4813223 11711154
1.1714586 -0.575023 1.4937587 11711154
1.0276812 -0.52473474 1.4559888 7500402
1.0751116 -0.52497876 1.4686573 7631988
1.1247964 -0.52502686 1.4819304 7763574
1.1709601 -0.52522659 1.4942611 7960953
1.0262436 -0.47491089 1.4562411 6513507
1.0747963 -0.47500259 1.4692113 6513507
1.1248881 -0.47483411 1.4825963 6513507
1.1700306 -0.47523531 1.4946519 6513507
1.0251381 -0.42474923 1.4565861 6513507
1.0747784 -0.42500067 1.4698453 6513507
1.1248866 -0.42520592 1.4832292 6513507
1.1688071 -0.4249948 1.4949664 6513507
0.99882334 -0.36810592 1.4502795 6513507
1.0250363 -0.37507448 1.4571937 6513507
1.0752953 -0.37495759 1.4706227 6513507
1.1249998 -0.37500411 1.483901 6513507
1.1674212 -0.37531766 1.4952306 6513507
0.99800956 -0.32255596 1.450644 6513507
1.024893 -0.32499459 1.4577945 6513507
1.0744737 -0.32498923 1.4710417 6513507
1.1248906 -0.32500401 1.4845114 6513507
1.166602 -0.32539698 1.4956497 6513507
0.99637204 -0.27317759 1.4508373 6513507
1.0247308 -0.27497616 1.4583905 6513507
1.0750231 -0.27499828 1.4718267 6513507
1.124747 -0.27507138 1.4851103 6513507
1.1650062 -0.27536902 1.4958626 6513507
0.99545991 -0.22342721 1.4512295 6513507
1.0249695 -0.22518741 1.4590902 6513507
1.074955 -0.2249859 1.472448 6513507
1.1249553 -0.22484367 1.4858079 6513507
1.164073 -0.22547007 1.4962503 6513507
0.99435961 -0.17451923 1.45156 6513507
1.0248125 -0.17486873 1.4596912 6513507
1.0746229 -0.17495421 1.4729985 6513507
1.1248189 -0.17519601 1.4864057 6513507
1.1628268 -0.17517221 1.4965602 6513507
0.99287736 -0.12409122 1.4518077 6513507
1.0249872 -0.12501994 1.4603751 6513507
1.0751703 -0.12505564 1.4737816 6513507
1.1248887 -0.12490902 1.4870667 6513507
1.1616037 -0.12577111 1.4968646 6513507
0.99197394 -0.074325584 1.4522027 6513507
1.0247915 -0.07499218 1.4609616 6513507
1.0746731 -0.075094976 1.4742868 6513507
1.1251162 -0.074857682 1.4877664 6513507
1.1606195 -0.07567066 1.4972414 6513507
0.99061996 -0.024955451 1.4524713 6513507
1.0248711 -0.024641449 1.4616253 6513507
1.0749021 -0.025051583 1.4749877 6513507
1.124608 -0.025135092 1.4882661 6513507
1.1590704 -0.02534258 1.4974709 6513507
0.9893021 0.025719728 1.4527665 6513507
1.0250415 0.024806524 1.462304 6513507
1.0752614 0.024962321 1.4757217 6513507
1.1249285 0.025155813 1.488994 6513507
1.1581275 0.024039129 1.4978497 6513507
0.98849928 0.075609453 1.4531897 6513507
1.0248799 0.075266913 1.4627266 6513507
1.0745816 0.076039009 1.4755532 6513507
1.1250386 0.076329514 1.4883078 6513507
1.1579981 0.077848256 1.495787 6513507
1.1926434 -0.51280773 1.5002129 6513507
1.1919696 -0.47245976 1.5005484 6513507
1.1911292 -0.42353097 1.5009493 6513507
1.1902009 -0.37377843 1.5013368 6513507
1.1893181 -0.32391638 1.5017376 6513507
1.1884702 -0.2742447 1.5021449 6513507
1.1876661 -0.22441153 1.5025671 6513507
1.1867665 -0.17437437 1.5029653 6513507
1.185807 -0.12424106 1.5033499 6513507
1.1849703 -0.07425838 1.5037655 6513507
1.1841103 -0.024489276 1.5041716 6513507
1.1832507 0.025306517 1.5045774 6513507
1.1816546 0.075105719 1.5047808 6513507
