# .PCD v0.7 - Point Cloud Data file format
VERSION 0.7
FIELDS x y z rgb
SIZE 4 4 4 4
TYPE F F F U
COUNT 1 1 1 1
WIDTH 1160
HEIGHT 1
VIEWPOINT 0 0 0 1 0 0 0
POINTS 1160
DATA ascii
-0.79087496 0.10127747 2.7467582 6447714
-0.61438626 0.10107269 2.7412045 6447714
-0.17287564 0.1005604 2.7273107 6447714
-0.12422074 0.10050395 2.7257795 6447714
-0.074490584 0.10044623 2.7242146 6447714
-0.024817141 0.10037176 2.7221937 6447714
0.0011242727 0.10006028 2.7137465 6447714
-0.085794523 -1.2509691 2.7984834 6447714
-0.069754608 -1.222531 2.781317 6447714
-0.045741949 -1.2162641 2.7553666 6447714
-0.067998901 -1.1750066 2.7797451 6447714
-0.045666646 -1.1747056 2.7555728 6447714
-0.068000533 -1.125017 2.7800934 6447714
-0.045672491 -1.1246196 2.7559259 6447714
-0.067929432 -1.0750158 2.7803624 6447714
-0.045068219 -1.0734679 2.755626 6447714
-0.067967132 -1.0250014 2.7807493 6447714
-0.04452334 -1.0250804 2.7553711 6447714
-0.067990057 -0.97505009 2.7811196 6447714
-0.044529043 -0.97497857 2.7557251 6447714
-0.067999169 -0.92501086 2.7814777 6447714
-0.044534758 -0.92486387 2.756078 6447714
-0.067764707 -0.87514323 2.7815673 6447714
-0.044540465 -0.87473619 2.7564313 6447714
-0.066856846 -0.82489681 2.7809327 6447714
-0.044524558 -0.82505345 2.756758 6447714
-0.066807128 -0.77487934 2.7812257 6447714
-0.044551775 -0.77535498 2.7571309 6447714
-0.066869639 -0.72493267 2.7816379 6447714
-0.044085633 -0.7240684 2.7569811 6447714
-0.066812299 -0.67505413 2.7819223 6447714
-0.043402795 -0.67493123 2.7565818 6447714
-0.066875152 -0.6250819 2.7823358 6447714
-0.043399516 -0.6249516 2.7569251 6447714
-1.6611305 -0.57338643 2.7551713 1323861
-0.066876121 -0.57509524 2.7826836 6447714
-0.043413892 -0.57496107 2.7572868 6447714
-1.6617182 -0.52499521 2.754833 1324121
-0.0668258 -0.52517939 2.782974 6447714
-0.043392818 -0.52495605 2.7576084 6447714
-1.6618005 -0.47480172 2.7549696 1324377
-0.065893903 -0.4752799 2.7823102 6447714
-0.043424971 -0.47494036 2.7579901 6447714
-1.6599272 -0.44328463 2.756835 1257810
-0.065618917 -0.42491576 2.7823608 6447714
-0.043386098 -0.42491084 2.7582948 6447714
-1.6624234 -0.35558617 2.7549021 1456478
-0.065770254 -0.37495345 2.782872 6447714
-0.043139793 -0.37420213 2.758379 6447714
-1.6612917 -0.32464993 2.756079 1324632
-0.065770045 -0.32497668 2.7832177 6447714
-0.042311955 -0.32496309 2.7578239 6447714
-1.6575702 -0.29630053 2.7596371 1059913
-0.065711245 -0.27499005 2.7835002 6447714
-0.04228697 -0.27489072 2.7581434 6447714
-1.6617761 -0.21672082 2.7560887 1390169
-0.065753713 -0.22498623 2.7838917 6447714
-0.04230763 -0.22480449 2.7585123 6447714
-1.6616257 -0.17548972 2.7564027 1258582
-0.065627187 -0.17497425 2.7841003 6447714
-0.042282552 -0.17503464 2.7588291 6447714
-1.6616411 -0.12562273 2.7566001 1125970
-0.065143883 -0.12522057 2.7839224 6447714
-0.042226557 -0.12542032 2.7591128 6447714
-1.6619757 -0.07478749 2.7565091 1258582
-0.064514287 -0.075156808 2.7835872 6447714
-0.042308494 -0.075453795 2.759547 6447714
-1.6625384 -0.025120705 2.7561986 1390682
-0.064615399 -0.025374148 2.7840414 6447714
-0.042195022 -0.024860857 2.7597749 6447714
-1.6625489 0.025329312 2.7564037 1456475
-1.2134962 0.038165975 2.7624979 2039583
-1.1911174 0.046329983 2.7590508 2039583
-0.064623781 0.025378518 2.7844009 6447714
-0.041159686 0.025146985 2.7590008 6447714
-1.6619706 0.075389042 2.7571516 1390425
-1.202215 0.053074006 2.7849181 2039583
-1.17263 0.062556781 2.7774282 2039583
-1.125754 0.081539348 2.7744186 2039583
-1.0845641 0.09389881 2.7621047 2039583
-0.064539038 0.07518667 2.7846544 6447714
-0.041164972 0.075449564 2.7593541 6447714
-1.6620128 0.10166333 2.7572231 1258326
-1.557765 0.10216733 2.7708919 2505039
-1.5250578 0.10212937 2.7698629 2565927
-1.4748729 0.10207114 2.7682836 2039583
-1.4247453 0.10201298 2.7667062 2039583
-1.3746749 0.10195488 2.7651308 2039583
-1.3246613 0.10189684 2.7635562 2039583
-1.2747048 0.10183888 2.7619848 2039583
-1.2248046 0.10178098 2.7604144 2039583
-1.174962 0.10172315 2.7588453 2039583
-1.123171 0.10158312 2.7605081 2039583
-1.0808429 0.1013736 2.7602382 2039583
-0.62906867 0.10078994 2.796376 6447714
-0.20174402 0.1002956 2.7826605 6447714
-0.17517783 0.10026484 2.7818074 6447714
-0.12439625 0.10020611 2.7801774 6447714
-0.077127762 0.10014756 2.7785535 6447714
-0.11969897 -1.25942 2.8351266 6447714
-0.095081799 -1.2531284 2.8085217 6447714
-0.11607663 -1.2248511 2.8314447 6447714
-0.093665853 -1.2237222 2.8071926 6447714
-0.1161979 -1.1749239 2.8319218 6447714
-0.093061768 -1.1750475 2.8068757 6447714
-0.11613283 -1.1249794 2.8321979 6447714
-0.093017548 -1.1251911 2.8071733 6447714
-0.11619186 -1.0750242 2.8326063 6447714
-0.093038999 -1.0751238 2.8075438 6447714
-0.11618913 -1.0250542 2.8329489 6447714
-0.093059994 -1.0250489 2.8079123 6447714
-0.11624823 -0.9750731 2.8333588 6447714
-0.093081348 -0.97495818 2.8082817 6447714
-0.11620153 -0.92498845 2.8336563 6447714
-0.093093179 -0.92504811 2.8086405 6447714
-0.11532996 -0.87534738 2.8330564 6447714
-0.092853658 -0.87448812 2.8087318 6447714
-0.11505079 -0.82511574 2.8331017 6447714
-0.091912761 -0.82480776 2.8080568 6447714
-0.11499389 -0.77503961 2.8333867 6447714
-0.09192469 -0.77488279 2.8084157 6447714
-0.11505608 -0.72504675 2.8337998 6447714
-0.091936238 -0.72494531 2.8087728 6447714
-1.5679171 -0.6736095 2.8418193 9934743
-0.11507114 -0.67504317 2.8341627 6447714
-0.091948122 -0.67499489 2.8091328 6447714
-0.11512408 -0.62502486 2.8345659 6447714
-0.091912173 -0.6248678 2.8094404 6447714
-1.583654 -0.55917048 2.8268058 5003625
-0.11504316 -0.57499474 2.8348248 6447714
-0.091955245 -0.57488936 2.8098323 6447714
-1.5766171 -0.52488917 2.8334506 7304830
-0.11475459 -0.52550679 2.8348548 6447714
-0.09198343 -0.52506834 2.8102078 6447714
-1.5766224 -0.4750413 2.8336589 6317936
-0.11387917 -0.47512567 2.8342559 6447714
-0.09091226 -0.47473875 2.8093972 6447714
-1.5766901 -0.42504293 2.8338091 2501941
-0.11392534 -0.42501003 2.8346534 6447714
-0.090782054 -0.42499962 2.8096006 6447714
-1.5742277 -0.38104853 2.8362703 1843495
-0.1139397 -0.37498662 2.8350153 6447714
-0.090835415 -0.37499723 2.8100045 6447714
-1.5930912 -0.30016461 2.8191876 1323081
-0.11392311 -0.32495397 2.8353429 6447714
-0.090770021 -0.32512569 2.8102782 6447714
-1.5797921 -0.26971063 2.8316031 1713198
-0.11397909 -0.27490395 2.8357506 6447714
-0.090872288 -0.2749508 2.8107364 6447714
-1.5754935 -0.23708577 2.8357115 1843495
-0.11389934 -0.22495049 2.8360097 6447714
-0.090764105 -0.225058 2.8109651 6447714
-1.5855681 -0.1584684 2.8267391 1517367
-0.11395551 -0.1751992 2.8364146 6447714
-0.09094391 -0.17499581 2.8115065 6447714
-1.5778639 -0.12503941 2.8339984 1712682
-0.1129745 -0.12544946 2.8356979 6447714
-0.089969829 -0.12425899 2.8108027 6447714
-1.5775648 -0.074993782 2.8344882 1712681
-0.11268628 -0.074845172 2.8357356 6447714
-0.089791723 -0.074905433 2.810951 6447714
-1.5772926 -0.024664022 2.8349528 1712424
-0.11281962 -0.024674801 2.8362267 6447714
-0.089578897 -0.024855137 2.8110678 6447714
-1.5773693 0.024665639 2.8350916 1712424
-0.11283384 0.024678927 2.836585 6447714
-0.089590281 0.024859332 2.8114243 6447714
-1.5776149 0.074789867 2.835077 1712424
-1.1639057 0.082802042 2.8142762 2039583
-1.1375391 0.094199374 2.8141956 2039583
-0.20586161 0.099989861 2.839453 6447714
-0.17521675 0.099954523 2.8384492 6447714
-0.11401688 0.076390944 2.8368077 6447714
-0.089825988 0.074935153 2.812026 6447714
-1.5716681 0.10142323 2.8309052 2172203
-1.5250591 0.1018265 2.8251348 2039583
-1.4750631 0.10176867 2.8235302 2039583
-1.4251238 0.10171089 2.8219271 2039583
-1.3752413 0.10165318 2.8203263 2039583
-1.3254156 0.10159554 2.818727 2039583
-1.275646 0.10153796 2.8171294 2039583
-1.2259328 0.10148045 2.8155339 2039583
-1.1750945 0.10142164 2.8139021 2039583
-1.1296926 0.10132217 2.811142 2039583
-0.90416294 0.10110819 2.8052056 6447714
-0.87481737 0.10107426 2.8042638 6447714
-0.82555717 0.10101726 2.8026829 6447714
-0.79977393 0.10098742 2.8018548 6513507
-0.16582166 -1.2702808 2.884979 6447714
-0.14212954 -1.2641845 2.8593745 6447714
-0.16492933 -1.224802 2.8843274 6447714
-0.14092612 -1.2249421 2.8583434 6447714
-0.16460733 -1.1752272 2.8843226 6447714
-0.14091046 -1.175018 2.8586724 6447714
-0.16364896 -1.124938 2.8836341 6447714
-0.14099601 -1.1249137 2.8591123 6447714
-0.1636373 -1.0750084 2.8839676 6447714
-0.14092954 -1.0749639 2.859386 6447714
-0.16373523 -1.0249574 2.8844204 6447714
-0.1409812 -1.0250033 2.8597877 6447714
-0.16370052 -0.97500181 2.884728 6447714
-0.14103311 -0.97502756 2.8601902 6447714
-0.16377695 -0.92503393 2.8851564 6447714
-0.14100042 -0.92504048 2.8605011 6447714
-0.16379793 -0.87494403 2.8855245 6447714
-0.140072 -0.87460524 2.8598454 6447714
-0.16378562 -0.82505906 2.8858571 6447714
-0.13984363 -0.82507992 2.8599408 6447714
-1.504797 -0.75059706 2.8988414 9934743
-0.16285776 -0.77550316 2.8851969 6447714
-0.13978788 -0.77482522 2.8602276 6447714
-1.5130416 -0.72708684 2.8913238 9934743
-0.16252792 -0.724958 2.8851886 6447714
-0.13984998 -0.72485369 2.8606408 6447714
-1.6000466 -0.68336558 2.8587415 9934743
-1.5553125 -0.66404194 2.8532269 9934743
-1.5419908 -0.65760273 2.864876 9934743
-0.16260363 -0.67496079 2.8856165 6447714
-0.13987525 -0.67501533 2.8610134 6447714
-1.5513346 -0.64964354 2.8562775 9934743
-1.5228463 -0.63382995 2.8826616 9803157
-0.16260619 -0.62495029 2.8859661 6447714
-0.13990782 -0.62501693 2.8613942 6447714
-0.1626756 -0.57504666 2.8863862 6447714
-0.13987403 -0.57485771 2.8617055 6447714
-1.5547485 -0.52141887 2.8536689 9934743
-1.5358071 -0.51325917 2.8712022 3947580
-0.16263549 -0.52512991 2.886688 6447714
-0.13947979 -0.5243392 2.8616281 6447714
-1.5541096 -0.47411418 2.85446 3026478
-1.5270694 -0.47511461 2.879436 3158064
-0.16268669 -0.47508103 2.8870907 6447714
-0.13868542 -0.47504991 2.86111 6447714
-1.5540408 -0.4245826 2.8547344 2039583
-1.5270959 -0.42505205 2.8796246 5197647
-0.16238178 -0.42551368 2.8871045 6447714
-0.13866368 -0.4249272 2.8614333 6447714
-1.5541171 -0.37492844 2.8548751 2302755
-1.5271409 -0.37505001 2.8797936 6316128
-0.16145085 -0.37508601 2.8864453 6447714
-0.13874699 -0.37492082 2.8618703 6447714
-1.5529238 -0.3468594 2.8560963 2631720
-1.5279374 -0.3381429 2.8792164 6381921
-0.16148512 -0.32503608 2.8868282 6447714
-0.13875161 -0.32490167 2.8622205 6447714
-1.5556672 -0.25958231 2.8539326 2105376
-1.5483828 -0.25954527 2.8606622 6447714
-0.16149212 -0.27497274 2.8871822 6447714
-0.13875614 -0.27487046 2.8625722 6447714
-1.5573778 -0.24356812 2.8524201 2039583
-0.16149929 -0.22503038 2.8875358 6447714
-0.13876073 -0.22482738 2.8629241 6447714
-0.16146508 -0.17534383 2.8878431 6447714
-0.13871326 -0.17464285 2.8632185 6447714
-1.5554999 -0.12021628 2.8546796 2039583
-1.5362419 -0.11206453 2.8725059 2039583
-0.1614994 -0.1255102 2.8882251 6447714
-0.13757481 -0.1245117 2.862334 6447714
-1.5553656 -0.074515648 2.8549974 2039583
-1.528371 -0.075124048 2.879935 2039583
-0.16157439 -0.075393714 2.888653 6447714
-0.13759238 -0.074716307 2.8626971 6447714
-1.5554423 -0.024839636 2.8551378 2039583
-1.5284102 -0.0250569 2.8801117 2039583
-0.16071425 -0.025747219 2.8880658 6447714
-0.13760985 -0.024908256 2.8630612 6447714
-1.5555185 0.024841269 2.8552785 2039583
-1.5284857 0.025058556 2.880254 2039583
-0.1603388 0.025126383 2.8880115 6447714
-0.1376273 0.02491246 2.863425 6447714
-1.5555949 0.074527048 2.8554187 2039583
-1.5285616 0.075178981 2.8803985 2039583
-0.20894714 0.099670023 2.898572 6447714
-0.16199371 0.077004515 2.8890033 6447714
-0.13764481 0.074745849 2.8637896 6447714
-1.5556352 0.10055468 2.8554919 2039583
-1.5275075 0.1012805 2.8761036 2039583
-1.4752607 0.10145388 2.8810267 2039583
-1.425518 0.10139649 2.8793974 2039583
-1.3746198 0.1013378 2.8777306 2039583
-1.3249904 0.10128057 2.8761053 2039583
-1.275417 0.1012234 2.8744814 2039583
-1.2246926 0.10116488 2.8728204 2039583
-1.18126 0.10111479 2.871398 2039583
-0.91318083 0.10080563 2.862618 6447714
-0.87604588 0.10076278 2.8614016 6447714
-0.83295768 0.10071309 2.8599908 6447714
-0.65150136 0.10050385 2.8540485 6513507
-0.64197206 0.10049284 2.8537357 6447714
-0.21599574 -1.3074962 2.9390357 6447714
-0.19593565 -1.3027618 2.9173529 6447714
-0.21281095 -1.2748091 2.9358132 6447714
-0.19066446 -1.2749219 2.9118402 6447714
-0.21289518 -1.22496 2.9362509 6447714
-0.19056369 -1.2250109 2.9120758 6447714
-0.21286531 -1.1750995 2.9365628 6447714
-0.19035812 -1.1745708 2.9122019 6447714
-0.21294947 -1.1250938 2.9369996 6447714
-0.1893331 -1.1251065 2.9114354 6447714
-0.21294823 -1.0750742 2.9373455 6447714
-0.18942679 -1.0749861 2.9118841 6447714
-0.21298991 -1.0250407 2.9377365 6447714
-0.18939507 -1.0249889 2.9121954 6447714
-0.21303128 -0.97499573 2.9381285 6447714
-0.18946141 -0.97497511 2.9126141 6447714
-0.21248637 -0.92581689 2.93788 6447714
-0.18945765 -0.92494965 2.9129567 6447714
-0.21176159 -0.87498182 2.9374459 6447714
-0.18945442 -0.87491405 2.9132993 6447714
-0.21175621 -0.82488632 2.9377868 6447714
-0.18957591 -0.8248626 2.9137771 6447714
-1.5020866 -0.75204533 2.9013393 9934743
-1.4692006 -0.76683283 2.931658 9934743
-0.21184798 -0.7750873 2.9382312 6447714
-0.18850003 -0.77446121 2.9129608 6447714
-1.5023963 -0.72595793 2.9011636 9934743
-1.4753286 -0.72505713 2.9261725 8553090
-0.21126816 -0.72429228 2.9379551 6447714
-0.18777138 -0.72553891 2.9125118 6447714
-1.4666358 -0.68513405 2.9343743 4276545
-0.21052471 -0.67501527 2.9374914 6447714
-0.18698342 -0.67492074 2.9120095 6447714
-1.5017956 -0.61725003 2.9021809 4868682
-1.4888388 -0.60913992 2.9141855 2039583
-0.21049508 -0.62506056 2.9378049 6447714
-0.18703476 -0.62500244 2.9124103 6447714
-1.4672931 -0.58482742 2.9341924 4671303
-0.21069278 -0.57496405 2.938365 6447714
-0.18708657 -0.57507002 2.912811 6447714
-0.20960066 -0.52562678 2.9375246 6447714
-0.18704075 -0.52512497 2.9131062 6447714
-1.5019861 -0.473405 2.9026158 6447714
-1.4837205 -0.46543235 2.919522 6381921
-0.20930633 -0.47493336 2.9375575 6447714
-0.18706475 -0.47516868 2.9134803 6447714
-1.5020313 -0.42451328 2.9027824 6381921
-1.4850844 -0.42840862 2.9184215 6381921
-0.20938873 -0.42494112 2.9379921 6447714
-0.18678056 -0.42453703 2.9135234 6447714
-1.5021632 -0.37877771 2.9028542 6381921
-1.4942075 -0.38807791 2.9101653 6381921
-0.20936753 -0.37508342 2.9383154 6447714
-0.18584242 -0.37493789 2.9128494 6447714
-0.209378 -0.32491159 2.9386737 6447714
-0.18590371 -0.32502294 2.9132619 6447714
-0.20948558 -0.27502966 2.9391353 6447714
-0.18592781 -0.27508935 2.9136336 6447714
-0.2093761 -0.22498761 2.9393628 6447714
-0.18583849 -0.22514664 2.9138834 6447714
-0.20944831 -0.17533435 2.9397843 6447714
-0.18590026 -0.17495044 2.9142976 6447714
-0.20811149 -0.12506142 2.9386864 6447714
-0.18611158 -0.12473082 2.9148734 6447714
-1.5034312 -0.073393919 2.9029806 2039583
-1.4837255 -0.064711094 2.921221 2039583
-0.20832206 -0.075135842 2.9392591 6447714
-0.18586956 -0.075246118 2.9149542 6447714
-1.5034381 -0.025257587 2.903178 2039583
-1.4764384 -0.025313128 2.9281223 2039583
-0.20816441 -0.025235921 2.9394341 6447714
-0.18507963 -0.024874715 2.9144475 6447714
-1.5035136 0.025259271 2.9033232 2039583
-1.4765389 0.025273923 2.9282427 2039583
-0.20819129 0.025240246 2.9398134 6447714
-0.1847586 0.025356377 2.9144468 6447714
-1.5035887 0.075781159 2.9034684 2039583
-1.4770502 0.074949317 2.927983 2039583
-0.20840186 0.075165726 2.940387 6447714
-0.184782 0.074870043 2.9148173 6447714
-1.4760076 0.10066904 2.9276247 2039583
-1.4246905 0.10106762 2.9392161 2039583
-1.3752086 0.10101074 2.937562 2039583
-1.3257825 0.10095392 2.9359097 2039583
-1.2751788 0.10089573 2.9342175 2039583
-1.2246329 0.10083763 2.9325278 2039583
-1.1963013 0.10080508 2.9315808 2039583
-0.92257637 0.10049039 2.92243 6447714
-0.87488091 0.10043555 2.9208353 6447714
-0.84066755 0.10039623 2.9196913 6447714
-0.65906477 0.10018746 2.91362 6447714
-0.2618193 -1.3187292 2.9885621 6447714
-0.23864408 -1.312865 2.9635146 6447714
-0.26025796 -1.2756586 2.9871697 6447714
-0.23683624 -1.2748927 2.9618206 6447714
-0.25983506 -1.2249922 2.9870629 6447714
-0.23686647 -1.2247418 2.9622006 6447714
-0.25995266 -1.1750268 2.9875352 6447714
-0.23680861 -1.1748478 2.9624844 6447714
-0.25991848 -1.1250414 2.9878449 6447714
-0.23695633 -1.124945 2.9629881 6447714
-0.26001069 -1.0752001 2.9882903 6447714
-0.23692808 -1.0748907 2.9633052 6447714
-0.26000229 -1.0250403 2.9886286 6447714
-0.23697276 -1.0249591 2.9636993 6447714
-0.26006901 -0.97501826 2.9890463 6447714
-0.23701802 -0.97501612 2.9640934 6447714
-0.26009384 -0.92513925 2.989419 6447714
-0.23639594 -0.92425275 2.9637716 6447714
-0.25869924 -0.87510395 2.988255 6447714
-0.23571871 -0.87497514 2.9633799 6447714
-0.25880924 -0.82498038 2.9887221 6447714
-0.23576875 -0.82511383 2.9637794 6447714
-1.4368122 -0.76096451 2.9616029 4473924
-0.25878435 -0.77502006 2.9890406 6447714
-0.23577248 -0.77511632 2.9641302 6447714
-1.4254717 -0.72440922 2.972234 3223857
-1.3974618 -0.71922523 2.9981334 6447714
-0.25881782 -0.72504979 2.9894233 6447714
-0.23577611 -0.72510713 2.9644794 6447714
-1.4248397 -0.67509013 2.9730282 5066061
-1.3975034 -0.67650086 2.998276 6447714
-0.25888911 -0.67506558 2.9898467 6447714
-0.23586574 -0.6749602 2.9649239 6447714
-1.4147319 -0.63708752 2.982528 6447714
-1.39835 -0.6302489 2.9976904 6447714
-0.25896081 -0.6250667 2.9902697 6447714
-0.23586951 -0.62492639 2.9652729 6447714
-1.4366257 -0.56194222 2.9626215 6447714
-0.25891656 -0.57505739 2.9905672 6447714
-0.23591915 -0.57499975 2.9656746 6447714
-1.4256541 -0.54479635 2.9728301 6447714
-0.25873011 -0.52562881 2.9907084 6447714
-0.23484349 -0.52467471 2.9648578 6447714
-0.2576856 -0.47503114 2.9899275 6447714
-0.23467602 -0.47514537 2.9650176 6447714
-0.25769579 -0.4251242 2.990284 6447714
-0.23462231 -0.42494935 2.9653084 6447714
-0.2576727 -0.37500042 2.9906054 6447714
-0.23465179 -0.37496483 2.9656856 6447714
-0.25769415 -0.32486495 2.9909763 6447714
-0.23471798 -0.32507429 2.966104 6447714
-1.3987232 -0.25420061 2.9989433 6447714
-0.25778326 -0.27512592 2.9914169 6447714
-0.23473622 -0.27506706 2.96647 6447714
-1.4087887 -0.21795188 2.9897985 6447714
-1.3989155 -0.22548069 2.9988883 6447714
-0.25787249 -0.2253712 2.9918575 6447714
-0.23481357 -0.22504102 2.966898 6447714
-1.4085835 -0.19362657 2.9900918 6447714
-1.3989875 -0.18885057 2.9989772 6447714
-0.2578938 -0.17519434 2.9922283 6447714
-0.23444201 -0.17471448 2.9668441 6447714
-0.25723314 -0.12571192 2.9918561 6447714
-0.23357233 -0.12523766 2.9662468 6447714
-1.4513009 -0.050129179 2.9512386 2039583
-0.25654605 -0.074359238 2.991468 6447714
-0.23348168 -0.074869037 2.9664984 6447714
-1.4513376 -0.024453681 2.9513133 2039583
-1.431772 -0.016796701 2.9694204 2039583
-0.25657853 -0.024789203 2.9918461 6447714
-0.23357077 -0.02458285 2.9669416 6447714
-1.4514078 0.02445526 2.9514565 2039583
-1.4250618 0.02465694 2.9757938 2039583
-0.25661096 0.024793372 2.9922247 6447714
-0.23360001 0.024586963 2.967314 6447714
-1.4522582 0.07626608 2.9508913 2039583
-1.4254315 0.07471893 2.9756684 2039583
-0.67440403 0.099866018 2.9759822 6447714
-0.25630087 0.063827768 2.9921591 6447714
-0.23238318 0.071677335 2.9663227 6447714
-1.4097658 0.10034474 2.9902484 2039583
-1.3631948 0.10065518 2.9994986 2039583
-1.3240842 0.10061036 2.9981632 2039583
-1.2749281 0.10055405 2.9964848 2039583
-1.2371516 0.10051075 2.9951956 2039583
-0.95737344 0.10019022 2.9856434 6447714
-0.92487192 0.10015297 2.9845338 6447714
-0.87491322 0.10009575 2.9828277 6447714
-0.31080416 -1.3555355 3.0413332 6447714
-0.29670617 -1.3518801 3.0260975 6447714
-0.3091248 -1.3242263 3.0397317 6447714
-0.28704622 -1.3244516 3.0158308 6447714
-0.30851191 -1.2750149 3.0394096 6447714
-0.28499985 -1.274222 3.013963 6447714
-0.30855155 -1.2248049 3.0398002 6447714
-0.28471562 -1.2249271 3.0139968 6447714
-0.30855036 -1.1747601 3.0401449 6447714
-0.28468996 -1.1750058 3.0143144 6447714
-0.30863059 -1.1248845 3.0405779 6447714
-0.28475392 -1.1249487 3.0147297 6447714
-0.30736998 -1.0753344 3.039556 6447714
-0.28481799 -1.0748777 3.015146 6447714
-0.30729133 -1.0251154 3.0398188 6447714
-0.28486139 -1.0249178 3.0155392 6447714
-0.30729502 -0.97507584 3.0401685 6447714
-0.28484944 -0.97494543 3.0158715 6447714
-1.3428872 -0.90348625 3.0477669 2829099
-0.30737001 -0.9250235 3.0405958 6447714
-0.28493425 -0.92496085 3.0163097 6447714
-1.3604544 -0.87219387 3.0316713 2960685
-1.3453441 -0.87595052 3.0456142 5723991
-0.3074095 -0.87474841 3.0409863 6447714
-0.28352019 -0.87519705 3.0151246 6447714
-1.3532084 -0.84884995 3.0384643 6447714
-1.3453074 -0.84522581 3.0457783 6447714
-0.30740061 -0.82488078 3.0413237 6447714
-0.28355739 -0.82522088 3.0155098 6447714
-0.30748793 -0.77499956 3.0417624 6447714
-0.28365642 -0.77512276 3.0159638 6447714
-1.3816979 -0.71159488 3.0127285 6447714
-0.30745512 -0.72509444 3.0420725 6447714
-0.28362995 -0.72512233 3.0162811 6447714
-1.3731474 -0.67475516 3.0207827 6447714
-1.3464018 -0.67106473 3.0455079 6447714
-0.30614945 -0.67477554 3.041007 6447714
-0.28372887 -0.67511129 3.0167336 6447714
-1.3755308 -0.6283524 3.0187781 6447714
-1.3465762 -0.63664049 3.0454934 6447714
-0.30618808 -0.62496495 3.0413938 6447714
-0.28373981 -0.62508535 3.0170934 6447714
-1.3853476 -0.59977698 3.0098324 6447714
-0.30622721 -0.57514155 3.0417809 6447714
-0.28380147 -0.57504767 3.0175042 6447714
-0.30629513 -0.52505392 3.0422006 6447714
-0.28354096 -0.52474391 3.017571 6447714
-0.30630565 -0.474953 3.0425591 6447714
-0.28245896 -0.47502694 3.0167444 6447714
-0.30634487 -0.42483944 3.0429494 6447714
-0.2825239 -0.42498493 3.0171616 6447714
-1.3520845 -0.35525158 3.0416002 6447714
-1.3462369 -0.35589379 3.0469992 6447714
-0.30629694 -0.37522164 3.043241 6447714
-0.28251949 -0.37493035 3.0175035 6447714
-1.3599783 -0.32002378 3.0344553 6447714
-1.3460364 -0.32697877 3.047307 6447714
-0.30630663 -0.325782 3.0435927 6447714
-0.28255528 -0.324967 3.0178874 6447714
-1.3705374 -0.27284861 3.0249023 6447714
-1.3468231 -0.27517095 3.0468011 6447714
-0.3050454 -0.27478951 3.0425808 6447714
-0.28252771 -0.27509582 3.0182045 6447714
-1.3735963 -0.2248693 3.02228 6447714
-1.3468903 -0.22469209 3.0469534 6447714
-0.30508459 -0.22439814 3.0429721 6447714
-0.28254038 -0.22510864 3.0185637 6447714
-1.3708098 -0.1784761 3.0250525 6447714
-1.3469577 -0.17420813 3.0471056 6447714
-0.30519575 -0.17461172 3.0434368 6447714
-0.2827042 -0.17510751 3.0190871 6447714
-1.3558735 -0.14559686 3.0389907 6447714
-1.3469076 -0.14092982 3.0472927 6447714
-0.30508915 -0.1254798 3.0436618 6447714
-0.28208953 -0.12456937 3.0187702 6447714
-0.3052004 -0.075668171 3.0441267 6447714
-0.28139049 -0.075027645 3.0183573 6447714
-1.3970735 -0.0018650023 3.0015397 2039583
-0.30523968 -0.025225615 3.0445194 6447714
-0.28142649 -0.025012031 3.0187428 6447714
-1.3795803 0.031080725 3.0178406 2039583
-1.3473878 0.044968255 3.0476391 2039583
-0.30507433 0.022162905 3.0446682 6447714
-0.28139755 0.024923392 3.0190568 6447714
-1.37479 0.075130187 3.0224519 2039583
-1.3472912 0.075761713 3.0478587 2039583
-0.92216057 0.099795237 3.049161 6447714
-0.88387519 0.099751532 3.0478249 6447714
-0.69041526 0.099530652 3.0410767 6447714
-0.27435255 0.057681564 3.0116577 6447714
-1.3884465 0.10068409 3.0003603 2039583
-0.35762817 -1.3666983 3.0919435 6447714
-0.33580223 -1.361403 3.0683534 6447714
-0.35736665 -1.3247793 3.0919497 6447714
-0.33423671 -1.3250643 3.0669096 6447714
-0.35744208 -1.2747265 3.0923789 6447714
-0.33417317 -1.2749847 3.0671883 6447714
-0.35748765 -1.2249184 3.0927725 6447714
-0.33420175 -1.2250032 3.0675647 6447714
-0.35753313 -1.1750975 3.093168 6447714
-0.33432436 -1.1751288 3.0680428 6447714
-0.35719514 -1.1264497 3.0931377 6447714
-0.33435455 -1.1250089 3.068423 6447714
-0.35613945 -1.0751855 3.0923502 6447714
-0.33296168 -1.0748202 3.0672629 6447714
-0.35620353 -1.0250354 3.092766 6447714
-0.33300459 -1.0249615 3.0676537 6447714
-1.2900534 -0.95353818 3.0963638 6447714
-0.35626796 -0.97487158 3.0931828 6447714
-0.33298019 -0.97499228 3.0679741 6447714
-1.3153481 -0.91676903 3.0731516 6381921
-1.2932131 -0.92497587 3.0935647 6447714
-0.35627562 -0.92500842 3.0935369 6447714
-0.33311427 -0.9250108 3.068465 6447714
-1.320083 -0.87475789 3.0689569 6447714
-1.293195 -0.87504041 3.0937936 6447714
-0.35635865 -0.87514025 3.0939724 6447714
-0.33305979 -0.87491012 3.068753 6447714
-1.3167287 -0.83244896 3.0722351 6447714
-1.2933413 -0.82509047 3.0938721 6447714
-0.35631081 -0.82492965 3.0942676 6447714
-0.33312628 -0.82479703 3.06917 6447714
-1.2911607 -0.79621524 3.0960088 6447714
-0.35650647 -0.77504134 3.0948253 6447714
-0.33321127 -0.77498662 3.0696073 6447714
-0.35615894 -0.72613847 3.0947869 6447714
-0.33311513 -0.72496086 3.0698493 6447714
-1.3278606 -0.66282886 3.0626719 6447714
-0.35510668 -0.67506981 3.0940013 6447714
-0.33183452 -0.67499828 3.06881 6447714
-1.3299124 -0.64204669 3.0608642 6447714
-0.35505188 -0.62516624 3.0942872 6447714
-0.33187684 -0.62490714 3.0692019 6447714
-0.3551968 -0.57480872 3.0947931 6447714
-0.33191854 -0.57490247 3.069593 6447714
-0.35514203 -0.52488321 3.0950801 6447714
-0.33196121 -0.52507943 3.0699842 6447714
-1.3043342 -0.45840862 3.0852749 6447714
-1.294065 -0.46976468 3.0947144 6447714
-0.35528752 -0.47492325 3.0955827 6447714
-0.33198118 -0.47514793 3.0703523 6447714
-1.3063097 -0.44109631 3.0835238 6447714
-1.2944646 -0.4361212 3.0944865 6447714
-0.3552326 -0.42497581 3.0958695 6447714
-0.33205748 -0.42510253 3.0707812 6447714
-1.3395355 -0.35182434 3.0532076 6447714
-0.35537812 -0.37498692 3.0963726 6447714
-0.33200979 -0.37504748 3.0710745 6447714
-1.3246973 -0.31992072 3.0670502 6447714
-1.2955565 -0.30799052 3.0940225 6447714
-0.35510114 -0.32645085 3.0964096 6447714
-0.33200938 -0.32480758 3.0714235 6447714
-1.3224902 -0.27503455 3.0692816 6447714
-1.2948594 -0.27500212 3.0948067 6447714
-0.35399103 -0.27506924 3.0955632 6447714
-0.3307094 -0.275121 3.0703602 6447714
-1.322449 -0.22502767 3.0695293 6447714
-1.2950662 -0.22503313 3.0948277 6447714
-0.35396111 -0.2251092 3.0958765 6447714
-0.33083117 -0.22508478 3.0708387 6447714
-1.3227907 -0.17502071 3.0694273 6447714
-1.294988 -0.17501242 3.095113 6447714
-0.35404438 -0.17445579 3.0963173 6447714
-0.33060494 -0.17503893 3.0709393 6447714
-1.3191727 -0.12984869 3.0729625 6447714
-1.2951946 -0.12503773 3.0951343 6447714
-0.35408962 -0.12444379 3.0967128 6447714
-0.3310236 -0.12488569 3.0717399 6447714
-1.3034639 -0.09703292 3.0876138 6447714
-1.2944942 -0.093540318 3.0959151 6447714
-0.3541348 -0.074418917 3.0971076 6447714
-0.3308129 -0.075273626 3.071857 6447714
-0.35418004 -0.024381408 3.0975025 6447714
-0.33098364 -0.025456494 3.0723855 6447714
-1.3410652 0.04793106 3.053493 2039583
-0.35399696 0.0045827655 3.0975056 6447714
-0.32737932 0.01425453 3.068759 6447714
-1.3255166 0.079685792 3.0679932 2039583
-1.2956349 0.092233032 3.0956504 2039583
-0.96942323 0.099849194 3.0508089 6447714
-0.9477002 0.099824414 3.0500524 6447714
-1.3205062 0.10021169 3.0618858 2039583
-1.2759557 0.10019913 3.0615015 2039583
-0.4074254 -1.4035256 3.1455939 6447714
-0.39740059 -1.4012892 3.1347575 6447714
-0.40647137 -1.374828 3.1447601 6447714
-0.38346869 -1.3726041 3.1198747 6447714
-0.4054229 -1.3265693 3.1439586 6447714
-0.38245928 -1.3249665 3.1191103 6447714
-0.40507859 -1.2751437 3.1439431 6447714
-0.38254726 -1.2749468 3.1195536 6447714
-0.40513071 -1.2249379 3.1443465 6447714
-0.38260242 -1.2248062 3.1199605 6447714
-0.40518224 -1.1751521 3.1447468 6447714
-0.38261956 -1.1748712 3.1203241 6447714
-0.40523389 -1.1253535 3.1451473 6447714
-0.38225466 -1.1244742 3.1202784 6447714
-0.40528598 -1.0751092 3.1455512 6447714
-0.381226 -1.0749668 3.1195071 6447714
-1.2364748 -1.0045089 3.1456435 6447714
-0.40533805 -1.0248518 3.1459556 6447714
-0.3813464 -1.0249939 3.1199837 6447714
-1.2639474 -0.96638131 3.1204271 6447714
-1.240473 -0.9748373 3.142076 6447714
-0.40538967 -0.97501516 3.1463568 6447714
-0.38134721 -0.97500646 3.1203299 6447714
-1.268048 -0.92506438 3.1168127 6447714
-1.2406449 -0.92483616 3.1421294 6447714
-0.40391821 -0.93317974 3.1450536 6447714
-0.37994963 -0.92519361 3.1191633 6447714
-1.2680721 -0.87500536 3.1170032 6447714
-1.2406404 -0.87483221 3.1423461 6447714
-0.40393886 -0.87507033 3.1454782 6447714
-0.38146859 -0.87499493 3.1211541 6447714
-1.2681348 -0.82494378 3.1171577 6447714
-1.2407124 -0.82511318 3.1424909 6447714
-0.40402931 -0.82499999 3.1459229 6447714
-0.38154143 -0.82506955 3.1215792 6447714
-1.2644948 -0.78424865 3.1206944 6447714
-1.2406732 -0.77552456 3.1427376 6447714
-0.40408042 -0.77557176 3.1463201 6447714
-0.38155434 -0.77503133 3.1219399 6447714
-1.2361859 -0.74684 3.1470053 6447714
-0.4041709 -0.72547323 3.1467655 6447714
-0.38124451 -0.72469157 3.1219528 6447714
-0.40414566 -0.67473292 3.1470888 6447714
-0.38008356 -0.67496699 3.1210394 6447714
-0.40423623 -0.62460858 3.1475334 6447714
-0.38027486 -0.62498713 3.1215935 6447714
-1.2554188 -0.56274742 3.1300201 6447714
-1.2419001 -0.57325047 3.1424646 6447714
-0.40428728 -0.57512993 3.1479318 6447714
-0.38024634 -0.57499605 3.1219077 6447714
-1.2647845 -0.52168983 3.121542 6447714
-1.2421004 -0.52500069 3.1424849 6447714
-0.40393054 -0.52938855 3.1478622 6447714
-0.38028374 -0.52499026 3.1222935 6447714
-1.2694675 -0.47508207 3.117415 6447714
-1.2420439 -0.4750604 3.1427488 6447714
-0.40287471 -0.47588694 3.1470892 6447714
-0.38034853 -0.47506586 3.1227109 6447714
-1.2682858 -0.42701659 3.1187096 6447714
-1.2420998 -0.42511621 3.1429095 6447714
-0.40292692 -0.42509383 3.1474977 6447714
-0.38032001 -0.42503294 3.1230254 6447714
-1.2566619 -0.39457965 3.1295865 6447714
-1.2416068 -0.3878929 3.1435225 6447714
-0.40297917 -0.37428761 3.1479061 6447714
-0.3805342 -0.37499219 3.1236045 6447714
-1.2852643 -0.30413073 3.1035471 6447714
-0.4018628 -0.32111308 3.1470652 6447714
-0.37928918 -0.32508048 3.1226017 6447714
-1.2718812 -0.27172616 3.1160479 6447714
-1.2433056 -0.26020345 3.1424954 6447714
-0.4015685 -0.27509952 3.1470656 6447714
-0.37749854 -0.27495396 3.1210103 6447714
-1.2697726 -0.22489603 3.1181931 6447714
-1.2423948 -0.22529913 3.1434853 6447714
-0.4016192 -0.22558393 3.1474631 6447714
-0.37766117 -0.22501443 3.1215324 6447714
-1.2701074 -0.17489757 3.1180992 6447714
-1.242412 -0.17565179 3.143681 6447714
-0.4017095 -0.17538932 3.1479087 6447714
-0.37746322 -0.17506574 3.1216636 6447714
-1.2698829 -0.12525533 3.1185179 6447714
-1.2428694 -0.12563892 3.1434705 6447714
-0.40139848 -0.12776715 3.1479013 6447714
-0.37794098 -0.1251909 3.1225276 6447714
-1.2667722 -0.081785537 3.1215765 6447714
-1.2435355 -0.074221633 3.1430733 6447714
-0.40026078 -0.074314989 3.1470399 6447714
-0.37762874 -0.074762225 3.1225369 6447714
-1.2416642 -0.045051467 3.1449261 6447714
-0.40029937 -0.036509242 3.1473434 6447714
-0.37585634 -0.027857782 3.1209433 6447714
-0.3605665 0.0030004119 3.1046057 6447714
-1.2870603 0.095893629 3.1035874 2039583
-1.008152 0.099522673 3.1198156 6447714
-0.97547722 0.099485509 3.1186504 6447714
-0.92585486 0.099429071 3.1168811 6447714
-0.89454114 0.099393457 3.1157646 6447714
-0.70844132 0.099181786 3.1091294 6447714
-0.45426488 -1.4150536 3.1962178 6447714
-0.43379322 -1.4100564 3.1740918 6447714
-0.45410448 -1.3758385 3.196316 6447714
-0.43097293 -1.3750038 3.1712809 6447714
-0.45271176 -1.3250399 3.1951594 6447714
-0.42973864 -1.3245847 3.1702952 6447714
-0.45276988 -1.274902 3.1955698 6447714
-0.42948133 -1.2748554 3.1703598 6447714
-0.45282802 -1.2247516 3.1959803 6447714
-0.42959818 -1.224998 3.1708319 6447714
-0.45288607 -1.1745882 3.1963902 6447714
-0.4295297 -1.1750278 3.171103 6447714
-0.45294425 -1.1244118 3.1968007 6447714
-0.42968315 -1.124947 3.1716175 6447714
-0.45304385 -1.0748801 3.1972511 6447714
-0.42976293 -1.0749509 3.1720479 6447714
-1.2138724 -1.0153556 3.1664777 6447714
-1.1900594 -1.0195296 3.1884594 6447714
-0.4529705 -1.026633 3.1975064 6447714
-0.42975613 -1.0249429 3.1723883 6447714
-1.2162602 -0.97469896 3.1644452 6447714
-1.1889926 -0.97543353 3.1896324 6447714
-0.42367876 -0.98275059 3.1661022 6447714
-1.2155771 -0.92510486 3.165287 6447714
-1.1882744 -0.92488921 3.19051 6447714
-1.215691 -0.8751632 3.1653929 6447714
-1.1883807 -0.87494546 3.190624 6447714
-0.42073885 -0.86723816 3.1637187 6447714
-1.2157271 -0.82506263 3.1655736 6447714
-1.1884396 -0.82510698 3.1907823 6447714
-0.45172676 -0.82397032 3.1975625 6447714
-0.4283846 -0.82507902 3.1722865 6447714
-1.2157761 -0.77503431 3.1657403 6447714
-1.1894366 -0.7747255 3.1900754 6447714
-0.45178324 -0.77505285 3.1979623 6447714
-0.42855966 -0.77495599 3.1728241 6447714
-1.2125732 -0.73629749 3.1688647 6447714
-1.189069 -0.72625393 3.1906207 6447714
-0.45184126 -0.72480059 3.1983728 6447714
-0.42856261 -0.72500467 3.1731718 6447714
-1.1826391 -0.6979295 3.1966805 6447714
-0.45189923 -0.67453533 3.1987839 6447714
-0.42866936 -0.67504191 3.1736331 6447714
-0.45195732 -0.62425727 3.1991947 6447714
-0.42856786 -0.62506658 3.1738696 6447714
-1.2202653 -0.56534719 3.1624837 6447714
-1.1948431 -0.55398047 3.1860185 6447714
-0.45201531 -0.57396621 3.1996055 6447714
-0.42877847 -0.57507914 3.1744432 6447714
-1.2170572 -0.52502912 3.1656191 6447714
-1.1898903 -0.52455568 3.1907194 6447714
-0.45205817 -0.53690177 3.1999085 6447714
-0.42809278 -0.52468526 3.1740503 6447714
-1.217132 -0.4749985 3.1657634 6447714
-1.1897532 -0.47499445 3.1910558 6447714
-0.42725974 -0.47497761 3.1734924 6447714
-1.217142 -0.42503476 3.1659663 6447714
-1.1898487 -0.42491126 3.1911805 6447714
-0.42741084 -0.42489555 3.1740029 6447714
-1.2157809 -0.37777364 3.1674232 6447714
-1.1898817 -0.37482256 3.1913624 6447714
-0.42738938 -0.37497523 3.174324 6447714
-1.2035868 -0.34635657 3.1788228 6447714
-1.1917446 -0.34237948 3.1897798 6447714
-0.42751962 -0.32504329 3.1748128 6447714
-1.2294866 -0.25446567 3.1552861 6447714
-0.42747706 -0.27509835 3.1751108 6447714
-1.2186766 -0.22283374 3.1654077 6447714
-1.1919943 -0.2130993 3.1900978 6447714
-0.42744586 -0.22505401 3.1754248 6447714
-1.2175722 -0.17470942 3.1666319 6447714
-1.1911736 -0.17568539 3.191016 6447714
-0.4275322 -0.17499854 3.1758652 6447714
-1.2178741 -0.12431341 3.1665666 6447714
-1.1911864 -0.12559764 3.1912158 6447714
-0.42692396 -0.12490337 3.1755521 6447714
-1.218531 -0.074767098 3.1661708 6447714
-1.191246 -0.07536225 3.1913755 6447714
-0.42449489 -0.075178482 3.1732676 6447714
-1.2151613 -0.033851504 3.1694562 6447714
-1.1912231 -0.025403554 3.1916075 6447714
-0.41450441 -0.040960819 3.1626894 6447714
-1.1862571 0.0037528521 3.1963198 6447714
-1.0205777 0.099149227 3.1909916 6447714
-0.9751237 0.099097721 3.1893339 6447714
-0.92971605 0.099046275 3.1876783 6447714
-0.72596419 0.098815456 3.1802497 6447714
-0.50182664 -1.4516648 3.2474501 6447714
-0.49860084 -1.4501086 3.243969 6447714
-0.5018611 -1.4248544 3.2476733 6447714
-0.48099852 -1.4213328 3.2251158 6447714
-0.50192481 -1.3752465 3.2480855 6447714
-0.47928664 -1.3748392 3.2235827 6447714
-0.50198859 -1.325626 3.2484984 6447714
-0.47792387 -1.3251127 3.222451 6447714
-0.5020541 -1.2746514 3.2489221 6447714
-0.47797921 -1.2750233 3.2228582 6447714
-0.50211787 -1.2250056 3.2493353 6447714
-0.47799766 -1.2249162 3.2232254 6447714
-0.50218171 -1.1753469 3.2497478 6447714
-0.4781855 -1.1749918 3.2237735 6447714
-1.1254996 -1.1113729 3.2477112 6447714
-0.50221789 -1.1471572 3.2499821 6447714
-0.47822878 -1.1250536 3.2241659 6447714
-0.47769022 -1.0756806 3.2239261 6447714
-1.1669286 -1.0095395 3.2098701 6447714
-1.1484088 -1.0013483 3.2270145 6447714
-0.46841872 -1.0355494 3.2141669 6447714
-1.1634738 -0.97510147 3.2132082 6447714
-1.1375109 -0.97108591 3.2372117 6447714
-1.1635544 -0.92513317 3.2133472 6447714
-1.1363462 -0.92491245 3.2384822 6447714
-1.1635895 -0.87496805 3.2135274 6447714
-1.1364779 -0.87500733 3.2385721 6447714
-1.1636472 -0.82480562 3.2136877 6447714
-1.1372591 -0.82532042 3.2380631 6447714
-0.46561518 -0.8148818 3.2126594 6447714
-1.1647369 -0.77513272 3.2128892 6447714
-1.1376194 -0.77491874 3.237942 6447714
-0.47634709 -0.77438623 3.2245576 6447714
-1.1647161 -0.72511905 3.2131226 6447714
-1.1375535 -0.72498411 3.2382176 6447714
-0.47641987 -0.72544396 3.2249751 6447714
-1.1617012 -0.68863791 3.216063 6447714
-1.1368302 -0.6778366 3.2390842 6447714
-0.47545081 -0.67497283 3.2242746 6447714
-1.1275451 -0.64854002 3.2477877 6447714
-0.4756878 -0.62495947 3.2248785 6447714
-0.47564554 -0.57493174 3.2251773 6447714
-1.1670321 -0.51669961 3.2118676 6447714
-1.1429734 -0.50612074 3.2341399 6447714
-0.47491011 -0.52459359 3.22473 6447714
-1.1650265 -0.47489128 3.2138996 6447714
-1.1389073 -0.47681299 3.2380214 6447714
-0.47424725 -0.47509599 3.2243552 6447714
-1.1657814 -0.42598948 3.2134089 6447714
-1.1452098 -0.43972695 3.2323556 6447714
-0.47417229 -0.42510352 3.2246203 6447714
-1.1729398 -0.38384181 3.2069755 6447714
-0.47443685 -0.37509775 3.2252524 6447714
-0.47423548 -0.32516605 3.2253814 6447714
-0.47293404 -0.27507228 3.2243185 6447714
-1.175655 -0.20509562 3.2052269 6447714
-0.47288561 -0.22491223 3.2246139 6447714
-1.1667897 -0.17360245 3.2135513 6447714
-1.1405886 -0.16525699 3.2377906 6447714
-0.47291431 -0.17483953 3.2249894 6447714
-1.1663463 -0.12491138 3.2141662 6447714
-1.1392953 -0.12480063 3.2391586 6447714
-0.47329062 -0.12484159 3.2257452 6447714
-0.44942543 -0.10605907 3.2000411 6447714
-1.1666756 -0.075414293 3.2140727 6447714
-1.1393514 -0.075152397 3.2393169 6447714
-0.46840197 -0.085035183 3.2207286 6447714
-0.44945738 -0.078223713 3.2002685 6447714
-1.1665324 -0.025301987 3.2144182 6447714
-1.1394075 -0.025499228 3.2394764 6447714
-1.1636258 0.013528372 3.2172682 6447714
-1.1389275 0.023741584 3.2401285 6447714
-1.1309774 0.053548772 3.2475998 6447714
-0.53200108 -1.4587151 3.2800653 6447714
-0.52630186 -1.4250257 3.2741275 6447714
-0.52631187 -1.3751109 3.2744858 6447714
-0.52637362 -1.324989 3.2749 6447714
-0.52659929 -1.2748556 3.275491 6447714
-0.52657801 -1.2248034 3.2758131 6447714
-1.0759617 -1.1566532 3.2932832 6447714
-0.52659303 -1.174933 3.2761755 6447714
-1.1099592 -1.1151905 3.2620516 6447714
-1.0842911 -1.1242278 3.2857246 6447714
-0.52357692 -1.1263032 3.273248 6447714
-1.1061614 -1.0941956 3.2656491 6447714
-1.0823659 -1.0841048 3.2876744 6447714
-0.51124507 -1.0872372 3.2601688 6447714
-1.1138966 -0.96056896 3.2590704 6447714
-1.0971879 -0.95308781 3.2745378 6447714
-1.1118405 -0.92496091 3.2611225 6447714
-1.0861342 -0.92240262 3.2848806 6447714
-1.1120267 -0.87489164 3.2611623 6447714
-1.0850824 -0.8750127 3.2860534 6447714
-1.1127808 -0.82471669 3.2606792 6447714
-1.0850916 -0.82495373 3.2862573 6447714
-1.1131493 -0.7750389 3.2605493 6447714
-1.0854719 -0.77540219 3.2861159 6447714
-0.51117939 -0.76211071 3.2623477 6447714
-1.1130701 -0.72498143 3.2608345 6447714
-1.0862228 -0.72493488 3.2856379 6447714
-0.52276069 -0.7237007 3.2751508 6447714
-0.49954265 -0.71228576 3.2500966 6447714
-1.1132315 -0.67492133 3.2608981 6447714
-1.0862845 -0.67499137 3.2857928 6447714
-0.52279133 -0.6753906 3.2755182 6447714
-0.49959064 -0.67464876 3.2504089 6447714
-1.1103133 -0.6406697 3.2637398 6447714
-1.0848831 -0.62977433 3.2872794 6447714
-0.52239692 -0.62515682 3.2754383 6447714
-0.49965417 -0.62490392 3.2508218 6447714
-1.0727597 -0.59992552 3.2986057 6447714
-0.52247846 -0.57512558 3.2758725 6447714
-0.49971771 -0.5751462 3.2512352 6447714
-0.52258635 -0.52497923 3.2763369 6447714
-0.49978119 -0.5253759 3.2516484 6447714
-1.1229839 -0.48646653 3.2526901 6447714
-0.52263844 -0.4750255 3.2767403 6447714
-0.49984464 -0.47559297 3.2520618 6447714
-0.5226922 -0.42506054 3.2771428 6447714
-0.49990997 -0.42445132 3.2524867 6447714
-0.52277339 -0.37488195 3.2775803 6447714
-0.49997184 -0.37598917 3.2528889 6447714
-0.52110881 -0.32497755 3.2761226 6447714
-0.49683815 -0.30025721 3.250021 6447714
-0.52088261 -0.2754645 3.276221 6447714
-0.49687064 -0.27469218 3.2502329 6447714
-0.51978874 -0.22514281 3.2753839 6447714
-0.49693373 -0.22489899 3.2506461 6447714
-1.1202354 -0.15664202 3.2566307 6447714
-0.51977152 -0.17495854 3.2757144 6447714
-0.49699688 -0.17509326 3.2510598 6447714
-1.1140748 -0.12486539 3.2624569 6447714
-1.0882933 -0.11772358 3.2863038 6447714
-0.51781231 -0.12794937 3.2739177 6447714
-0.49706006 -0.12527475 3.2514727 6447714
-1.1136482 -0.074911632 3.2630641 6447714
-1.0869191 -0.074914068 3.287755 6447714
-0.50248879 -0.096719451 3.2575467 6447714
-0.49709934 -0.094300665 3.2517295 6447714
-1.1140833 -0.024927584 3.2628732 6447714
-1.0869731 -0.024518421 3.287921 6447714
-1.1141387 0.024929227 3.2630332 6447714
-1.0870261 0.024520015 3.2880797 6447714
-1.1106137 0.061361812 3.2664452 6447714
-1.0853055 0.072329111 3.2880437 6447714
-1.0253692 0.098749056 3.2651842 6447714
-0.97475451 0.09869194 3.2632954 6447714
-0.93921989 0.098651834 3.2619698 6447714
-0.57529795 -1.4692749 3.3268609 6447714
-0.57298589 -1.4250847 3.3246646 6447714
-0.57302743 -1.3749853 3.3250549 6447714
-0.573286 -1.3249735 3.3256826 6447714
-0.57250738 -1.2754041 3.3251817 6447714
-1.0212612 -1.2076302 3.3435996 6447714
-0.5715518 -1.2250657 3.3244967 6447714
-1.0586216 -1.165228 3.3092651 6447714
-1.0316186 -1.1746687 3.3341711 6447714
-0.56956506 -1.1773486 3.3226762 6447714
-1.0595067 -1.1250441 3.3086174 6447714
-1.0328969 -1.1251731 3.3332002 6447714
-0.55732048 -1.1409303 3.3096733 6447714
-1.0594121 -1.0755607 3.3089166 6447714
-1.0329335 -1.0749962 3.3333802 6447714
-1.0542557 -1.0460192 3.3138049 6447714
-1.0296713 -1.0352869 3.3365624 6447714
-0.58918029 -1.0057201 3.3450978 6447714
-0.58262515 -0.98978877 3.3381124 6447714
-1.060813 -0.91184324 3.3083181 6447714
-1.0444804 -0.90431899 3.3234375 6447714
-1.0597945 -0.87502885 3.3094144 6447714
-1.0341283 -0.87305737 3.3331344 6447714
-1.0599242 -0.8249529 3.3095074 6447714
-1.0332218 -0.82498693 3.3341749 6447714
-1.0603336 -0.77421051 3.3093443 6447714
-1.0332845 -0.77503908 3.3343294 6447714
-1.0610269 -0.72503763 3.3089144 6447714
-1.0340382 -0.72581619 3.3338423 6447714
-0.55744344 -0.7087552 3.3127983 6447714
-0.54879111 -0.71438634 3.3033938 6447714
-1.0610677 -0.67517 3.3090887 6447714
-1.041456 -0.68091172 3.3271804 6447714
-0.56909978 -0.67292565 3.3256645 6447714
-0.5474351 -0.67271692 3.3022134 6447714
-1.063588 -0.63099682 3.3069482 6447714
-1.0487313 -0.64703137 3.3206036 6447714
-0.57076657 -0.62499553 3.3278008 6447714
-0.54720479 -0.62455636 3.3022978 6447714
-1.0706594 -0.5975455 3.3005564 6447714
-0.57088655 -0.57497782 3.3282754 6447714
-0.54731947 -0.57468432 3.3027678 6447714
-0.57086635 -0.52494776 3.3286014 6447714
-0.54738832 -0.52549154 3.3031828 6447714
-0.57106322 -0.47490335 3.32916 6447714
-0.54745907 -0.47491947 3.3036087 6447714
-0.57097912 -0.42507133 3.3294148 6447714
-0.54752982 -0.4243345 3.3040361 6447714
-0.56941044 -0.37490493 3.3280642 6447714
-0.54759872 -0.37510404 3.3044515 6447714
-0.56946582 -0.32480973 3.3284705 6447714
-0.54771352 -0.32516301 3.3049214 6447714
-0.56965703 -0.27495056 3.3290224 6447714
-0.54710746 -0.2723166 3.3046315 6447714
-0.56971228 -0.22495243 3.3294277 6447714
-0.54614288 -0.22447835 3.3039179 6447714
-0.56963164 -0.17493695 3.3296869 6447714
-0.54621142 -0.17522451 3.3043323 6447714
-1.0650901 -0.10717911 3.3077853 6447714
-0.56130713 -0.14253043 3.3209007 6447714
-0.54614919 -0.13732783 3.304528 6447714
-1.0618538 -0.074542835 3.3109126 6447714
-1.0357749 -0.069198355 3.3350286 6447714
-1.0617523 -0.02469217 3.3112192 6447714
-1.0340182 -0.024883227 3.3368385 6447714
-1.0618047 0.024693785 3.3113813 6447714
-1.0342374 0.024632875 3.3368468 6447714
-1.0618565 0.074084528 3.311542 6447714
-1.0344335 0.075321794 3.3363013 6447714
-0.97576475 0.098268308 3.3408167 6447714
-0.6278826 -1.5070683 3.3835227 6447714
-0.62101901 -1.4751343 3.3763144 6447714
-0.59851992 -1.4747747 3.3519607 6447714
-0.62118709 -1.4248457 3.3768432 6447714
-0.59859633 -1.4249641 3.3523884 6447714
-0.62118524 -1.3748906 3.3771875 6447714
-0.59867263 -1.3751408 3.3528163 6447714
-0.62125629 -1.3250425 3.3776095 6447714
-0.59874898 -1.3253047 3.3532438 6447714
-0.97615606 -1.2547686 3.3850682 6447714
-0.62142557 -1.2749466 3.3781402 6447714
-0.5978691 -1.2707999 3.352668 6447714
-1.0064361 -1.2149844 3.3572636 6447714
-0.98421699 -1.2234112 3.3777549 6447714
-0.6176942 -1.2293165 3.3744156 6447714
-0.59718215 -1.224916 3.3522427 6447714
-1.0073094 -1.174262 3.3566298 6447714
-0.98501885 -1.1749848 3.3772194 6447714
-0.60455894 -1.1951935 3.3604338 6447714
-0.59710175 -1.1908906 3.3523912 6447714
-1.0080454 -1.1250442 3.3561597 6447714
-0.98508519 -1.1250705 3.3773706 6447714
-1.0080954 -1.0750422 3.3563254 6447714
-0.98508519 -1.0750531 3.3775823 6447714
-0.633798 -1.0560327 3.3930483 6447714
-1.0078903 -1.0261344 3.3567231 6447714
-0.9851563 -1.0250281 3.3777299 6447714
-0.62193042 -1.0221053 3.3804379 6447714
-0.59762383 -1.0109849 3.3542016 6447714
-1.0023626 -0.99772018 3.3619499 6447714
-0.98147082 -0.98851323 3.3812888 6447714
-0.61973786 -0.99176502 3.3782732 6447714
-0.59767133 -0.99148476 3.3543882 6447714
-1.0090322 -0.86345381 3.3563581 6447714
-0.99349308 -0.85679924 3.3707423 6447714
-1.0083451 -0.82495928 3.3571575 6447714
-0.98643428 -0.825773 3.3773954 6447714
-1.0083951 -0.77492768 3.3573236 6447714
-0.99358803 -0.78389317 3.3709643 6447714
-1.0113345 -0.73893267 3.3547606 6447714
-0.6051538 -0.65502524 3.3648169 6447714
-0.59566808 -0.66065061 3.3545101 6447714
-0.61672693 -0.62140024 3.3775773 6447714
-0.59637719 -0.62556785 3.3555202 6447714
-0.61895853 -0.57487977 3.3803139 6447714
-0.59645337 -0.5755958 3.3559492 6447714
-0.61871207 -0.52462679 3.3803961 6447714
-0.5963251 -0.52680343 3.3561475 6447714
-0.61742783 -0.47511369 3.3793497 6447714
-0.59488344 -0.47534963 3.3549433 6447714
-0.6174891 -0.42502087 3.3797617 6447714
-0.5948211 -0.42471099 3.355226 6447714
-0.61762065 -0.3750439 3.3802507 6447714
-0.59331769 -0.37516388 3.3539417 6447714
-0.61761081 -0.32505441 3.3805861 6447714
-0.59339339 -0.32518348 3.3543692 6447714
-0.6166802 -0.27557805 3.3799205 6447714
-0.59346908 -0.27519026 3.3547976 6447714
-0.61611688 -0.22499828 3.3796623 6447714
-0.59354484 -0.22518432 3.355226 6447714
-0.61331493 -0.18560958 3.3769016 6447714
-0.59354031 -0.17884736 3.3555415 6447714
-1.0109749 -0.05851087 3.3579836 6447714
-0.99654794 -0.052376125 3.3713384 6447714
-1.0091406 -0.025054596 3.3598216 6447714
-0.98529327 -0.02174836 3.3818655 6447714
-1.0093887 0.025433408 3.3598063 6447714
-0.98394179 0.025230201 3.383312 6447714
-1.0103264 0.07375782 3.3591452 6447714
-0.98399007 0.074292094 3.3834777 6447714
-0.90830654 -1.5349557 3.446558 6447714
-0.67076612 -1.5173743 3.429873 6447714
-0.64564699 -1.5112067 3.402724 6447714
-0.66887158 -1.4751303 3.4281139 6447714
-0.64575684 -1.4753971 3.4030907 6447714
-0.6690495 -1.4250889 3.4286528 6447714
-0.64578867 -1.425526 3.4034705 6447714
-0.66920978 -1.3750324 3.4291739 6447714
-0.64587235 -1.3749435 3.4039118 6447714
-0.66916549 -1.3248352 3.4294736 6447714
-0.64590406 -1.3250495 3.4042912 6447714
-0.66397244 -1.2819573 3.4241476 6447714
-0.64603722 -1.2751456 3.4047809 6447714
-0.64573026 -1.2460411 3.4046497 6447714
-0.67934048 -1.1071301 3.4419944 6447714
-0.66903079 -1.0731924 3.4310691 6447714
-0.64502406 -1.062811 3.4051538 6447714
-0.66797507 -1.0250299 3.4302599 6447714
-0.64467698 -1.0250831 3.4050388 6447714
-0.66742402 -0.99284345 3.4298861 6447714
-0.64450938 -0.99224067 3.4050851 6447714
-0.65249342 -0.60153949 3.4164324 6447714
-0.64237905 -0.60732305 3.4054437 6447714
-0.66387534 -0.56903684 3.4289777 6447714
-0.64362139 -0.57483023 3.4070132 6447714
-0.66705823 -0.52506834 3.4327278 6447714
-0.64365327 -0.52479202 3.4073944 6447714
-0.66707534 -0.47503951 3.4330924 6447714
-0.64388573 -0.47473204 3.4079928 6447714
-0.66709262 -0.42500094 3.4334579 6447714
-0.64389259 -0.42502114 3.4083443 6447714
-0.66719985 -0.3749409 3.4339221 6447714
-0.6438992 -0.37530106 3.4086947 6447714
-0.66629696 -0.32572222 3.433285 6447714
-0.64405715 -0.32485071 3.4092157 6447714
