# .PCD v0.7 - Point Cloud Data file format
VERSION 0.7
FIELDS x y z rgb
SIZE 4 4 4 4
TYPE F F F U
COUNT 1 1 1 1
WIDTH 1155
HEIGHT 1
VIEWPOINT 0 0 0 1 0 0 0
POINTS 1155
DATA ascii
-2.3750057 0.088438071 3.0937681 9934743
-2.3252378 0.088544011 3.0974743 9934743
-2.2960539 0.088606112 3.0996466 9934743
-2.0016205 0.089719102 3.0501709 10197915
-1.9750658 0.089775942 3.0521035 10197915
-1.9254959 0.089882053 3.055711 10197915
-1.8745954 0.089990996 3.0594144 10197915
-1.8247885 0.090097584 3.0630383 10197915
-1.7748624 0.090204455 3.0666711 10197915
-1.7248186 0.09031155 3.0703125 10197915
-1.6746548 0.09041892 3.0739627 10197915
-1.6243727 0.090526544 3.0776212 10197915
-1.5752008 0.090631776 3.0811989 10197915
-1.5259147 0.090737268 3.0847847 10197915
-1.4752766 0.090845652 3.0884693 10197915
-1.4245182 0.090954281 3.0921631 10197915
-1.3873045 0.091033921 3.0948708 10197915
-0.3026455 0.072485752 3.0695231 6513507
-0.29890859 0.071841568 3.0965643 6513507
-0.068259209 0.094807744 3.0512669 2039583
-0.025301984 0.094900623 3.054256 8553090
0.025340891 0.095010117 3.0577796 10066329
0.074829839 0.095117114 3.061223 10197915
0.12443136 0.095224336 3.0646741 10197915
0.17542052 0.095334575 3.0682223 10197915
0.22524829 0.09544231 3.0716889 10197915
0.27518973 0.095550276 3.0751641 10197915
0.32524326 0.095658489 3.0786469 10197915
0.37541139 0.095766962 3.0821373 10197915
0.42569241 0.095875651 3.0856361 10197915
0.47479454 0.095981814 3.0890527 10197915
0.52530253 0.096091025 3.092567 10197915
0.58047301 0.084259406 3.0796905 10132122
0.59992719 -1.3546745 3.1141763 11711154
0.60022146 -1.3772845 3.1157041 11711154
0.59952825 -1.3241237 3.1121056 11711154
0.59888744 -1.2750547 3.1087792 11711154
0.59824812 -1.2260916 3.1054604 11711154
0.59759289 -1.175913 3.1020591 7500402
0.60419273 -1.1535776 3.1498666 6513507
0.59723127 -1.1482253 3.1001821 6513507
0.60382169 -1.1254866 3.1479318 6513507
0.60315132 -1.0747343 3.1444371 6513507
0.60248238 -1.0240946 3.1409502 6513507
0.60183257 -0.97489476 3.1375616 6381921
0.60118407 -0.92580205 3.1341813 6184542
0.6005196 -0.87549192 3.1307163 11711154
0.59976929 -0.818694 3.1268048 11711154
0.60010046 -0.84377015 3.1285319 11711154
0.59919482 -0.77520472 3.1238101 11711154
0.59853464 -0.72522688 3.120369 11711154
0.59787595 -0.67535901 3.1169345 11711154
0.59721869 -0.62560076 3.1135082 11711154
0.59656286 -0.57595176 3.1100891 11711154
0.5958913 -0.52510995 3.1065881 11711154
-0.2927061 -0.45310634 3.1278801 6513507
0.59522128 -0.4743816 3.1030948 11711154
-0.29322141 -0.42397833 3.1249027 6513507
0.59475815 -0.43932533 3.1006806 11711154
0.60141617 -0.41355669 3.1489937 11711154
-0.29367071 -0.37518728 3.1229134 6513507
0.60088873 -0.37409365 3.1462324 11711154
-0.29374391 -0.32481074 3.1236885 6513507
0.59994167 -0.30322441 3.1412728 11711154
0.60027462 -0.32813597 3.1430166 11711154
-0.29384819 -0.27492872 3.1242266 6513507
0.59955674 -0.27442205 3.1392574 6513507
-0.29388818 -0.22527857 3.125222 6513507
0.59889281 -0.22475177 3.135782 6513507
-0.29397622 -0.17508565 3.1258831 6513507
0.59823054 -0.17519134 3.1323137 6513507
-0.29401746 -0.12486856 3.1268852 6513507
0.5975697 -0.12574042 3.1288533 6513507
-0.29443073 -0.075934462 3.125159 6513507
0.59689289 -0.07510215 3.1253095 6513507
-0.29495269 -0.024579359 3.1227117 6513507
0.59621763 -0.024577463 3.1217747 6513507
-0.29502401 0.024587279 3.1234682 6513507
0.59556121 0.024541413 3.1183369 6513507
-2.2704782 0.088660575 3.1015518 9934743
-2.225343 0.088756658 3.1049132 9934743
-2.1752148 0.088863365 3.1086459 10132122
-2.1249673 0.088970318 3.1123874 10197915
-2.0758281 0.089074932 3.1160471 10197915
-2.0253394 0.089182384 3.1198063 10197915
-1.9747303 0.089290135 3.1235754 10197915
-1.9252367 0.089395478 3.1272609 10197915
-1.8756266 0.08950109 3.130955 10197915
-1.8258988 0.089606941 3.1346579 10197915
-1.7760532 0.089713052 3.1383698 10197915
-1.7260897 0.089819409 3.1420906 10197915
-1.6760075 0.089926019 3.1458201 10197915
-1.6358589 0.090011477 3.1488097 10197915
-0.29048085 0.07614816 3.1199648 6513507
-0.22534993 0.094005004 3.1083202 6513507
-0.17532806 0.094112627 3.1118786 2171169
-0.12519252 0.094220482 3.1154447 2039583
-0.074940942 0.094328597 3.1190197 2039583
-0.024574902 0.094436944 3.1226025 6118749
0.024611603 0.094542764 3.1261013 10066329
0.07520774 0.09465161 3.1297002 10197915
0.12591951 0.094760709 3.1333077 10197915
0.17544407 0.094867274 3.1368308 10197915
0.22508009 0.094974048 3.1403618 10197915
0.27482805 0.095081076 3.1439009 10197915
0.32468817 0.095188335 3.1474476 10197915
0.35491681 0.095253356 3.1495976 10197915
0.59492338 0.072264336 3.1149974 9934743
0.60756975 -1.4093524 3.1674721 11711154
0.60712481 -1.375542 3.1651516 11711154
0.6064648 -1.3255817 3.1617115 11711154
0.60580641 -1.2757307 3.1582787 11711154
0.60513151 -1.2246444 3.1547601 10526880
0.60451126 -1.1776905 3.1515272 6513507
0.61087143 -1.1210386 3.1985009 6513507
0.61025482 -1.0748999 3.195272 6513507
0.60958517 -1.0247953 3.1917658 6513507
0.60891694 -0.97479969 3.1882675 4868682
0.6082502 -0.92491454 3.184777 9276813
0.60758507 -0.87513751 3.1812932 11711154
0.60692126 -0.82547033 3.1778181 11711154
0.60624105 -0.77457297 3.1742566 11711154
0.60558009 -0.72512394 3.1707964 11711154
0.60492069 -0.67578381 3.1673436 11711154
0.60424501 -0.62522113 3.163805 11711154
0.60357076 -0.57477152 3.1602747 11711154
0.60289812 -0.52443433 3.1567528 11711154
-0.28659609 -0.4531419 3.1721206 6513507
0.60222679 -0.47420919 3.1532381 11711154
-0.28656471 -0.42459846 3.1730864 6513507
0.60249901 -0.43448618 3.1562052 11711154
-0.28663525 -0.37473688 3.1738672 6513507
0.6081233 -0.37494782 3.1979856 11711154
-0.28670585 -0.32485095 3.1746495 6513507
0.60743731 -0.32423601 3.1943789 11119017
-0.28677639 -0.27494025 3.175431 6513507
0.60677105 -0.27496797 3.1908746 6513507
-0.28690982 -0.22501098 3.1757569 6513507
0.60610604 -0.22580892 3.1873779 6513507
-0.2869176 -0.17505229 3.1769943 6513507
0.60542476 -0.17543277 3.1837947 6513507
-0.28698817 -0.12506787 3.1777761 6513507
0.60474491 -0.12516975 3.1802201 6513507
-0.28743744 -0.07362783 3.1758556 6513507
0.60406667 -0.075019471 3.1766527 6513507
-0.28792048 -0.024980025 3.1736188 6513507
0.60338992 -0.024981575 3.1730938 6513507
-0.28799132 0.024988223 3.1743994 6513507
0.6027146 0.024944331 3.1695428 6513507
-2.5054207 0.087657034 3.1579814 9934743
-2.4745514 0.087722376 3.1603358 9934743
-2.4250712 0.087827101 3.1641083 9934743
-2.3754735 0.087932073 3.1678901 9934743
-2.3257561 0.088037297 3.1716809 9934743
-2.2759202 0.08814279 3.1754813 9934743
-2.2259648 0.088248521 3.1792905 9934743
-2.1758895 0.088354506 3.1831088 10000536
-2.1256931 0.088460736 3.1869361 10197915
-2.0753763 0.088567235 3.1907728 10197915
-2.0249381 0.088673994 3.1946189 10197915
-1.9769102 0.08877565 3.198281 10197915
-1.6107264 0.090064973 3.1506813 10197915
-1.5754851 0.09014 3.1533048 10197915
-1.5250446 0.090247363 3.1570613 10197915
-1.4744837 0.090354994 3.1608267 10197915
-1.4276085 0.090454772 3.1643169 10197915
-0.28527507 0.074946709 3.1749368 6513507
-0.22523619 0.093521081 3.1794264 6184542
-0.17538251 0.093627796 3.183054 2039583
-0.12541492 0.093734726 3.1866896 2039583
-0.075333104 0.093841918 3.1903338 2039583
-0.02513659 0.093949348 3.1939862 5592405
0.025174988 0.094057038 3.1976471 10000536
0.054350797 0.094119489 3.1997707 10197915
0.37992603 0.095307186 3.151377 10197915
0.42474675 0.095403612 3.1545651 10197915
0.47494596 0.095511593 3.1581361 10197915
0.52525896 0.09561985 3.1617155 10197915
0.57568598 0.095728323 3.1653025 10197915
0.60205859 0.073449612 3.1660926 9934743
0.61487275 -1.4204793 3.2194519 11711154
0.61426693 -1.3751094 3.2162795 11711154
0.61360675 -1.3257143 3.2128232 11711154
0.61292976 -1.2750583 3.2092786 11711154
0.61225426 -1.2245131 3.2057419 8421504
0.61159849 -1.1754407 3.2023075 6513507
0.61392355 -1.1297253 3.2201214 6513507
0.61759257 -1.0750734 3.2477832 6513507
0.61690378 -1.0241452 3.2441609 6513507
0.61623508 -0.97470307 3.2406442 4144959
0.61556786 -0.92536765 3.2371354 11711154
0.61488348 -0.8747738 3.2335365 11711154
0.61420077 -0.82429111 3.2299459 11711154
0.61353785 -0.77528095 3.2264602 11711154
0.612858 -0.72501981 3.2228851 11711154
0.61217976 -0.67486918 3.2193179 11711154
0.61150301 -0.62483025 3.215759 11711154
0.61082774 -0.57490087 3.2122078 11711154
0.61015379 -0.52508271 3.2086642 11711154
-0.27912223 -0.45350212 3.2262273 6513507
0.60948151 -0.47537327 3.2051287 11711154
-0.2793583 -0.42547542 3.2252436 6513507
0.60882866 -0.42711294 3.2016962 11711154
-0.28018111 -0.37491709 3.2205951 6513507
0.61528361 -0.3527447 3.2498009 11711154
-0.28027228 -0.32496566 3.2212291 6513507
0.61491233 -0.32562536 3.2478399 10790052
-0.28031927 -0.27498594 3.2221832 6513507
0.61422658 -0.27553317 3.2442176 6513507
-0.28039959 -0.22464824 3.2229044 6513507
0.6135422 -0.22555161 3.240603 6513507
-0.28049079 -0.17462371 3.2235396 6513507
0.61285943 -0.17568228 3.2369967 6513507
-0.28049445 -0.12456586 3.2248092 6513507
0.61215973 -0.12458 3.2333014 6513507
-0.28062904 -0.075167991 3.2251139 6513507
0.61148006 -0.074934043 3.2297115 6513507
-0.28066421 -0.025393482 3.2261491 6513507
0.61080188 -0.025399199 3.2261295 6513507
-0.28073448 0.025401957 3.2269561 6513507
0.61010695 0.025360696 3.2224586 6513507
-2.5595779 0.087014958 3.2313068 9934743
-2.5242443 0.087089293 3.2340672 9934743
-2.4749362 0.087193035 3.2379193 10066329
-2.4255085 0.087297007 3.2417805 10197915
-2.3746917 0.087403923 3.2457509 10066329
-2.3352265 0.087486945 3.2488341 10000536
-1.9515911 0.088829219 3.200211 10197915
-1.9249655 0.088885583 3.2022419 10197915
-1.8754345 0.08899042 3.2060189 10197915
-1.8245127 0.089098193 3.2099013 10197915
-1.7747462 0.089203537 3.2136965 10197915
-1.7248604 0.089309119 3.2175002 10197915
-1.6748573 0.089414954 3.221313 10197915
-1.6247346 0.089521036 3.2251351 10197915
-1.5744938 0.089627363 3.2289658 10197915
-1.525426 0.089731231 3.2327073 10197915
-1.4749479 0.089838073 3.2365563 10197915
-1.4438298 0.089903906 3.2389283 10197915
-0.28079924 0.07220941 3.2277007 6513507
0.07958664 0.094173491 3.2016063 10197915
0.12481288 0.094270281 3.2048969 10197915
0.1741349 0.094375849 3.2084854 10197915
0.22490458 0.094484508 3.2121801 10197915
0.27579129 0.094593428 3.2158828 10197915
0.32545125 0.094699711 3.2194965 10197915
0.3752239 0.094806246 3.2231176 10197915
0.42510763 0.094912998 3.2267475 10197915
0.47510493 0.095020004 3.2303855 10197915
0.52521414 0.095127255 3.2340312 10197915
0.57543737 0.095234759 3.2376859 10197915
0.60892797 0.077526048 3.2229838 9934743
0.62276 -1.4571776 3.2749574 11711154
0.62232512 -1.4249794 3.2726705 11711154
0.62166345 -1.3760614 3.2691915 11711154
0.62098455 -1.3258536 3.2656202 11711154
0.62030685 -1.2757553 3.2620571 11711154
0.61963081 -1.2257665 3.2585013 6513507
0.61895609 -1.175886 3.2549539 6513507
0.61832035 -1.1288759 3.25161 6513507
0.62446672 -1.0234735 3.2983046 6447714
0.6237976 -0.97460294 3.2947702 5921370
0.62311089 -0.92444474 3.2911429 11711154
0.62242573 -0.87439686 3.287524 11711154
0.62174201 -0.82445878 3.2839127 11711154
0.62105978 -0.77463055 3.2803092 11711154
0.62037909 -0.72491139 3.2767141 11711154
0.61969984 -0.67530102 3.2731261 11711154
0.61902213 -0.6257993 3.2695467 11711154
0.61832708 -0.57503557 3.2658763 11711154
0.61763358 -0.5243848 3.262213 11711154
-0.27173698 -0.45381093 3.279695 6513507
0.61696035 -0.47521242 3.258657 11711154
-0.27184129 -0.42470559 3.2796936 6513507
0.61626995 -0.42478612 3.2550106 11711154
-0.27272141 -0.37472394 3.2746146 6513507
0.61561829 -0.37718752 3.2515683 11711154
-0.27346638 -0.32557437 3.2704933 6513507
-0.27366933 -0.27503192 3.2703335 6513507
0.62182015 -0.26786298 3.2987616 6513507
-0.27373651 -0.2249575 3.271142 6513507
0.62122989 -0.22528619 3.2956307 6513507
-0.27380452 -0.1748585 3.2719479 6513507
0.62052679 -0.17457028 3.2919009 6513507
-0.27390614 -0.12507966 3.272501 6513507
0.61984432 -0.12533563 3.2882802 6513507
-0.27390546 -0.074919008 3.2738047 6513507
0.61914432 -0.074846603 3.2845669 6513507
-0.27404147 -0.024765803 3.2741184 6513507
0.61844599 -0.024470456 3.2808623 6513507
-0.27410835 0.024773857 3.2749183 6513507
0.61776805 0.024434723 3.2772655 6513507
-2.3110001 0.087537915 3.2507267 10000536
-2.2752407 0.087613136 3.2535203 10000536
-2.2253366 0.087718129 3.2574189 9934743
-2.1753118 0.087823361 3.2613273 9934743
-2.1251678 0.087928861 3.265244 10132122
-2.0749028 0.088034607 3.2691715 10197915
-2.0245171 0.088140614 3.2731075 10197915
-1.9753059 0.08824414 3.2769518 10197915
-1.9259794 0.088347904 3.2808058 10197915
-1.8752331 0.088454671 3.2847705 10197915
-1.8243655 0.088561676 3.2887444 10197915
-1.7746834 0.088666216 3.2926257 10197915
-1.7248831 0.088770963 3.2965164 10197915
-1.6907457 0.088842772 3.2991827 10197915
-0.27271 0.073919125 3.2727466 6513507
-0.2251171 0.093014501 3.2538626 5723991
-0.17543948 0.09312024 3.2575617 2039583
-0.12564777 0.093226224 3.2612691 2039583
-0.074392736 0.093335353 3.2650864 2039583
-0.02437163 0.093441822 3.268811 5789784
0.024407722 0.09354566 3.2724438 10000536
0.074655682 0.093652628 3.2761853 10132122
0.12501763 0.093759812 3.2799351 10197915
0.17412972 0.093864359 3.2835925 10197915
0.22472088 0.093972057 3.2873602 10197915
0.27542722 0.094080009 3.2911358 10197915
0.32487547 0.094185263 3.2948179 10197915
0.37167737 0.094284892 3.2983034 10197915
0.61711037 0.071879216 3.2737765 9671571
0.6305927 -1.4709263 3.3306613 11711154
0.62996906 -1.4253614 3.3273668 11711154
0.62926877 -1.3742062 3.3236673 11711154
0.62858927 -1.3245806 3.3200788 11711154
0.62791133 -1.275063 3.316498 9342606
0.6272155 -1.2242414 3.3128228 6513507
0.62654054 -1.174939 3.3092577 6513507
0.62586689 -1.1257434 3.3056998 6513507
0.62517571 -1.0752521 3.3020487 6513507
0.62481141 -1.0486441 3.3001246 6513507
0.63138014 -0.95747823 3.349478 11711154
0.63092858 -0.92490387 3.3470824 11711154
0.63024259 -0.87541854 3.3434432 11711154
0.6295386 -0.82463098 3.3397081 11711154
0.62883598 -0.77395666 3.3359811 11711154
0.62815458 -0.72479784 3.332366 11711154
0.62747455 -0.67574638 3.3287585 11711154
0.62677664 -0.6254037 3.3250568 11711154
0.62608027 -0.5751729 3.3213625 11711154
0.62538552 -0.52505356 3.3176765 11711154
-0.26483804 -0.45382568 3.329648 6513507
0.62469226 -0.47504526 3.3139987 11711154
-0.2648758 -0.42491722 3.3301227 6513507
0.62400055 -0.42514774 3.3103294 11711154
-0.2653144 -0.37721163 3.328182 6513507
0.62331033 -0.37536064 3.3066676 11711154
-0.26661807 -0.32432133 3.3201127 6513507
0.62262166 -0.32568356 3.3030145 10263708
-0.26685336 -0.27473462 3.3196938 6513507
0.62216336 -0.29262236 3.3005829 6513507
-0.26688325 -0.22493084 3.3207664 6513507
-0.26693684 -0.17510191 3.3216681 6513507
0.62842077 -0.17063402 3.3484967 6513507
-0.26702681 -0.12490714 3.3223166 6513507
0.62777621 -0.12472836 3.3450623 6513507
-0.26711655 -0.074695207 3.3229675 6513507
0.62707448 -0.074755222 3.3413234 6513507
-0.26714656 -0.024786996 3.3240426 6513507
0.62637448 -0.024893668 3.3375936 6513507
-0.26721182 0.024795061 3.3248546 6513507
0.62567592 0.024856687 3.3338714 6513507
-2.6150196 0.086345054 3.3082211 10197915
-2.5750203 0.086428672 3.311425 10197915
-2.525887 0.086531378 3.3153598 10197915
-2.4753382 0.086637042 3.3194084 10197915
-2.4246669 0.08674296 3.3234663 10197915
-2.3751752 0.086846426 3.3274302 10197915
-2.3255656 0.086950123 3.331404 10000536
-2.2758367 0.087054074 3.3353863 9934743
-2.2259896 0.087158263 3.3393781 9934743
-2.1760223 0.087262727 3.3433807 9934743
-2.1259353 0.087367438 3.3473923 10000536
-2.0968881 0.08742816 3.3497193 10197915
-1.6657602 0.088895358 3.3011353 10197915
-1.6249293 0.088981248 3.3043249 10197915
-1.5747747 0.089086771 3.3082435 10197915
-1.5245008 0.089192532 3.312171 10197915
-1.4860574 0.089273408 3.3151741 10197915
-0.26662058 0.072858542 3.325562 6513507
-0.22499228 0.092483632 3.331867 5263440
-0.17412223 0.092591286 3.3357458 2039583
-0.12451271 0.092696287 3.3395286 2039583
-0.074790567 0.092801534 3.3433201 2039583
-0.024955377 0.092907012 3.3471196 5789784
0.006938749 0.092974521 3.3495526 10000536
0.39649189 0.094337709 3.3001513 10197915
0.42410475 0.094396487 3.3022072 10197915
0.47388643 0.094502456 3.3059139 10197915
0.52378011 0.094608665 3.3096294 10197915
0.57378608 0.094715118 3.3133535 10197915
0.62010121 0.080041319 3.3252475 9868950
0.63370752 -1.1253579 3.3618245 6513507
0.63301533 -1.0754347 3.3581526 6513507
0.63232493 -1.0256217 3.3544898 4934475
0.63173419 -0.98300821 3.3513558 7829367
0.63448095 -0.60226673 3.3807883 11711154
0.63410252 -0.57531583 3.3787723 11711154
0.63340664 -0.52574617 3.3750639 11711154
-0.25840747 -0.45388049 3.3762088 6513507
0.63269246 -0.47487321 3.3712585 11711154
-0.25866872 -0.4250592 3.3750632 6513507
0.6319797 -0.4241147 3.3674607 11711154
-0.25928268 -0.37339827 3.371954 6513507
0.63128835 -0.37487516 3.3637767 11711154
-0.25968996 -0.32532093 3.3702512 6513507
0.63059855 -0.3257443 3.3601015 9671571
-0.2597543 -0.27512398 3.3710861 6513507
0.62989056 -0.2753211 3.3563287 6513507
-0.25981852 -0.22490194 3.3719203 6513507
0.62918419 -0.22501093 3.3525648 6513507
-0.25989503 -0.17500496 3.3726583 6513507
0.6287728 -0.19571085 3.350373 6513507
-0.25998402 -0.12543899 3.3732986 6513507
-0.26000988 -0.075489625 3.3744042 6513507
0.63510233 -0.061962139 3.399107 6513507
-0.26007435 -0.025168758 3.3752403 6513507
0.63458145 -0.025331754 3.3963182 6513507
-0.26013881 0.025177069 3.3760762 6513507
0.6338613 0.025293466 3.3924646 6513507
-2.6718416 0.085645087 3.3889894 10197915
-2.6243157 0.085743763 3.3928938 10197915
-2.5740321 0.085848175 3.3970249 10197915
-2.5435424 0.085911453 3.3995297 10197915
-2.0717607 0.087480664 3.3517311 10197915
-2.0254002 0.087577581 3.355444 10197915
-1.9749504 0.087683037 3.3594847 10197915
-1.9243798 0.087788746 3.3635345 10197915
-1.8750229 0.087891914 3.3674874 10197915
-1.8255489 0.08799535 3.3714507 10197915
-1.7746168 0.088101819 3.3755295 10197915
-1.7249072 0.088205725 3.3795106 10197915
-1.675079 0.088309892 3.3835011 10197915
-1.625134 0.088414289 3.3875017 10197915
-1.57507 0.088518947 3.3915112 8684676
-1.5289626 0.088615321 3.3952041 6842472
-0.26019809 0.07134904 3.3768451 6513507
0.031937245 0.093027428 3.3514583 10000536
0.075055622 0.09311869 3.3547459 10132122
0.1252322 0.093224883 3.358572 10197915
0.17552336 0.093331315 3.3624067 10197915
0.2259295 0.093438014 3.36625 10197915
0.2750456 0.093541972 3.3699956 10197915
0.3242721 0.093646169 3.3737493 10197915
0.37501901 0.093753576 3.3776186 10197915
0.42588258 0.093861215 3.3814967 10197915
0.47544485 0.093966126 3.3852763 10197915
0.52511907 0.094071262 3.3890641 10197915
0.57490349 0.09417662 3.3928604 10197915
0.62591982 0.082114212 3.3919089 9868950
0.64281666 -0.60433316 3.4403939 11711154
0.64240605 -0.57546395 3.4381964 11711154
0.64168864 -0.52502227 3.4343562 11711154
-0.25317395 -0.45402166 3.4141002 6513507
-0.24946785 -0.45474422 3.4409168 6513507
0.64097273 -0.47469425 3.4305255 11711154
-0.2532452 -0.42485654 3.4143395 6513507
-0.24950463 -0.42486966 3.4414241 6513507
0.64025855 -0.42447731 3.4267027 11711154
-0.25327262 -0.37496307 3.4154327 6513507
-0.24956596 -0.37506101 3.4422696 6513507
0.63954586 -0.37437317 3.4228888 11711154
-0.25336987 -0.32504311 3.4160209 6513507
-0.24962732 -0.32522762 3.4431159 6513507
0.63883477 -0.32437941 3.4190829 8947848
-0.2533628 -0.27511141 3.4173663 6513507
-0.24968868 -0.27537 3.4439626 6513507
0.6381253 -0.27449775 3.4152861 6513507
-0.25345981 -0.22514223 3.4179575 6513507
-0.24975003 -0.22548755 3.4448094 6513507
0.63741738 -0.22472572 3.4114969 6513507
-0.25355718 -0.17515948 3.4185467 6513507
-0.24981152 -0.17558084 3.4456565 6513507
0.63671106 -0.17506506 3.4077163 6513507
-0.25358546 -0.12467027 3.4196486 6513507
-0.24987298 -0.12564932 3.4465041 6513507
0.63598609 -0.12409966 3.4038367 6513507
-0.25364739 -0.075103544 3.4204841 6513507
-0.24993451 -0.075693481 3.4473526 6513507
0.63544351 -0.085948087 3.4009326 6513507
-0.25323251 -0.023695139 3.4248192 6513507
-0.24998195 -0.03713984 3.4480076 6513507
-0.25288346 0.025226714 3.4286125 6513507
-2.5196433 0.085961089 3.4014935 10197915
-2.4757583 0.086052194 3.4050987 10197915
-2.4251125 0.086157367 3.4092605 10197915
-2.374342 0.086262763 3.4134312 10197915
-2.3247888 0.086365663 3.4175026 10197915
-2.2751162 0.086468801 3.4215839 10000536
-2.2253256 0.08657217 3.4256744 9934743
-2.1754153 0.0866758 3.429775 9934743
-2.1253858 0.086779684 3.4338858 9934743
-2.0752354 0.086883806 3.4380059 10132122
-2.0249658 0.086988181 3.4421363 10197915
-1.9745741 0.087092802 3.4462757 10197915
-1.9390959 0.087166466 3.4491906 10197915
-0.2530517 0.070732534 3.4275699 6513507
-0.22486241 0.091926679 3.4137037 4868682
-0.17556074 0.092030384 3.4175551 2039583
-0.12473484 0.092137322 3.4215262 2039583
-0.075207911 0.092241518 3.425395 2039583
-0.025567774 0.092345938 3.4292727 5855577
0.025607495 0.092453621 3.4332712 10197915
0.075475223 0.092558526 3.4371674 10197915
0.12545735 0.092663676 3.441072 10197915
0.17555206 0.092769049 3.4449854 10197915
0.22001596 0.092862599 3.4484591 10197915
0.6415574 0.080014564 3.4489491 10197915
0.65085971 -0.56533623 3.4989572 11711154
0.6499722 -0.50376469 3.4941864 11711154
0.6503312 -0.52866912 3.4961164 11711154
-0.24664514 -0.45457789 3.4613593 6513507
0.64957166 -0.47597122 3.4920328 11711154
-0.24665378 -0.42524362 3.4620562 6513507
0.64883482 -0.42485455 3.4880719 11711154
-0.24676885 -0.37513474 3.4625206 6513507
0.64809978 -0.37385261 3.4841199 11711154
-0.24677579 -0.3250041 3.4637685 6513507
0.64738709 -0.32441899 3.4802895 8289918
-0.24689092 -0.27485704 3.4642336 6513507
0.64667624 -0.27509391 3.4764676 6513507
-0.24692406 -0.22539161 3.4652736 6513507
0.64596689 -0.22587703 3.4726541 6513507
-0.24698523 -0.17518806 3.4661319 6513507
0.64523822 -0.17532584 3.4687364 6513507
-0.24704634 -0.12495995 3.4669895 6513507
0.6445111 -0.12488745 3.4648285 6513507
-0.24710754 -0.074706681 3.4678485 6513507
0.64378589 -0.074563682 3.4609292 6513507
-0.24716868 -0.02442877 3.4687071 6513507
0.64306211 -0.024351982 3.4570382 6513507
-0.24722812 0.024436599 3.4695415 6513507
0.64236063 0.024316594 3.4532671 6513507
-2.7557964 0.084860131 3.4717569 10197915
-2.7247636 0.084924124 3.4743748 10197915
-2.6747499 0.085027218 3.4785929 10197915
-2.6246128 0.085130572 3.482821 10197915
-2.5743561 0.085234173 3.4870596 10197915
-2.5253386 0.085335217 3.4911938 10197915
-2.4748387 0.085439332 3.4954524 10197915
-2.4351754 0.085521102 3.4987979 10197915
-1.9144951 0.087217547 3.4512122 10197915
-1.8747976 0.087299973 3.4544737 10197915
-1.8254176 0.087402508 3.4585311 10197915
-1.7759216 0.087505259 3.4625974 10197915
-1.7249284 0.087611131 3.4667864 10197915
-1.6738131 0.08771728 3.4709864 10197915
-1.6239598 0.087820798 3.4750824 8882055
-1.5739883 0.08792454 3.4791877 6513507
-1.5475713 0.087979354 3.4813569 6513507
-0.25013334 0.08576005 3.4500957 6513507
-0.24362399 0.074414521 3.4774814 6316128
0.24443536 0.092913978 3.450367 10197915
0.27464634 0.092977531 3.4527271 10197915
0.32508117 0.093083635 3.4566672 10197915
0.37418589 0.093186945 3.4605033 10197915
0.42484945 0.093293518 3.4644618 10197915
0.47562784 0.093400337 3.4684286 10197915
0.52506745 0.093504362 3.4722908 10197915
0.57461733 0.093608603 3.476162 10197915
0.62801653 0.083748132 3.471962 9605778
0.65141022 -0.60353386 3.5019169 11711154
0.65121955 -0.59030443 3.5008922 11711154
0.65737683 -0.40148517 3.5498047 11711154
0.65698683 -0.37479573 3.547699 11711154
0.65625143 -0.32446 3.5437272 7697781
0.65551758 -0.27423683 3.5397646 6513507
0.65478551 -0.2241258 3.5358109 6513507
0.65405476 -0.17412658 3.5318661 6513507
0.65332592 -0.12423883 3.5279303 6513507
0.65259868 -0.074462146 3.5240028 6513507
0.65187305 -0.024796171 3.5200841 6513507
0.65114892 0.024759486 3.5161746 6513507
-2.4105167 0.08557193 3.5008774 10197915
-2.3748424 0.085645467 3.5038862 10197915
-2.3253505 0.085747495 3.50806 10197915
-2.2757406 0.085849747 3.5122435 10197915
-2.2260132 0.085952282 3.5164385 10000536
-2.1761661 0.086055025 3.5206418 9934743
-2.1261997 0.086158037 3.5248559 9934743
-2.0761137 0.086261272 3.5290797 9934743
-2.0259078 0.086364776 3.5333145 10132122
-1.9755807 0.086468525 3.5375586 10197915
-1.9251328 0.086572528 3.5418134 10197915
-1.8745637 0.086676776 3.5460782 10197915
-1.8379695 0.086752214 3.5491645 10197915
-0.21029948 0.091371834 3.5008168 2039583
-0.17562653 0.091444314 3.5035939 2039583
-0.12496812 0.091550209 3.5076513 2039583
-0.074193366 0.09165635 3.5117178 2039583
-0.02475591 0.091759697 3.515677 6118749
0.024793148 0.091863275 3.5196457 10197915
0.074454203 0.091967069 3.523623 10197915
0.12422761 0.092071131 3.5276093 10197915
0.17411377 0.092175402 3.531605 10197915
0.22411308 0.092279918 3.5356092 10197915
0.27422592 0.092384681 3.5396228 10197915
0.32445264 0.092489667 3.5436456 10197915
0.37479362 0.092594892 3.5476775 10197915
0.40148622 0.092650667 3.549814 10197915
0.65046763 0.071300499 3.5124955 9408399
0.66031682 -0.60270536 3.5656805 11711154
0.65990156 -0.57428128 3.5634379 11711154
0.6591813 -0.52498966 3.5595489 11711154
0.6584627 -0.47580662 3.5556688 11711154
0.6577456 -0.42672953 3.551796 11711154
0.66364074 -0.2028206 3.5997357 6513507
0.66321945 -0.17437929 3.5974503 6513507
0.66248864 -0.12505826 3.5934863 6513507
0.66175956 -0.075846858 3.5895321 6513507
0.66101015 -0.025256822 3.5854664 6513507
0.66026205 0.025218751 3.5814097 6513507
-2.816355 0.084092379 3.5610604 10197915
-2.7762723 0.08417438 3.5645337 10197915
-2.7250228 0.084279224 3.5689733 10197915
-2.673646 0.084384337 3.5734243 10197915
-2.6249275 0.084483996 3.5776446 10197915
-2.5760939 0.084583908 3.5818758 10197915
-2.5257444 0.084686913 3.5862377 10197915
-2.4752727 0.084790178 3.59061 10197915
-2.4246769 0.084893666 3.5949931 10197915
-2.3824227 0.08498013 3.5986545 10197915
-1.8140051 0.086801611 3.5511856 10197915
-1.7758847 0.086880185 3.5544004 10197915
-1.724955 0.086985178 3.5586956 10197915
-1.6753225 0.08708749 3.5628817 9671571
-1.625572 0.087190062 3.5670776 6513507
-1.5928198 0.087257564 3.569839 6513507
-0.25268114 0.090667963 3.5877454 6513507
-0.22457996 0.090726301 3.590054 3815994
-0.17421177 0.090830885 3.594192 2039583
-0.12670131 0.090929531 3.5980957 2039583
0.42673454 0.092703477 3.5518374 10197915
0.47582003 0.092806078 3.5557685 10197915
0.52501333 0.092908904 3.5597088 10197915
0.57431686 0.093011975 3.5636578 10197915
0.62522835 0.093118399 3.567735 10197915
0.65881264 0.07503178 3.5763791 9474192
0.66957515 -0.60337013 3.6319256 11711154
0.66914624 -0.57441741 3.6295986 11711154
0.66842484 -0.52573174 3.6256862 11711154
0.66768271 -0.47563502 3.6216602 11711154
0.66694212 -0.42564821 3.6176429 11711154
0.66620314 -0.37577337 3.6136351 11711154
0.6654436 -0.32450202 3.6095145 7105644
0.6647079 -0.27484977 3.6055248 6513507
0.66401839 -0.22830667 3.601784 6513507
0.66960716 0.033251189 3.6484969 6513507
-2.3584404 0.085029177 3.6007314 10197915
-2.325943 0.085095666 3.6035473 10197915
-2.2749822 0.085199922 3.6079624 10197915
-2.2253175 0.085301541 3.6122651 10197915
-2.1755335 0.085403383 3.6165776 10066329
-2.1256311 0.085505478 3.6209011 10066329
-2.0756085 0.085607812 3.6252348 10132122
-2.0254669 0.085710377 3.6295786 10197915
-1.975204 0.085813224 3.6339331 10197915
-1.9248215 0.085916303 3.638298 10197915
-1.875762 0.086016662 3.6425486 10197915
-1.8251389 0.086120218 3.6469336 10197915
-1.7947117 0.086182453 3.6495693 10197915
-0.10291061 0.090978943 3.6000509 2039583
-0.076106012 0.091034584 3.6022525 2039583
-0.025394753 0.091139875 3.6064186 6052956
0.025433941 0.09124542 3.6105947 10197915
0.074879818 0.091348074 3.6146574 10197915
0.12443819 0.091450974 3.6187291 10197915
0.1756147 0.09155722 3.6229341 10197915
0.22539926 0.091660589 3.6270237 10197915
0.27529755 0.091764212 3.6311235 10197915
0.32530761 0.091868043 3.6352322 10197915
0.37543207 0.091972098 3.6393509 10197915
0.42566916 0.092076406 3.6434779 10197915
0.47449335 0.092177786 3.6474893 10197915
0.50199974 0.09223488 3.6497488 10197915
0.66901749 0.072486155 3.6452835 9342606
0.67871857 -0.57300729 3.6981423 11711154
0.67799652 -0.52495492 3.6942079 11711154
0.67722934 -0.47391212 3.690028 11711154
0.67648715 -0.42452687 3.6859837 11711154
0.67574668 -0.37524971 3.6819491 11711154
0.67500776 -0.32608038 3.677923 6579300
0.67424744 -0.27548757 3.6737804 6513507
0.6734888 -0.22500741 3.6696467 6513507
0.67273188 -0.17464189 3.6655223 6513507
0.67197669 -0.12438833 3.6614075 6513507
0.67124593 -0.075765781 3.6574264 6513507
0.67049414 -0.025734954 3.6533291 6513507
0.66999376 0.0075615956 3.6506031 6513507
-2.9027412 0.083238147 3.6530643 10197915
-2.8744483 0.083295561 3.6555836 10197915
-2.8248525 0.083396204 3.6600013 10197915
-2.7751346 0.0834971 3.6644292 10197915
-2.7252972 0.083598234 3.6688673 10197915
-2.6753378 0.083699614 3.673317 10197915
-2.6252589 0.08380124 3.6777768 10197915
-2.5750575 0.083903126 3.6822484 10197915
-2.5247343 0.084005244 3.6867299 10197915
-2.4757304 0.084104672 3.6910937 10197915
-2.4251642 0.084207289 3.6955974 10197915
-2.3875253 0.084283672 3.6989493 10197915
-1.7700413 0.086232953 3.6517072 10197915
-1.7249831 0.086325131 3.655611 10132122
-1.6754552 0.086426452 3.6599019 6513507
-1.6389672 0.086501107 3.663063 6513507
-0.25630724 0.090012744 3.6825583 6513507
-0.22442767 0.090078451 3.6852462 3289650
-0.17424527 0.09018191 3.6894786 2039583
-0.12547275 0.090282455 3.6935921 2039583
-0.0750615 0.090386353 3.6978433 2039583
0.52801752 0.092288904 3.6518867 10197915
0.57553357 0.092387572 3.6557901 10197915
0.62468857 0.09248963 3.6598291 10197915
0.66008216 0.092563115 3.6627371 10197915
0.67918527 -0.60406095 3.700685 11711154
0.67909181 -0.59784615 3.700176 11711154
0.68482208 -0.31989682 3.7483208 6513507
0.68415511 -0.2761488 3.7446702 6513507
0.68339419 -0.22625299 3.7405052 6513507
0.68261135 -0.17491464 3.7362208 6513507
0.68183029 -0.12369259 3.7319458 6513507
0.68107456 -0.07413511 3.7278094 6513507
0.68032056 -0.024687372 3.7236829 6513507
0.6795665 0.024650944 3.7195549 6513507
-2.3628752 0.084333688 3.7011447 10197915
-2.3251157 0.084410325 3.7045078 10197915
-2.2756383 0.084510736 3.7089138 10197915
-2.226043 0.084611371 3.7133312 10197915
-2.1763296 0.084712252 3.7177582 10197915
-2.1250296 0.084816359 3.7223272 10197915
-2.0736043 0.084920704 3.7269073 10197915
-2.0250015 0.08501935 3.7312355 10197915
-1.9762847 0.085118212 3.7355742 10197915
-1.9259735 0.085220315 3.7400548 10197915
-1.8755417 0.085322641 3.7445462 10197915
-1.8324326 0.085410118 3.7483852 10197915
-0.024535248 0.09049052 3.7021048 6250335
0.024571821 0.090591758 3.7062464 10132122
0.075329289 0.090696394 3.7105272 10197915
0.12620296 0.090801269 3.7148178 10197915
0.17564805 0.090903185 3.7189875 10197915
0.22520429 0.091005355 3.7231672 10197915
0.27487203 0.091107741 3.7273562 10197915
0.32465172 0.091210358 3.7315547 10197915
0.37454358 0.091313206 3.7357619 10197915
0.42454806 0.091416299 3.739979 10197915
0.47466564 0.091519609 3.7442062 10197915
0.52175283 0.091616683 3.7481771 10197915
0.67886263 0.070807599 3.7157023 9079434
-1.8699855 -0.65668589 3.7992694 6513507
-1.8694134 -0.62689608 3.7993793 6513507
0.68916625 -0.60477871 3.7720983 11711154
-1.8684945 -0.57613182 3.7996063 6513507
0.68870771 -0.57470852 3.7695885 11711154
-1.8672317 -0.52848279 3.7997839 6513507
0.68793666 -0.52414685 3.7653685 11711154
-1.8606405 -0.46366641 3.7989962 6513507
-1.8245623 -0.45730698 3.793963 6513507
-1.7752421 -0.45681742 3.7870319 6513507
-1.7241092 -0.45725495 3.7798383 6513507
-1.6873435 -0.45663002 3.7746718 6513507
0.68716741 -0.47369829 3.761158 11711154
-1.8582879 -0.42609137 3.798908 6513507
-1.824991 -0.42441443 3.7942355 6513507
-1.7746059 -0.42445189 3.7871499 6513507
-1.724207 -0.42596024 3.7800539 6513507
-1.6874393 -0.42537779 3.7748868 6513507
0.68642372 -0.42493305 3.7570877 11711154
-1.8572228 -0.37459192 3.7990892 6513507
-1.8251579 -0.37414777 3.7945828 5855577
-1.7746954 -0.37490952 3.7874815 6513507
-1.7243654 -0.37588131 3.7803972 6513507
-1.6875933 -0.37536746 3.7752306 6513507
0.68568182 -0.37627441 3.7530267 11119017
-1.8558387 -0.32471931 3.7992156 6507082
-1.825325 -0.32387164 3.7949302 5458774
-1.7745405 -0.32568476 3.7877772 5986395
-1.7245213 -0.32579327 3.7807429 6513507
-1.687747 -0.32534805 3.7755737 6513507
0.68520391 -0.34493282 3.750411 6513507
-1.8550837 -0.27642816 3.7994208 6513507
-1.825895 -0.27429837 3.7953298 5007492
-1.7748882 -0.27611247 3.7881453 5133661
-1.7246795 -0.27569655 3.7810881 6513507
-1.6878999 -0.27531955 3.7759178 6513507
-1.8542215 -0.22656311 3.7996199 6513507
-1.8252435 -0.22561897 3.7955511 4679300
-1.7751479 -0.22601227 3.7885034 5002332
-1.7248362 -0.22559041 3.7814326 6513507
-1.6880541 -0.22528192 3.7762616 6513507
-1.8528214 -0.17630889 3.799747 4869198
-1.8258157 -0.17613269 3.7959507 3758458
-1.7753104 -0.17580327 3.7888501 4871003
-1.7249933 -0.17547518 3.7817769 6513507
-1.6882076 -0.17523512 3.7766056 6513507
-1.8529274 -0.14483373 3.7999649 3039380
-1.8259829 -0.12582046 3.7962983 3301519
-1.7754725 -0.12558511 3.7891967 4739418
-1.7251512 -0.12535061 3.7821214 6513507
-1.6883613 -0.1251792 3.7769494 6513507
-1.8254384 -0.075922675 3.7965422 2775948
-1.775635 -0.07535781 3.7895439 4673882
-1.7253081 -0.075217098 3.7824669 6513507
-1.6885157 -0.075114235 3.7772937 6513507
0.69101912 -0.055092793 3.7994711 6513507
-1.8245304 -0.025272619 3.7967408 2249863
-1.7757964 -0.025121314 3.7898889 4608089
-1.725466 -0.0250744 3.7828114 6513507
-1.6886693 -0.025040101 3.7776375 6513507
0.69055587 -0.025173042 3.7969241 6513507
-1.8231075 0.025168322 3.7968669 1985663
-1.775959 0.025124371 3.790236 4739419
-1.725623 0.025077445 3.7831566 6513507
-1.6888233 0.025043143 3.7779825 6513507
0.68977684 0.025135223 3.7926409 6513507
-2.9661808 0.082393989 3.7524703 10197915
-2.9240971 0.082478665 3.7563267 10197915
-2.8746488 0.082578138 3.7608571 10197915
-2.8250816 0.082677856 3.7653987 10197915
-2.7753947 0.082777821 3.7699509 10197915
-2.7255869 0.082878023 3.7745147 10197915
-2.6756592 0.082978472 3.779089 10197915
-2.6256096 0.083079159 3.7836747 10197915
-2.575439 0.0831801 3.7882721 10197915
-2.5251458 0.083281279 3.7928798 10197915
-2.47473 0.083382703 3.7974992 10197915
-2.4479952 0.083436497 3.7999492 10197915
-1.821824 0.067936838 3.7953994 9409432
-1.7759297 0.069207624 3.7870741 9145485
-1.7256893 0.069011308 3.7811944 6513507
-1.6886232 0.069422632 3.776336 6513507
-0.26012996 0.089321949 3.7825177 6513507
-0.22582799 0.089392126 3.7854888 2763306
-0.17584383 0.089494385 3.7898195 2039583
-0.12574521 0.089596875 3.7941594 2039583
-0.080245741 0.089689955 3.7981012 2039583
0.54690361 0.091668487 3.7502971 10197915
0.57524139 0.091726936 3.7526886 10197915
0.62570035 0.091830954 3.7569442 10197915
0.67958015 0.080387831 3.7758319 9539985
-2.1568837 -0.65692675 3.8394108 6513507
-2.1258388 -0.65707302 3.8350439 6513507
-2.0742869 -0.65806431 3.8277884 6513507
-2.0245528 -0.65690857 3.820802 6513507
-1.9750402 -0.65729105 3.8138366 6513507
-1.9251059 -0.65748489 3.8068137 6513507
-1.8731239 -0.656982 3.815778 6513507
-2.1570086 -0.62515026 3.8396335 6513507
-2.1238711 -0.62547296 3.8349702 6513507
-2.0743635 -0.62484401 3.8280125 6513507
-2.025085 -0.62453169 3.821085 6513507
-1.975154 -0.62572652 3.8140566 6513507
-1.9258264 -0.62458932 3.8071265 6513507
-1.8726043 -0.62434673 3.8163226 6513507
0.69951367 -0.6039083 3.8461771 11711154
-2.1572022 -0.57588977 3.8399773 6513507
-2.1244328 -0.57519931 3.8353736 6513507
-2.0746546 -0.57425702 3.8283796 6513507
-2.0244417 -0.57554245 3.8213103 6513507
-1.9753354 -0.57521534 3.8144062 6513507
-1.9260029 -0.57417023 3.8074753 6513507
-1.8734199 -0.57524985 3.8141022 6513507
0.69906414 -0.57486099 3.8437049 11711154
-2.1574018 -0.52503097 3.8403327 6513507
-2.1246297 -0.52440137 3.8357275 6513507
-2.0748298 -0.52491051 3.8287225 6513507
-2.0250366 -0.52565211 3.8217154 6513507
-1.9749604 -0.52430546 3.8146813 6513507
-1.926057 -0.52473736 3.807802 6513507
-1.8736795 -0.52532333 3.8133605 6513507
0.69829106 -0.52491611 3.8394547 11711154
-2.1576016 -0.47416264 3.8406887 6447714
-2.1251521 -0.47474387 3.8361211 6513507
-2.0747418 -0.47568107 3.8290262 6513507
-2.0252233 -0.47503078 3.822067 6513507
-1.9739951 -0.47413614 3.8148687 6513507
-1.9242719 -0.47554386 3.8078673 6513507
-1.8756394 -0.47847497 3.8099668 6513507
0.69751972 -0.47508028 3.8352137 11711154
-2.1560676 -0.42484835 3.8407898 6447714
-2.1246905 -0.42554462 3.8363731 6513507
-2.0751178 -0.42517534 3.8294048 6513507
-2.0254102 -0.42439985 3.8224206 6513507
-1.9745718 -0.42452931 3.8152699 6513507
-1.9248229 -0.42598358 3.8082645 6513507
-1.8835583 -0.42481065 3.8024683 6513507
0.69675004 -0.42535561 3.830982 11711154
-2.1562607 -0.37555501 3.841135 7555658
-2.1252072 -0.37512824 3.8367715 6704981
-2.075309 -0.37444282 3.8297589 6377038
-2.0260048 -0.37447792 3.822825 6509909
-1.9739561 -0.37560159 3.8154984 6511965
-1.9249998 -0.37553117 3.8086135 6513250
-1.8826007 -0.37494352 3.802655 6513507
0.69595748 -0.37414137 3.8266234 10132122
-2.156461 -0.32466224 3.841491 6177093
-2.1254034 -0.32429335 3.8371255 3890817
-2.0758564 -0.32470033 3.8301558 5520449
-2.0253618 -0.32545194 3.8230505 6503998
-1.9745288 -0.32566145 3.8159003 6504255
-1.9251765 -0.32506919 3.808964 6504512
-1.8811785 -0.32441795 3.8027811 6506054
0.69519109 -0.32463789 3.8224106 6513507
-2.1566534 -0.27535105 3.8418355 6119781
-2.1255934 -0.27503809 3.8374689 3825282
-2.0751007 -0.27537614 3.8303657 5593438
-2.0257559 -0.27580196 3.8234258 6513507
-1.9747109 -0.27509838 3.816251 6513507
-1.9253538 -0.27459818 3.8093135 6513507
-1.8802698 -0.27364826 3.8029795 6513507
0.69442666 -0.2752445 3.8182068 6513507
-2.156446 -0.22481105 3.8421311 5857384
-2.1254776 -0.22603318 3.8377681 3299456
-2.0741558 -0.22534706 3.8305566 5593438
-2.0244322 -0.22493581 3.8235657 6513507
-1.9748919 -0.22452612 3.8166022 6513507
-1.9240323 -0.22392017 3.8094549 6513507
-1.8782139 -0.22400288 3.8030097 6513507
0.69363922 -0.22437097 3.8138773 6513507
-2.1553195 -0.17509934 3.8422925 3556436
-2.1242557 -0.17490031 3.8379271 2707578
-2.0743473 -0.17458056 3.8309102 3753039
-2.0246193 -0.17426202 3.8239195 5593952
-1.9750742 -0.17394467 3.8169534 4211526
-1.9243746 -0.1746486 3.8098199 4408131
-1.8762561 -0.17526822 3.8030498 4737096
0.69287813 -0.17519659 3.8096924 6513507
-2.1555192 -0.12417277 3.8426492 5332589
-2.1244519 -0.1240316 3.8382804 2313591
-2.0749497 -0.12452151 3.8313169 3231081
-2.0247998 -0.12516294 3.8242617 3956868
-1.97525 -0.12493494 3.8172941 4871262
-1.9238145 -0.12577239 3.8100562 6513507
-1.8753899 -0.1257073 3.8032465 6251366
0.6921187 -0.12613116 3.805517 6513507
-2.1557126 -0.074828662 3.8429942 5266796
-2.1246426 -0.074743599 3.8386254 2116726
-2.0743067 -0.075371593 3.831542 2836582
-2.024981 -0.076054953 3.8246028 3036799
-1.9754262 -0.075916424 3.8176348 4674141
-1.9243516 -0.075773574 3.8104539 6513507
-1.8751602 -0.075636074 3.8035369 6120039
-1.8498281 -0.061398484 3.8000662 3762844
0.69140977 -0.080326334 3.8016188 6513507
-2.1559064 -0.025475595 3.8433387 5267051
-2.1248333 -0.02544664 3.8389688 1919091
-2.0749099 -0.025400102 3.8319499 2442339
-2.0251677 -0.025353746 3.8249545 2248314
-1.9756087 -0.025307547 3.817986 4542813
-1.9245278 -0.025259938 3.8108034 6513507
-1.8749981 -0.024943292 3.8038402 6054503
-1.8496996 -0.027889345 3.8002639 3040408
-2.1561062 0.025478745 3.8436947 5661552
-2.1250298 0.025449779 3.8393242 1655406
-2.0751023 0.025403226 3.8323035 2244961
-2.0253541 0.025356857 3.8253095 1853043
-1.9757897 0.02531066 3.8183372 4740192
-1.9247053 0.025263036 3.8111532 6908265
-1.8738122 0.025215589 3.8039968 6186606
-1.8467398 0.025190353 3.8001897 2448015
-2.422704 0.083487369 3.8022664 10197915
-2.3750224 0.083583303 3.8066354 10197915
-2.3257353 0.083682463 3.811151 10197915
-2.2748327 0.083784878 3.8158152 10197915
-2.2253087 0.083884493 3.8203526 10197915
-2.1620533 0.071985424 3.8382924 9672345
-2.1251032 0.068680651 3.8385286 7897999
-2.075222 0.068273969 3.8325257 8685967
-2.0255122 0.068151012 3.8256052 9540760
-1.9759438 0.068026789 3.8186345 9606294
-1.9248543 0.067898817 3.8114495 10132122
-1.8739564 0.067771286 3.8042903 10066586
-1.845699 0.070478976 3.8003347 9935259
-0.055104211 0.089741386 3.8002796 2039583
-0.025202932 0.089802556 3.8028698 6250335
0.025241522 0.089905776 3.8072405 10132122
0.075802058 0.090009212 3.8116205 10197915
0.12489303 0.090109631 3.8158734 10197915
0.17409489 0.090210304 3.8201351 10197915
0.22499868 0.090314426 3.8245459 10197915
0.27602017 0.090418808 3.8289664 10197915
0.32555923 0.090520158 3.8332584 10197915
0.3752107 0.090621732 3.8375597 10197915
0.4249725 0.090723537 3.8418703 10197915
0.47484741 0.09082558 3.8461907 10197915
0.51030588 0.090898104 3.849263 10197915
-1.8543907 -0.65736943 3.8754623 6513507
-1.854494 -0.62512344 3.8755829 6513507
-1.8550112 -0.57495087 3.8732288 6513507
-1.8551177 -0.52492821 3.8737924 6513507
-1.8554281 -0.48751563 3.8725731 6513507
0.70580059 -0.31817791 3.8985062 6513507
0.7051366 -0.27592739 3.8948381 6513507
0.70434642 -0.22565369 3.8904738 6513507
0.70355803 -0.17549138 3.8861194 6513507
0.70277154 -0.1254424 3.8817744 6513507
0.70198661 -0.075504042 3.8774393 6513507
0.70120215 -0.025678229 3.8731065 6513507
0.70039517 0.025638863 3.8686488 6513507
-3.05845 0.081452213 3.8550525 860736
-3.0257299 0.081517443 3.85814 4017248
-2.9750659 0.081618428 3.8629196 7568002
-2.9242764 0.081719659 3.8677108 10197915
-2.8748608 0.081818171 3.8723726 10197915
-2.8253243 0.081916898 3.8770461 10197915
-2.7741628 0.082018897 3.8818727 10197915
-2.7243843 0.082118116 3.8865693 10197915
-2.6744838 0.082217582 3.8912766 10197915
-2.6244636 0.082317285 3.8959961 10197915
-2.5910535 0.082383893 3.899148 10197915
-0.26416582 0.088592619 3.8880553 6513507
-0.22570212 0.088670664 3.8914804 2236962
-0.17431666 0.088774934 3.8960571 2039583
-0.13892335 0.088846765 3.8992093 2039583
0.53451848 0.090947658 3.8513613 10197915
0.57493329 0.091030337 3.8548625 10197915
0.62514514 0.091133073 3.8592126 10197915
0.68583363 0.082323991 3.8639832 9605778
-1.8506044 -0.6569258 3.9024045 6513507
-1.8468672 -0.6577546 3.9289613 6513507
-1.850437 -0.62516052 3.9044363 6513507
-1.8467213 -0.62514305 3.9308665 6513507
0.71030295 -0.60465157 3.9233747 11711154
-1.8506042 -0.57508785 3.9045694 6513507
-1.8469577 -0.57573748 3.9304919 6513507
0.70983732 -0.57502192 3.9208026 11711154
-1.8507242 -0.52495319 3.9050424 6513507
-1.8473802 -0.52503806 3.9288223 6513507
0.70903665 -0.52407491 3.9163797 11711154
-1.8508663 -0.48944077 3.9049704 6513507
-1.8475943 -0.49085 3.9282091 6513507
0.7082634 -0.4748812 3.9121091 11711154
0.70749193 -0.42579475 3.9078484 11711154
0.70669651 -0.37518489 3.9034545 9474192
0.70618427 -0.34258854 3.900625 6513507
0.71147525 0.024529152 3.9479184 6513507
-2.5667164 0.082432389 3.9014435 10197915
-2.5255818 0.082514398 3.9053247 10197915
-2.4751997 0.082614817 3.9100778 10197915
-2.4246933 0.082715489 3.9148428 10197915
-2.3740656 0.082816422 3.9196191 10197915
-2.3248529 0.082914509 3.9242618 10197915
-2.2755234 0.083012849 3.9289155 10197915
-2.2322662 0.08309906 3.9329965 10197915
-0.11475481 0.088895813 3.9013612 2039583
-0.074412622 0.088977657 3.9049544 2039583
-0.024289915 0.089079387 3.9094183 6579300
0.024325754 0.089178056 3.913748 10066329
0.074675836 0.089280225 3.9182324 10132122
0.12514018 0.089382626 3.9227264 10197915
0.17408758 0.08948195 3.9270854 10197915
0.22478162 0.089584827 3.9316003 10197915
0.27559108 0.089687936 3.9361255 10197915
0.32487366 0.089787953 3.9405146 10197915
0.37426618 0.089888178 3.9449136 10197915
0.41550851 0.089971878 3.9485869 10197915
0.71074522 0.070254214 3.943867 8684676
-1.8401544 -0.65750319 3.9767163 6513507
-1.8402714 -0.62495762 3.9767437 6513507
-1.8405178 -0.57449704 3.9763241 6513507
0.72075528 -0.55672163 3.9994125 11711154
-1.8409446 -0.52511191 3.974592 6513507
0.72024691 -0.52487415 3.9965906 11711154
-1.8413857 -0.49373955 3.9722884 6513507
0.71944535 -0.47467309 3.9921439 11711154
0.71864575 -0.42458382 3.9877064 11711154
0.71784788 -0.37460563 3.9832795 8618883
0.71705174 -0.32473835 3.978862 6513507
0.71625751 -0.27498153 3.9744542 6513507
0.71546477 -0.22533484 3.9700561 6513507
0.71467388 -0.17579788 3.9656675 6513507
0.71385866 -0.12472526 3.9611433 6513507
0.71304506 -0.073767774 3.9566286 6513507
0.71225911 -0.024565149 3.9522674 6513507
-3.1513259 0.080466375 3.9638386 794944
-3.125391 0.080517568 3.9663601 926786
-3.0749605 0.0806171 3.9712632 993349
-3.0244064 0.080716878 3.9761786 1322055
-2.9752641 0.08081387 3.9809561 4214626
-2.9260039 0.080911085 3.9857452 7567489
-2.8750789 0.081011593 3.9906967 10132122
-2.824029 0.081112355 3.9956603 10197915
-2.7899292 0.081179671 3.998976 10197915
-0.27502108 0.087808155 3.999048 6513507
0.44029063 0.090022154 3.950793 10197915
0.4750393 0.090092681 3.9538882 10197915
0.52642685 0.09019696 3.9584649 10197915
0.57627064 0.090298101 3.9629042 10197915
0.62622643 0.090399481 3.9673533 10197915
0.67629445 0.090501085 3.971812 10197915
0.70805812 0.090565532 3.9746406 10197915
-1.8332117 -0.65796036 4.0260777 6513507
-1.8332682 -0.62517768 4.0265512 6513507
0.72153282 -0.60542423 4.003727 11711154
-1.8334098 -0.57517761 4.0268626 6513507
0.72115731 -0.58190179 4.0016437 11711154
-1.8335696 -0.52498573 4.0270514 6513507
-1.8342727 -0.49664348 4.0228024 6513507
0.72617388 -0.17106478 4.0480924 6513507
0.72543728 -0.12565783 4.0439854 6513507
0.72462016 -0.075311638 4.0394301 6513507
0.72380501 -0.025078755 4.0348859 6513507
0.72299182 0.025041239 4.0303526 6513507
-2.7650886 0.081228681 4.00139 10197915
-2.7246583 0.081308484 4.0053215 10197915
-2.6747928 0.081406899 4.0101695 10197915
-2.6248062 0.081505544 4.0150299 10197915
-2.5746984 0.081604458 4.0199013 10197915
-2.5244694 0.081703596 4.024786 10197915
-2.4741173 0.081802979 4.0296803 10197915
-2.4252229 0.081899472 4.0344338 10197915
-2.3762112 0.081996202 4.0391989 10197915
-2.3254979 0.082096308 4.0441298 10197915
-2.2889755 0.082168385 4.0476809 10197915
-0.2569035 0.087844595 4.0007071 4539717
-0.22391945 0.087910958 4.0037293 2039583
-0.17435604 0.088010669 4.0082703 2039583
-0.12468014 0.088110603 4.0128226 2039583
-0.074891225 0.088210769 4.0173841 2039583
-0.024989005 0.088311166 4.0219564 6579300
0.02502694 0.088411801 4.0265398 8621206
0.075156994 0.088512644 4.0311327 10066329
0.12540154 0.088613741 4.0357356 10197915
0.17576098 0.088715047 4.04035 10197915
0.22623572 0.088816598 4.0449748 10197915
0.26669565 0.088897988 4.0486817 10197915
0.72226161 0.070054725 4.0262818 8553090
-1.8264694 -0.65789109 4.0740385 6513507
-1.8264784 -0.62501371 4.0748453 6513507
0.73320585 -0.60451406 4.0872917 11711154
-1.8266498 -0.57504547 4.0749426 6513507
0.73273289 -0.57536024 4.0846548 11711154
-1.8268056 -0.52528393 4.0751572 6513507
0.73192734 -0.52570784 4.0801644 11711154
-1.8292685 -0.49935025 4.0583215 6513507
0.73109603 -0.47445735 4.0755291 11711154
0.73029387 -0.42502514 4.0710592 11711154
0.72949386 -0.37570247 4.0665984 7960953
0.72866786 -0.32479203 4.0619946 6513507
0.72784388 -0.27399674 4.0574007 6513507
0.72704899 -0.22500309 4.0529699 6513507
0.72658378 -0.19632882 4.0503769 6513507
-3.2229781 0.079475425 4.0816207 926529
-3.1759162 0.079567336 4.0863404 1059141
-3.1255977 0.079665594 4.0913868 993092
-3.075155 0.07976409 4.0964456 927299
-3.0451508 0.079822689 4.0994549 860737
0.29033217 0.08894553 4.0508471 10197915
0.3241486 0.089013577 4.0539465 10197915
0.37496376 0.089115821 4.0586023 10197915
0.42589584 0.089218289 4.0632691 10197915
0.47524098 0.089317553 4.06779 10197915
0.52469736 0.089417048 4.0723214 10197915
0.57597446 0.089520194 4.0770197 10197915
0.62565428 0.089620151 4.0815716 10197915
