# .PCD v0.7 - Point Cloud Data file format
VERSION 0.7
FIELDS x y z rgb
SIZE 4 4 4 4
TYPE F F F U
COUNT 1 1 1 1
WIDTH 1172
HEIGHT 1
VIEWPOINT 0 0 0 1 0 0 0
POINTS 1172
DATA ascii
0.37543306 -0.57500243 1.5255774 11184810
0.41076472 -0.57499897 1.5183274 11711154
0.33608624 -0.52521241 1.5435447 6447714
0.37548202 -0.52500713 1.5258094 7303023
0.41078103 -0.52504098 1.5184667 11711154
0.33638197 -0.47500443 1.5436676 6447714
0.3755379 -0.47499779 1.5260384 3026478
0.4107953 -0.47514862 1.5185776 10921638
0.33660814 -0.42528382 1.5438192 6447714
0.37559095 -0.42497286 1.5262699 2039583
0.41642347 -0.42246926 1.5080457 5395026
0.33707309 -0.37505853 1.5438666 6447714
0.37564635 -0.37498996 1.5265026 5921370
0.41768089 -0.37484449 1.5075777 5921370
0.33714703 -0.32505035 1.5440885 6447714
0.37527239 -0.32511845 1.5269253 6447714
0.41743627 -0.3248432 1.5079427 6447714
0.33774301 -0.27500805 1.5440754 6447714
0.37516963 -0.27500615 1.5272272 6447714
0.41768464 -0.2747927 1.508087 6447714
0.33758232 -0.22530048 1.5444018 6447714
0.37503645 -0.22484948 1.5275422 6447714
0.41800439 -0.22501263 1.5081956 6447714
0.33772507 -0.17518245 1.544593 6447714
0.37477601 -0.17499609 1.5279144 6447714
0.41829047 -0.17484803 1.5083237 6447714
0.33792248 -0.12486002 1.5447609 6447714
0.37481096 -0.12499283 1.5281528 6447714
0.41876274 -0.12500057 1.5083652 6447714
0.33822295 -0.075203016 1.5448798 6447714
0.3747116 -0.074974813 1.5284531 6447714
0.41880339 -0.074906148 1.508603 6447714
0.33858103 -0.024961896 1.5449746 6447714
0.37500307 -0.024987608 1.5285776 6447714
0.41933453 -0.024999483 1.5086195 6447714
0.33876088 0.024729084 1.5451479 6447714
0.37505934 0.024992637 1.5288063 6447714
0.41939768 0.025004504 1.5088471 6447714
0.33926666 0.074897893 1.5451754 6513507
0.37487558 0.074952155 1.5291448 6513507
0.41998744 0.075044617 1.5088358 6513507
-1.2113597 0.110719 1.5369771 9934743
-1.1747378 0.11070412 1.527071 9934743
-1.1248436 0.11062988 1.5258951 9934743
-1.0748051 0.11055471 1.5248621 9934743
-1.0248317 0.11047965 1.5238236 9934743
-0.97492933 0.11040468 1.5227935 9934743
-0.92487818 0.11032896 1.5218953 9934743
-0.87511075 0.11025549 1.5205842 9934743
-0.82519537 0.11017983 1.5196924 9868950
-0.7751407 0.11010406 1.5187929 10066329
-0.725151 0.11002962 1.51762 10197915
-0.67369038 0.10993011 1.5216169 10197915
-0.62499189 0.10980676 1.5320531 10197915
-0.57508928 0.10973186 1.5310113 10197915
-0.5250451 0.10965618 1.5301045 10197915
-0.47485673 0.10958159 1.5289134 10197915
-0.42494634 0.10950658 1.5278643 10197915
-0.37531981 0.10943203 1.526829 10197915
-0.32512212 0.10935675 1.5257777 10197915
-0.27499694 0.10928151 1.5247284 10197915
-0.22493729 0.10920651 1.5236803 10197915
-0.17494988 0.1091314 1.5226336 10197915
-0.12481931 0.10905565 1.521724 10197915
-0.074755892 0.10898097 1.5205356 10197915
-0.024974605 0.1089063 1.5194937 10197915
0.024951695 0.10883139 1.5184484 10197915
0.075017184 0.10875569 1.5175395 10197915
0.12474816 0.10865217 1.5230843 10197915
0.17496209 0.10853302 1.5319977 10197915
0.22494604 0.10845815 1.5309391 10197915
0.27486432 0.10838331 1.5298826 10197915
0.33174005 0.10611476 1.5366434 10197915
0.37467286 0.10484618 1.5268795 10197915
0.42015681 0.1043517 1.5087175 10197915
1.0318089 0.10719007 1.5270734 10197915
1.0748947 0.10711009 1.5296562 10197915
1.1248093 0.10703406 1.5288714 10197915
1.1748657 0.10695966 1.5276599 9539985
1.2112901 0.10685968 1.5372219 5395026
0.22999988 -0.62046891 1.590818 7237230
0.27520421 -0.62047267 1.5704663 10921638
0.31045642 -0.62043977 1.5545967 10855845
0.43893355 -0.62051499 1.5719373 11711154
0.45114082 -0.62073243 1.5990522 11711154
0.23032643 -0.57518113 1.5909023 7039851
0.27526101 -0.57500714 1.5706735 9079434
0.31047699 -0.5750401 1.554819 9145227
0.43895823 -0.57487208 1.5720448 11711154
0.45118061 -0.57507259 1.5991931 11711154
0.2306923 -0.52497447 1.5909941 6447714
0.27528971 -0.52501327 1.5709164 6447714
0.31085986 -0.52467555 1.554904 6447714
0.43902257 -0.52487957 1.5722456 11711154
0.45122448 -0.52477163 1.5993484 11711154
0.23083362 -0.47512186 1.5911846 6447714
0.27531451 -0.4750042 1.5711591 6447714
0.31116232 -0.47496414 1.5550221 6447714
0.4384447 -0.47987461 1.5710132 11711154
0.45125964 -0.4843916 1.5994732 11711154
0.23136769 -0.42504233 1.5912006 6447714
0.27538243 -0.42497987 1.5713851 6447714
0.31140581 -0.42469618 1.5551682 6447714
0.23140362 -0.37502012 1.5914397 6447714
0.27542001 -0.37497237 1.5716236 6447714
0.31184751 -0.37495634 1.5552242 6447714
0.23198512 -0.32513398 1.5914321 6447714
0.27545574 -0.32499734 1.5718625 6447714
0.31188732 -0.32491145 1.5554606 6447714
0.23211998 -0.275011 1.5916269 6447714
0.27552161 -0.27503899 1.5720875 6447714
0.31254834 -0.2749714 1.5554184 6447714
0.23212902 -0.22540769 1.5918763 6447714
0.27525249 -0.22487839 1.572464 6447714
0.31258103 -0.22501926 1.5556587 6447714
0.23216079 -0.17495608 1.5921196 6447714
0.27494842 -0.17501859 1.5728569 6447714
0.31303489 -0.17480999 1.5557104 6447714
0.23233534 -0.12518184 1.5922955 6447714
0.27502614 -0.1250034 1.5730762 6447714
0.31324348 -0.12501694 1.5558711 6447714
0.23286955 -0.075154379 1.5923103 6447714
0.27502242 -0.074910097 1.5733336 6447714
0.31367093 -0.074882463 1.555935 6447714
0.23287427 -0.025070993 1.5925629 6447714
0.27516228 -0.024928762 1.5735263 6447714
0.31393081 -0.025141157 1.5560713 6447714
0.23339571 0.024912884 1.5925834 6447714
0.27519491 0.024918109 1.5737659 6447714
0.31411907 0.025336612 1.5562445 6447714
0.2336089 0.075149469 1.592744 6513507
0.27516532 0.074898534 1.5740335 6513507
0.31470445 0.075168759 1.5562354 6447714
-1.2585282 0.11054687 1.5933149 9934743
-1.2236284 0.11054992 1.5799611 9934743
-1.1749833 0.11048131 1.5779455 9934743
-1.1251909 0.11040666 1.57688 9934743
-1.0748069 0.11033117 1.5758054 9934743
-1.0247082 0.1102561 1.5747293 9934743
-0.97512203 0.11018176 1.5736684 9934743
-0.92515963 0.11010619 1.5727543 9934743
-0.87504798 0.11003248 1.5713744 9934743
-0.82500392 0.10995611 1.5706103 9868950
-0.77502531 0.10988257 1.5692338 9868950
-0.72512102 0.10980642 1.5684725 10132122
-0.67765576 0.10972098 1.5707163 10197915
-0.62508738 0.10961837 1.5750203 10197915
-0.57510817 0.10954454 1.5737128 10197915
-0.52359587 0.10943304 1.5804263 10197915
-0.47518626 0.10935533 1.5805705 10197915
-0.42512611 0.10928033 1.5794903 10197915
-0.3751384 0.10920549 1.5784047 10197915
-0.32521543 0.1091307 1.5773276 10197915
-0.27492535 0.1090547 1.5763921 10197915
-0.22492522 0.1089812 1.5749996 10197915
-0.17499152 0.10890575 1.5740765 10197915
-0.12512664 0.10883037 1.5731508 10197915
-0.075111106 0.10875614 1.5719149 10197915
-0.024950569 0.10868104 1.5708289 10197915
0.024927722 0.10860633 1.569749 10197915
0.074950062 0.1085314 1.5686668 10197915
0.12290944 0.10844912 1.5700213 10197915
0.1749101 0.1083425 1.5754448 10197915
0.23058306 0.10553053 1.5868798 10132122
0.27445975 0.10462736 1.5732366 10132122
0.31410503 0.10418047 1.5566534 10197915
1.0447249 0.10700163 1.5653234 10197915
1.0753553 0.10691671 1.5735487 10197915
1.1276106 0.10681447 1.5778898 10197915
1.1750921 0.10672762 1.5804529 10197915
1.2239863 0.10664946 1.5805075 9013641
1.2588515 0.10653853 1.5931417 4408131
0.14315669 -0.62049073 1.629915 2039583
0.17470133 -0.62048829 1.615714 2039583
0.20446728 -0.62042308 1.602313 2039583
0.4638049 -0.62073284 1.6271814 11711154
0.1432824 -0.57550561 1.6300883 4210752
0.17472811 -0.57499832 1.6159325 4210752
0.20479165 -0.57430243 1.6024022 4342338
0.46379244 -0.57505935 1.6272074 11711154
0.14384946 -0.52510399 1.6300899 6447714
0.17475592 -0.52498651 1.6161773 6447714
0.20513685 -0.52506626 1.6024979 6447714
0.46387917 -0.52510691 1.6274571 11711154
0.14387505 -0.47505134 1.630334 6447714
0.1747922 -0.47499689 1.6164149 6447714
0.20529126 -0.47460264 1.6026865 6447714
0.46276951 -0.48836952 1.6250352 11711154
0.14390057 -0.42498392 1.6305783 6447714
0.17481397 -0.42502487 1.6166601 6447714
0.20582947 -0.42494524 1.6026976 6447714
0.14390676 -0.37497607 1.6308314 6447714
0.17482026 -0.37503812 1.616912 6447714
0.20584543 -0.37500393 1.6029456 6447714
0.14392835 -0.325028 1.6310759 6447714
0.17488046 -0.32501861 1.6171415 6447714
0.20644163 -0.32467738 1.6029341 6447714
0.14395005 -0.27506509 1.6313213 6447714
0.1748597 -0.27500144 1.6174065 6447714
0.20654958 -0.27496189 1.6031396 6447714
0.1439717 -0.22508679 1.6315659 6447714
0.17491835 -0.22500415 1.6176347 6447714
0.20686589 -0.22440554 1.6032542 6447714
0.14399329 -0.17509378 1.6318111 6447714
0.17493425 -0.17497335 1.6178827 6447714
0.2072873 -0.1750845 1.6033168 6447714
0.14401498 -0.12508564 1.6320577 6447714
0.17493574 -0.12498055 1.6181377 6447714
0.20737575 -0.12461703 1.6035345 6447714
0.14403665 -0.075062402 1.6323035 6447714
0.17504905 -0.074868999 1.6183418 6447714
0.20792785 -0.075068332 1.6035388 6447714
0.14405835 -0.025024163 1.6325487 6447714
0.17500912 -0.024863107 1.6186162 6447714
0.207959 -0.025247568 1.6037796 6447714
0.14408006 0.025029179 1.6327945 6447714
0.17502031 0.02485068 1.6188644 6447714
0.20849302 0.025552748 1.6037986 6447714
0.14410171 0.075097591 1.6330407 6513507
0.17514715 0.074852608 1.6190624 6447714
0.20864862 0.075090267 1.6039814 6447714
-1.3000799 0.11042888 1.635282 9934743
-1.2718087 0.11042085 1.6268485 9934743
-1.2250413 0.11035805 1.6241893 9934743
-1.1747808 0.1102823 1.6232097 9934743
-1.1234801 0.11019965 1.6234299 9934743
-1.0752658 0.11009207 1.6304479 9934743
-1.0254891 0.11001837 1.629174 9934743
-0.97509795 0.10994226 1.6282307 9868950
-0.92500758 0.10986812 1.6269492 9868950
-0.87498081 0.10979405 1.6256751 9868950
-0.82479459 0.10971827 1.6247296 9868950
-0.77490824 0.10964289 1.6237978 9868950
-0.72508699 0.10956917 1.6225221 9934743
-0.6751036 0.10949366 1.6215857 10132122
-0.62497044 0.10942017 1.6201394 10197915
-0.5748992 0.10934383 1.6193662 10197915
-0.52688265 0.10924386 1.6247225 10197915
-0.47502524 0.10915377 1.6264347 10197915
-0.42487097 0.10907878 1.625317 10197915
-0.37512827 0.10900499 1.6240814 10197915
-0.32511005 0.10893021 1.622972 10197915
-0.27482882 0.10885449 1.6219754 10197915
-0.22447017 0.10873891 1.6300437 10197915
-0.17480975 0.10866465 1.6289388 10197915
-0.12477988 0.1085884 1.6281595 10197915
-0.075041138 0.10851485 1.6268725 10197915
-0.025149504 0.10844029 1.625759 10197915
0.025126273 0.10836516 1.6246336 10197915
0.074880607 0.10829083 1.6235139 10197915
0.13038246 0.1068571 1.6251209 10197915
0.17428941 0.10482376 1.6172069 10132122
0.20871428 0.10427415 1.6037955 10197915
1.0854198 0.10672562 1.613446 10197915
1.1226522 0.10662594 1.6226512 10197915
1.1754402 0.10652161 1.6272634 10197915
1.2254797 0.10644636 1.6262516 10197915
1.2721645 0.10636931 1.6268698 7631988
0.48650795 -0.620884 1.6776108 11711154
0.48654196 -0.57529569 1.6777389 11711154
0.48659071 -0.52529788 1.6779054 11711154
0.48236194 -0.49537626 1.6685461 11711154
-1.3183928 0.11025862 1.6807193 9934743
-1.2748318 0.11022124 1.6734339 9934743
-1.2250186 0.11014767 1.67212 9934743
-1.1750385 0.11007304 1.6709871 9934743
-1.1259712 0.10999648 1.6706293 9934743
-1.0751616 0.10988008 1.6787103 9868950
-1.0250859 0.10980534 1.6775686 9868950
-0.97472954 0.10973082 1.6762805 9868950
-0.92478848 0.10965627 1.6751419 9868950
-0.87492061 0.10958062 1.6742845 9868950
-0.82512099 0.10950752 1.6728694 9868950
-0.7750321 0.10943215 1.671867 9868950
-0.72501862 0.1093581 1.6705871 9868950
-0.67317837 0.10924702 1.6770908 10066329
-0.62509227 0.10916423 1.6785051 10197915
-0.57510275 0.10909047 1.6771693 10197915
-0.52494365 0.10901645 1.6758362 10197915
-0.47462347 0.10893974 1.6750519 10197915
-0.42483416 0.10886629 1.6737225 10197915
-0.37534907 0.10879245 1.672588 10197915
-0.32523128 0.10871768 1.6714431 10197915
-0.27518624 0.10864303 1.6702898 10197915
-0.22603314 0.10852887 1.6784666 10197915
-0.17518894 0.10844951 1.678098 10197915
-0.12504973 0.10837596 1.6766614 10197915
-0.074982747 0.10830009 1.6757859 10197915
-0.024978943 0.10822551 1.6746322 10197915
0.024956034 0.10815105 1.6734798 10197915
0.07516481 0.10807678 1.6721836 10197915
0.1208238 0.10800733 1.6714375 10197915
1.1301259 0.10639288 1.6730415 10197915
1.1746707 0.10630424 1.6770703 10197915
1.2247642 0.10623044 1.6757091 10197915
1.2750074 0.10615399 1.6748997 10197915
1.3184149 0.10605898 1.6807988 6645093
0.50867146 -0.62094051 1.7268412 11711154
0.50864697 -0.57477999 1.7268406 11711154
0.50809634 -0.52879608 1.7256701 11711154
-1.3631308 0.11011287 1.7301693 9934743
-1.3248152 0.11007369 1.725189 9934743
-1.274991 0.10999876 1.7241771 9934743
-1.2252378 0.10992534 1.7228636 9868950
-1.1748251 0.10984954 1.7218378 9868950
-1.1248418 0.10977505 1.7206706 9868950
-1.0752933 0.10970187 1.7193619 9868950
-1.0227418 0.10960247 1.7229438 9868950
-0.97506124 0.10950622 1.7275726 9868950
-0.925044 0.10943173 1.7263978 9868950
-0.87509918 0.10935733 1.725224 9868950
-0.82497972 0.10928179 1.72425 9868950
-0.77492672 0.10920816 1.72287 9868950
-0.72518575 0.10913404 1.7217019 9868950
-0.6775952 0.10903583 1.7268076 9868950
-0.62496597 0.10893796 1.7300186 10132122
-0.57475632 0.10886387 1.7286774 10197915
-0.52498329 0.10878841 1.7278086 10197915
-0.47527733 0.10871576 1.7263255 10197915
-0.42527342 0.10864065 1.7252972 10197915
-0.37534484 0.10856696 1.7239631 10197915
-0.32547903 0.10849208 1.7229379 10197915
-0.27496952 0.10841752 1.7215946 10197915
-0.2245272 0.10834176 1.7205511 10197915
-0.17487 0.10826851 1.7192235 10197915
-0.12384015 0.10818244 1.7203186 10197915
-0.075150691 0.10807407 1.7273486 10197915
-0.02503819 0.10799769 1.7265638 10197915
0.025015168 0.10792318 1.7253728 10197915
0.074989587 0.10785061 1.7237774 10197915
0.12278854 0.10777577 1.7234912 10197915
1.1457027 0.10616276 1.7198223 10197915
1.1763477 0.10607289 1.7291781 10197915
1.2246999 0.10599747 1.7288203 10197915
1.2746587 0.10592321 1.7276092 10197915
1.324895 0.10584923 1.7262383 10066329
1.3626455 0.10577454 1.729556 5395026
0.52987236 -0.62116379 1.7739329 11711154
0.5299297 -0.57491606 1.7741139 11711154
0.52904916 -0.53627831 1.7722028 11711154
-1.4088296 0.109961 1.7813531 9934743
-1.3748614 0.10995813 1.7696809 9934743
-1.3248482 0.10988518 1.7681545 9868950
-1.2749001 0.10981088 1.7669593 9868950
-1.2244923 0.10968812 1.7766409 9868950
-1.1751002 0.10961363 1.7756871 9868950
-1.125044 0.10953922 1.7744824 9868950
-1.0750605 0.10946488 1.773278 9868950
-1.0273042 0.10938092 1.77508 9868950
-0.97528952 0.10926707 1.7821476 9868950
-0.92519134 0.10919262 1.7809334 9868950
-0.87479049 0.10911845 1.7795441 9868950
-0.82520348 0.10904402 1.7785097 9868950
-0.77530938 0.10896987 1.7773004 9868950
-0.72511691 0.10889602 1.7759165 9868950
-0.6749866 0.10882078 1.7748684 9868950
-0.62492961 0.10874712 1.7734884 10066329
-0.5749383 0.10867208 1.7724434 10197915
-0.52501643 0.10859863 1.7710665 10197915
-0.47516283 0.1085238 1.7700247 10197915
-0.42500636 0.10844925 1.7688091 10197915
-0.37529179 0.10837609 1.7674377 10197915
-0.32340187 0.10828515 1.7693291 10197915
-0.27498546 0.1081776 1.776269 10197915
-0.22503342 0.1081024 1.775275 10197915
-0.17490645 0.10802989 1.7736105 10197915
-0.12594076 0.10795013 1.7740121 10197915
-0.074966356 0.10783111 1.782639 10197915
-0.025097929 0.10775632 1.7815847 10197915
0.025074797 0.10768182 1.7803531 10197915
0.074806139 0.10760872 1.7789625 10197915
0.12447242 0.10753423 1.7779131 8618883
0.15042427 0.1074459 1.7886257 6579300
1.1877726 0.10587379 1.7704009 10197915
1.2247932 0.10580097 1.7735535 10197915
1.2746007 0.10572711 1.7723153 10197915
1.3246952 0.10565352 1.7709033 10197915
1.3743724 0.10557836 1.7700003 9013641
1.4081054 0.10547884 1.7804379 2894892
0.54543883 -0.62077624 1.8085105 11711154
0.5569436 -0.62131834 1.8340653 11711154
0.5455271 -0.57474494 1.8087596 11711154
0.55704951 -0.57527095 1.8343536 11711154
0.54535538 -0.54174143 1.8084165 11711154
0.55583566 -0.54601097 1.8316907 11711154
-1.4519492 0.10982401 1.8282136 9868950
-1.4219921 0.10982211 1.8177758 9868950
-1.3725669 0.1097299 1.8208529 9868950
-1.3249557 0.10963571 1.8250362 9868950
-1.2749426 0.10956148 1.8238016 9868950
-1.2257807 0.10944091 1.8334317 9868950
-1.1748753 0.10936075 1.8332266 9868950
-1.1247432 0.10928638 1.8319798 9868950
-1.0750707 0.10921352 1.8305626 9868950
-1.0250729 0.10913933 1.8293197 9868950
-0.97476625 0.10906391 1.8282502 9868950
-0.9249059 0.10898995 1.8270108 9868950
-0.87511349 0.10891608 1.8257723 9868950
-0.82501376 0.10884257 1.8243446 9868950
-0.77497202 0.10876753 1.8232822 9868950
-0.72500718 0.1086942 1.8218586 9868950
-0.67510372 0.10861938 1.8207984 9868950
-0.62527269 0.10854625 1.8193779 9934743
-0.57550675 0.10847165 1.8183228 10197915
-0.52505136 0.10839755 1.816891 10197915
-0.47466588 0.10832204 1.815814 10197915
-0.4230527 0.10823239 1.8175155 10197915
-0.37528467 0.10812332 1.8250352 10197915
-0.32694623 0.10804391 1.8255945 10197915
-0.27512538 0.10792187 1.8345889 10197915
-0.22519667 0.1078487 1.8331462 10197915
-0.17494553 0.10777419 1.8318865 10197915
-0.12476334 0.10769986 1.8306162 10197915
-0.075040899 0.10762536 1.8295487 10197915
-0.024998313 0.10755119 1.8282877 10197915
0.024975367 0.10747712 1.8270288 10197915
0.0752538 0.10740338 1.8255833 10197915
0.12546617 0.1073282 1.824497 7566195
0.1523722 0.10727785 1.8262098 6579300
1.2282081 0.10559978 1.8181603 10197915
1.2745402 0.10552057 1.8193961 10197915
1.3248594 0.10544606 1.818112 10197915
1.3751001 0.10537324 1.8164742 10197915
1.4219652 0.1052921 1.8179582 7631988
1.4516834 0.10520542 1.8269259 2894892
0.57611358 -0.62133908 1.8766456 11711154
0.57551265 -0.57750535 1.8753613 11711154
0.56650603 -0.54959542 1.8553877 11711154
-1.468376 0.10967495 1.8681425 9868950
-1.4251484 0.1096262 1.8635613 9868950
-1.3759819 0.10948752 1.8773187 9868950
-1.3249383 0.10936921 1.8857547 9868950
-1.2752507 0.10929651 1.8842878 9868950
-1.2248448 0.10922101 1.8831997 9868950
-1.1748968 0.10914707 1.8819245 9868950
-1.1250169 0.10907321 1.8806514 9868950
-1.0748155 0.10899979 1.8791718 9868950
-1.0250686 0.10892612 1.877902 9868950
-0.97500288 0.10885112 1.876822 9868950
-0.92499661 0.10877794 1.8753477 9868950
-0.87506878 0.10870317 1.8742709 9868950
-0.82480842 0.10862876 1.8729877 9868950
-0.77500957 0.10855589 1.8715191 9934743
-0.72528183 0.1084814 1.870447 9934743
-0.67522663 0.1084073 1.8691695 9934743
-0.62485337 0.10833354 1.8676927 9868950
-0.57454628 0.10825823 1.8665992 10132122
-0.52469647 0.10818443 1.8653264 10197915
-0.47491774 0.10811242 1.8636693 10197915
-0.42647403 0.10802805 1.8653153 10197915
-0.37475443 0.10785332 1.886361 10197915
-0.3245078 0.10777903 1.8850547 10197915
-0.27473032 0.10770453 1.8839688 10197915
-0.22462332 0.10763042 1.8826722 10197915
-0.17497824 0.10755786 1.8811868 10197915
-0.12540135 0.10748368 1.8801054 10197915
-0.075110853 0.10741015 1.8786099 10197915
-0.02489334 0.10733502 1.8775051 10197915
0.024870582 0.10726141 1.8762177 10197915
0.074949823 0.1071882 1.8747277 10197915
0.12496364 0.10711338 1.8736283 7763574
0.15407434 0.1070653 1.8740207 6513507
1.2410458 0.10540812 1.8571681 10197915
1.2748568 0.10530304 1.8688469 10197915
1.3254026 0.10522752 1.8677115 10197915
1.3751256 0.1051549 1.8662119 10197915
1.4247704 0.10508071 1.865106 10197915
1.4675416 0.10500065 1.8678277 6447714
0.59356111 -0.62132716 1.915401 11711154
0.60386711 -0.62152356 1.9382933 11711154
0.59347636 -0.58402932 1.9152561 11711154
0.60365462 -0.58738482 1.9378606 11711154
-1.5143075 0.10951523 1.9211962 9868950
-1.4748101 0.10947942 1.9150158 9868950
-1.4246552 0.10940533 1.9137182 9868950
-1.3780572 0.10929602 1.9217052 9868950
-1.3226657 0.1091819 1.9276109 9868950
-1.275161 0.10906982 1.9359095 9868950
-1.2250072 0.10899661 1.9343778 9868950
-1.1749201 0.10892171 1.9332812 9868950
-1.1249002 0.10884874 1.9317529 9868950
-1.0749508 0.10877394 1.9306595 9868950
-1.0250643 0.10870124 1.9291351 9934743
-0.97525227 0.10862672 1.9280444 10066329
-0.92509735 0.10855265 1.9267298 10132122
-0.87501079 0.10847864 1.925416 9934743
-0.82499635 0.10840657 1.9236809 9934743
-0.77505308 0.10833094 1.9227948 9934743
-0.72517067 0.1082572 1.9214869 9934743
-0.67495382 0.10818393 1.9199618 9934743
-0.6248132 0.10810892 1.9188548 9868950
-0.57513499 0.10803552 1.9175522 10000536
-0.52512699 0.10796262 1.9160329 10197915
-0.47518766 0.10788786 1.9149311 10197915
-0.42609739 0.10781442 1.9138576 10197915
-0.37489751 0.10768246 1.9253459 10197915
-0.32442072 0.10760791 1.924013 10197915
-0.27358276 0.10747813 1.9351372 10197915
-0.22522849 0.10740269 1.934775 10197915
-0.17501324 0.10732947 1.9332278 10197915
-0.12486731 0.10725459 1.9321069 10197915
-0.074788667 0.10718165 1.9305633 10197915
-0.024782553 0.10710686 1.9294459 10197915
0.025159994 0.10703412 1.9279065 10197915
0.0750269 0.10695959 1.9267925 10197915
0.12483391 0.106887 1.925257 8026746
0.15631065 0.10683232 1.9262952 6513507
1.2861625 0.10507759 1.9161142 10197915
1.3252008 0.10499785 1.9201146 10197915
1.3751463 0.10492422 1.9187683 10197915
1.4250221 0.10485071 1.9174235 10197915
1.4752078 0.10477762 1.9158638 9803157
1.5141699 0.10469285 1.9210398 5395026
0.61972696 -0.62183124 1.9735206 11711154
0.61836231 -0.59230596 1.9705236 11711154
-1.5620368 0.10933866 1.9787525 9868950
-1.5247872 0.10932074 1.9693261 9868950
-1.47484 0.10924699 1.9679985 9868950
-1.424963 0.10917538 1.9662188 9868950
-1.3751588 0.10909986 1.9653481 9868950
-1.3273026 0.10902382 1.9653102 9868950
-1.2756113 0.10889338 1.9762753 9868950
-1.2256562 0.1088197 1.9749379 9868950
-1.1749383 0.10874488 1.9735801 9868950
-1.1202617 0.10862727 1.9805366 9934743
-1.0746779 0.10853591 1.9848164 10132122
-1.0246441 0.10846213 1.9834666 10197915
-0.97509933 0.10839015 1.9818954 10197915
-0.92519855 0.10831654 1.980558 10197915
-0.8749609 0.10824147 1.9794313 10132122
-0.82519788 0.10816811 1.9780897 9934743
-0.77508944 0.10809522 1.9765114 9934743
-0.72505337 0.10802048 1.9753898 9934743
-0.6750797 0.1079478 1.9738157 9934743
-0.62518173 0.10787323 1.9726974 9934743
-0.57493383 0.10779916 1.9713427 9868950
-0.52475423 0.10772519 1.9699895 10132122
-0.47506282 0.10765291 1.968424 10197915
-0.42501849 0.10757913 1.9670748 10197915
-0.37464041 0.10750387 1.9659429 10197915
-0.32473543 0.10743031 1.9645976 10197915
-0.27780685 0.10731491 1.9738601 10197915
-0.22508942 0.10722302 1.9756696 10197915
-0.1750405 0.10714928 1.974311 10197915
-0.12506077 0.10707564 1.9729542 10197915
-0.071386345 0.10694851 1.9824487 10197915
-0.025077645 0.10686738 1.9841225 10197915
0.025054559 0.1067936 1.9827523 10197915
0.074699074 0.10671946 1.9816259 10197915
0.12469162 0.10664584 1.9802588 8289918
0.15870333 0.10659283 1.9799992 6513507
1.3294952 0.10476395 1.9718546 10197915
1.3747689 0.1046817 1.9741626 10197915
1.4248779 0.104609 1.9725471 10197915
1.4749187 0.10453444 1.971385 10197915
1.5248885 0.10446192 1.9697729 9211020
1.5618594 0.10436291 1.9789175 5000268
0.63899732 -0.62209737 2.0163255 11711154
0.65055043 -0.62517118 2.0419834 11711154
0.63354385 -0.59700924 2.00424 11711154
-1.6117632 0.109148 2.0402386 9868950
-1.5751137 0.10914888 2.026737 9868950
-1.5253894 0.10907567 2.0253775 9868950
-1.4753079 0.10900298 2.0237637 9868950
-1.425294 0.10892828 2.02264 9868950
-1.3753444 0.10885579 2.0210307 9868950
-1.3254675 0.10878128 2.0199108 9868950
-1.2752274 0.10870729 2.018537 9868950
-1.2246343 0.10863385 2.0169101 9934743
-1.1749569 0.10855963 2.015795 10066329
-1.1294105 0.10847617 2.0182862 10132122
-1.0751014 0.10834976 2.0273831 10197915
-1.0248456 0.10827581 2.0259991 10197915
-0.9746592 0.10820194 2.0246172 10197915
-0.9245404 0.10812817 2.023237 10197915
-0.87533814 0.10805578 2.0218821 10197915
-0.82153088 0.10792824 2.0314121 10066329
-0.7747072 0.10784435 2.0335369 9934743
-0.72492898 0.10777004 2.0324049 9934743
-0.67521262 0.10769799 2.0307772 9934743
-0.62472361 0.10762266 2.0296254 9934743
-0.57472044 0.1075491 2.0282385 9868950
-0.52521145 0.10747741 2.0266171 10000536
-0.4749251 0.10740234 2.02547 10197915
-0.42470548 0.10732955 2.0238299 10197915
-0.37455934 0.10725471 2.0226858 10197915
-0.32447565 0.10718212 2.02105 10197915
-0.27488428 0.10710701 2.0201678 10197915
-0.2249452 0.10703678 2.0180511 10197915
-0.17465349 0.10696068 2.0171409 10197915
-0.1244268 0.10688683 2.0157483 10197915
-0.07907854 0.10679141 2.0210304 10197915
-0.025202237 0.10667714 2.0275207 10197915
0.02517892 0.10660308 2.0261128 10197915
0.075490169 0.10652912 2.0247071 10197915
0.12573168 0.10645528 2.0233035 8421504
0.16086172 0.10640364 2.0223222 6513507
1.3447329 0.10453459 2.0185876 10197915
1.3769979 0.10442937 2.030853 10197915
1.4247272 0.10435089 2.0314128 10197915
1.4750208 0.10427713 2.0299761 10197915
1.525243 0.10420343 2.0285413 10132122
1.5749743 0.10413152 2.0268743 8750469
1.6117388 0.10401046 2.0411243 4408131
0.66413528 -0.63007188 2.0721529 11711154
-1.624257 0.10902765 2.0721943 9868950
-1.5751381 0.10895544 2.0708225 9868950
-1.5210584 0.10882832 2.0801628 9868950
-1.4744796 0.1087417 2.0829942 9868950
-1.4247614 0.10866751 2.0818624 9868950
-1.3751081 0.10859574 2.0801978 9934743
-1.3246489 0.10852044 2.0790451 10066329
-1.2746905 0.10844706 2.0776386 10132122
-1.2252418 0.10837559 2.0759807 10197915
-1.1749837 0.10830058 2.0748327 10197915
-1.1247935 0.10822802 2.0731535 10197915
-1.0746741 0.10815323 2.0720096 10197915
-1.0246177 0.10808085 2.0703347 10197915
-0.97463757 0.10800625 2.0691941 10197915
-0.92471427 0.10793409 2.0675235 10197915
-0.87487197 0.10785969 2.0663862 10197915
-0.82892877 0.10776236 2.0718954 10197915
-0.77505934 0.10764676 2.078685 10000536
-0.72548181 0.10757399 2.0772789 9934743
-0.67510295 0.10750002 2.075851 9934743
-0.62479335 0.10742616 2.074425 9934743
-0.57455295 0.10735241 2.0730002 9934743
-0.5243814 0.10727873 2.071578 9934743
-0.47427863 0.10720518 2.0701578 10132122
-0.42149469 0.10707222 2.0813007 10197915
-0.37447366 0.10699074 2.0828023 10197915
-0.32463467 0.1069188 2.0811081 10197915
-0.2748729 0.1068446 2.079958 10197915
-0.22473939 0.10677106 2.0785258 10197915
-0.17510906 0.10669942 2.0768375 10197915
-0.12554695 0.1066255 2.0756931 10197915
-0.07518971 0.10655279 2.0739934 10197915
-0.024906421 0.10647785 2.0728185 10197915
0.02488365 0.10640481 2.0713964 10197915
0.075028315 0.10633239 2.0697031 10197915
0.12510824 0.10625776 2.0685337 8684676
0.16233502 0.10620081 2.0679998 6513507
1.3898958 0.10419915 2.0786264 10197915
1.4253508 0.10414723 2.0775907 10197915
1.4751011 0.10407438 2.0761373 10197915
1.5247813 0.10400164 2.0746863 10197915
1.5752327 0.10392776 2.0732124 10066329
1.6239344 0.10385644 2.07179 7171437
0.68477541 -0.63755417 2.117991 11711154
-1.6707609 0.10886848 2.1253412 9868950
-1.6253792 0.10882609 2.1185315 9868950
-1.5751619 0.10875242 2.1170971 9868950
-1.5296154 0.10866145 2.1212969 9868950
-1.4754015 0.10853709 2.1299565 9868950
-1.4250154 0.10846324 2.1285064 10132122
-1.3746979 0.10838943 2.1270583 10197915
-1.3244489 0.10831577 2.1256127 10197915
-1.2742684 0.10824216 2.1241686 10197915
-1.224156 0.10816871 2.1227267 10197915
-1.1741112 0.10809531 2.1212869 10197915
-1.1241345 0.10802203 2.1198485 10197915
-1.0726781 0.10793717 2.1205137 10197915
-1.0245994 0.10780679 2.1327796 10197915
-0.97490215 0.10773267 2.1316314 10197915
-0.92481762 0.10765928 2.1301789 10197915
-0.87480128 0.107586 2.1287286 10197915
-0.82485771 0.10751529 2.1267078 10197915
-0.77498591 0.10743971 2.1258349 10132122
-0.72517335 0.10736673 2.1243904 9934743
-0.67498338 0.1072944 2.1226544 9934743
-0.62487096 0.10721977 2.1214826 9934743
-0.57526201 0.10714706 2.120044 9934743
-0.52528143 0.10707506 2.1183147 9868950
-0.47536942 0.1070007 2.1171479 10066329
-0.42985582 0.10689805 2.1240211 10197915
-0.37506986 0.10678373 2.1301851 10197915
-0.32454154 0.10670976 2.1287091 10197915
-0.27496803 0.10663716 2.1272609 10197915
-0.22546192 0.10656465 2.1258149 10197915
-0.17514107 0.10649098 2.1243451 10197915
-0.12488931 0.1064174 2.1228769 10197915
-0.074707381 0.10634392 2.1214113 10197915
-0.024594303 0.10627053 2.1199472 10197915
0.0245721 0.10619853 2.118511 10197915
0.07782048 0.10606382 2.1298869 10197915
0.12496932 0.10598113 2.1316171 8947848
0.16508564 0.10591695 2.1316814 6513507
1.4292614 0.1039492 2.121294 10197915
1.4751854 0.10386114 2.1246982 10197915
1.5251657 0.10378809 2.1232042 10197915
1.5750711 0.10371765 2.1211429 10132122
1.6249028 0.10364235 2.1202226 10000536
1.6697155 0.10355042 2.1249099 6184542
0.69928193 -0.64316118 2.150207 11711154
1.7249349 -0.31341749 2.1787455 2894892
1.7279397 -0.29772913 2.1807694 2894892
-1.7129251 0.10874284 2.1692662 9868950
-1.6752295 0.10868763 2.1681657 9868950
-1.6211932 0.10856603 2.176264 9934743
-1.5750535 0.10846894 2.1816428 10000536
-1.5247529 0.10839401 2.1804667 10132122
-1.4749804 0.10832119 2.1790011 10197915
-1.4248252 0.10824912 2.1772213 10197915
-1.3747247 0.10817448 2.1760492 10197915
-1.324703 0.10810259 2.1742747 10197915
-1.2747405 0.10802816 2.1731067 10197915
-1.2248508 0.10795648 2.1713357 10197915
-1.1750261 0.10788223 2.1701713 10197915
-1.1252686 0.10781074 2.1684046 10197915
-1.0755461 0.10773396 2.1678572 10197915
-1.0243583 0.10758896 2.1823199 10197915
-0.97488028 0.10751662 2.1808519 10197915
-0.92546886 0.10744435 2.1793866 10197915
-0.87521088 0.10737087 2.1778958 10197915
-0.82502097 0.10729746 2.1764066 10197915
-0.77490032 0.10722417 2.1749203 10197915
-0.7248475 0.10715097 2.1734354 10066329
-0.6748634 0.10707788 2.171953 9934743
-0.62494725 0.10700487 2.1704721 9934743
-0.57509935 0.10693199 2.1689935 9934743
-0.52531886 0.10685918 2.1675169 9934743
-0.47138017 0.10673065 2.1772327 9934743
-0.42520139 0.10663968 2.1812029 10132122
-0.37478897 0.10656464 2.1800036 10197915
-0.32489318 0.10649171 2.1785128 10197915
-0.27552399 0.10642093 2.1767294 10197915
-0.22531354 0.10634623 2.1755357 10197915
-0.17517388 0.10627428 2.1737294 10197915
-0.12510386 0.10619976 2.1725402 10197915
-0.07509996 0.10612804 2.1707385 10197915
-0.025169862 0.10605375 2.169553 10197915
0.025146605 0.10598022 2.1680484 10197915
0.070782274 0.10587656 2.1751075 10197915
0.12474053 0.10576076 2.1819077 9211020
0.16712937 0.10569888 2.1806307 6513507
1.447013 0.10368007 2.1761811 10197915
1.4752733 0.10363884 2.1753156 10197915
1.5255619 0.1035655 2.1737764 10197915
1.5748994 0.10349357 2.1722665 10197915
1.6250467 0.10342044 2.1707315 10066329
1.6751242 0.10334742 2.1691988 10000536
1.7119796 0.10329367 2.1680708 4408131
1.7428414 -0.31345159 2.2188115 1649471
1.7539271 -0.31353757 2.2436156 1190470
1.745958 -0.27515712 2.2190413 3225663
1.7540296 -0.27388379 2.2227275 3159354
1.7462425 -0.2248826 2.2196259 4605510
1.7541298 -0.22467564 2.2226291 4079166
1.7463156 -0.17513114 2.2197387 4605510
1.7542127 -0.17506278 2.22282 4079166
1.7464137 -0.12476793 2.2197578 4539717
1.7542886 -0.12544681 2.2228184 4079166
1.7462816 -0.075234659 2.2202461 4539717
1.7541598 -0.074527554 2.2223821 3947580
1.7461357 -0.024839601 2.2206581 4671303
1.7540376 -0.024858525 2.2223532 3947580
1.7462119 0.024841048 2.2207549 4671303
1.7541276 0.024860235 2.2224665 3947580
1.7462883 0.074526012 2.2208517 5197647
1.7542529 0.074954145 2.2224398 4276545
-1.7643865 0.10853636 2.2349839 9868950
-1.7251242 0.10853655 2.2206988 9868950
-1.6752491 0.10846654 2.2185562 10000536
-1.6287212 0.10837773 2.2219012 10066329
-1.5746053 0.10824239 2.2331047 10197915
-1.5245427 0.10816927 2.2315969 10197915
-1.4745466 0.10809626 2.2300906 10197915
-1.4246185 0.10802335 2.228586 10197915
-1.3747573 0.10795054 2.2270839 10197915
-1.3249639 0.10787783 2.2255838 10197915
-1.275237 0.10780521 2.2240853 10197915
-1.2255772 0.10773268 2.2225895 10197915
-1.1750489 0.10765891 2.2210672 10197915
-1.1245902 0.10758522 2.2195468 10197915
-1.0751326 0.10751299 2.2180569 10197915
-1.0257415 0.10744086 2.2165687 10197915
-0.97172546 0.10733013 2.2222021 10197915
-0.92521358 0.10721671 2.2311647 10197915
-0.87516868 0.10714513 2.2293127 10197915
-0.82519114 0.10707075 2.2281272 10197915
-0.77481222 0.10699724 2.2265973 10197915
-0.7249763 0.10692596 2.2247524 10197915
-0.6751985 0.10685187 2.2235727 10000536
-0.62502503 0.10677867 2.222049 9934743
-0.57492989 0.1067084 2.2198782 9934743
-0.52489895 0.10663252 2.2190082 9934743
-0.47913265 0.10653885 2.223748 9868950
-0.42471564 0.10640951 2.2334707 10066329
-0.37449148 0.10633627 2.2319331 10197915
-0.32433644 0.10626313 2.2303979 10197915
-0.27425033 0.1061901 2.2288654 10197915
-0.22423305 0.10611716 2.2273343 10197915
-0.1742844 0.10604432 2.2258055 10197915
-0.12440426 0.10597159 2.2242789 10197915
-0.074592538 0.10589896 2.2227545 10197915
-0.024849037 0.10582643 2.2212317 10197915
0.024826372 0.10575399 2.2197113 10197915
0.074433811 0.10568167 2.2181933 10197915
0.12488997 0.10560807 2.2166486 9342606
0.16886875 0.10554395 2.2153027 6513507
1.4860289 0.10343403 2.2180846 10197915
1.5246263 0.10333421 2.2268183 10197915
1.5747197 0.10325988 2.2255781 10197915
1.6247447 0.10318854 2.2236795 10132122
1.6746953 0.10311443 2.2224431 10000536
1.7297629 0.10263433 2.2208729 8224125
1.75333 0.10150611 2.2207484 4737096
1.7626778 -0.31361315 2.2631958 1190470
1.7625659 -0.27493736 2.2629769 3950935
1.7625585 -0.22500651 2.263001 6513507
1.7624794 -0.17507988 2.2628663 6513507
1.7625072 -0.12491731 2.2629685 6513507
1.7623934 -0.075234801 2.2627542 6513507
1.7623858 -0.025311057 2.2627788 6513507
1.7623419 0.025310215 2.262723 6513507
1.7622627 0.075229079 2.2625873 7500402
-1.8054783 0.10842298 2.275732 9934743
-1.7755388 0.10837933 2.2748156 10132122
-1.7253672 0.10830617 2.2732799 10197915
-1.6752632 0.10823311 2.2717466 10197915
-1.6252265 0.10816014 2.2702148 10197915
-1.5752571 0.10808727 2.2686858 10197915
-1.5253556 0.1080145 2.2671583 10197915
-1.4755208 0.10794184 2.2656329 10197915
-1.4248605 0.107862 2.2654388 10197915
-1.3752693 0.10771682 2.2805262 10197915
-1.3247609 0.1076417 2.2793126 10197915
-1.2747951 0.1075689 2.277771 10197915
-1.2248964 0.10749618 2.2762313 10197915
-1.1750729 0.10742669 2.2739921 10197915
-1.1253171 0.10735108 2.2731588 10197915
-1.0756205 0.10727866 2.2716258 10197915
-1.0255133 0.10720716 2.2697356 10197915
-0.97832429 0.10712446 2.271455 10197915
-0.92494762 0.10697927 2.2851713 10197915
-0.87416661 0.10690533 2.283592 10197915
-0.82441229 0.10683287 2.2820442 10197915
-0.77472532 0.10676053 2.280499 10197915
-0.7251054 0.10668828 2.2789557 10197915
-0.67555273 0.10661613 2.2774146 10197915
-0.62511623 0.1065427 2.2758458 9934743
-0.57474881 0.10646936 2.2742791 9868950
-0.52539927 0.1063975 2.2727442 9868950
-0.47516933 0.10632437 2.2711818 9868950
-0.425008 0.10625132 2.2696216 9934743
-0.37491602 0.10617839 2.2680638 10197915
-0.32489231 0.10610554 2.2665079 10197915
-0.2749376 0.10603281 2.2649543 10197915
-0.22276498 0.10593994 2.2671819 10197915
-0.17524509 0.10580756 2.2801046 10197915
-0.12508373 0.10573458 2.278532 10197915
-0.075006992 0.10565866 2.2776628 10197915
-0.024988621 0.10558896 2.2753932 10197915
0.0249657 0.10551625 2.2738271 10197915
0.075310178 0.10544148 2.2725987 10197915
0.12512437 0.10536901 2.2710364 9605778
0.17067386 0.10530095 2.2700193 6447714
1.5329027 0.10307623 2.2825987 10197915
1.5754567 0.10301445 2.2812314 10197915
1.6253479 0.10294203 2.2796276 10197915
1.6751693 0.10286972 2.2780261 10066329
1.7249206 0.10279752 2.276427 10000536
1.7605547 0.10220326 2.2706032 10000536
-1.819716 0.1082821 2.3130007 10197915
-1.7719688 0.10814051 2.3279335 10197915
-1.7246352 0.1080619 2.3286703 10197915
-1.6747888 0.10798774 2.3274779 10197915
-1.625003 0.10791697 2.3255455 10197915
-1.5752934 0.107843 2.3243589 10197915
-1.5251508 0.10777004 2.3227861 10197915
-1.4745884 0.10769812 2.3208294 10197915
-1.4255532 0.10762341 2.320049 10197915
-1.3748231 0.10746834 2.3369811 10197915
-1.324544 0.10739523 2.3353913 10197915
-1.2753173 0.10732365 2.3338351 10197915
-1.225174 0.10725077 2.3322499 10197915
-1.1750982 0.107178 2.3306668 10197915
-1.1250907 0.10710526 2.3290858 10197915
-1.0751506 0.10703265 2.327507 10197915
-1.0252788 0.10696018 2.3259306 10197915
-0.97449803 0.10688631 2.3243251 10197915
-0.92476189 0.10681405 2.3227525 10197915
-0.87509352 0.10674182 2.321182 10197915
-0.82451999 0.1066683 2.3195834 10197915
-0.77498633 0.10659628 2.3180175 10197915
-0.72552037 0.10652438 2.3164537 10197915
-0.67515248 0.10645115 2.3148611 10197915
-0.62485397 0.10637803 2.3132708 10066329
-0.57105833 0.10626382 2.3197691 9868950
-0.52496076 0.10614801 2.3294294 9934743
-0.47444969 0.10607465 2.3278189 10000536
-0.42449403 0.10600375 2.3258481 10132122
-0.37461275 0.10592963 2.3246367 10197915
-0.32479098 0.1058589 2.3226709 10197915
-0.27504864 0.10578497 2.3214629 10197915
-0.22622491 0.10570889 2.3210835 10197915
-0.17431273 0.10555429 2.3374751 10197915
-0.12483972 0.10548248 2.335885 10197915
-0.075434461 0.10541077 2.3342969 10197915
-0.025129331 0.10533775 2.33268 10197915
0.025106153 0.10526483 2.3310652 10197915
0.075272135 0.10519202 2.3294528 10197915
0.12536877 0.1051193 2.3278427 9868950
0.17347376 0.10504949 2.3262966 6447714
1.5452427 0.10288797 2.3210177 10197915
1.5753417 0.10284435 2.3200336 10197915
1.6251422 0.10277218 2.3184056 9409690
1.6748726 0.10270011 2.3167799 7110549
1.7254699 0.1026268 2.3151257 10000536
1.7741253 0.10255629 2.3135352 10000536
-1.9014816 0.10806126 2.3929915 10197915
-1.8704413 0.10807048 2.3796299 10197915
-1.82485 0.10803632 2.3708684 10197915
-1.7782004 0.1079157 2.381422 10197915
-1.7248815 0.10780492 2.3873146 10197915
-1.6752996 0.10773297 2.3857212 10197915
-1.6247743 0.10765962 2.3840973 10197915
-1.5743173 0.10758638 2.3824756 10197915
-1.5249358 0.1075147 2.3808885 10197915
-1.4756206 0.10744313 2.3793027 10197915
-1.4253665 0.10737021 2.3776877 10197915
-1.3751807 0.10729735 2.3760748 10197915
-1.3250625 0.1072246 2.3744638 10197915
-1.2750125 0.10715194 2.3728547 10197915
-1.2250303 0.10707939 2.3712485 10197915
-1.1751158 0.10700695 2.3696439 10197915
-1.1252686 0.10693461 2.3680418 10197915
-1.0754887 0.10686234 2.3664417 10197915
-1.0257763 0.10679019 2.3648436 10197915
-0.97513866 0.10671668 2.3632159 10197915
-0.92457056 0.10664329 2.3615906 10197915
-0.87102693 0.10651524 2.3713353 10197915
-0.82568532 0.10641174 2.3784678 10197915
-0.77539366 0.10634056 2.3764446 10197915
-0.72517645 0.10626596 2.3752096 10197915
-0.67501956 0.10619498 2.3731914 10197915
-0.62494254 0.10612059 2.3719604 10197915
-0.57828516 0.10603868 2.3737013 10066329
-0.52548784 0.10588869 2.38871 10197915
-0.47568277 0.10581651 2.3870821 10197915
-0.42495155 0.10574302 2.3854232 10197915
-0.37429047 0.10566961 2.3837671 10197915
-0.32469109 0.10559773 2.3821456 10197915
-0.27515924 0.10552594 2.3805273 10197915
-0.22569464 0.10545425 2.3789093 10197915
-0.17531013 0.10538125 2.3772626 10197915
-0.12499493 0.10530834 2.3756182 10197915
-0.074749745 0.10523555 2.373976 10197915
-0.024573527 0.10516282 2.3723354 10197915
0.024551358 0.10509164 2.3707297 10197915
0.074590042 0.10501914 2.3690939 10197915
0.12456018 0.10494673 2.3674603 10132122
0.17446099 0.10487442 2.3658292 6447714
1.5828763 0.10265727 2.3599241 10197915
1.6290487 0.10253441 2.3711636 9935001
1.6753694 0.10243241 2.3775964 4350856
1.7253718 0.10236014 2.3759189 4613773
1.7748153 0.10229046 2.3738542 9737623
1.8204266 0.10219838 2.378284 10000536
1.8543411 0.10208292 2.3922882 10000536
-1.9181197 0.10790674 2.4342344 10197915
-1.8746701 0.10784378 2.4328144 10197915
-1.825075 0.10777193 2.4311931 10197915
-1.7755452 0.10770016 2.429574 10197915
-1.725052 0.10762697 2.4279232 10197915
-1.6746269 0.10755391 2.426275 10197915
-1.6252975 0.10748243 2.4246626 10197915
-1.5750083 0.10740957 2.4230185 10197915
-1.5247868 0.10733679 2.4213765 10197915
-1.4746335 0.1072641 2.4197373 10197915
-1.424548 0.10719151 2.4180999 10197915
-1.3745303 0.10711905 2.416465 10197915
-1.32458 0.10704664 2.4148319 10197915
-1.2746974 0.10697436 2.4132016 10197915
-1.2248816 0.10690219 2.4115727 10197915
-1.1751339 0.1068301 2.4099467 10197915
-1.1206198 0.10668855 2.4224172 10197915
-1.0749985 0.10659361 2.4274933 10197915
-1.0250245 0.10652126 2.4258454 10197915
-0.97461623 0.10645014 2.4237595 10197915
-0.92477441 0.10637798 2.4221163 10197915
-0.87861955 0.10628361 2.4268739 10197915
-0.82486534 0.1061404 2.4399953 10197915
-0.77480423 0.10606797 2.4383307 10197915
-0.72481114 0.10599566 2.4366679 10197915
-0.67488647 0.10592344 2.4350078 10197915
-0.62502939 0.1058513 2.4333496 10197915
-0.57524073 0.10577928 2.4316943 10197915
-0.5245055 0.1057059 2.430007 10197915
-0.47485292 0.10563406 2.4283555 10197915
-0.42526826 0.10556234 2.4267068 10197915
-0.37474084 0.10548922 2.4250267 10197915
-0.32428333 0.10541625 2.4233484 10197915
-0.27490246 0.10534482 2.4217062 10197915
-0.22558887 0.10527346 2.4200661 10197915
-0.17533751 0.10520077 2.4183953 10197915
-0.12515548 0.1051282 2.4167264 10197915
-0.075042658 0.1050557 2.41506 10197915
-0.024998894 0.10498331 2.4133959 10197915
0.024975948 0.104911 2.4117339 10197915
0.074882008 0.10483882 2.4100745 10197915
0.12566119 0.10475822 2.4100161 10197915
0.17500851 0.104601 2.4279318 6645093
0.2028521 0.10454217 2.4312336 6447714
1.5965114 0.10245525 2.4010134 10197915
1.6242048 0.10232084 2.4215801 10197915
1.6749078 0.10215337 2.4413438 9934744
1.7252635 0.10208081 2.4396093 2510718
1.7745627 0.10200974 2.437911 4481673
1.8247764 0.10193736 2.4361815 10000536
1.8709904 0.10187076 2.4345896 10000536
-1.960632 0.10778341 2.4777656 10197915
-1.9248071 0.10773158 2.4765739 10197915
-1.8742858 0.10765851 2.474894 10197915
-1.8248832 0.10758704 2.4732511 10197915
-1.7755474 0.10751567 2.4716105 10197915
-1.7252282 0.10744286 2.4699371 10197915
-1.6749774 0.10737018 2.4682662 10197915
-1.624795 0.1072976 2.4665973 10197915
-1.5746795 0.10722509 2.4649308 10197915
-1.5246323 0.10715269 2.4632664 10197915
-1.4746526 0.10708039 2.4616044 10197915
-1.4247403 0.10700818 2.4599445 10197915
-1.3748951 0.10693607 2.458287 10197915
-1.3212366 0.10679178 2.4716973 10197915
-1.2752465 0.10669708 2.4765847 10197915
-1.2251657 0.1066247 2.4749045 10197915
-1.1751617 0.10655638 2.4723282 10197915
-1.1296657 0.10645152 2.4797108 10197915
-1.0755272 0.10631383 2.4914384 10197915
-1.0252825 0.10624128 2.4897377 10197915
-0.97510666 0.10616881 2.4880397 10197915
-0.924999 0.10609645 2.4863443 10197915
-0.87495989 0.1060242 2.4846509 10197915
-0.82498854 0.10595203 2.4829597 10197915
-0.77508521 0.10587997 2.4812715 10197915
-0.72524995 0.10580801 2.4795847 10197915
-0.67548221 0.10573614 2.4779003 10197915
-0.62578207 0.10566439 2.4762185 10197915
-0.57511634 0.1055912 2.4745038 10197915
-0.52452016 0.10551814 2.4727917 10197915
-0.4750247 0.10544667 2.4711168 10197915
-0.42559621 0.10537527 2.4694438 10197915
-0.37520719 0.10530253 2.4677389 10197915
-0.32488719 0.10522985 2.4660361 10197915
-0.2746371 0.1051573 2.4643354 10197915
-0.22445582 0.10508484 2.4626372 10197915
-0.17536587 0.10501394 2.4609761 10197915
-0.1253217 0.1049417 2.4592826 10197915
-0.075345896 0.10486952 2.4575913 10197915
-0.021341948 0.10472547 2.470819 10197915
0.025131859 0.1046299 2.4757347 10197915
0.074824072 0.10455623 2.4744861 10197915
0.12447509 0.10448264 2.4732387 10197915
0.17557615 0.10431454 2.4929934 6842472
0.20544572 0.10427149 2.4919643 6447714
1.6755911 0.10195687 2.4858727 10197915
1.7258596 0.10188454 2.4841092 6583172
1.7750535 0.10181377 2.4823844 2380168
1.8241789 0.10174309 2.4806607 7175054
1.8742367 0.10167108 2.478905 10000536
1.9122357 0.10161643 2.4775724 10000536
-2.003619 0.10765401 2.5228455 10197915
-1.9757068 0.10761373 2.5219009 10197915
-1.925299 0.10754094 2.5201952 10197915
-1.874958 0.10746823 2.5184913 10197915
-1.8246861 0.10739566 2.5167902 10197915
-1.7744812 0.10732314 2.5150912 10197915
-1.7254106 0.10725228 2.5134304 10197915
-1.6753402 0.10717999 2.5117364 10197915
-1.6253369 0.10710775 2.5100439 10197915
-1.5754014 0.10703567 2.5083542 10197915
-1.5244726 0.10696211 2.5066311 10197915
-1.4711765 0.106814 2.5210369 10197915
-1.4250426 0.10672009 2.5256982 10197915
-1.374931 0.10664779 2.5239868 10197915
-1.3297721 0.10654794 2.5303504 10197915
-1.2747561 0.10640501 2.5429533 10197915
-1.2244049 0.10633244 2.5412185 10197915
-1.1751918 0.10626151 2.5395234 10197915
-1.124977 0.10618913 2.5377936 10197915
-1.0748298 0.10611687 2.5360663 10197915
-1.0247514 0.10604467 2.5343411 10197915
-0.97474056 0.10597258 2.5326188 10197915
-0.92479831 0.10590061 2.5308981 10197915
-0.87492329 0.10582871 2.5291803 10197915
-0.82511622 0.10575691 2.5274642 10197915
-0.77431911 0.10568369 2.5257142 10197915
-0.72464812 0.1056121 2.5240035 10197915
-0.67504478 0.1055406 2.5222943 10197915
-0.62445515 0.10546768 2.5205514 10197915
-0.57498693 0.1053964 2.5188482 10197915
-0.52558589 0.10532518 2.5171463 10197915
-0.47520256 0.10525256 2.5154107 10197915
-0.42488858 0.10518003 2.5136776 10197915
-0.37464392 0.10510763 2.5119469 10197915
-0.32446837 0.10503531 2.5102184 10197915
-0.27436182 0.10496306 2.5084922 10197915
-0.22432411 0.10489095 2.5067685 10197915
-0.17342359 0.10480955 2.5068433 10197915
-0.12453446 0.10464686 2.5261731 10197915
-0.074772827 0.10457735 2.523958 10197915
-0.029403336 0.10447271 2.5313377 10197915
0.025289454 0.1043311 2.5437601 10197915
0.074769542 0.10425991 2.5420241 10197915
0.12418174 0.10418883 2.5402915 10197915
0.17457594 0.10411631 2.5385234 7171437
0.20708765 0.10406955 2.5373833 6447714
1.6906459 0.10173245 2.5315433 10197915
1.7254544 0.10168246 2.5303001 10197915
1.7745409 0.101612 2.5285461 3626362
1.824579 0.10154016 2.5267582 2050690
1.8745476 0.10146841 2.5249729 10066329
1.9244449 0.10139677 2.5231905 10197915
1.9549627 0.10135297 2.5221 10197915
-2.0219407 0.107482 2.5686917 10197915
-1.9749358 0.10741425 2.5670726 10197915
-1.9247166 0.10734186 2.5653427 10197915
-1.8745652 0.10726958 2.5636151 10197915
-1.824481 0.10719739 2.5618896 10197915
-1.7744641 0.10712531 2.5601668 10197915
-1.7245148 0.10705329 2.5584464 10197915
-1.6746323 0.10698139 2.5567276 10197915
-1.6248169 0.1069096 2.555012 10197915
-1.5713668 0.10675871 2.5699947 10197915
-1.5253104 0.10666399 2.5748665 10197915
-1.4792808 0.10655749 2.5824304 10197915
-1.424263 0.10641644 2.5946043 10197915
-1.3749751 0.10634553 2.5928755 10197915
-1.3257532 0.10627472 2.5911489 10197915
-1.2755047 0.10620242 2.5893865 10197915
-1.2253245 0.10613025 2.5876262 10197915
-1.1752127 0.10605814 2.5858684 10197915
-1.1251689 0.10598615 2.5841138 10197915
-1.075193 0.10591426 2.5823603 10197915
-1.0252848 0.10584246 2.5806098 10197915
-0.9754442 0.10577075 2.5788615 10197915
-0.9256711 0.10569917 2.5771158 10197915
-0.87488586 0.10562611 2.5753343 10197915
-0.82417005 0.10555313 2.5735552 10197915
-0.77460158 0.10548186 2.5718169 10197915
-0.72509998 0.10541062 2.5700805 10197915
-0.67566508 0.10533948 2.5683467 10197915
-0.62522477 0.10526694 2.5665772 10197915
-0.5748533 0.10519446 2.5648103 10197915
-0.52562088 0.10512362 2.5630834 10197915
-0.47538689 0.10505134 2.5613215 10197915
-0.42522144 0.1049792 2.559562 10197915
-0.37512541 0.10490712 2.5578051 10197915
-0.32509759 0.10483515 2.5560498 10197915
-0.27513885 0.10476329 2.5542977 10197915
-0.22113128 0.1046142 2.5686684 10197915
-0.17597145 0.10451659 2.574527 10197915
-0.12477962 0.10433903 2.5964067 10197915
-0.074171662 0.10426636 2.5945983 10197915
-0.024708914 0.10419535 2.5928309 10197915
0.024686504 0.10412446 2.5910664 10197915
0.07508608 0.10405207 2.5892658 10197915
0.12541616 0.1039798 2.5874672 10197915
0.1746075 0.10390918 2.5857093 7368816
0.20879051 0.10386011 2.5844886 6447714
1.7302482 0.10146528 2.5780504 10197915
1.7740082 0.10140256 2.5764573 9146258
1.8249947 0.10132953 2.5746014 1919613
1.875908 0.10125659 2.5727479 4678023
1.9257116 0.10118522 2.570935 10197915
1.9733741 0.10111692 2.5691996 10197915
2.0380235 -0.22462165 2.6448183 6513507
2.0502169 -0.22415671 2.6393447 6513507
2.0380678 -0.17453702 2.6450546 6513507
2.0503612 -0.17496391 2.6395311 6513507
2.0386269 -0.12559594 2.6450531 6513507
