# .PCD v0.7 - Point Cloud Data file format
VERSION 0.7
FIELDS x y z rgb
SIZE 4 4 4 4
TYPE F F F U
COUNT 1 1 1 1
WIDTH 1175
HEIGHT 1
VIEWPOINT 0 0 0 1 0 0 0
POINTS 1175
DATA ascii
0.51814395 -0.025276089 2.7732406 2894892
0.51816446 0.025277421 2.7733505 2894892
0.5181883 0.075376414 2.7731366 2894892
-0.66677421 0.11189805 2.7845075 9934743
-0.6251533 0.11188155 2.7840967 10000536
-0.57429945 0.11186138 2.7835951 10000536
-0.52461898 0.1118417 2.7831051 10000536
-0.47495621 0.11182202 2.7826157 10000536
-0.42531067 0.11180235 2.7821262 10000536
-0.37568274 0.11178267 2.7816365 10000536
-0.32491872 0.11176258 2.7811363 10132122
-0.27532601 0.11174293 2.780647 10197915
-0.22575086 0.11172326 2.780158 10197915
-0.17504078 0.11170315 2.7796578 10197915
-0.12434893 0.1116831 2.7791581 10197915
-0.074826732 0.11166347 2.7786701 10197915
-0.025322039 0.11164384 2.7781811 10197915
0.02531597 0.11162377 2.7776823 10197915
0.074785613 0.11160417 2.7771943 10197915
0.12423773 0.11158457 2.7767067 10197915
0.17482196 0.11156451 2.7762077 10197915
0.22538809 0.11154447 2.7757092 10197915
0.27478749 0.11152491 2.7752218 10197915
0.32416943 0.11150532 2.7747352 10197915
0.37468183 0.11148532 2.7742362 10197915
0.42517614 0.11146529 2.7737389 10197915
0.47565243 0.11144531 2.7732415 10197915
0.51616251 0.10713719 2.7733729 6250335
2.1811297 0.11076943 2.7564223 6513507
0.51701224 -1.2580608 2.8298798 2894892
0.51709211 -1.2251667 2.8237042 2894892
0.51710707 -1.1751925 2.8243086 2894892
0.51713365 -1.1249447 2.823858 2894892
0.51715076 -1.075253 2.8242486 2894892
0.51717323 -1.0252703 2.8241508 2894892
0.51718909 -0.9750011 2.8246844 2894892
0.5172146 -0.92501575 2.8242989 2894892
0.51723111 -0.87502116 2.8247614 2894892
0.51725417 -0.82532454 2.824589 2894892
0.51727319 -0.77503037 2.8248446 2894892
0.51729208 -0.72473794 2.8250957 2894892
0.51731622 -0.67473316 2.8248553 2894892
0.51733333 -0.62501609 2.8252463 2894892
0.51735395 -0.57470876 2.8253579 2894892
0.51737428 -0.52439749 2.82547 2894892
0.51739657 -0.47495684 2.825366 2894892
0.51741457 -0.42493695 2.8256893 2894892
0.51743722 -0.37490404 2.8255887 2894892
0.51745379 -0.32487696 2.8260536 2894892
0.51747793 -0.27483308 2.8258104 2894892
0.51749521 -0.22509038 2.8262038 2894892
0.5175193 -0.17504005 2.8259635 2894892
0.51753438 -0.12499336 2.8265703 2894892
0.51755929 -0.074652024 2.8262584 2894892
0.51757735 -0.024591222 2.8265784 2894892
0.51759738 0.024592482 2.8266881 2894892
0.51761985 0.074661106 2.8265901 2894892
-0.6732105 0.11180933 2.8408744 10000536
-0.6248489 0.11179016 2.8403873 10000536
-0.57532489 0.11177055 2.8398888 10000536
-0.52581835 0.11175095 2.8393912 10000536
-0.47515109 0.11173089 2.8388815 10000536
-0.42450187 0.11171085 2.8383718 10000536
-0.37504813 0.11169122 2.8378742 10000536
-0.3256118 0.11167166 2.8373768 10132122
-0.2750164 0.11165164 2.8368676 10197915
-0.22443898 0.11163159 2.836359 10197915
-0.17505541 0.11161204 2.8358622 10197915
-0.1256891 0.11159251 2.8353651 10197915
-0.075165421 0.11157251 2.8348577 10197915
-0.02465969 0.1115525 2.8343484 10197915
0.024653938 0.11153296 2.8338521 10197915
0.075123757 0.11151299 2.8333452 10197915
0.12557563 0.11149301 2.8328373 10197915
0.17483667 0.11147349 2.8323417 10197915
0.22525264 0.11145353 2.8318346 10197915
0.2756508 0.11143357 2.8313274 10197915
0.32485938 0.11141409 2.8308322 10197915
0.37522161 0.11139416 2.8303254 10197915
0.42556608 0.11137422 2.8298192 10197915
0.47472218 0.11135477 2.8293247 10197915
0.51497298 0.10736743 2.8272727 6645093
2.2248833 0.11066173 2.8117161 6513507
0.51652408 -1.2684207 2.8754058 2894892
0.51656991 -1.2250656 2.8728478 2894892
0.51658791 -1.1748244 2.8731811 2894892
0.5166083 -1.1248747 2.8732936 2894892
0.51662844 -1.0749214 2.8734062 2894892
0.51664877 -1.024964 2.8735194 2894892
0.51666886 -0.97500229 2.8736317 2894892
0.51669371 -0.92503899 2.8732967 2894892
0.51670915 -0.87507564 2.8738558 2894892
0.51672947 -0.82510269 2.8739688 2894892
0.51674986 -0.77512586 2.8740811 2894892
0.51677006 -0.72514504 2.8741941 2894892
0.51679051 -0.67516011 2.8743069 2894892
0.51681161 -0.62487638 2.874347 2894892
0.5168336 -0.5742979 2.8743148 2894892
0.51685405 -0.5242877 2.8744209 2894892
0.51687253 -0.4748925 2.8746841 2894892
0.51689196 -0.42518798 2.8748715 2894892
0.51691216 -0.37517962 2.8749845 2894892
0.51693249 -0.32516736 2.8750973 2894892
0.51695281 -0.27515116 2.8752103 2894892
0.51697552 -0.22483554 2.875104 2894892
0.51699585 -0.1748122 2.87521 2894892
0.51701367 -0.12508695 2.8755493 2894892
0.51703405 -0.075055026 2.8756623 2894892
0.51705438 -0.025019219 2.8757751 2894892
0.51707464 0.025020525 2.8758879 2894892
0.51709491 0.075064212 2.8760021 2894892
-0.7052002 0.11172678 2.8998258 10000536
-0.6750949 0.11171485 2.8995166 10000536
-0.62573481 0.1116953 2.8990097 10000536
-0.57518864 0.11167532 2.8984904 10000536
-0.52466077 0.11165534 2.8979716 10000536
-0.47415099 0.11163536 2.8974533 10000536
-0.42486101 0.11161585 2.8969467 10000536
-0.37558848 0.11159636 2.8964407 10000536
-0.32513198 0.1115764 2.8959231 10132122
-0.27469352 0.11155645 2.8954053 10197915
-0.22427303 0.11153648 2.8948867 10197915
-0.17507038 0.111517 2.8943818 10197915
-0.12588508 0.11149756 2.893877 10197915
-0.075517856 0.11147765 2.8933597 10197915
-0.025168618 0.1114577 2.8928423 10197915
0.025162626 0.1114378 2.8923256 10197915
0.075475886 0.1114179 2.8918092 10197915
0.12577119 0.111398 2.8912928 10197915
0.1760485 0.11137808 2.8907759 10197915
0.22511153 0.11135868 2.8902726 10197915
0.27415729 0.11133929 2.8897688 10197915
0.32438168 0.11131943 2.8892531 10197915
0.37458804 0.11129954 2.8887372 10197915
0.42477661 0.1112797 2.888222 10197915
0.47494724 0.11125987 2.8877072 10197915
0.51476681 0.10723453 2.878387 6645093
2.2704248 0.11054949 2.8692698 6513507
0.5158757 -1.3063716 2.934871 2894892
0.51600975 -1.2748737 2.9235299 2894892
0.51602405 -1.2249603 2.9241941 2894892
0.51604933 -1.1753451 2.9238355 2894892
0.51606709 -1.1254164 2.9241891 2894892
0.51608777 -1.074578 2.9243054 2894892
0.51611048 -1.0246401 2.9241807 2894892
0.51612526 -0.97501069 2.9247663 2894892
0.51615137 -0.92507124 2.9243317 2894892
0.5161674 -0.87512159 2.9248405 2894892
0.51619089 -0.82487541 2.9246428 2894892
0.5162071 -0.77491641 2.9251506 2894892
0.51623166 -0.72496593 2.9248724 2894892
0.51624942 -0.67500204 2.9252231 2894892
0.51627219 -0.62504327 2.925102 2894892
0.51629025 -0.57446504 2.9254534 2894892
0.51631027 -0.52479428 2.9255672 2894892
0.51633054 -0.47511983 2.9256809 2894892
0.51635426 -0.42483664 2.9254808 2894892
0.51637036 -0.37485385 2.9259913 2894892
0.51639128 -0.32486486 2.9260254 2894892
0.5164125 -0.27487591 2.926064 2894892
0.51643366 -0.22487988 2.9260988 2894892
0.51645309 -0.17487714 2.9262936 2894892
0.5164724 -0.12487395 2.9264848 2894892
0.51649266 -0.075167984 2.9266021 2894892
0.51651543 -0.025166241 2.9264798 2894892
0.51653588 0.02516757 2.9265952 2894892
0.51655364 0.075177215 2.9269471 2894892
0.34341651 0.11121319 2.9499357 10197915
0.37514862 0.11120063 2.9496026 10197915
0.42517447 0.11118086 2.9490781 10197915
0.47518238 0.11116112 2.9485536 10197915
0.51452714 0.10707517 2.9328778 6579300
2.3178735 0.11043271 2.9292333 6513507
0.51539701 -1.3167195 2.9794979 2894892
0.51544601 -1.2750527 2.9765728 2894892
0.51546556 -1.2248492 2.9767706 2894892
0.51549011 -1.174651 2.9764786 2894892
0.51550698 -1.1247448 2.9769225 2894892
0.51552689 -1.0754544 2.9770379 2894892
0.5155496 -1.0252318 2.9769113 2894892
0.51556474 -0.9747079 2.9775214 2894892
0.51559031 -0.92479074 2.9771395 2894892
0.51560867 -0.87487066 2.977421 2894892
0.51563066 -0.8249408 2.9773738 2894892
0.51564729 -0.77501893 2.9778206 2894892
0.51566935 -0.72508115 2.9777715 2894892
0.51569146 -0.67514777 2.9777241 2894892
0.5157088 -0.62551582 2.9780886 2894892
0.51572925 -0.57495338 2.9782066 2894892
0.51574981 -0.52438682 2.9783249 2894892
0.5157696 -0.47504988 2.9784408 2894892
0.5157935 -0.42509338 2.9782298 2894892
0.51580954 -0.37482622 2.9787574 2894892
0.51583332 -0.32486272 2.9785438 2894892
0.51585066 -0.27520433 2.9789071 2894892
0.51586932 -0.22522703 2.9791884 2894892
0.51589394 -0.17494915 2.9788942 2894892
0.5159108 -0.12496467 2.9793413 2894892
0.51593536 -0.074680284 2.9790492 2894892
0.51595223 -0.024687216 2.9794939 2894892
0.51597226 0.02468849 2.9796095 2894892
0.51599592 0.074689358 2.979399 2894892
-0.71271914 0.11163067 2.961009 10000536
-0.67460054 0.11161558 2.9606094 10000536
-0.62542975 0.11159614 2.9600937 10000536
-0.57504761 0.11157624 2.9595654 10000536
-0.5246833 0.11155634 2.9590373 10000536
-0.47556478 0.11153693 2.9585226 10000536
-0.42523602 0.11151702 2.9579947 10000536
-0.3749252 0.11149713 2.9574671 10000536
-0.32463238 0.11147725 2.9569397 10132122
-0.27435738 0.11145741 2.9564128 10197915
-0.2253259 0.11143798 2.9558988 10197915
-0.17508645 0.11141814 2.9553716 10197915
-0.12486473 0.11139829 2.9548454 10197915
-0.074661069 0.11137845 2.954319 10197915
-0.024475124 0.1113586 2.9537926 10197915
0.024469461 0.11133926 2.9532793 10197915
0.074619934 0.11131945 2.9527538 10197915
0.12475272 0.11129963 2.9522281 10197915
0.17486747 0.11127979 2.9517024 10197915
0.22496459 0.11126001 2.9511769 10197915
0.27504373 0.11124023 2.9506521 10197915
0.31900138 0.11122284 2.9501917 10197915
0.51604575 0.10514342 2.9759424 5066061
2.3673437 0.11031079 2.9917519 6513507
0.5147897 -1.3537455 3.0351567 2894892
0.5149169 -1.3242774 3.0243707 2894892
0.51494181 -1.2750299 3.02402 2894892
0.51495928 -1.2253804 3.0243721 2894892
0.51497972 -1.1753087 3.0244908 2894892
0.51499993 -1.1252322 3.0246103 2894892
0.51502001 -1.0751518 3.0247278 2894892
0.51504016 -1.0250677 3.0248458 2894892
0.51506031 -0.97497928 3.024965 2894892
0.51508063 -0.9248876 3.0250838 2894892
0.5151031 -0.87521392 3.0249662 2894892
0.5151208 -0.82553089 3.0253205 2894892
0.51514113 -0.77542746 3.02544 2894892
0.51516134 -0.72531962 3.0255587 2894892
0.5151841 -0.67479658 3.0254509 2894892
0.51520228 -0.62426114 3.0257983 2894892
0.51522267 -0.57414156 3.0259175 2894892
0.51524514 -0.52442551 3.0258007 2894892
0.51526278 -0.4747301 3.026154 2894892
0.51528293 -0.42501682 3.026273 2894892
0.51530302 -0.37529939 3.0263903 2894892
0.51532328 -0.32516021 3.0265095 2894892
0.51534355 -0.2750172 3.0266283 2894892
0.51536393 -0.2248702 3.0267477 2894892
0.51538646 -0.17513973 3.0266318 2894892
0.51540416 -0.12540418 3.0269847 2894892
0.51542443 -0.075245403 3.0271039 2894892
0.5154447 -0.025082681 3.0272229 2894892
0.51546508 0.025083993 3.0273423 2894892
0.51548541 0.075254641 3.0274615 2894892
-0.72056127 0.11153026 3.0248258 10000536
-0.67408401 0.11151192 3.0243282 10000536
-0.62385517 0.11149206 3.0237896 10000536
-0.57489949 0.11147275 3.0232654 10000536
-0.52596074 0.11145343 3.0227413 10000536
-0.47578469 0.1114336 3.0222039 10000536
-0.42562637 0.11141378 3.0216663 10000536
-0.37548608 0.11139399 3.0211294 10000536
-0.32536358 0.1113742 3.0205929 10132122
-0.27525884 0.11135443 3.0200562 10197915
-0.22517188 0.11133461 3.0195191 10197915
-0.17510274 0.11131485 3.0189834 10197915
-0.12505141 0.11129509 3.0184472 10197915
-0.075017825 0.11127534 3.0179119 10197915
-0.025001992 0.11125557 3.0173752 10197915
0.02499608 0.11123583 3.01684 10197915
0.074976407 0.11121608 3.0163052 10197915
0.12493899 0.11119636 3.0157695 10197915
0.17488383 0.11117662 3.0152342 10197915
0.224811 0.11115692 3.0146999 10197915
0.27472043 0.11113721 3.0141654 10197915
0.3246122 0.11111753 3.0136313 10197915
0.37448627 0.1110978 3.0130968 10197915
0.42434257 0.11107811 3.0125628 10197915
0.47418135 0.11105843 3.0120292 10197915
0.51320982 0.10735513 3.0179183 6842472
0.51433015 -1.3633406 3.0780027 2894892
0.51439708 -1.3248255 3.0732625 2894892
0.51441628 -1.2748975 3.0734763 2894892
0.51443851 -1.2246536 3.073415 2894892
0.51445186 -1.1747109 3.0741749 2894892
0.51447976 -1.1251099 3.0735612 2894892
0.51449591 -1.0748394 3.0740483 2894892
0.51451898 -1.0248888 3.0738907 2894892
0.51453328 -0.97526437 3.074559 2894892
0.51455921 -0.92499322 3.0741367 2894892
0.51457769 -0.87471938 3.0744414 2894892
0.51459885 -0.82475722 3.0744679 2894892
0.51461798 -0.77479118 3.0746825 2894892
0.51463735 -0.72482497 3.0748911 2894892
0.5146572 -0.67516911 3.0750144 2894892
0.51468045 -0.62519902 3.0748608 2894892
0.51469815 -0.57457775 3.0752561 2894892
0.51471823 -0.52491063 3.075376 2894892
0.51473814 -0.47523966 3.0754955 2894892
0.5147624 -0.42492914 3.0752506 2894892
0.51477784 -0.37493479 3.0758295 2894892
0.514799 -0.3249338 3.0758574 2894892
0.51482016 -0.2749334 3.0758898 2894892
0.51484132 -0.22492543 3.0759175 2894892
0.51486063 -0.17491063 3.0761316 2894892
0.51487988 -0.12489565 3.0763404 2894892
0.51490003 -0.075193264 3.0764635 2894892
0.51492316 -0.025180707 3.0763099 2894892
0.5149433 0.02518204 3.0764322 2894892
0.51495767 0.074880406 3.077105 2894892
-0.75443172 0.11143557 3.0917346 10000536
-0.72489673 0.11142392 3.0914118 10000536
-0.67482823 0.11140417 3.090863 10000536
-0.62477767 0.11138441 3.0903153 10000536
-0.57474482 0.11136468 3.0897675 10000536
-0.52472985 0.11134496 3.0892205 10000536
-0.4747324 0.11132523 3.0886729 10000536
-0.42475277 0.1113055 3.0881257 10000536
-0.37479076 0.11128578 3.0875793 10000536
-0.32484663 0.11126609 3.0870318 10132122
-0.27491996 0.11124638 3.0864859 10197915
-0.22501107 0.11122668 3.0859389 10197915
-0.17511976 0.11120701 3.0853932 10197915
-0.12524626 0.11118732 3.0848477 10197915
-0.075390264 0.11116767 3.0843019 10197915
-0.025552034 0.11114798 3.0837557 10197915
0.025545862 0.11112783 3.0831962 10197915
0.075348549 0.11110819 3.0826511 10197915
0.12513347 0.11108856 3.0821066 10197915
0.1749009 0.1110689 3.0815618 10197915
0.22465067 0.11104928 3.0810168 10197915
0.27565783 0.11102916 3.0804586 10197915
0.32537213 0.11100955 3.079915 10197915
0.37506869 0.11098995 3.0793707 10197915
0.42474782 0.11097033 3.0788271 10197915
0.4744094 0.11095073 3.0782831 10197915
0.51311934 0.10661794 3.0759594 6513507
2.418972 0.11018355 3.0569978 6513507
0.51366609 -1.4018533 3.1389284 2894892
0.51382613 -1.3733772 3.1250279 2894892
0.51385438 -1.3254081 3.1243088 2894892
0.51387727 -1.2754115 3.1241779 2894892
0.51389205 -1.2254051 3.1248097 2894892
0.51391768 -1.1749793 3.1244283 2894892
0.51393503 -1.1249627 3.1248002 2894892
0.51395762 -1.0753677 3.1246672 2894892
0.51397264 -1.0249404 3.1252952 2894892
0.51399541 -0.97490734 3.1251676 2894892
0.51401818 -0.92531323 3.1250348 2894892
0.51403576 -0.87528652 3.1254115 2894892
0.51405609 -0.82482123 3.1255374 2894892
0.51407629 -0.77478319 3.1256592 2894892
0.51409638 -0.72517288 3.1257801 2894892
0.51411933 -0.67513365 3.1256495 2894892
0.51413667 -0.62551296 3.1260262 2894892
0.514157 -0.5750277 3.1261494 2894892
0.51417744 -0.52453876 3.1262732 2894892
0.51419735 -0.47534028 3.1263945 2894892
0.51422018 -0.42527202 3.1262662 2894892
0.51423514 -0.37477675 3.1268966 2894892
0.51426083 -0.32470596 3.1265097 2894892
0.51427835 -0.27462733 3.1268864 2894892
0.51429844 -0.2249779 3.1270092 2894892
0.51432115 -0.17532718 3.1268768 2894892
0.51433587 -0.12523289 3.1275098 2894892
0.5143618 -0.074721426 3.1271274 2894892
0.51437938 -0.024617882 3.127501 2894892
0.51439923 0.024619153 3.1276217 2894892
0.51442206 0.074730515 3.1274936 2894892
0.27663797 0.11091643 3.1497388 10197915
0.32486349 0.11089741 3.149199 10197915
0.37437525 0.11087792 3.1486452 10197915
0.42517176 0.11085787 3.1480758 10197915
0.47595009 0.11083786 3.1475074 10197915
0.51241148 0.10719248 3.1340163 7039851
2.4729061 0.1100508 3.1251569 6513507
0.51319361 -1.4121883 3.1829634 2894892
0.51327455 -1.3753138 3.1768451 2894892
0.51331824 -1.3265349 3.1747007 2894892
0.51339644 -1.2749602 3.1694276 2894892
0.51341647 -1.2251122 3.1695514 2894892
0.51343656 -1.1752601 3.1696756 2894892
0.51345658 -1.1254036 3.1697981 2894892
0.51347661 -1.0755439 3.1699221 2894892
0.51349676 -1.0256798 3.1700468 2894892
0.51351976 -0.97537178 3.1699095 2894892
0.51353717 -0.92506993 3.1702969 2894892
0.51355743 -0.87519437 3.1704214 2894892
0.51357746 -0.82531488 3.1705451 2894892
0.51359779 -0.77499408 3.1706696 2894892
0.51361805 -0.72466922 3.1707959 2894892
0.51363826 -0.67477798 3.1709189 2894892
0.51366127 -0.62445575 3.1707833 2894892
0.51367885 -0.57411242 3.1711702 2894892
0.513699 -0.5242095 3.1712954 2894892
0.51371908 -0.4743025 3.1714196 2894892
0.51373923 -0.42439166 3.1715438 2894892
0.51376206 -0.37491608 3.1713946 2894892
0.5137791 -0.32543826 3.1717899 2894892
0.51379931 -0.27551574 3.1719148 2894892
0.51382244 -0.2251499 3.1717777 2894892
0.51383996 -0.17478715 3.1721652 2894892
0.51386011 -0.12485281 3.1722901 2894892
0.51388025 -0.074914545 3.172415 2894892
0.5139004 -0.024972387 3.172539 2894892
0.51392049 0.024973696 3.1726625 2894892
0.51394069 0.074923694 3.1727877 2894892
-0.76225519 0.1113259 3.1613669 10000536
-0.72417641 0.11131091 3.1609411 10000536
-0.67429465 0.11129122 3.160382 10000536
-0.62443066 0.11127158 3.1598237 10000536
-0.57458419 0.11125193 3.1592667 10000536
-0.52475554 0.1112323 3.1587088 10000536
-0.47494426 0.11121266 3.1581509 10000536
-0.42515051 0.111193 3.157594 10000536
-0.37537447 0.11117341 3.1570365 10000536
-0.32561597 0.11115382 3.1564796 10132122
-0.275875 0.1111342 3.1559234 10197915
-0.22615159 0.11111458 3.1553659 10197915
-0.17513803 0.11109449 3.1547952 10197915
-0.12414268 0.11107439 3.1542246 10197915
-0.074472778 0.11105481 3.1536689 10197915
-0.024820369 0.11103524 3.1531124 10197915
0.024814541 0.11101568 3.1525574 10197915
0.074431963 0.11099612 3.1520023 10197915
0.12403192 0.11097657 3.1514471 10197915
0.17491889 0.11095651 3.1508768 10197915
0.22578761 0.11093646 3.1503077 10197915
0.25186777 0.11092621 3.1500168 10197915
0.51395291 0.10515834 3.1728628 5460819
2.5292959 0.10991182 3.1964204 6513507
0.5124976 -1.451404 3.2468667 2894892
0.5126645 -1.4222642 3.2323413 2894892
0.51269686 -1.3747785 3.2312212 2894892
0.51274973 -1.3235452 3.2283175 2894892
0.51282376 -1.2750409 3.223316 2894892
0.51283711 -1.2250109 3.2240732 2894892
0.51285934 -1.1749684 3.2239904 2894892
0.51288497 -1.1252787 3.2235842 2894892
0.51290053 -1.0752228 3.2241356 2894892
0.51292413 -1.0248355 3.2239478 2894892
0.51294208 -0.97479159 3.2242866 2894892
0.51296014 -0.92473388 3.2246225 2894892
0.51298481 -0.87467486 3.2243278 2894892
0.51299918 -0.82494545 3.224983 2894892
0.51302487 -0.77521104 3.2245805 2894892
0.5130403 -0.72514117 3.2251289 2894892
0.51306301 -0.67506337 3.2250454 2894892
0.51308542 -0.62499148 3.2249606 2894892
0.51310223 -0.5745694 3.2254043 2894892
0.51312572 -0.52480572 3.2252078 2894892
0.51313895 -0.47539896 3.2259698 2894892
0.51316583 -0.42529482 3.2254665 2894892
0.51318383 -0.37520036 3.2258058 2894892
0.51320171 -0.32509208 3.2261422 2894892
0.51322645 -0.27499264 3.225847 2894892
0.51327819 -0.22671521 3.2229354 2894892
0.51334429 -0.17511587 3.2187934 2894892
0.51336753 -0.12489484 3.218641 2894892
0.5133906 -0.07512749 3.2184832 2894892
0.51340771 -0.025337264 3.2188933 2894892
0.51342821 0.025338605 3.2190208 2894892
0.51345122 0.075136654 3.2188621 2894892
-0.77178168 0.11121152 3.2342184 10000536
-0.72476494 0.11119302 3.23368 10000536
-0.67507797 0.11117343 3.2331104 10000536
-0.62540877 0.11115389 3.232542 10000536
-0.57441533 0.11113381 3.2319582 10000536
-0.52478141 0.11111428 3.2313902 10000536
-0.47516498 0.11109474 3.2308214 10000536
-0.42422575 0.11107469 3.2302387 10000536
-0.37464464 0.11105517 3.2296708 10000536
-0.32508105 0.11103565 3.2291036 10132122
-0.27419597 0.11101562 3.2285209 10197915
-0.22466749 0.1109961 3.2279532 10197915
-0.17515661 0.11097662 3.2273862 10197915
-0.12432564 0.11095661 3.2268047 10197915
-0.074849829 0.11093714 3.2262385 10197915
-0.025391545 0.11091764 3.2256718 10197915
0.025385449 0.11089765 3.2250903 10197915
0.074808717 0.1108782 3.2245247 10197915
0.12421446 0.11085877 3.223959 10197915
0.17493753 0.11083878 3.2233777 10197915
0.22564232 0.1108188 3.2227972 10197915
0.27499539 0.11079938 3.2222326 10197915
0.32433096 0.11077996 3.2216678 10197915
0.374982 0.11076003 3.2210877 10197915
0.42561466 0.11074006 3.2205076 10197915
0.47489765 0.11072066 3.2199435 10197915
0.5112561 0.10684361 3.2193232 6908265
0.51210546 -1.4595816 3.2834425 2894892
0.51216489 -1.4250975 3.279243 2894892
0.51218516 -1.3748852 3.2793734 2894892
0.5122053 -1.3246696 3.2795014 2894892
0.51222855 -1.274904 3.2793343 2894892
0.51224214 -1.2251276 3.2800548 2894892
0.51226842 -1.1749128 3.2795944 2894892
0.51228517 -1.1251266 3.2800143 2894892
0.51230538 -1.074891 3.280144 2894892
0.51232553 -1.0246511 3.280273 2894892
0.51234865 -0.97530913 3.2801042 2894892
0.51236272 -0.92506856 3.2808206 2894892
0.51238912 -0.8748194 3.2803638 2894892
0.51240599 -0.82501525 3.2807872 2894892
0.5124293 -0.77520674 3.2806199 2894892
0.51244318 -0.72494727 3.2813365 2894892
0.51246971 -0.67468524 3.2808793 2894892
0.51248646 -0.62531692 3.2813017 2894892
0.5125066 -0.57504159 3.2814322 2894892
0.51252693 -0.52476239 3.2815619 2894892
0.51255 -0.47492465 3.2813988 2894892
0.51256406 -0.42465279 3.2821164 2894892
0.51259047 -0.3748084 3.281652 2894892
0.51260734 -0.32496959 3.2820754 2894892
0.5126276 -0.27467069 3.2822073 2894892
0.51269758 -0.22290255 3.2777195 2894892
0.51275367 -0.17498794 3.2743759 2894892
0.51277733 -0.12514384 3.2741735 2894892
0.5127905 -0.074945711 3.2749588 2894892
0.51281774 -0.024768373 3.2744322 2894892
0.51283759 0.024769666 3.274559 2894892
0.51285082 0.074954852 3.2753434 2894892
0.13260502 0.11073232 3.2997956 10197915
0.17495735 0.11071566 3.2992983 10197915
0.22412521 0.11069632 3.2987223 10197915
0.2746408 0.11067645 3.2981305 10197915
0.32513845 0.1106566 3.2975392 10197915
0.37425387 0.11063729 3.2969632 10197915
0.42471549 0.11061741 3.2963715 10197915
0.47515929 0.11059759 3.2957804 10197915
0.51128983 0.10677664 3.2789567 6776679
2.5869789 0.10976706 3.2710307 6513507
2.6004062 0.1097618 3.270874 6579300
0.51159883 -1.4700551 3.3306832 2894892
0.51163769 -1.4250486 3.3288486 2894892
0.51165771 -1.3749958 3.3289788 2894892
0.51167792 -1.3249384 3.3291104 2894892
0.51170129 -1.2748796 3.3289371 2894892
0.51171792 -1.2248163 3.3293712 2894892
0.51173788 -1.1752067 3.3295012 2894892
0.51175779 -1.1255929 3.3296301 2894892
0.51178116 -1.0755032 3.3294561 2894892
0.51179814 -1.0249802 3.3298929 2894892
0.51181823 -0.97489554 3.3300245 2894892
0.51183826 -0.92526656 3.3301539 2894892
0.51185507 -0.87516803 3.3305917 2894892
0.51188201 -0.82462347 3.3301122 2894892
0.51189899 -0.77451718 3.3305478 2894892
0.51191878 -0.72487235 3.3306787 2894892
0.51193875 -0.67522377 3.3308079 2894892
0.51196229 -0.62466371 3.3306401 2894892
0.51197946 -0.57408035 3.3310728 2894892
0.51199943 -0.5244199 3.3312025 2894892
0.5120194 -0.47475573 3.3313329 2894892
0.51203936 -0.4250876 3.3314619 2894892
0.51206279 -0.37495705 3.3312886 2894892
0.51207972 -0.3248243 3.3317244 2894892
0.51209968 -0.27514446 3.3318553 2894892
0.51211989 -0.2250008 3.3319852 2894892
0.51213998 -0.17485303 3.3321171 2894892
0.5121634 -0.12470893 3.331943 2894892
0.51218033 -0.074550346 3.3323803 2894892
0.51220042 -0.024850979 3.3325098 2894892
0.51222038 0.024852268 3.3326395 2894892
0.51224041 0.074559398 3.3327696 2894892
-0.80651581 0.11110166 3.3108017 10000536
-0.77488244 0.11108921 3.3104312 10000536
-0.72400743 0.11106921 3.3098345 10000536
-0.67452502 0.11104974 3.3092544 10000536
-0.62506014 0.11103031 3.3086748 10000536
-0.57561255 0.11101086 3.3080955 10000536
-0.5248096 0.11099089 3.3075004 10000536
-0.4740245 0.11097091 3.3069048 10000536
-0.42462987 0.11095148 3.3063259 10000536
-0.3752524 0.11093206 3.305747 10000536
-0.32589224 0.11091265 3.3051691 10132122
-0.275179 0.1108927 3.3045747 10197915
-0.2244838 0.11087275 3.3039799 10197915
-0.17517641 0.11085337 3.3034024 10197915
-0.12588623 0.11083398 3.3028247 10197915
-0.075244926 0.11081408 3.3022316 10197915
-0.024621638 0.11079415 3.3016376 10197915
0.024615904 0.1107748 3.3010607 10197915
0.075203143 0.11075488 3.300468 10197915
0.10800757 0.110742 3.3000836 10197915
0.51225251 0.10493774 3.3328493 5460819
2.6432915 0.10961682 3.3492513 6513507
2.6570363 0.10961143 3.3490863 6513507
0.51099038 -1.5077313 3.3864164 2894892
0.51107436 -1.4748847 3.3798466 2894892
0.51109451 -1.4245329 3.3799801 2894892
0.51111805 -1.3746359 3.379786 2894892
0.51113093 -1.3252228 3.3805699 2894892
0.51115429 -1.2753183 3.3803754 2894892
0.51117444 -1.2249498 3.3805082 2894892
0.51119447 -1.1750448 3.3806415 2894892
0.51121771 -1.1256191 3.380444 2894892
0.51123405 -1.0756936 3.3809042 2894892
0.51125443 -1.0253102 3.381038 2894892
0.51127476 -0.97492284 3.3811712 2894892
0.5112983 -0.92499924 3.3809774 2894892
0.51131493 -0.87507427 3.3814366 2894892
0.5113349 -0.82514149 3.3815711 2894892
0.5113551 -0.77520478 3.3817019 2894892
0.51137853 -0.72526729 3.3815076 2894892
0.51139516 -0.67532456 3.3819673 2894892
0.51141542 -0.62490934 3.3821013 2894892
0.51143563 -0.57449043 3.3822353 2894892
0.51145595 -0.52406722 3.3823695 2894892
0.51147932 -0.47456557 3.3821688 2894892
0.51151794 -0.42715546 3.3804588 2894892
0.5116052 -0.37532693 3.374337 2894892
0.51162779 -0.32570693 3.3742218 2894892
0.511648 -0.2753934 3.3743558 2894892
0.51166826 -0.22507596 3.3744888 2894892
0.5116908 -0.17546234 3.3743744 2894892
0.51170808 -0.12583059 3.3747516 2894892
0.51172835 -0.075501256 3.3748856 2894892
0.51174861 -0.025167972 3.3750181 2894892
0.51176876 0.025169296 3.3751521 2894892
0.51178908 0.075510539 3.3752851 2894892
-0.81616402 0.11097579 3.3907735 10000536
-0.77531439 0.11095975 3.3902831 10000536
-0.72462034 0.1109398 3.3896739 10000536
-0.67394447 0.11091992 3.3890657 10000536
-0.62469375 0.11090057 3.3884752 10000536
-0.57546043 0.11088124 3.3878844 10000536
-0.52483809 0.11086135 3.3872769 10000536
-0.47423384 0.11084144 3.3866687 10000536
-0.4250527 0.11082214 3.3860786 10000536
-0.37588885 0.11080284 3.3854887 10000536
-0.32533813 0.11078299 3.3848822 10132122
-0.27480546 0.1107631 3.3842752 10197915
-0.22429095 0.11074328 3.3836689 10197915
-0.17519686 0.11072399 3.3830798 10197915
-0.12612006 0.11070471 3.3824909 10197915
-0.075658783 0.1106849 3.3818858 10197915
-0.025215574 0.11066507 3.3812792 10197915
0.025209565 0.11064526 3.3806741 10197915
0.075616658 0.11062547 3.3800693 10197915
0.12600571 0.11060568 3.3794651 10197915
0.17497787 0.11058644 3.3788769 10197915
0.2239328 0.11056719 3.378289 10197915
0.27426884 0.11054743 3.3776848 10197915
0.32458678 0.11052766 3.3770812 10197915
0.37488687 0.11050793 3.3764777 10197915
0.42516881 0.11048815 3.3758738 10197915
0.47543287 0.1104684 3.3752701 10197915
0.50975144 0.10738935 3.3744133 7500402
0.51058024 -1.5157073 3.4246759 2894892
0.51061183 -1.4743772 3.4233758 2894892
0.51062626 -1.4248019 3.4240177 2894892
0.51065159 -1.3752058 3.4236438 2894892
0.51066911 -1.3249047 3.4240327 2894892
0.51068646 -1.2745879 3.4244199 2894892
0.51071167 -1.2250023 3.4240456 2894892
0.51072913 -1.174678 3.4244349 2894892
0.51074904 -1.1250671 3.4245679 2894892
0.51076895 -1.0754526 3.4247015 2894892
0.51078928 -1.0244161 3.4248385 2894892
0.5108093 -0.97479385 3.4249721 2894892
0.51082915 -0.9251675 3.4251051 2894892
0.51085204 -0.87482619 3.4249868 2894892
0.51086652 -0.82519639 3.4256275 2894892
0.51089191 -0.77556145 3.4252527 2894892
0.51090944 -0.72520888 3.4256432 2894892
0.51092696 -0.67484123 3.4260328 2894892
0.51095217 -0.62521684 3.4256582 2894892
0.51096976 -0.57484126 3.4260483 2894892
0.51098967 -0.5251838 3.4261818 2894892
0.51100963 -0.4755224 3.4263151 2894892
0.5110743 -0.42270204 3.4223661 2894892
0.51114362 -0.37521842 3.417762 2894892
0.51116401 -0.3247295 3.4178967 2894892
0.51118404 -0.27470845 3.4180298 2894892
0.511204 -0.22515552 3.4181657 2894892
0.51122761 -0.17512992 3.4179635 2894892
0.5112443 -0.12462685 3.4184337 2894892
0.51126403 -0.075062215 3.418566 2894892
0.51128399 -0.025493706 3.4187002 2894892
0.51130456 0.025495064 3.4188371 2894892
0.51132441 0.075071372 3.4189696 2894892
0.51133639 0.10481889 3.41905 5723991
2.715034 0.10945425 3.4311485 6513507
0.5099535 -1.5543901 3.4820993 2894892
0.51009923 -1.5242103 3.4695983 2894892
0.51013428 -1.4753066 3.4682894 2894892
0.51015055 -1.4255502 3.4687738 2894892
0.51017058 -1.3753068 3.4689126 2894892
0.51019061 -1.3250592 3.4690461 2894892
0.51021403 -1.2752885 3.4688315 2894892
0.51022673 -1.2250283 3.469661 2894892
0.51025414 -1.1747844 3.4691057 2894892
0.5102703 -1.1254714 3.4695895 2894892
0.51029038 -1.0752044 3.4697266 2894892
0.51031065 -1.0249339 3.4698639 2894892
0.51033431 -0.97513407 3.4696558 2894892
0.51034713 -0.92486292 3.4704883 2894892
0.51037449 -0.87506157 3.4699225 2894892
0.5103907 -0.82525277 3.470408 2894892
0.5104109 -0.77496195 3.4705467 2894892
0.51043105 -0.72466743 3.4706814 2894892
0.51045477 -0.67485595 3.470469 2894892
0.51047087 -0.62550855 3.4709535 2894892
0.51049095 -0.57520223 3.4710908 2894892
0.51051116 -0.52489185 3.4712269 2894892
0.51053488 -0.47504836 3.4710186 2894892
0.51054758 -0.42474714 3.4718516 2894892
0.51057506 -0.37489706 3.4712858 2894892
0.51059127 -0.32505372 3.471771 2894892
0.51061141 -0.27472359 3.4719105 2894892
0.5106315 -0.22486886 3.4720461 2894892
0.51065516 -0.17501357 3.4718361 2894892
0.5106715 -0.1251528 3.4723172 2894892
0.51069158 -0.074806839 3.4724538 2894892
0.51071191 -0.02445695 3.4725921 2894892
0.51073146 0.024458198 3.4727256 2894892
0.51075166 0.074815981 3.4728625 2894892
-0.85083508 0.1108533 3.4750056 10066329
-0.82484615 0.11084311 3.4746859 10000536
-0.77576774 0.11082385 3.4740829 10000536
-0.72526354 0.11080402 3.4734607 10000536
-0.67477733 0.11078423 3.4728405 10000536
-0.62575102 0.11076499 3.4722366 10000536
-0.57530051 0.1107452 3.471617 10000536
-0.52486789 0.1107254 3.4709969 10000536
-0.47589353 0.11070617 3.4703941 10000536
-0.42549664 0.11068641 3.469774 10000536
-0.3751176 0.11066666 3.4691548 10000536
-0.32475665 0.1106469 3.4685354 10132122
-0.2744135 0.11062714 3.4679158 10197915
-0.22552599 0.11060794 3.4673145 10197915
-0.17521851 0.11058823 3.466696 10197915
-0.12492876 0.1105685 3.4660773 10197915
-0.074657112 0.11054879 3.4654591 10197915
-0.02440322 0.11052904 3.4648409 10197915
0.024397587 0.1105099 3.4642406 10197915
0.074615978 0.1104902 3.463623 10197915
0.12481663 0.1104705 3.4630058 10197915
0.17499919 0.11045083 3.4623888 10197915
0.22516406 0.11043112 3.461771 10197915
0.27531087 0.11041146 3.4611547 10197915
0.32544008 0.1103918 3.4605386 10197915
0.37555119 0.11037215 3.4599223 10197915
0.42564455 0.11035247 3.4593058 10197915
0.47428951 0.11033338 3.4587073 10197915
0.50893879 0.10691319 3.4674714 7434609
0.50945997 -1.5644485 3.5281241 2894892
0.50952393 -1.5251495 3.5236909 2894892
0.50954014 -1.4750911 3.5241911 2894892
0.50956023 -1.4250196 3.524328 2894892
0.50958008 -1.3749439 3.5244679 2894892
0.50959986 -1.32535 3.5246038 2894892
0.50962365 -1.2752693 3.5243812 2894892
0.50963986 -1.2251842 3.5248809 2894892
0.50965977 -1.1755792 3.5250182 2894892
0.50967956 -1.1259702 3.5251551 2894892
0.50970358 -1.0753711 3.5249407 2894892
0.50972015 -1.0248007 3.5254354 2894892
0.50973618 -0.97469747 3.5259376 2894892
0.50976026 -0.92457747 3.525713 2894892
0.50978011 -0.87494892 3.5258508 2894892
0.50980407 -0.82484174 3.5256283 2894892
0.50982028 -0.7747125 3.5261281 2894892
0.50984007 -0.72507244 3.5262651 2894892
0.50986022 -0.67494202 3.5264037 2894892
0.50988442 -0.6243338 3.5261829 2894892
0.50990057 -0.57418716 3.5266833 2894892
0.50992048 -0.52453154 3.5268214 2894892
0.50994027 -0.47487187 3.5269589 2894892
0.50996023 -0.42520845 3.527097 2894892
0.50998414 -0.37505585 3.5268745 2894892
0.51000047 -0.32490119 3.5273743 2894892
0.51002026 -0.27522612 3.5275118 2894892
0.5100404 -0.22506006 3.5276499 2894892
0.51006049 -0.17489001 3.5277901 2894892
0.51008445 -0.12472454 3.5275671 2894892
0.51010078 -0.074543305 3.5280678 2894892
0.51012057 -0.024848625 3.5282061 2894892
0.51014054 0.024849918 3.528343 2894892
0.51016039 0.074552342 3.5284812 2894892
0.19266003 0.11030159 3.549916 10197915
0.22498867 0.11028892 3.549509 10197915
0.27493751 0.11026936 3.5488789 10197915
0.32486865 0.1102498 3.5482492 10197915
0.37478215 0.11023025 3.5476203 10197915
0.42467776 0.11021069 3.5469909 10197915
0.47455573 0.11019113 3.5463612 10197915
0.50890118 0.10623492 3.5319488 6908265
2.783164 0.10928655 3.5172486 6513507
0.50888103 -1.600824 3.5811272 2894892
0.5089885 -1.5729388 3.5721476 2894892
0.50901449 -1.5240836 3.5716813 2894892
0.50903738 -1.4745647 3.5715277 2894892
0.50905401 -1.4250584 3.5719593 2894892
0.50907391 -1.3747983 3.5720985 2894892
0.50909382 -1.3245341 3.572238 2894892
0.50911391 -1.2742664 3.5723791 2894892
0.50913399 -1.2239951 3.5725198 2894892
0.50915074 -1.174441 3.572952 2894892
0.50917631 -1.1256764 3.5725029 2894892
0.50919324 -1.0761151 3.5729358 2894892
0.50921339 -1.0258279 3.5730772 2894892
0.50923342 -0.97553712 3.5732176 2894892
0.50925368 -0.92524189 3.5733597 2894892
0.50927371 -0.87494296 3.5735004 2894892
0.50929391 -0.82463986 3.5736413 2894892
0.50931674 -0.77507836 3.5734882 2894892
0.50933349 -0.72550565 3.57392 2894892
0.5093537 -0.67519099 3.5740616 2894892
0.50937378 -0.62487215 3.574203 2894892
0.50939387 -0.57454938 3.5743442 2894892
0.50941414 -0.52422261 3.5744848 2894892
0.50943702 -0.47461757 3.5743318 2894892
0.50945371 -0.42504162 3.5747638 2894892
0.50947392 -0.37470302 3.5749052 2894892
0.50949055 -0.32510304 3.5753369 2894892
0.50951362 -0.27549079 3.5751836 2894892
0.50953376 -0.22514041 3.5753248 2894892
0.50955391 -0.17478603 3.5754662 2894892
0.50957686 -0.12518246 3.5753126 2894892
0.50959361 -0.075550631 3.5757451 2894892
0.50961381 -0.025184432 3.5758865 2894892
0.50963396 0.02518576 3.5760279 2894892
0.5096541 0.075559936 3.5761693 2894892
-0.86210024 0.1107149 3.5632181 10066329
-0.82508773 0.11070041 3.5627515 10000536
-0.77476549 0.11068068 3.5621166 10000536
-0.72446114 0.11066096 3.561482 10000536
-0.67417485 0.11064126 3.5608482 10066329
-0.62390637 0.11062157 3.5602143 10197915
-0.57365578 0.11060188 3.559581 10197915
-0.52490026 0.11058276 3.5589654 10197915
-0.47616163 0.11056367 3.5583508 10197915
-0.42596364 0.110544 3.5577178 10197915
-0.37578347 0.11052435 3.5570855 10197915
-0.32562125 0.11050469 3.556453 10197915
-0.27547672 0.11048502 3.55582 10197915
-0.22535013 0.11046539 3.5551877 10197915
-0.17524135 0.11044576 3.5545559 10197915
-0.12515037 0.11042614 3.5539246 10197915
-0.075077176 0.11040653 3.5532932 10197915
-0.025021765 0.11038689 3.5526617 10197915
0.025015846 0.11036729 3.5520306 10197915
0.075035691 0.1103477 3.5513999 10197915
0.12503779 0.11032811 3.5507693 10197915
0.16767295 0.11031141 3.5502319 10197915
0.50966591 0.1051935 3.5762522 6250335
0.50839865 -1.6106246 3.626128 2894892
0.5084731 -1.5749182 3.6205559 2894892
0.50849277 -1.5254786 3.6206961 2894892
0.50851727 -1.4750372 3.6204422 2894892
0.50853288 -1.4250956 3.6209836 2894892
0.50855291 -1.3746449 3.6211243 2894892
0.50857282 -1.3246908 3.621264 2894892
0.50859255 -1.275232 3.6214085 2894892
0.50861681 -1.2252784 3.6211505 2894892
0.5086326 -1.1748096 3.6216915 2894892
0.50865251 -1.1253395 3.6218328 2894892
0.50867218 -1.0758654 3.6219733 2894892
0.50869256 -1.0248878 3.6221182 2894892
0.50871688 -0.97490191 3.621856 2894892
0.50872809 -0.92542464 3.622798 2894892
0.50875652 -0.8754378 3.6221457 2894892
0.50877219 -0.82544273 3.6226876 2894892
0.50879234 -0.7749455 3.6228294 2894892
0.5088169 -0.72444749 3.622576 2894892
0.50882816 -0.6749354 3.6235201 2894892
0.50885636 -0.62544405 3.6228571 2894892
0.50887239 -0.57492203 3.6233988 2894892
0.50889671 -0.52488983 3.6231372 2894892
0.50890791 -0.47539905 3.6240797 2894892
0.50893241 -0.42485899 3.6238263 2894892
0.50895673 -0.3748318 3.623564 2894892
0.50897241 -0.32480279 3.6241107 2894892
0.50899237 -0.27476606 3.6242521 2894892
0.50901204 -0.22522584 3.6243958 2894892
0.50903642 -0.17518482 3.6241386 2894892
0.50905246 -0.12463775 3.6246808 2894892
0.50907224 -0.075085856 3.6248214 2894892
0.50909191 -0.025530066 3.6249633 2894892
0.50911248 0.025531428 3.625108 2894892
0.50913215 0.075095013 3.6252496 2894892
-0.40373731 0.1103851 3.6499357 10197915
-0.37496939 0.11037385 3.6495633 10197915
-0.32501689 0.1103543 3.6489174 10197915
-0.27508181 0.11033474 3.6482706 10197915
-0.22516473 0.11031523 3.6476247 10197915
-0.17526509 0.11029569 3.6469793 10197915
-0.12538327 0.11027618 3.6463344 10197915
-0.075518958 0.11025667 3.645689 10197915
-0.025672441 0.11023715 3.6450434 10197915
0.025666213 0.11021706 3.6443794 10197915
0.075477116 0.11019758 3.6437347 10197915
0.1252702 0.1101781 3.6430912 10197915
0.17504588 0.11015863 3.642447 10197915
0.22480375 0.11013913 3.6418021 10197915
0.27454424 0.11011968 3.6411591 10197915
0.324267 0.11010022 3.640516 10197915
0.37547827 0.11008019 3.6398535 10197915
0.4251655 0.11006074 3.6392107 10197915
0.47483495 0.1100413 3.6385674 10197915
0.50825614 0.10581917 3.626663 6645093
2.8444395 0.10911407 3.6079082 6513507
2.8592346 0.10910829 3.607717 6513507
0.50790781 -1.6221007 3.6718433 2894892
0.5079385 -1.5755222 3.6708436 2894892
0.50795847 -1.5253963 3.6709881 2894892
0.5079785 -1.4752663 3.671133 2894892
0.50799817 -1.4251317 3.6712751 2894892
0.50802118 -1.3757548 3.6711073 2894892
0.50803453 -1.3256105 3.6718707 2894892
0.50806111 -1.275476 3.6713965 2894892
0.50807446 -1.2253066 3.6721597 2894892
0.50810111 -1.1751814 3.671685 2894892
0.50811762 -1.1257703 3.672138 2894892
0.50813758 -1.0756091 3.6722827 2894892
0.50815767 -1.025444 3.6724279 2894892
0.50817776 -0.97527468 3.6725729 2894892
0.50819772 -0.92510164 3.6727169 2894892
0.50822079 -0.87568212 3.67255 2894892
0.50823426 -0.82550633 3.6733139 2894892
0.50826085 -0.77532482 3.6728401 2894892
0.50827426 -0.72512382 3.6736035 2894892
0.5083009 -0.67495149 3.6731293 2894892
0.50831747 -0.62550509 3.6735818 2894892
0.50833744 -0.57530439 3.6737263 2894892
0.50835752 -0.52509981 3.673871 2894892
0.50837755 -0.47489116 3.6740162 2894892
0.50839752 -0.42467859 3.674161 2894892
0.50842065 -0.37521639 3.6739943 2894892
0.50843406 -0.32500887 3.6747584 2894892
0.5084607 -0.27478006 3.674284 2894892
0.50847709 -0.22531494 3.6747365 2894892
0.50849724 -0.17508268 3.6748812 2894892
0.50851721 -0.12484642 3.6750264 2894892
0.50853729 -0.07460624 3.6751716 2894892
0.50855732 -0.024362078 3.6753161 2894892
0.50857687 0.02436332 3.6754568 2894892
0.50859696 0.074615315 3.6756022 2894892
-0.87395102 0.1105691 3.6560199 10066329
-0.82534045 0.11055009 3.6553907 10000536
-0.77522802 0.11053045 3.6547415 10000536
-0.72513366 0.11051086 3.6540937 10000536
-0.67505693 0.11049127 3.653446 10066329
-0.62499809 0.11047168 3.6527984 10197915
-0.57495689 0.11045211 3.6521511 10197915
-0.5249334 0.11043251 3.6515033 10197915
-0.47492766 0.11041295 3.650856 10197915
-0.42948312 0.11039517 3.6502686 10197915
0.50860906 0.10507282 3.6756899 6250335
0.50726515 -1.6596783 3.7307966 2894892
0.50736803 -1.6254305 3.7224996 2894892
0.50739241 -1.5756173 3.7222185 2894892
0.50740796 -1.5253139 3.7227914 2894892
0.5074234 -1.4749889 3.7233686 2894892
0.50745219 -1.4246626 3.7226572 2894892
0.50746757 -1.3748435 3.7232311 2894892
0.50748742 -1.3250214 3.7233744 2894892
0.50751209 -1.2746848 3.7230959 2894892
0.50752729 -1.2248574 3.7236681 2894892
0.50754702 -1.1755377 3.7238123 2894892
0.50756264 -1.1251667 3.7243805 2894892
0.50759184 -1.074338 3.7236817 2894892
0.50760728 -1.0244721 3.7242548 2894892
0.50762695 -0.97513646 3.7244003 2894892
0.50765127 -0.92528439 3.7241182 2894892
0.50766695 -0.87491769 3.7246926 2894892
0.50768679 -0.82505661 3.7248392 2894892
0.50771123 -0.77518922 3.7245564 2894892
0.50772655 -0.72532851 3.7251308 2894892
0.50774187 -0.67544633 3.7257056 2894892
0.50777125 -0.62455958 3.7250049 2894892
0.50778687 -0.57415551 3.7255728 2894892
0.5078066 -0.5247851 3.7257183 2894892
0.50782633 -0.47541085 3.7258618 2894892
0.50785077 -0.42551437 3.7255802 2894892
0.50786626 -0.37511346 3.7261529 2894892
0.50788617 -0.32521328 3.7263019 2894892
0.50791061 -0.27530134 3.7260201 2894892
0.5079217 -0.22489423 3.727025 2894892
0.50794607 -0.17497437 3.726742 2894892
0.50796598 -0.12505852 3.7268858 2894892
0.5079906 -0.074639142 3.7266076 2894892
0.50800598 -0.024705864 3.7271814 2894892
0.50802571 0.02470714 3.7273252 2894892
0.50805014 0.074648246 3.7270434 2894892
-0.57477188 0.11029393 3.7496505 10197915
-0.52496916 0.11027443 3.7489884 10197915
-0.4751842 0.11025499 3.748327 10197915
-0.42541677 0.11023553 3.7476664 10197915
-0.37566698 0.11021612 3.7470059 10197915
-0.32593459 0.11019669 3.746345 10197915
-0.2762197 0.11017724 3.7456841 10197915
-0.2249698 0.11015721 3.7450039 10197915
-0.17373829 0.11013721 3.744323 10197915
-0.12407713 0.1101178 3.743664 10197915
-0.074433461 0.11009841 3.7430043 10197915
-0.024807259 0.11007899 3.7423441 10197915
0.024801439 0.11005962 3.7416852 10197915
0.074392684 0.11004024 3.7410271 10197915
0.12396648 0.11002088 3.7403684 10197915
0.17507109 0.11000092 3.7396898 10197915
0.22615725 0.10998093 3.7390101 10197915
0.27567765 0.1099616 3.7383528 10197915
0.32518059 0.10994224 3.7376952 10197915
0.37466612 0.10992292 3.7370381 10197915
0.42413428 0.1099036 3.7363813 10197915
0.4751299 0.10988365 3.735703 10197915
0.50746208 0.1058169 3.7288463 6842472
2.9302185 0.10892435 3.70309 6513507
0.50677133 -1.6700311 3.7768457 2894892
0.50680304 -1.6252114 3.7756832 2894892
0.50682288 -1.5752184 3.7758312 2894892
0.50684279 -1.5252211 3.7759802 2894892
0.5068624 -1.4752192 3.7761254 2894892
0.50688213 -1.4252139 3.7762735 2894892
0.5069021 -1.3752052 3.7764215 2894892
0.50692195 -1.3251922 3.7765701 2894892
0.50694185 -1.2751755 3.7767181 2894892
0.50696176 -1.225155 3.7768662 2894892
0.50698179 -1.1751305 3.7770154 2894892
0.50700551 -1.1243435 3.776839 2894892
0.50702572 -1.0742711 3.7769666 2894892
0.50704157 -1.0250423 3.7774615 2894892
0.5070616 -0.97500193 3.7776096 2894892
0.50708151 -0.92495769 3.7777586 2894892
0.50710142 -0.87490952 3.7779067 2894892
0.50712132 -0.82485747 3.7780557 2894892
0.50714129 -0.77480143 3.7782042 2894892
0.50716126 -0.72474146 3.7783523 2894892
0.50718117 -0.67467743 3.778501 2894892
0.50720114 -0.62460977 3.7786498 2894892
0.5072211 -0.57453793 3.7787988 2894892
0.50724101 -0.52446222 3.7789471 2894892
0.50726104 -0.47438249 3.7790959 2894892
0.50728089 -0.42429891 3.7792442 2894892
0.50730091 -0.37421137 3.7793934 2894892
0.50732428 -0.32490009 3.7791908 2894892
0.50734019 -0.27559444 3.7796857 2894892
0.50736016 -0.22549525 3.7798343 2894892
0.50738007 -0.17539205 3.779983 2894892
0.50740004 -0.12528491 3.7801316 2894892
0.50742 -0.07517384 3.7802806 2894892
0.50743997 -0.025058823 3.7804291 2894892
0.50745994 0.025060132 3.7805781 2894892
0.50747991 0.075183034 3.7807267 2894892
-0.90983868 0.11042483 3.754102 10066329
-0.87395692 0.11041083 3.7536252 10066329
-0.82404852 0.11039131 3.7529621 10000536
-0.77415794 0.11037181 3.7522988 10000536
-0.72428495 0.11035233 3.7516365 10000536
-0.67442971 0.11033285 3.7509747 10066329
-0.62459195 0.11031339 3.7503128 10197915
0.50749183 0.10494522 3.7808154 6513507
0.50623572 -1.7063717 3.8257623 2894892
0.50631845 -1.6755987 3.8192253 2894892
0.5063386 -1.6250311 3.8193769 2894892
0.50635868 -1.5744592 3.8195291 2894892
0.50638217 -1.5246613 3.8193209 2894892
0.50639802 -1.4748882 3.8198252 2894892
0.506414 -1.4250978 3.8203311 2894892
0.5064376 -1.3752933 3.8201244 2894892
0.50645769 -1.3247015 3.8202755 2894892
0.50648123 -1.2749071 3.8200686 2894892
0.5064972 -1.2250922 3.8205748 2894892
0.50651747 -1.1744885 3.8207264 2894892
0.50653762 -1.123881 3.820878 2894892
0.50655711 -1.0748513 3.8210254 2894892
0.5065766 -1.0258178 3.8211727 2894892
0.50659674 -0.97519839 3.8213243 2894892
0.50661695 -0.92457497 3.8214772 2894892
0.50664049 -0.87473595 3.8212705 2894892
0.50665653 -0.82490313 3.8217762 2894892
0.50667268 -0.77505231 3.8222826 2894892
0.50669628 -0.72520632 3.8220749 2894892
0.50671995 -0.67537034 3.8218682 2894892
0.50673592 -0.62550306 3.8223751 2894892
0.50675613 -0.57485193 3.8225265 2894892
0.50677627 -0.52419674 3.8226793 2894892
0.50679994 -0.47431263 3.8224721 2894892
0.50681192 -0.42526552 3.8233328 2894892
0.50683552 -0.37537366 3.8231258 2894892
0.50685567 -0.32470262 3.823278 2894892
0.50687939 -0.27482152 3.823071 2894892
0.50689536 -0.22493668 3.8235774 2894892
0.50691551 -0.17425363 3.8237298 2894892
0.50693166 -0.12434234 3.8242364 2894892
0.50695872 -0.075267896 3.8236701 2894892
0.50697488 -0.025348805 3.8241765 2894892
0.50699502 0.025350148 3.8243291 2894892
0.50701863 0.075277105 3.8241222 2894892
-0.37161079 0.11004767 3.8497217 10197915
-0.32530564 0.11002961 3.8490896 10197915
-0.27422771 0.11000965 3.8483922 10197915
-0.22476359 0.10999035 3.8477168 10197915
-0.17531696 0.10997107 3.8470421 10197915
-0.1242934 0.10995118 3.8463464 10197915
-0.074881822 0.10993191 3.8456724 10197915
-0.025487745 0.1099126 3.8449969 10197915
0.025481604 0.10989272 3.844301 10197915
0.074840672 0.10987348 3.8436284 10197915
0.12418227 0.10985421 3.8429549 10197915
0.1750975 0.10983437 3.8422599 10197915
0.22599427 0.10981449 3.8415642 10197915
0.27528313 0.10979526 3.8408921 10197915
0.32455447 0.10977603 3.8402195 10197915
0.37539729 0.10975621 3.8395264 10197915
0.42463386 0.109737 3.8388541 10197915
0.47385284 0.10971779 3.838182 10197915
0.50599104 0.1062758 3.828737 7500402
2.9972563 0.10873327 3.8037415 6513507
3.0128465 0.1087272 3.803529 6513507
0.50565261 -1.7177109 3.8801875 2894892
0.50572765 -1.6750576 3.8748481 2894892
0.50574237 -1.6248001 3.8754952 2894892
0.5057621 -1.5750889 3.8756464 2894892
0.50578159 -1.5253726 3.8757951 2894892
0.50580674 -1.4751205 3.8754542 2894892
0.50582135 -1.424868 3.8760998 2894892
0.5058412 -1.3746064 3.8762512 2894892
0.50586104 -1.3248757 3.8764064 2894892
0.50588626 -1.2746094 3.8760724 2894892
0.50589556 -1.2248642 3.8772063 2894892
0.50592589 -1.1751416 3.8763762 2894892
0.50594091 -1.1243157 3.877017 2894892
0.50599015 -1.076598 3.8743103 2894892
0.50610155 -1.025016 3.8659146 2894892
0.50612557 -0.97459179 3.8657026 2894892
0.50613749 -0.92500055 3.8665833 2894892
0.50616503 -0.87536627 3.866004 2894892
0.50618118 -0.82494998 3.8665226 2894892
0.50619733 -0.77451551 3.8670411 2894892
0.50622487 -0.72489774 3.8664613 2894892
0.50624096 -0.67445529 3.8669796 2894892
0.50626075 -0.62481654 3.86713 2894892
0.50628048 -0.5751735 3.8672812 2894892
0.50630438 -0.52470469 3.8670697 2894892
0.50631648 -0.47509673 3.8679502 2894892
0.50634038 -0.42461994 3.867739 2894892
0.50636017 -0.3749615 3.8678889 2894892
0.5063799 -0.32529917 3.8680401 2894892
0.5064038 -0.27483407 3.8678281 2894892
0.50641578 -0.22515945 3.8687093 2894892
0.50644332 -0.17549929 3.8681302 2894892
0.50645953 -0.12501313 3.8686485 2894892
0.50647926 -0.07533133 3.8687999 2894892
0.50649899 -0.025645584 3.8689501 2894892
0.50651944 0.025646964 3.8691061 2894892
0.50653917 0.075340539 3.8692565 2894892
-0.9236533 0.11026305 3.8572562 10066329
-0.8755641 0.11024428 3.8565998 10066329
-0.82428652 0.11022427 3.8558998 10000536
-0.77462924 0.11020489 3.8552215 10000536
-0.72498959 0.11018552 3.8545444 10000536
-0.6753673 0.11016618 3.8538678 10132122
-0.62576246 0.11014684 3.8531904 10197915
-0.57457554 0.11012684 3.8524921 10197915
-0.525006 0.1101075 3.8518147 10197915
-0.47545403 0.11008817 3.8511386 10197915
-0.42432177 0.11006822 3.8504412 10197915
-0.39556718 0.110057 3.8500481 10197915
0.50655067 0.10419653 3.8693449 6250335
0.50499415 -1.7560558 3.9405746 2894892
0.50509375 -1.7246544 3.9324825 2894892
0.50510937 -1.6750094 3.9330144 2894892
0.50512946 -1.6245624 3.9331703 2894892
0.50514913 -1.5741104 3.9333241 2894892
0.50516838 -1.5252826 3.9334743 2894892
0.50519216 -1.4756294 3.9332492 2894892
0.50520402 -1.4251827 3.9341612 2894892
0.5052321 -1.3747096 3.9335613 2894892
0.50524783 -1.3250558 3.9340918 2894892
