# .PCD v0.7 - Point Cloud Data file format
VERSION 0.7
FIELDS x y z rgb
SIZE 4 4 4 4
TYPE F F F U
COUNT 1 1 1 1
WIDTH 1185
HEIGHT 1
VIEWPOINT 0 0 0 1 0 0 0
POINTS 1185
DATA ascii
-0.77482128 0.097472809 3.987761 1257290
-0.72449315 0.097592287 3.9926484 1191753
-0.67404264 0.097712047 3.9975479 1191753
-2.807502 0.09169396 4.0241637 10197915
-2.7763672 0.091767132 4.0273752 10197915
-2.7264547 0.09188439 4.0325217 10197915
-2.6764152 0.092001967 4.0376811 2105376
-2.6262467 0.092119828 4.0428534 2039583
-2.5790989 0.092230596 4.0477152 2039583
-1.8222561 0.094512172 4.0023079 1059654
-1.7746227 0.094624668 4.007072 1059911
-1.725282 0.09474121 4.0120072 1059398
-1.6742222 0.094861828 4.0171146 861250
-1.624635 0.094978958 4.0220747 663359
-1.5749239 0.095096372 4.0270472 1058629
-1.5250907 0.095214084 4.0320315 1519689
-1.4751328 0.095332071 4.0370283 1257289
-1.4250522 0.095450364 4.042037 1190727
-1.374846 0.095568955 4.0470591 1124935
-1.3472663 0.095634095 4.049818 1059911
-0.62510085 0.097828224 4.0023007 1191753
-0.57604253 0.097944684 4.0070653 1323082
-0.52522552 0.098065302 4.0120006 1323082
-0.47428432 0.09818621 4.0169468 1191753
-0.42486617 0.098303519 4.0217462 1191497
-0.37532976 0.098421104 4.0265565 1059655
-0.32567468 0.098538987 4.0313792 795201
-0.2908496 0.098621674 4.0347619 794945
-2.5539103 0.092289791 4.050313 2039583
-2.5255239 0.092356473 4.0532393 2039583
-2.474968 0.092475243 4.0584521 2039583
-2.4242823 0.092594333 4.0636778 2039583
-2.3750563 0.092709988 4.0687537 2039583
-2.3257053 0.092825919 4.073842 2041132
-2.2746344 0.092945911 4.0791078 927555
-2.2250335 0.093062446 4.0842223 862020
-2.1753068 0.093179271 4.0893497 795458
-2.1254563 0.093296401 4.0944896 796484
-2.0867789 0.093387254 4.0984774 994376
-1.3228911 0.095691673 4.0522561 1124934
-1.2756897 0.095803156 4.0569773 1058885
-1.2251112 0.095922627 4.0620365 1256520
-1.174408 0.096042387 4.0671077 1125704
-1.125219 0.096158572 4.0720277 1191240
-1.0759106 0.096275039 4.0769596 1191497
-1.0248325 0.096395679 4.0820689 1257290
-0.97362763 0.096516632 4.0871906 1191754
-0.92395127 0.096633956 4.0921588 1257290
-0.87415403 0.096751586 4.0971403 1126473
-0.84755117 0.096814461 4.099803 1126218
-2.8730879 0.091018476 4.145256 10197915
-2.8394747 0.091096967 4.1488304 10197915
-2.0609515 0.093447968 4.1011419 994632
-2.0253773 0.093531527 4.1048088 1059911
-1.9751481 0.093649521 4.1099877 928069
-1.9247929 0.093767837 4.1151795 993861
-1.8759401 0.093882605 4.1202159 1059911
-1.8253324 0.094001509 4.1254349 1125704
-1.7745978 0.094120711 4.1306658 1125190
-1.7253764 0.094236337 4.1357412 993093
-1.6760343 0.094352275 4.1408296 729152
-1.6249187 0.094472356 4.1460991 993092
-1.5935321 0.094546139 4.1493373 1322312
-0.82256985 0.096873417 4.1023002 1191753
-0.77419478 0.096987687 4.1071391 1192010
-0.72403222 0.097106189 4.1121564 1125961
-0.67374671 0.097224951 4.1171861 1125961
-0.62502098 0.09734004 4.1220593 1126217
-0.57617843 0.097455382 4.1269436 1257289
-0.52553028 0.097575001 4.1320095 1257546
-0.47475782 0.097694926 4.1370878 1257290
-0.42386037 0.097815149 4.142179 1191753
-0.37454098 0.097931631 4.1471124 993349
-0.34898919 0.097992033 4.1496696 926274
-2.8154278 0.09115319 4.151391 10197915
-2.7752788 0.091246977 4.1556611 5197647
-2.7253859 0.091363534 4.1609697 2039583
-2.6753633 0.091480367 4.1662912 2039583
-2.6252141 0.09159752 4.1716266 2039583
-2.5749354 0.091714986 4.1769767 2039583
-2.5245285 0.091832735 4.1823387 2039583
-2.4756236 0.091946974 4.187542 2039583
-2.4249601 0.092065319 4.1929321 2039583
-2.3790898 0.092172474 4.1978116 1780025
-1.5687099 0.094604425 4.1518941 1454154
-1.523958 0.094709583 4.1565094 1323081
-1.474118 0.094826661 4.1616478 1191240
-1.4241554 0.094944052 4.1667995 1125191
-1.3740685 0.095061727 4.1719642 1059141
-1.3238575 0.095179699 4.1771417 1058885
-1.2752022 0.095293991 4.1821585 1190984
-1.2264287 0.095408596 4.1871877 1125448
-1.1758503 0.095527418 4.1924024 1125704
-1.1268386 0.095642567 4.1974554 1191497
-0.32339644 0.09805245 4.1522279 794944
-0.29436296 0.098121047 4.1551332 729152
-2.3544753 0.09223 4.2004318 992835
-2.324887 0.092299096 4.2035785 993861
-2.2754843 0.092414506 4.2088346 862020
-2.2259569 0.092530206 4.2141037 795715
-2.176306 0.092646189 4.2193861 993862
-2.1265304 0.09276247 4.2246823 994631
-2.0766296 0.092879035 4.229991 1060167
-2.0266032 0.092995897 4.2353129 928326
-1.976451 0.093113065 4.2406487 1059398
-1.926172 0.093230508 4.2459979 1059911
-1.8942677 0.093305022 4.2493916 1191497
-1.1014457 0.095702231 4.2000742 1323083
-1.0743146 0.095765963 4.2028713 1257290
-1.0250578 0.095881693 4.2079506 1257290
-0.97568035 0.095997699 4.2130418 1191753
-0.92447495 0.096118003 4.2183213 1126218
-0.8748551 0.096234575 4.2234378 1126218
-0.82511324 0.096351437 4.2285666 1191497
-0.77525192 0.09646859 4.2337079 1126217
-0.72526771 0.096586019 4.2388611 1191497
-0.67516297 0.096703708 4.2440262 1125961
-0.63360631 0.096801326 4.2483106 1060681
-2.9674242 0.090243764 4.2711482 10197915
-2.9246314 0.09034311 4.2758503 10197915
-2.8751407 0.090458013 4.2812886 7566195
-2.8255239 0.090573214 4.2867417 2039583
-2.7757802 0.09068872 4.2922068 2039583
-2.7275751 0.090800643 4.2975044 2039583
-1.8690385 0.093363978 4.2520766 1191497
-1.8252329 0.093466297 4.2567363 1190983
-1.7745712 0.093584649 4.2621269 1058885
-1.7237816 0.093703292 4.2675304 860738
-1.6745631 0.093818285 4.2727671 1059142
-1.6252218 0.093933545 4.2780156 1322569
-1.5740526 0.094053075 4.2834606 1323082
-1.5244654 0.094168916 4.2887359 1191753
-1.4747547 0.094285041 4.2940245 1125447
-1.4335262 0.094381362 4.2984109 1058885
-0.60759145 0.096862502 4.2509947 1126217
-0.57458502 0.096940003 4.2543969 1191753
-0.52585411 0.097054496 4.2594213 1126474
-0.47526059 0.09717337 4.2646384 1191497
-0.42454433 0.097292505 4.2698669 1257289
-0.37545806 0.097407833 4.2749276 993093
-0.32625532 0.097523436 4.2800016 926787
-0.29985359 0.097585492 4.2827249 926531
-2.7025986 0.090858623 4.3002486 2039583
-2.6759119 0.090920582 4.3031816 2039583
-2.6257863 0.091036968 4.3086901 2039583
-2.5755315 0.091153644 4.3142114 2039583
-2.5251479 0.091270618 4.3197489 2039583
-2.4746354 0.091387905 4.3252993 2171944
-2.4239926 0.091505483 4.330864 927812
-2.3749144 0.091619432 4.3362575 994118
-2.3257127 0.091733679 4.3416638 861250
-2.2746854 0.091852143 4.3472705 927557
-1.4094362 0.094437614 4.3009729 992837
-1.3749659 0.094518147 4.3046408 1124678
-1.3248869 0.094635136 4.3099685 1125192
-1.2746825 0.094752416 4.31531 993863
-1.2243547 0.094869979 4.3206644 1125704
-1.1756432 0.094983764 4.3258471 1191754
-1.1250679 0.095101923 4.3312283 1323339
-1.0743681 0.095220365 4.3366218 1323083
-1.0252959 0.095334992 4.3418422 1323082
-0.97610533 0.09544991 4.3470764 1192267
-0.94970971 0.0955116 4.3498859 1257547
-2.225235 0.091966949 4.3527055 1060168
-2.1756587 0.092082061 4.3581529 1125960
-2.124243 0.092201434 4.3638024 1060167
-2.074415 0.092317142 4.3692784 994118
-2.0244606 0.09243311 4.3747678 1125190
-1.9743816 0.092549376 4.3802705 1060167
-1.9259093 0.092661925 4.3855977 1257289
-1.8755804 0.09277878 4.3911285 1190727
-1.8251265 0.092895925 4.3966718 1058886
-1.7972403 0.092960708 4.3997383 927557
-0.92326933 0.095573314 4.3526969 1257547
-0.87383235 0.095688805 4.3579569 1060424
-0.82427585 0.095804565 4.3632293 1191753
-0.77459908 0.0959206 4.3685126 1125704
-0.7248019 0.096036926 4.3738112 1257546
-0.67488384 0.09615352 4.3791213 1257546
-0.62484455 0.096270435 4.3844452 1323338
-0.57468319 0.09638761 4.3897815 1257802
-0.52439976 0.096505068 4.3951316 1257546
-0.48841199 0.096589126 4.3989596 1257545
-3.0642798 0.089428127 4.405302 10197915
-3.025336 0.089517951 4.4097266 10197915
-2.9761245 0.089631461 4.4153185 9211020
-2.9250853 0.08974918 4.4211178 2039583
-2.8756199 0.089863285 4.4267378 2039583
-2.8260274 0.089977667 4.4323721 2039583
-2.7745924 0.09009631 4.4382167 2039583
-2.7247441 0.090211295 4.443881 2039583
-2.6851199 0.090302661 4.4483819 2039583
-1.7710512 0.093021475 4.4026146 926787
-1.7238334 0.09313111 4.4078026 1059655
-1.6747493 0.093245052 4.4131961 1257032
-1.6255451 0.093359306 4.4186034 1257547
-1.5762202 0.093473814 4.4240236 1257290
-1.5250049 0.093592726 4.4296513 1125447
-1.4736608 0.093711928 4.4352932 927557
-1.4239625 0.093827322 4.4407549 1124935
-1.3741415 0.093943007 4.4462295 1059655
-1.3438381 0.094013371 4.4495602 1059656
-0.46317977 0.096648097 4.4016452 1257289
-0.42527166 0.096736632 4.4056778 1323082
-0.37643346 0.096850738 4.4108739 992837
-0.32929713 0.096960843 4.4158883 926530
-2.6592352 0.0903624 4.4513245 2039583
-2.6246622 0.090442121 4.4552526 2039583
-2.5744281 0.090557985 4.4609599 2105376
-2.5240669 0.090674147 4.4666815 1452091
-2.4753189 0.090786584 4.4722209 993604
-2.4247015 0.090903334 4.4779725 861763
-2.373955 0.091020383 4.4837375 861508
-2.3248336 0.091133691 4.4893188 1125191
-2.2755899 0.091247268 4.4949141 1125960
-2.2403448 0.091328561 4.4989185 1126216
-1.3188409 0.094071396 4.4523063 1059399
-1.27413 0.094175212 4.4572196 1191241
-1.2239383 0.094291739 4.4627347 1323083
-1.1736228 0.094408549 4.4682641 1323596
-1.1249865 0.094521485 4.473609 1455181
-1.0762322 0.094634674 4.4789662 1454924
-1.0255495 0.094752356 4.4845357 1389388
-0.97474062 0.094870321 4.4901185 1323596
-0.92380506 0.09498857 4.4957147 1257546
-0.89099836 0.095064722 4.4993191 1191497
-3.1656818 0.08856377 4.5483704 10197915
-2.215632 0.091385566 4.5017266 1125960
-2.1749623 0.091479383 4.5063477 1059655
-2.1235707 0.091597915 4.512187 1059910
-2.0738235 0.091712654 4.5178394 1125447
-2.0239518 0.091827683 4.5235057 1191496
-1.9739544 0.091943003 4.5291867 1257288
-1.9238317 0.092058606 4.5348816 1125191
-1.8735826 0.092174515 4.5405912 1058886
-1.8250089 0.09228655 4.5461102 992836
-1.7961732 0.092353083 4.5493875 994119
-0.86726677 0.095119819 4.5019269 1125961
-0.8252126 0.095217466 4.5065479 1191753
-0.77390343 0.095336601 4.512187 1257546
-0.72430569 0.095451742 4.5176368 1454924
-0.67458642 0.095567189 4.5231004 1454924
-0.62474823 0.095682889 4.5285764 1520715
-0.5747878 0.095798895 4.5340667 1389388
-0.52470767 0.095915169 4.5395703 1389387
-0.47450423 0.096031733 4.5450869 1389131
-0.43910798 0.096113905 4.5489759 1455180
-0.3220363 -2.0541701 4.5995493 2039583
-0.32013094 -2.0255888 4.5995526 2039583
-0.31860438 -1.9771125 4.5996575 2039583
-0.31692535 -1.9285592 4.599762 2039583
-3.150003 0.088599727 4.5502172 10197915
-3.1238313 0.088659629 4.5532932 10197915
-3.0748951 0.088771701 4.5590487 9737364
-3.0258346 0.088884063 4.5648203 2039583
-2.9748907 0.089000732 4.5708117 2039583
-2.9238136 0.089117706 4.5768194 2039583
-2.8743703 0.089230955 4.5826344 2039583
-2.8248005 0.089344479 4.5884657 2039583
-2.7751045 0.089458294 4.5943103 2039583
-2.7377541 0.089543857 4.5987043 2039583
-1.7708999 0.092411347 4.5522575 1190983
-1.7256939 0.09251561 4.557394 1191240
-1.6749448 0.092632689 4.5631604 1388875
-1.6240665 0.092750028 4.5689416 1322826
-1.5748838 0.09286347 4.5745296 1256263
-1.5255796 0.092977189 4.5801315 993350
-1.4743221 0.093095422 4.5859556 1125192
-1.4247723 0.093209714 4.5915856 1124935
-1.3750992 0.093324289 4.5972295 1125191
-0.41485018 0.096170224 4.5516419 1322825
-0.3756032 0.096261352 4.5559549 1059399
-0.33441317 0.096356981 4.5604806 1124421
-1.2115856 -2.0648956 4.6494431 2039583
-1.1766447 -2.0641565 4.6474843 2039583
-1.1256659 -2.0646782 4.6446209 2039583
-1.0749785 -2.0634155 4.6417799 2039583
-1.0243533 -2.0621545 4.6389427 2039583
-0.97378832 -2.0628123 4.6361022 2039583
-0.92454571 -2.0613775 4.6333437 2039583
-0.87611139 -2.0605783 4.6306286 2039583
-0.82697582 -2.0607226 4.6278687 2039583
-0.77601767 -2.0597937 4.6250124 2039583
-0.72575724 -2.0585394 4.6221948 2039583
-0.67660952 -2.058702 4.6194358 2039583
-0.62541872 -2.0579443 4.6165648 2039583
-0.57534146 -2.0566936 4.6137586 2039583
-0.52693427 -2.0566814 4.611042 2039583
-0.47536865 -2.0561016 4.6081491 2039583
-0.42547372 -2.0548539 4.6053524 2039583
-0.37793773 -2.0548074 4.6026845 2039583
-0.34117121 -2.0546489 4.6006212 2039583
-1.2103695 -2.0257206 4.6495285 2039583
-1.1763194 -2.0238123 4.647625 2039583
-1.125703 -2.0262604 4.644773 2039583
-1.0750138 -2.0250213 4.641933 2039583
-1.0243868 -2.0237832 4.6390958 2039583
-0.97406888 -2.0260742 4.6362624 2039583
-0.92331547 -2.0251453 4.6334171 2039583
-0.87481201 -2.0239568 4.6306992 2039583
-0.82652307 -2.0257065 4.6279812 2039583
-0.77604079 -2.0253637 4.6251483 2039583
-0.72577846 -2.0241299 4.6223326 2039583
-0.67571115 -2.025389 4.6195145 2039583
-0.62543613 -2.0254862 4.616694 2039583
-0.57535744 -2.024255 4.6138868 2039583
-0.52538306 -2.0250776 4.6110787 2039583
-0.47538102 -2.0256085 4.6082683 2039583
-0.42548493 -2.0243797 4.605473 2039583
-0.37558272 -2.0249128 4.6026692 2039583
-0.33926579 -2.0260613 4.6006279 2039583
-1.2086563 -1.976193 4.6496267 2039583
-1.1765083 -1.9736801 4.6478319 2039583
-1.125751 -1.9763135 4.6449709 2039583
-1.07506 -1.9751053 4.6421313 2039583
-1.0244306 -1.9738984 4.6392941 2039583
-0.97395235 -1.9757845 4.6364512 2039583
-0.9233548 -1.9753219 4.6336155 2039583
-0.87484944 -1.9741614 4.6308975 2039583
-0.82646775 -1.9752085 4.6281757 2039583
-0.77607375 -1.9756269 4.6253448 2039583
-0.72580951 -1.9744238 4.622529 2039583
-0.6754719 -1.9746983 4.6197014 2039583
-0.62546259 -1.9758434 4.616889 2039583
-0.57538182 -1.9746416 4.6140828 2039583
-0.52491987 -1.9741989 4.6112518 2039583
-0.47540119 -1.9760549 4.6084633 2039583
-0.4255029 -1.974856 4.6056676 2039583
-0.37533078 -1.974115 4.6028547 2039583
-0.33782941 -1.9755088 4.6007438 2039583
-1.2060401 -1.9282285 4.6496677 2039583
-1.1757053 -1.9279416 4.6479664 2039583
-1.1257972 -1.928284 4.6451621 2039583
-1.0751117 -1.9271195 4.6423554 2039583
-1.0245217 -1.9260187 4.6397057 2039583
-0.97363549 -1.9264089 4.6370287 2039583
-0.92351121 -1.9257334 4.6344008 2039583
-0.87473643 -1.9244555 4.6319733 2039583
-0.82560462 -1.9246113 4.6294899 2039583
-0.77538967 -1.9239538 4.6277342 2039583
-0.7256189 -1.9223161 4.626214 2039583
-0.67516869 -1.9218097 4.6238856 2039583
-0.62536746 -1.922271 4.6215119 2039583
-0.57531369 -1.9213564 4.6193223 2039583
-0.52530783 -1.9204456 4.617136 2039583
-0.47536188 -1.9213245 4.614665 2039583
-0.42546359 -1.920457 4.6125927 2039583
-0.37549564 -1.9195216 4.6105571 2039583
-0.33451518 -1.9189934 4.6093483 2039583
-2.71281 0.089600936 4.6016364 2039583
-2.6753325 0.089686796 4.6060457 2039583
-2.6252549 0.089801483 4.6119356 1976112
-2.5750489 0.089916468 4.6178412 927299
-2.524714 0.090031743 4.6237617 928068
-2.4742506 0.090147324 4.6296968 795715
-2.4236569 0.090263188 4.6356478 993349
-2.374748 0.090375192 4.6414003 1125960
-2.3257155 0.090487495 4.6471672 1125960
-1.3253053 0.093439139 4.6028872 1322826
-1.2753872 0.093554281 4.6085587 1454668
-1.2253476 0.09366969 4.6142445 1454925
-1.1751827 0.093785398 4.6199446 1520717
-1.1248956 0.093901396 4.625658 1389388
-1.0744821 0.094017677 4.6313868 1323852
-1.0239469 0.094134405 4.6371365 1323852
-0.97516239 0.094246939 4.6426802 1389388
-0.93002832 0.094351053 4.647809 1257803
-2.1066172 -2.1007762 4.6995463 2039583
-2.0866511 -2.100276 4.6984277 2039583
-2.1058817 -2.0753226 4.699605 2039583
-2.0742416 -2.0757177 4.697825 2039583
-2.0248573 -2.0754278 4.695056 2039583
-1.9750543 -2.0741935 4.6922641 2039583
-1.9256849 -2.0744338 4.6894932 2039583
-1.8756239 -2.0736687 4.6866851 2039583
-1.8259995 -2.0724385 4.6839042 2039583
-1.7749854 -2.0723245 4.6810412 2039583
-1.7249434 -2.071867 4.6782341 2039583
-1.6754979 -2.0706408 4.6754646 2039583
-1.6247393 -2.0702267 4.6726141 2039583
-1.5748056 -2.0700731 4.6698132 2039583
-1.5255373 -2.0688486 4.6670513 2039583
-1.4749206 -2.0681427 4.6642127 2039583
-1.425207 -2.0682843 4.6614218 2039583
-1.3761148 -2.0670636 4.6586704 2039583
-1.3254954 -2.0660727 4.6558318 2039583
-1.2741871 -2.0664537 4.6529512 2039583
-1.2350495 -2.0654795 4.6507578 2039583
-2.1042538 -2.0268593 4.6997032 2039583
-2.0748084 -2.0261476 4.6980538 2039583
-2.024945 -2.0249417 4.6952581 2039583
-1.975281 -2.0238924 4.6924748 2039583
-1.9250298 -2.0259862 4.6896458 2039583
-1.8757017 -2.0252123 4.6868801 2039583
-1.8260753 -2.0240099 4.6840982 2039583
-1.7743063 -2.0256019 4.6811867 2039583
-1.7250118 -2.0254323 4.6784196 2039583
-1.6755641 -2.0242331 4.6756487 2039583
-1.6241255 -2.0252199 4.6727576 2039583
-1.5748653 -2.0256526 4.6699905 2039583
-1.5255947 -2.0244548 4.6672292 2039583
-1.4744841 -2.0246909 4.6643581 2039583
-1.4252584 -2.0258718 4.6615915 2039583
-1.3761652 -2.0246763 4.6588407 2039583
-1.3252612 -2.0241699 4.6559825 2039583
-1.2742313 -2.0260425 4.653111 2039583
-1.2336853 -2.0243611 4.6508427 2039583
-2.1026771 -1.9780642 4.6998067 2039583
-2.0748975 -1.975628 4.6982565 2039583
-2.0250328 -1.9744525 4.6954618 2039583
-1.9755534 -1.9743917 4.6926847 2039583
-1.9254719 -1.9759858 4.6898665 2039583
-1.8756187 -1.9746611 4.6870732 2039583
-1.8262719 -1.9740627 4.6843047 2039583
-1.7743353 -1.9760112 4.6813827 2039583
-1.7250865 -1.9751242 4.6786213 2039583
-1.6756363 -1.9739534 4.6758494 2039583
-1.6241003 -1.9757204 4.6729484 2039583
-1.5749327 -1.9754345 4.6701894 2039583
-1.5256604 -1.9742674 4.6674294 2039583
-1.4744527 -1.9751315 4.6645522 2039583
-1.4253199 -1.9757444 4.6617918 2039583
-1.3762239 -1.9745781 4.65904 2039583
-1.3252943 -1.9743992 4.6561818 2039583
-1.2742859 -1.9760058 4.6533117 2039583
-1.2319329 -1.9743119 4.6509409 2039583
-2.1009371 -1.9276437 4.6999063 2039583
-2.0749884 -1.9251046 4.6984591 2039583
-2.0251203 -1.9239594 4.6956658 2039583
-1.9749762 -1.9255842 4.6928434 2039583
-1.9255546 -1.9255505 4.6900702 2039583
-1.8738781 -1.9243619 4.6871738 2039583
-1.8244553 -1.9245005 4.6843977 2039583
-1.7746725 -1.9259518 4.6815982 2039583
-1.7251608 -1.9248114 4.678823 2039583
-1.6758493 -1.9238131 4.6760588 2039583
-1.6240742 -1.9260689 4.6731429 2039583
-1.5750005 -1.9252124 4.6703935 2039583
-1.525726 -1.9240741 4.6676302 2039583
-1.4744918 -1.9254172 4.6647491 2039583
-1.4253805 -1.9256124 4.6619911 2039583
-1.3762828 -1.9244763 4.6592398 2039583
-1.3252809 -1.9244788 4.6563754 2039583
-1.2733533 -1.923434 4.6576862 2039583
-1.2283849 -1.9199113 4.6591778 2039583
-1.1748385 -1.9064503 4.6718659 2039583
-1.1248208 -1.9063097 4.6713738 2039583
-1.0739077 -1.9061744 4.6728477 2039583
-1.0246977 -1.9060495 4.6756492 2039583
-0.97457677 -1.9059107 4.6756177 2039583
-0.92513257 -1.9057705 4.6748414 2039583
-0.8753494 -1.905632 4.6746249 2039583
-0.8252601 -1.9054904 4.6739702 2039583
-0.77620578 -1.9053625 4.6759381 2039583
-0.72488052 -1.9052303 4.6783776 2039583
-0.67482567 -1.9050901 4.6780319 2039583
-0.62439007 -1.9049492 4.6776862 2039583
-0.57473093 -1.9048108 4.6774979 2039583
-0.52509093 -1.9046713 4.6770039 2039583
-0.47507259 -1.9045302 4.6763592 2039583
-0.42504999 -1.9043915 4.6763163 2039583
-0.37503812 -1.9042522 4.6761236 2039583
-0.33395714 -1.9041338 4.675005 2039583
-2.075078 -1.8745753 4.6986632 2039583
-2.0256925 -1.874182 4.6958933 2039583
-1.9752485 -1.8760748 4.6930523 2039583
-1.9256381 -1.875114 4.6902714 2039583
-1.8739592 -1.8739561 4.6873746 2039583
-1.8239938 -1.875608 4.6845646 2039583
-1.7747488 -1.8756071 4.6817994 2039583
-1.725235 -1.8744941 4.6790247 2039583
-1.6761146 -1.8742589 4.6762671 2039583
-1.624404 -1.8760962 4.6733589 2039583
-1.5750681 -1.8749863 4.6705928 2039583
-1.5257913 -1.8738774 4.66783 2039583
-1.4744368 -1.8757032 4.6649408 2039583
-1.4254421 -1.875477 4.6621909 2039583
-1.3763422 -1.8743696 4.6594396 2039583
-1.3253844 -1.8745501 4.6565776 2039583
-1.2831736 -1.8756964 4.6647143 2039583
-2.0731716 -1.8239995 4.6987543 2039583
-2.0250702 -1.8253595 4.6960492 2039583
-1.9754754 -1.8257565 4.6932626 2039583
-1.9257213 -1.8246713 4.690475 2039583
-1.8743979 -1.8239729 4.6875954 2039583
-1.8242593 -1.8261851 4.6847725 2039583
-1.7748258 -1.8252546 4.6820006 2039583
-1.7253095 -1.8241727 4.6792264 2039583
-1.6758498 -1.825026 4.676446 2039583
-1.6244745 -1.8258352 4.6735578 2039583
-1.5751363 -1.8247558 4.6707921 2039583
-1.5259978 -1.8238175 4.6680393 2039583
-1.4744051 -1.8261318 4.6651325 2039583
-1.425503 -1.825336 4.6623898 2039583
-1.3764011 -1.8242594 4.6596384 2039583
-1.325417 -1.8247681 4.6567745 2039583
-1.2833154 -1.8257684 4.6648502 2039583
-2.0719798 -1.7744995 4.6988826 2039583
-2.0251141 -1.7760513 4.6962461 2039583
-1.9755609 -1.7752805 4.6934662 2039583
-1.9258044 -1.7742248 4.6906762 2039583
-1.8742393 -1.7747633 4.6877804 2039583
-1.8244781 -1.7759528 4.6849828 2039583
-1.774902 -1.7748995 4.6822033 2039583
-1.7253836 -1.773847 4.6794271 2039583
-1.6755855 -1.77579 4.6766233 2039583
-1.6245439 -1.7755712 4.6737599 2039583
-1.5752043 -1.7745203 4.6709957 2039583
-1.5261341 -1.7740537 4.6682415 2039583
-1.4747268 -1.7762406 4.6653466 2039583
-1.4238819 -1.7749013 4.662499 2039583
-1.3748196 -1.7743772 4.6597457 2039583
-1.3254502 -1.7749807 4.6569715 2039583
-1.2833385 -1.775822 4.6653171 2039583
-2.0695255 -1.7261239 4.6989336 2039583
-2.0254636 -1.7258248 4.6964617 2039583
-1.9756458 -1.7247988 4.6936698 2039583
-1.9258875 -1.7237738 4.6908798 2039583
-1.8737116 -1.725868 4.6879425 2039583
-1.8245569 -1.725563 4.685184 2039583
-1.7749784 -1.7245395 4.682404 2039583
-1.7257143 -1.723824 4.6796432 2039583
-1.6758499 -1.7262239 4.6768336 2039583
-1.6246134 -1.7253017 4.6739612 2039583
-1.5752717 -1.724281 4.671196 2039583
-1.5261046 -1.7244434 4.6684341 2039583
-1.474791 -1.7260627 4.6655478 2039583
-1.4236602 -1.7250018 4.6626816 2039583
-1.3745557 -1.7239835 4.6599283 2039583
-1.3254839 -1.7251899 4.6571689 2039583
-1.2834854 -1.7258832 4.6653595 2039583
-2.0682666 -1.6768769 4.6990571 2039583
-2.0255508 -1.6753095 4.6966653 2039583
-1.9757303 -1.6743131 4.693871 2039583
-1.9264818 -1.6741855 4.6911068 2039583
-1.8742763 -1.6761633 4.688169 2039583
-1.8246359 -1.6751685 4.6853867 2039583
-1.7750555 -1.6741747 4.6826072 2039583
-1.7257268 -1.6746223 4.6798353 2039583
-1.6760635 -1.6760606 4.677042 2039583
-1.6246839 -1.6750286 4.67416 2039583
-1.575339 -1.6740372 4.6713948 2039583
-1.5260514 -1.6749784 4.6686254 2039583
-1.4748535 -1.6758794 4.6657486 2039583
-1.4237212 -1.6748499 4.6628814 2039583
-1.3746147 -1.6738605 4.6601286 2039583
-1.325446 -1.6755474 4.657362 2039583
-1.283504 -1.6759224 4.6659193 2039583
-2.0665236 -1.6264246 4.6991568 2039583
-2.0256388 -1.6247905 4.6968675 2039583
-1.9758161 -1.6238233 4.6940756 2039583
-1.9256831 -1.6255665 4.6912537 2039583
-1.8743571 -1.6257359 4.6883726 2039583
-1.8247144 -1.6247699 4.6855884 2039583
-1.7751318 -1.6238067 4.6828074 2039583
-1.7252893 -1.6257677 4.6800027 2039583
-1.6761361 -1.6257521 4.6772437 2039583
-1.6247537 -1.6247517 4.6743641 2039583
-1.5754071 -1.6237892 4.671598 2039583
-1.5259022 -1.6256642 4.6688113 2039583
-1.4749174 -1.6256913 4.6659474 2039583
-1.4237828 -1.6246935 4.6630812 2039583
-1.3746735 -1.6237341 4.6603293 2039583
-1.3255265 -1.6258936 4.6575613 2039583
-1.2841941 -1.6263363 4.6636996 2039583
-2.0649288 -1.5759064 4.6992645 2039583
-2.0257263 -1.5742655 4.6970716 2039583
-1.9750438 -1.5739033 4.6942272 2039583
-1.9247872 -1.5765908 4.6913948 2039583
-1.8744382 -1.5753022 4.6885738 2039583
-1.8247933 -1.5743682 4.6857901 2039583
-1.7756394 -1.5740045 4.683033 2039583
-1.7255352 -1.5762211 4.6802106 2039583
-1.6762079 -1.5754392 4.6774459 2039583
-1.6248235 -1.5744681 4.6745648 2039583
-1.5756145 -1.5736893 4.6718054 2039583
-1.525921 -1.576187 4.6690049 2039583
-1.4749802 -1.5755005 4.6661482 2039583
-1.4238434 -1.5745326 4.6632819 2039583
-1.3747327 -1.5736028 4.6605287 2039583
-1.3254176 -1.5762464 4.6577501 2039583
-1.2845747 -1.5756296 4.6627474 2039583
-2.0631783 -1.5253624 4.6993661 2039583
-2.0259562 -1.5238782 4.6972799 2039583
-1.9734766 -1.5258116 4.6943283 2039583
-1.9242243 -1.5257714 4.6915622 2039583
-1.8745193 -1.5248653 4.6887751 2039583
-1.8248719 -1.5239599 4.6859927 2039583
-1.7752815 -1.5249933 4.6832047 2039583
-1.7243465 -1.5255778 4.6803436 2039583
-1.6749443 -1.525533 4.6775703 2039583
-1.6248938 -1.5241824 4.6747651 2039583
-1.5758526 -1.5242269 4.6720119 2039583
-1.5262458 -1.526243 4.669219 2039583
-1.4750435 -1.5253043 4.6663494 2039583
-1.4239049 -1.5243673 4.6634822 2039583
-1.3749307 -1.5236192 4.6607361 2039583
-1.3257329 -1.5264229 4.6579633 2039583
-1.2846533 -1.525498 4.6630321 2039583
-2.0614245 -1.4747696 4.6994648 2039583
-2.0262437 -1.4745295 4.6974907 2039583
-1.9740744 -1.4761776 4.6945572 2039583
-1.924307 -1.4753002 4.6917658 2039583
-1.8745997 -1.4744241 4.6889782 2039583
-1.8252079 -1.4738554 4.6862078 2039583
-1.7749231 -1.4759786 4.6833758 2039583
-1.7238437 -1.4756397 4.6805115 2039583
-1.6743741 -1.4747649 4.6777368 2039583
-1.6249629 -1.4738916 4.6749678 2039583
-1.5755032 -1.475281 4.6721859 2039583
-1.526311 -1.4760121 4.6694217 2039583
-1.475107 -1.4751048 4.6665487 2039583
-1.4239661 -1.4741979 4.663682 2039583
-1.3750538 -1.4739567 4.6609378 2039583
-1.3257895 -1.4763134 4.6581621 2039583
-1.2847319 -1.4753609 4.6633182 2039583
-2.059902 -1.4251872 4.699574 2039583
-2.025497 -1.4258351 4.6976395 2039583
-1.9741594 -1.4256721 4.6947579 2039583
-1.9243906 -1.4248242 4.6919675 2039583
-1.8746805 -1.4239781 4.6891809 2039583
-1.8251858 -1.4247383 4.686399 2039583
-1.7754316 -1.4261642 4.6836009 2039583
-1.7239184 -1.4252846 4.6807127 2039583
-1.6744463 -1.4244403 4.6779394 2039583
-1.6251738 -1.423737 4.6751747 2039583
-1.5734856 -1.4260209 4.6722651 2039583
-1.5245688 -1.4258935 4.6695185 2039583
-1.4751704 -1.4249002 4.6667504 2039583
-1.4240273 -1.4240245 4.6638823 2039583
-1.3750103 -1.4244627 4.6611295 2039583
-1.3258464 -1.426199 4.6583619 2039583
-1.2848101 -1.425217 4.6636038 2039583
-2.0566354 -1.3748603 4.6995873 2039583
-2.0248799 -1.3764764 4.6977987 2039583
-1.9742445 -1.375162 4.694962 2039583
-1.9244736 -1.3743446 4.6921701 2039583
-1.8751203 -1.3739547 4.6894026 2039583
-1.824685 -1.3759717 4.686563 2039583
-1.7755095 -1.3757743 4.6838031 2039583
-1.7239931 -1.3749259 4.6809144 2039583
-1.6745185 -1.3741109 4.6781397 2039583
-1.6254376 -1.3741703 4.6753845 2039583
-1.5737683 -1.3763186 4.6724744 2039583
-1.5244713 -1.3755045 4.6697106 2039583
-1.4752333 -1.3746909 4.6669512 2039583
-1.4240884 -1.3738465 4.6640835 2039583
-1.3749278 -1.375127 4.6613173 2039583
-1.3259028 -1.3760803 4.6585622 2039583
-1.2848885 -1.3750671 4.6638899 2039583
-2.0542874 -1.3264959 4.699646 1715779
-2.0241628 -1.325436 4.697958 1781313
-1.9743305 -1.3246471 4.6951652 1846076
-1.9245563 -1.3238599 4.6923728 1977144
-1.8748395 -1.3250135 4.6895781 2041648
-1.8251814 -1.3261671 4.6867862 2040873
-1.775584 -1.3253798 4.6840053 2040100
-1.7240678 -1.3245621 4.6811156 1974047
-1.6745902 -1.3237774 4.6783414 2039583
-1.6250501 -1.3252325 4.6755552 2039583
-1.5738356 -1.3260462 4.672677 2039583
-1.5245366 -1.3252617 4.6699133 2039583
-1.475297 -1.3244779 4.6671515 2039583
-1.4241496 -1.3236644 4.6642828 2039583
-1.374871 -1.325786 4.6615076 2039583
-1.3259596 -1.3259573 4.658762 2039583
-1.2849671 -1.3249114 4.6641746 2039583
-2.0526068 -1.2768468 4.6997461 1783376
-2.0242507 -1.2748863 4.6981621 1849168
-1.9744164 -1.274128 4.6953683 1914960
-1.9250997 -1.2741492 4.6925993 1980240
-1.8745582 -1.2760699 4.6897545 2111568
-1.8252599 -1.2757382 4.6869888 2111825
-1.7756613 -1.2749799 4.6842065 2111568
-1.7241411 -1.2741942 4.6813183 2176847
-1.6750109 -1.2739007 4.6785607 2307659
-1.6248816 -1.2761307 4.6757374 2306627
-1.5739031 -1.2757696 4.6728778 2371645
-1.5246023 -1.2750139 4.6701131 2305335
-1.4753603 -1.2742612 4.6673517 2304562
-1.424351 -1.2736182 4.6644907 2237996
-1.3748276 -1.2762797 4.6616998 2039841
-1.3260169 -1.2758304 4.6589632 2039583
-1.285115 -1.2749645 4.6642261 2039583
-2.0512066 -1.2288455 4.6998563 1651534
-2.0243382 -1.2243334 4.6983652 1717326
-1.9747634 -1.2238883 4.6955838 1782862
-1.9242511 -1.2256604 4.6927419 1848398
-1.8749987 -1.2260332 4.6899748 1914191
-1.825339 -1.2253051 4.6871905 2111568
-1.7757379 -1.2245783 4.6844087 2177361
-1.7242157 -1.2238227 4.6815186 2176848
-1.6747978 -1.2248681 4.6787415 2308433
-1.625308 -1.2262431 4.6759577 2505555
-1.5739712 -1.2254883 4.6730766 2571347
-1.5246675 -1.2247634 4.6703134 2702675
-1.4754244 -1.224039 4.6675525 2834003
-1.4245554 -1.2240115 4.6646972 2965332
-1.3751413 -1.2264231 4.6619139 3031125
-1.3260746 -1.2256991 4.6591625 3030610
-1.2851259 -1.2250149 4.6647549 3227729
-2.0503359 -1.1897011 4.6999607 1848912
-2.024426 -1.173776 4.6985683 1848912
-1.9745836 -1.1750209 4.6957655 1783376
-1.9248002 -1.1762651 4.692965 1848912
-1.8750796 -1.175566 4.6901774 1914448
-1.8254169 -1.1748682 4.6873941 1980240
-1.775815 -1.1741709 4.6846108 2045776
-1.7246478 -1.1738716 4.6817403 2045262
-1.6743857 -1.1760063 4.6789098 2045262
-1.6253781 -1.1759268 4.6761589 2242383
-1.5740389 -1.1752028 4.6732812 2439505
-1.5247335 -1.1745074 4.670516 2571090
-1.475487 -1.173813 4.6677523 2768211
-1.4243789 -1.1748705 4.6648793 2899796
-1.3752002 -1.1762577 4.6621127 2965332
-1.3261307 -1.1755633 4.6593614 3162454
-1.2852753 -1.1750619 4.6649323 3491673
-2.0238726 -1.125109 4.6987295 1783120
-1.9744029 -1.1261501 4.6959462 1848912
-1.9248823 -1.1257634 4.6931705 1914705
-1.8751606 -1.1250944 4.6903806 1914704
-1.8254958 -1.1244264 4.6875949 1914448
-1.7758909 -1.1237589 4.6848125 1980241
-1.724362 -1.1250033 4.6819153 2177362
-1.6748736 -1.1262732 4.679132 2242641
-1.6254475 -1.1256062 4.6763592 2374226
-1.5741062 -1.124913 4.673481 2505298
-1.5247991 -1.1242477 4.6707158 2571091
-1.4755511 -1.1235822 4.6679535 2702419
-1.4240568 -1.1258833 4.6650538 2767954
-1.3752593 -1.126088 4.662313 2899282
-1.3261876 -1.1254237 4.6595616 3162196
-1.2852976 -1.1251031 4.6653781 3425881
-2.0216601 -1.0764996 4.6987944 1914962
-1.9747504 -1.075897 4.6961637 1914962
-1.9249665 -1.0752573 4.6933722 1980754
-1.8752413 -1.0746182 4.6905823 2046290
-1.8255743 -1.0739802 4.6877975 1980241
-1.7764515 -1.0740583 4.685039 1979984
-1.724076 -1.0761319 4.6820908 2243155
-1.6749454 -1.0759184 4.6793332 2374483
-1.6255181 -1.0752813 4.6765633 2505812
-1.5741745 -1.0746191 4.6736808 2702933
-1.524865 -1.0739831 4.6709142 2768725
-1.4759698 -1.0737711 4.6681738 2834261
-1.4243106 -1.0764103 4.6652613 2768468
-1.3753179 -1.0759144 4.6625137 2965332
-1.3262446 -1.0752792 4.659761 3162454
-1.2853839 -1.0749226 4.6656933 3294296
-2.0202658 -1.0263726 4.6989131 2046547
-1.9748363 -1.0253564 4.6963677 2046547
-1.9250491 -1.0247471 4.693574 2243411
-1.8753217 -1.0241381 4.6907849 2243411
-1.8257941 -1.0236819 4.6880069 2177619
-1.775548 -1.0256385 4.6851788 2308948
-1.7245076 -1.0261675 4.682312 2243155
-1.6750177 -1.0255591 4.6795359 2177362
-1.6255878 -1.0249515 4.6767635 2440276
-1.5742419 -1.0243205 4.6738839 2505812
-1.5249304 -1.0237142 4.6711192 2703189
-1.4757954 -1.0247362 4.668355 2834518
-1.4245116 -1.0263424 4.6654696 2702676
-1.3753774 -1.0257362 4.6627145 2899796
-1.3263018 -1.0251305 4.6599607 3096918
-1.2854706 -1.0247352 4.666007 3162711
-2.0185053 -0.97569162 4.6990128 1717840
-1.9749212 -0.97481215 4.6965699 1783633
-1.9251318 -0.9742322 4.6937766 1849169
-1.8754029 -0.97365338 4.6909871 1914962
-1.8257289 -0.97501624 4.6881948 1980754
-1.7761146 -0.97637594 4.6854038 2112083
-1.7245823 -0.97577375 4.6825128 2243411
-1.6750901 -0.97519505 4.6797376 2309204
-1.6256577 -0.97461814 4.6769638 2374740
-1.5743096 -0.97401738 4.6740832 2506069
-1.5251356 -0.97359264 4.6713252 2571862
-1.4752569 -0.97601765 4.6685157 2703190
-1.4245731 -0.97613013 4.6656709 2571090
-1.3754364 -0.97555357 4.6629143 2702418
-1.3263582 -0.97497678 4.6601615 2899540
-1.2855562 -0.97454083 4.6663213 3096661
-2.0168753 -0.92472512 4.699122 1586512
-1.9750067 -0.92426276 4.6967735 1652304
-1.9252163 -0.92371327 4.6939807 1717584
-1.8758568 -0.92463416 4.6912055 1717585
-1.8247087 -0.9258346 4.6883302 1783377
-1.7753142 -0.92643791 4.6855545 1848913
-1.7246561 -0.9253763 4.6827145 1914705
-1.6751623 -0.92482769 4.6799388 2046034
-1.6257275 -0.92427975 4.677166 2177619
-1.5743777 -0.92371076 4.6742845 2243411
-1.5253757 -0.92443085 4.6715302 2374740
-1.4758002 -0.92648327 4.6687407 2571605
-1.4246345 -0.92591369 4.6658707 2505555
-1.3754953 -0.9253667 4.6631131 2636626
-1.3264154 -0.9248203 4.6603613 2833748
-1.2856983 -0.92455077 4.6665955 2965332
-2.0149674 -0.87412554 4.699214 1520719
-1.9750926 -0.8737095 4.6969762 1652305
-1.9256614 -0.87462121 4.6941967 1652048
-1.8752004 -0.87612998 4.691359 1586255
-1.8238981 -0.8760137 4.6884789 1651791
-1.774285 -0.87549365 4.6856971 1651791
-1.7247304 -0.87497437 4.6829162 1848656
-1.6752343 -0.87445539 4.6801405 1914705
-1.625797 -0.87393737 4.6773672 2046291
-1.5747045 -0.87367982 4.6745014 2177620
-1.5246665 -0.87597698 4.6716828 2308948
-1.4758626 -0.87623155 4.6689415 2374484
-1.4246954 -0.8756929 4.6660709 2506069
-1.3738731 -0.8749035 4.6632214 2637397
-1.3248324 -0.8749103 4.6604686 2834262
-1.2857281 -0.87456149 4.6669459 2965590
-2.013236 -0.82382143 4.6993132 1520462
-1.9754523 -0.82477862 4.6971884 1586255
-1.9250249 -0.82608813 4.6943526 1586512
-1.8756403 -0.82605767 4.6915803 1652048
-1.8239771 -0.82554734 4.6886821 1651791
-1.7743603 -0.82505733 4.6858983 1651278
-1.7248051 -0.82456779 4.6831198 1651534
-1.6753067 -0.8240788 4.6803427 1782607
-1.6258675 -0.8235907 4.6775689 1848656
-1.5746087 -0.8248632 4.674685 2045777
-1.5251878 -0.82646471 4.671906 2111826
-1.4759265 -0.82597595 4.6691413 2243155
-1.4247565 -0.82546788 4.6662717 2308691
-1.3736494 -0.82496095 4.6634045 2440020
-1.3245667 -0.82447368 4.6606503 2571605
-1.2858803 -0.82456064 4.6670141 2768726
-2.0115333 -0.77549738 4.6994071 1388620
-1.9749942 -0.77619714 4.6973515 1454156
-1.9254589 -0.77601713 4.6945729 1586255
-1.8757212 -0.77555585 4.691783 1849426
-1.8240559 -0.77507669 4.6888852 1915218
-1.7744372 -0.77461672 4.686101 1914962
-1.7248795 -0.77415699 4.6833205 1914962
-1.6753788 -0.77369839 4.6805444 1914962
-1.6264492 -0.77424818 4.6777949 1914705
-1.5742193 -0.77621102 4.6748552 1914705
-1.5252532 -0.77617449 4.6721044 2045777
-1.4759903 -0.77571541 4.6693439 2046034
-1.424818 -0.77523851 4.666472 2177362
-1.3737081 -0.77476215 4.6636052 2374740
-1.3246233 -0.77430469 4.660852 2571605
-1.2859001 -0.77455741 4.6675696 2703190
-2.0099475 -0.72746366 4.6995058 1388364
-1.9753418 -0.72591263 4.6975713 1256266
-1.9255416 -0.72548097 4.6947761 1454413
-1.8758018 -0.72504979 4.6919861 1718097
-1.8241348 -0.72460192 4.6890864 1783634
-1.7745135 -0.72417158 4.6863031 1783634
-1.7249538 -0.72374177 4.6835227 1849426
-1.6758667 -0.72392815 4.6807661 1849426
-1.6254942 -0.72589773 4.6779308 1915219
-1.5746436 -0.72631025 4.6750755 2046547
-1.5253189 -0.72588027 4.6723089 2112083
-1.4760536 -0.72545075 4.6695442 2177876
-1.4248791 -0.72500479 4.6666727 2177876
-1.3737673 -0.72455943 4.6638045 2309204
-1.3246802 -0.72413146 4.6610518 2374740
-1.2859861 -0.72432947 4.6678853 2440276
-2.0083902 -0.67742425 4.699615 1454413
-1.975427 -0.67534208 4.697773 1454157
-1.925625 -0.67494023 4.6949782 1520463
-1.8758826 -0.67453927 4.6921887 1652561
-1.8242131 -0.67412263 4.6892891 1783890
-1.7745913 -0.67372233 4.6865058 1849426
-1.7255104 -0.67403573 4.6837482 1849426
-1.6750913 -0.67553866 4.6809125 1849426
-1.626072 -0.67639822 4.6781569 1980755
-1.5747113 -0.67598176 4.6752753 1980755
-1.5253843 -0.67558146 4.6725082 2046291
-1.4761173 -0.67518175 4.6697431 1980498
-1.4249402 -0.67476684 4.6668725 2046034
-1.3738263 -0.67435223 4.6640053 2177619
-1.3247374 -0.67395395 4.661252 2243411
-1.2860729 -0.67409468 4.668201 2374740
-2.0066864 -0.62747657 4.6997156 1257292
-1.9755124 -0.62476695 4.6979752 1257036
-1.9257081 -0.62439543 4.6951828 1257292
-1.8759643 -0.62402409 4.6923914 1388621
-1.8242917 -0.62363887 4.6894913 1454414
-1.7751319 -0.62436581 4.6867304 1520206
-1.7246062 -0.62561727 4.6838889 1585999
-1.6755899 -0.62640589 4.6811337 1586255
-1.6261425 -0.62603492 4.678359 1651791
-1.5747787 -0.6256488 4.675478 1651792
-1.5254501 -0.62527841 4.6727071 1783119
-1.4761807 -0.62490875 4.6699457 1848913
-1.4250014 -0.62452447 4.6670723 2046034
-1.3738854 -0.6241408 4.664207 2046034
-1.3247939 -0.6237722 4.6614513 2111826
-1.2862184 -0.62406039 4.6683664 2177619
-2.0050266 -0.57809657 4.6998162 1190987
-1.975598 -0.57418776 4.6981797 1191243
-1.9257925 -0.57384616 4.6953845 1323341
-1.8760452 -0.5735051 4.6925936 1256779
-1.82452 -0.57493287 4.6896949 1388621
-1.7742798 -0.57591742 4.686872 1520206
-1.7251716 -0.57634968 4.6841125 1520206
-1.6756619 -0.57600802 4.681335 1585999
-1.6262126 -0.57566649 4.6785617 1520206
-1.5748464 -0.5753119 4.6756787 1585999
-1.5255154 -0.57497132 4.6729116 1651791
-1.4762437 -0.57463139 4.6701455 1717327
-1.4250628 -0.57427782 4.667274 1651277
-1.3739448 -0.57392478 4.6644058 1585228
-1.3248508 -0.57358593 4.6616516 1651021
-1.2862449 -0.57403624 4.6688251 1848400
-2.0035896 -0.52961743 4.6999259 1257292
-1.9756837 -0.52360398 4.6983819 1191756
-1.925444 -0.52412856 4.69556 1323084
-1.875332 -0.52537036 4.6927433 1323341
-1.824302 -0.52640277 4.6898742 1323085
-1.7748151 -0.52622986 4.6870966 1388621
-1.725246 -0.52591753 4.6843152 1454670
-1.67448 -0.52512509 4.681469 1520719
-1.6251028 -0.52576804 4.6786942 1520463
-1.5749143 -0.52497053 4.675879 1520463
-1.5255812 -0.52465963 4.673111 1585999
-1.4763074 -0.52434933 4.6703453 1585998
-1.4251237 -0.52402675 4.6674752 1519693
-1.3740032 -0.52370483 4.6646056 1585741
-1.3249077 -0.52339542 4.6618519 1585484
-1.2863533 -0.52398628 4.6692219 1716814
-1.9756111 -0.47509888 4.6985688 1323085
-1.9235276 -0.4760443 4.6956415 1323085
-1.8742118 -0.47632927 4.6928725 1323085
-1.8245225 -0.476046 4.6900835 1388621
-1.7748908 -0.47576338 4.6872983 1389134
-1.7253201 -0.47548094 4.6845174 1454670
-1.6738274 -0.47518754 4.6816268 1454670
-1.6243751 -0.47490618 4.6788526 1388878
-1.574982 -0.4746249 4.6760812 1388621
-1.5242496 -0.47391385 4.6732349 1454670
-1.4750406 -0.47449079 4.6704712 1520206
-1.4251856 -0.47377148 4.6676745 1520206
-1.3740623 -0.4734804 4.6648064 1520206
-1.3253771 -0.4738124 4.6620722 1585998
-1.2862272 -0.47502503 4.6695137 1651535
-1.9738543 -0.42630509 4.6986628 1455183
-1.9240439 -0.42605162 4.6958671 1455183
-1.8742929 -0.42579827 4.6930747 1520976
-1.8246014 -0.42554519 4.6902857 1520719
-1.7749674 -0.42529264 4.6875005 1520976
-1.7253945 -0.42504016 4.68472 1586768
-1.6738997 -0.42477801 4.6818295 1586769
-1.6244453 -0.42452607 4.6790543 1586768
-1.5750501 -0.4242745 4.6762815 1652305
-1.5237409 -0.42401341 4.6734047 1652305
-1.4744642 -0.4237625 4.6706381 1718097
-1.4252462 -0.42351198 4.6678753 1718097
-1.374476 -0.42367217 4.6650252 1718097
-1.3245941 -0.42560855 4.6622176 1849169
-1.2865474 -0.42605051 4.6698065 1849169
-1.9719458 -0.37570077 4.698751 1323341
-1.9241267 -0.37548628 4.6960711 1389133
-1.874374 -0.37526298 4.6932783 1389134
-1.82468 -0.37504002 4.6904883 1389134
-1.7750446 -0.37481722 4.6877036 1454926
-1.7254689 -0.37459487 4.6849208 1520462
-1.6739717 -0.37436375 4.6820312 1586511
-1.6245157 -0.3741419 4.679255 1586512
-1.5751182 -0.3739202 4.6764836 1586255
-1.5238062 -0.37368992 4.6736035 1586512
-1.4745272 -0.37346891 4.6708384 1652304
-1.4257365 -0.3738122 4.6680984 1718097
-1.3738072 -0.37542289 4.6651769 1652304
-1.3250738 -0.37666014 4.6624351 1783633
-1.2865864 -0.37598196 4.6700697 1783633
-1.9703686 -0.32542032 4.6988611 1323084
-1.9242108 -0.32491657 4.6962724 1323341
-1.8744546 -0.32472342 4.6934795 1389134
-1.8247585 -0.32453045 4.6906915 1389134
-1.7751209 -0.32433766 4.6879058 1454926
-1.7255435 -0.32414517 4.685123 1454926
-1.6740439 -0.32394534 4.6822333 1454670
-1.6245855 -0.32375321 4.6794567 1323341
-1.5751859 -0.32356146 4.6766849 1323341
-1.5238718 -0.32336226 4.6738048 1454670
-1.4749513 -0.32459363 4.6710539 1454670
-1.4249226 -0.3255398 4.6682425 1454670
-1.3742349 -0.32664579 4.6653919 1454670
-1.3251307 -0.32645282 4.6626358 1520462
-1.287285 -0.32639217 4.667901 1454927
-1.9686257 -0.2749747 4.6989608 1389132
-1.9242939 -0.27434266 4.696476 1388876
-1.8745354 -0.27417952 4.6936836 1520461
-1.8248376 -0.27401656 4.6908937 1520718
-1.7751975 -0.27385387 4.6881084 1520718
-1.7256174 -0.27369127 4.6853261 1520718
-1.6741165 -0.27352253 4.6824346 1586254
-1.6246548 -0.27336031 4.6796598 1520718
-1.5755267 -0.27481753 4.6768951 1586255
-1.5239352 -0.27496606 4.6739993 1586511
-1.4743024 -0.27628154 4.6712084 1520975
-1.4254252 -0.27657443 4.6684623 1520718
-1.3742942 -0.27640441 4.6655931 1454926
-1.3251878 -0.27624124 4.6628366 1520462
-1.2877419 -0.27576381 4.6668673 1455182
-1.9668831 -0.22452685 4.6990609 1586254
-1.9243771 -0.22376426 4.6966786 1520717
-1.8746172 -0.22363125 4.6938863 1586254
-1.8249167 -0.2234983 4.6910963 1586510
-1.7752746 -0.22336555 4.6883101 1652303
-1.7258412 -0.22501343 4.6855292 1652303
-1.6741859 -0.22503483 4.6826291 1652303
-1.6247225 -0.22490144 4.6798534 1652303
-1.5750561 -0.22642632 4.6770597 1652303
-1.523998 -0.22656575 4.6741905 1652304
-1.4747132 -0.22643182 4.6714253 1717839
-1.4254869 -0.22629784 4.668663 1652303
-1.3743529 -0.22615868 4.6657934 1652303
-1.3252447 -0.22602516 4.6630368 1652303
-1.2877557 -0.22574411 4.6672583 1717839
-1.9653693 -0.17599148 4.6991677 1454925
-1.9244568 -0.17512719 4.6968741 1520717
-1.8746948 -0.17502296 4.6940818 1520461
-1.8249927 -0.17491893 4.6912918 1520461
-1.7753481 -0.17481512 4.6885052 1454925
-1.725619 -0.17651331 4.6857071 1454925
-1.674255 -0.1765433 4.6828237 1520461
-1.6247896 -0.17643858 4.6800466 1520205
-1.5753841 -0.17633405 4.6772738 1520205
-1.5240639 -0.17622545 4.6743937 1520461
-1.4747765 -0.17612115 4.6716261 1520461
-1.4255474 -0.17601697 4.6688638 1520205
-1.3744119 -0.17590879 4.6659937 1520205
-1.3253016 -0.17580491 4.6632371 1520205
-1.2879095 -0.17573303 4.6673393 1520461
-1.9636918 -0.12745066 4.699264 1192011
-1.9245367 -0.12648591 4.6970682 1257547
-1.8747724 -0.12641071 4.6942782 1323339
-1.8250679 -0.12633558 4.6914873 1323083
-1.7754217 -0.12626047 4.6886997 1257290
-1.725836 -0.12618555 4.6859169 1257547
-1.6743273 -0.12610772 4.6830258 1322827
-1.6248599 -0.12603286 4.6802468 1322827
-1.5754514 -0.12595828 4.677475 1257290
-1.5241293 -0.12588066 4.6745949 1190985
-1.4748394 -0.12580618 4.6718283 1190985
-1.4256092 -0.1257318 4.6690636 1190985
-1.3744709 -0.1256545 4.666194 1256777
-1.3253585 -0.12558024 4.6634378 1191242
-1.2879179 -0.12569889 4.6678472 1191241
-1.9619395 -0.076875791 4.6993632 1323596
-1.9246202 -0.075894743 4.6972728 1323596
-1.8748533 -0.07584963 4.6944799 1258060
-1.8251472 -0.075804539 4.691689 1323340
-1.7754983 -0.0757595 4.6889029 1389389
-1.7259101 -0.075714543 4.6861176 1389389
-1.6743995 -0.075667828 4.6832266 1454925
-1.6249298 -0.075622953 4.6804504 1455181
-1.5755198 -0.075578123 4.6776772 1388875
-1.5241947 -0.07553158 4.6747942 1059399
-1.4749035 -0.075486884 4.6720285 1059656
-1.4256699 -0.075442232 4.6692653 1125448
-1.3745302 -0.075395852 4.6663947 1125705
-1.3254154 -0.075351313 4.6636381 1125705
-1.287999 -0.075424053 4.6681447 1191498
-1.9601839 -0.0262521 4.6994629 1257547
-1.924703 -0.025299231 4.6974759 1257803
-1.874935 -0.025284182 4.6946816 1257803
-1.8252261 -0.025269156 4.6918921 1323340
-1.7755753 -0.025254142 4.6891031 1323339
-1.7259843 -0.025239145 4.6863213 1389132
-1.6744717 -0.025223568 4.6834288 1520460
-1.6249999 -0.025208613 4.6806521 1520461
-1.5755875 -0.02519368 4.6778784 1388875
-1.5242605 -0.025178162 4.6749978 1059399
-1.4749664 -0.025163263 4.6722298 1059400
-1.4257321 -0.025148371 4.6694674 1059656
-1.3745891 -0.025132909 4.666595 1125449
-1.3254724 -0.025118057 4.663837 1125449
-1.288081 -0.02514277 4.6684418 1125449
-1.9585441 0.024852725 4.6995726 1257803
-1.9247862 0.02530068 4.697679 1323595
-1.8750162 0.025285631 4.6948857 1323595
-1.8253042 0.0252706 4.6920948 1389131
-1.7756518 0.025255587 4.6893072 1389131
-1.7260587 0.025240591 4.6865225 1257290
-1.674544 0.025225025 4.6836305 1454667
-1.6250702 0.02521006 4.6808548 1454667
-1.5756558 0.025195122 4.6780796 1257546
-1.524326 0.025179598 4.6751986 1059399
-1.4750299 0.025164694 4.6724319 1059399
-1.4257933 0.025149807 4.6696658 1059399
-1.3746483 0.025134349 4.6667948 1059399
-1.3242847 0.025590263 4.6639695 1125191
-1.2871749 0.024342785 4.6692467 1059399
-3.2846606 0.087616913 4.6997313 10197915
-2.274739 0.090604253 4.6531634 1059911
-2.2254596 0.090717115 4.6589594 1059142
-2.1760552 0.090830259 4.6647706 1059654
-2.1246917 0.090947881 4.6708112 1125704
-2.0750372 0.091061607 4.676652 1257289
-2.0252566 0.091175616 4.6825075 1191752
-1.9623697 0.07650096 4.6962409 1190984
-1.9249034 0.072140247 4.6975069 1125191
-1.8750906 0.071969286 4.6950727 1059399
-1.8253773 0.071926512 4.6922817 1191240
-1.7757226 0.071883768 4.6894937 1257290
-1.7261271 0.071841083 4.6867099 1191497
-1.6746101 0.07179676 4.6838174 1257546
-1.6251347 0.071754187 4.6810398 1191241
-1.5757182 0.071711697 4.6782656 1125191
-1.5243864 0.071667485 4.6753826 1059143
-1.4750888 0.071625091 4.6726155 1059142
-1.4258503 0.07158269 4.6698508 1125191
-1.3747026 0.071538679 4.6669812 1190984
-1.3236183 0.071494699 4.6641135 1191241
-1.2865496 0.071583509 4.6699009 1257290
-0.90554118 0.094407491 4.650589 1323595
-0.87535393 0.094477139 4.6540213 1323339
-0.82432169 0.094594866 4.6598191 1257803
-0.77505839 0.094708495 4.6654162 1455180
-0.72567654 0.094822392 4.6710272 1389388
-0.67617583 0.094936565 4.676652 1389900
-0.62655568 0.095051013 4.6822896 1455180
-0.57681578 0.095165737 4.6879416 1455180
-0.5250349 0.09528517 4.6938248 1389643
-0.48467585 0.095378265 4.69841 1455179
-2.455457 -2.1055152 4.7188945 2039583
-2.4252651 -2.1047606 4.7172031 2039583
-2.3765318 -2.105042 4.7144666 2039583
-2.324769 -2.1041968 4.711565 2039583
-2.2746303 -2.1029577 4.7087913 2039583
-2.229069 -2.102762 4.7064118 2039583
-2.1745768 -2.1024787 4.7033544 2039583
-2.1325889 -2.1014266 4.7010016 2039583
-2.4555223 -2.0742908 4.7190208 2039583
-2.4258192 -2.0742733 4.7173538 2039583
-2.3747842 -2.0758979 4.7144833 2039583
-2.3248267 -2.0749693 4.7116838 2039583
-2.2748287 -2.0739019 4.7089152 2039583
-2.2241814 -2.0757601 4.7062435 2039583
-2.1746273 -2.0752468 4.7034631 2039583
-2.1316652 -2.0735211 4.7010593 2039583
-2.4556296 -2.0235476 4.7192264 2039583
-2.4249301 -2.0255492 4.717495 2039583
-2.3751471 -2.0255144 4.7147002 2039583
-2.3249288 -2.0243053 4.7118878 2039583
-2.2749994 -2.0247245 4.7091203 2039583
-2.2247648 -2.0258784 4.7064724 2039583
-2.1747208 -2.0246713 4.7036681 2039583
-2.1303098 -2.023541 4.7011786 2039583
-2.4557316 -1.9747521 4.7194233 2039583
-2.4255323 -1.9759959 4.7177229 2039583
-2.3752508 -1.9748157 4.7149057 2039583
-2.3254662 -1.9742136 4.7121139 2039583
-2.274524 -1.9759039 4.7092834 2039583
-2.2248602 -1.9752682 4.7066774 2039583
-2.1748161 -1.9740915 4.7038713 2039583
-2.1283932 -1.974846 4.701263 2039583
-2.4558344 -1.9259529 4.7196202 2039583
-2.4256375 -1.9252622 4.7179279 2039583
-2.3753536 -1.9241117 4.7151098 2039583
-2.3249519 -1.9252225 4.7122774 2039583
-2.2749751 -1.9257275 4.709506 2039583
-2.2249579 -1.9246538 4.7068801 2039583
-2.1753299 -1.9241318 4.7040958 2039583
-2.1264884 -1.925836 4.7013469 2039583
-1.2639751 -1.9061904 4.7222881 2039583
-1.2244054 -1.9067887 4.7212124 2039583
-1.1748667 -1.9066688 4.725378 2039583
-1.1248597 -1.9065261 4.7244539 2039583
-1.0760877 -1.9063985 4.7262683 2039583
-1.0250391 -1.9062678 4.7288818 2039583
-0.97441721 -1.9061266 4.7286835 2039583
-0.92458975 -1.9059873 4.7283368 2039583
-0.87515932 -1.9058484 4.7278414 2039583
-0.82496059 -1.9057093 4.7277994 2039583
-0.77476043 -1.9055667 4.7269897 2039583
-0.72457331 -1.9054278 4.7269487 2039583
-0.67477906 -1.9052887 4.7267585 2039583
-0.62539464 -1.9051497 4.7261047 2039583
-0.57522333 -1.9050095 4.7259116 2039583
-0.52467072 -1.904868 4.7255616 2039583
-0.47451517 -1.9047272 4.72506 2039583
-0.42476511 -1.9045887 4.7248659 2039583
-0.37501734 -1.9044501 4.7246766 2039583
-0.33546865 -1.9043353 4.723453 2039583
-2.455941 -1.8751969 4.7198253 2039583
-2.4257431 -1.8745244 4.718133 2039583
