# .PCD v0.7 - Point Cloud Data file format
VERSION 0.7
FIELDS x y z rgb
SIZE 4 4 4 4
TYPE F F F U
COUNT 1 1 1 1
WIDTH 1168
HEIGHT 1
VIEWPOINT 0 0 0 1 0 0 0
POINTS 1168
DATA ascii
-0.28080115 -0.024814239 1.7113639 2513808
-0.23321345 -0.024968674 1.7220036 1390167
-0.30063418 0.024994049 1.7236689 1987209
-0.28084847 0.02481984 1.7116551 2250893
-0.23324239 0.024972776 1.7222152 1258582
-0.30068552 0.074993536 1.7239631 4154251
-0.28023043 0.075052708 1.7115438 3628940
-0.23339958 0.074984983 1.7222168 1783639
-1.3066987 0.10680094 1.7301606 10197915
-1.2742764 0.10683847 1.7196376 10197915
-1.2251631 0.106815 1.7187563 10197915
-1.1753838 0.10678787 1.7184862 8227222
-1.1252685 0.10676139 1.7180598 1324378
-1.0884588 0.10676069 1.7142316 861506
-0.91979152 0.10657225 1.7314025 8883604
-0.87499481 0.10657303 1.7264359 2247548
-0.82892376 0.10656769 1.7224852 1059656
-0.71904731 0.10647137 1.7287185 8358292
-0.6752454 0.10646643 1.7249324 2047586
-0.63445455 0.10646657 1.7205249 8159622
-0.55501264 0.10632419 1.7386558 10000536
-0.52480108 0.10638701 1.7236437 9672086
-0.47494149 0.1063617 1.7230183 10132122
-0.42486471 0.1063353 1.7225844 10197915
-0.37481764 0.10630884 1.7221617 10197915
-0.32450822 0.10615557 1.721209 10197915
-0.28106031 0.1038245 1.7098997 10197915
-0.22867657 0.10408368 1.7232441 10197915
-0.17500095 0.10614572 1.7312376 10197915
-0.12476357 0.10611923 1.7308049 10197915
-0.074910596 0.10609373 1.7302201 10197915
-0.025085412 0.1060666 1.7299467 10197915
0.025077069 0.10604011 1.7295148 10197915
0.07485272 0.10601466 1.7289305 10197915
0.12460676 0.10598756 1.728658 10197915
0.17504974 0.10596175 1.7280724 10197915
0.22546783 0.10593433 1.7277895 10197915
0.27514699 0.10590894 1.7272061 10197915
0.32479909 0.10588189 1.7269343 10197915
0.37478709 0.1058555 1.726504 10197915
0.42510256 0.10582975 1.7259197 10197915
0.47539705 0.10580239 1.7256376 10197915
0.52495068 0.10577705 1.7250556 10197915
0.57484013 0.10575069 1.7246305 10197915
0.62505245 0.10572339 1.7243491 7039851
0.67489082 0.10569708 1.7239201 6447714
0.72505981 0.1056714 1.7233371 6447714
0.75983483 0.10563622 1.7261872 6447714
-1.4032743 -0.60321188 1.7981137 6447714
-1.3702635 -0.60311496 1.7794446 6447714
-1.3249689 -0.60309464 1.7753195 6447714
-1.2749585 -0.60309547 1.7752707 6447714
-1.2251344 -0.6030978 1.7752771 6447714
-1.1752436 -0.60309851 1.7753723 4605253
-1.1326438 -0.60307497 1.7707417 5385260
-0.95976019 -0.60314858 1.7837037 4329231
-0.92506772 -0.60310537 1.7753396 4539483
-0.8750568 -0.60310477 1.7753191 3035249
-0.82498258 -0.60310835 1.7753483 2635081
-0.77497125 -0.60310942 1.7753311 4263696
-0.72495878 -0.60310996 1.7752707 4329231
-0.67500794 -0.60311186 1.7754055 4329231
-0.62475085 -0.60311192 1.7752897 4329231
-0.57473397 -0.60311407 1.7752844 6171435
-0.52502948 -0.60311705 1.7754864 6566193
-0.47507748 -0.60311663 1.77526 6566193
-0.42512515 -0.60312009 1.7754198 6566193
-0.37504953 -0.60311919 1.7753454 6566193
-0.33082888 -0.60311514 1.7743033 6503484
-1.3355428 -0.31173167 1.7850614 2039583
-0.91091061 -0.31196427 1.7890248 3367830
-0.87397599 -0.3118788 1.7668132 1720170
-0.8472361 -0.3109076 1.7507358 1454926
-0.41272065 -0.31199697 1.7696868 6447714
-0.39746854 -0.31261075 1.7950448 6447714
-1.3550881 -0.29350182 1.7907612 2039583
-1.336869 -0.29618999 1.7851996 2039583
-0.91105753 -0.27501661 1.7893132 3302807
-0.88040805 -0.27695221 1.7830372 1786217
-0.84045333 -0.29415461 1.764738 1651277
-0.75612569 -0.29390934 1.7858024 4802889
-0.7248652 -0.29386094 1.77364 3953514
-0.6750713 -0.29388148 1.7733083 3425880
-0.64314914 -0.29385594 1.7655342 6184542
-0.56195611 -0.29395217 1.7772064 6381921
-0.52494603 -0.29395118 1.7737907 2565927
-0.47513598 -0.29397455 1.7740002 2565927
-0.42332003 -0.29512188 1.7744727 6316128
-0.39784411 -0.29671073 1.7949796 6447714
-0.91122109 -0.2249272 1.7896811 3040150
-0.88341808 -0.2250824 1.7859651 1918317
-0.91049099 -0.17513457 1.7895117 2842773
-0.88392609 -0.17520875 1.7855816 1852781
-0.91064763 -0.12479261 1.7898761 2711700
-0.88405704 -0.12512307 1.7857517 1853037
-0.91071016 -0.075132534 1.7901819 2448016
-0.88421381 -0.075211659 1.7858579 1720938
-0.91097438 -0.02522127 1.7906122 2185101
-0.88423479 -0.025158675 1.786134 1655402
-0.9111743 0.025228633 1.791005 1986953
-0.88433033 0.025162239 1.7863239 1655144
-0.91132003 0.075108536 1.7913607 2250892
-0.88450378 0.07520473 1.7864296 1390947
-1.3573318 0.10647199 1.7972022 10132122
-1.3220017 0.10655444 1.7779647 10197915
-1.2749285 0.10655148 1.7734603 10197915
-1.2249024 0.10652274 1.7734649 9343897
-1.1749016 0.1064976 1.7728028 2508910
-1.1301572 0.10650361 1.7668672 993348
-1.0998377 0.10657623 1.7500104 794171
-0.95946127 0.10630298 1.7860936 8817551
-0.92063123 0.10488472 1.7851481 4089229
-0.87970316 0.1042809 1.7837725 1258332
-0.84176123 0.10628547 1.776726 1125703
-0.7561639 0.1061835 1.7866224 9934743
-0.72533566 0.10620079 1.7800702 5401738
-0.6753847 0.10617357 1.7797984 3820383
-0.6442526 0.10618313 1.7746626 10000536
-0.56218189 0.10610418 1.7806276 3958161
-0.52531612 0.10609454 1.7784734 5070191
-0.4750976 0.10606985 1.7776966 10000536
-0.42490876 0.10604164 1.7775869 10197915
-0.37473789 0.10601523 1.7771437 10197915
-0.33007157 0.10599512 1.7761086 10197915
-0.21190225 0.10592569 1.7764132 10197915
-0.17504519 0.10591005 1.7753807 10197915
-0.12500164 0.10588545 1.7746058 10197915
-0.074986622 0.10585732 1.7744972 10197915
-0.024990022 0.105831 1.7740556 10197915
0.02498173 0.10580469 1.7736144 10197915
0.075291775 0.10577905 1.7730064 10197915
0.12521522 0.10575278 1.7725607 10197915
0.17473856 0.1057258 1.7722919 10197915
0.22461104 0.10569954 1.7718518 10197915
0.27482399 0.10567396 1.7712448 10197915
0.32500955 0.10564666 1.7709652 10197915
0.3748073 0.10562042 1.7705257 10197915
0.4249419 0.10559489 1.7699196 10197915
0.47505563 0.10556761 1.7696403 10197915
0.5251413 0.1055421 1.7690349 10197915
0.57520366 0.10551486 1.7687562 10197915
0.6252408 0.10548938 1.7681509 8158332
0.67525172 0.10546216 1.7678728 6447714
0.72487557 0.10543603 1.7674345 6447714
0.76896632 0.10540588 1.7683448 6447714
-1.4156982 -0.60337919 1.8300147 6447714
-1.3750128 -0.60335517 1.8250157 6447714
-1.3250378 -0.60335648 1.8250695 6447714
-1.2749867 -0.60335624 1.8250587 6447714
-1.2251626 -0.60335785 1.8250693 5855577
-1.176478 -0.60335267 1.8237823 4336170
-1.1446327 -0.60328025 1.809841 6500400
-1.0013633 -0.60346657 1.8446232 4329231
-0.97127771 -0.60337526 1.8271312 4200221
-0.92485976 -0.6033659 1.8250823 4352145
-0.87495738 -0.60336769 1.8250531 2637397
-0.82505786 -0.60336846 1.8250633 3153706
-0.77500474 -0.60336989 1.8250664 4329231
-0.72502923 -0.60337096 1.8250335 4329231
-0.67497569 -0.60337383 1.8251519 4329231
-0.6247741 -0.60337466 1.8250314 4723989
-0.57471734 -0.60337704 1.8251166 6566193
-0.52496719 -0.60337651 1.8250371 6566193
-0.47499093 -0.60337907 1.8251024 6566193
-0.42493558 -0.60338074 1.8251929 6566193
-0.37870845 -0.60335279 1.8197591 6566193
-0.33992589 -0.60329366 1.8083174 6566193
-1.3133943 -0.31188515 1.822024 2039583
-1.2998046 -0.31062093 1.8447102 2039583
-0.37976643 -0.31203228 1.8244828 6447714
-1.3637035 -0.28593197 1.8271128 2039583
-1.3171735 -0.27559891 1.8246589 2039583
-1.299578 -0.27481881 1.8452488 2039583
-0.86900097 -0.27680364 1.8093756 1585998
-0.84899426 -0.29396895 1.8055375 1585740
-0.76496542 -0.29412034 1.8277107 6185317
-0.72495359 -0.2941249 1.8251139 4021371
-0.67859149 -0.29413772 1.8235631 4739418
-0.57033443 -0.29420355 1.8269491 5395026
-0.52520478 -0.29421732 1.8256876 2039583
-0.4750194 -0.2942408 1.8258895 2039583
-0.42497981 -0.29426271 1.8257984 4210752
-0.38336474 -0.2959955 1.8268197 6447714
-1.3518552 -0.22530794 1.8311334 2700610
-1.316687 -0.22481999 1.8261442 1974565
-1.2995114 -0.22944258 1.8455627 2039583
-0.86987877 -0.22503117 1.8054498 1652047
-1.3522314 -0.17528805 1.8316427 2965332
-1.3166759 -0.17500681 1.8265339 1975081
-1.2993761 -0.17513639 1.8460313 2039583
-0.87033468 -0.17461997 1.8049126 1454926
-1.3521416 -0.12935057 1.8318497 2374225
-1.3168461 -0.12494648 1.8267035 1909545
-1.299449 -0.12466731 1.8461349 2039583
-0.87042862 -0.12497456 1.8049736 1586254
-1.3516234 -0.075131193 1.8318477 1651277
-1.3169886 -0.074932709 1.8269305 1843496
-1.2995207 -0.074957438 1.8462371 2039583
-0.87046587 -0.074874975 1.8051319 1322827
-1.3519994 -0.025049925 1.8323575 1190984
-1.3171018 -0.024980294 1.8272167 1843752
-1.2995927 -0.025242001 1.8463392 2039583
-0.87054628 -0.024775477 1.8052176 1191241
-1.3523759 0.025059223 1.832868 1059655
-1.3172647 0.024984337 1.8274373 1777960
-1.2996659 0.025243891 1.8464429 2039583
-0.87060422 0.024777671 1.8053384 1125448
-1.3517878 0.079055339 1.8328223 4083297
-1.3169894 0.074783772 1.8275398 5856353
-1.299392 0.075370543 1.8471246 6645093
-0.87064141 0.074890688 1.8054962 1125447
-1.3708109 0.1058395 1.8336097 10000536
-1.3178074 0.10352101 1.8265195 10000536
-1.2775394 0.10584067 1.8334635 10132122
-1.2248776 0.10621474 1.8311626 3627391
-1.1766491 0.10619365 1.8299283 1059398
-1.1459951 0.10623624 1.8186586 860734
-0.97189844 0.10607169 1.8307641 2243674
-0.94243389 0.10609727 1.8228072 2248837
-0.86885738 0.10442591 1.8152126 1125447
-0.76533413 0.10596082 1.8293283 9343638
-0.72539318 0.10595226 1.8266374 2245997
-0.67848039 0.10593322 1.8251605 6450038
-0.56924152 0.10586299 1.8265772 2641787
-0.52507466 0.10584699 1.8248229 6515831
-0.47543722 0.10581993 1.8245564 10000536
-0.42506468 0.10579441 1.8239223 10132122
-0.37472117 0.105767 1.823644 10197915
-0.33416346 0.10575035 1.8224039 10197915
-0.21479717 0.10568134 1.8225008 10197915
-0.17510149 0.1056621 1.8218358 10197915
-0.12525597 0.10563591 1.8213838 10197915
-0.075058602 0.10561049 1.820751 10197915
-0.024889652 0.10558318 1.8204746 10197915
0.024881436 0.10555701 1.8200234 10197915
0.07500045 0.10553163 1.8193918 10197915
0.12509793 0.10550436 1.8191154 10197915
0.17516838 0.10547899 1.8184844 10197915
0.22521442 0.10545174 1.8182082 10197915
0.27523646 0.10542639 1.8175774 10197915
0.32523119 0.10539918 1.817302 10197915
0.37482899 0.10537312 1.8168528 10197915
0.4247731 0.10534783 1.8162228 10197915
0.47507358 0.1053214 1.8157672 10197915
0.52496582 0.10529424 1.8154923 10197915
0.57484293 0.10526896 1.8148631 10197915
0.62506044 0.10524068 1.8147624 9342606
0.67525566 0.1052162 1.8139534 6447714
0.72681957 0.10513817 1.8230234 6447714
0.77476096 0.10509978 1.82506 6447714
0.80944264 0.10501376 1.8374442 6447714
-1.4612511 -0.60365468 1.8828249 6447714
-1.4249099 -0.60360324 1.8727642 6447714
-1.3750226 -0.60360396 1.8726695 6447714
-1.3249832 -0.60360545 1.8727285 6447714
-1.2750224 -0.60360706 1.8727767 6381921
-1.2247519 -0.60360837 1.8726488 3945267
-1.1874318 -0.60357726 1.866618 6237999
-1.0106283 -0.60364491 1.8786541 4329231
-0.97501624 -0.60361457 1.8727475 4474206
-0.92497659 -0.6036166 1.872776 2903923
-0.87493479 -0.60361743 1.8727424 2570574
-0.82497114 -0.60361844 1.8728086 4133138
-0.7750085 -0.60362101 1.8726875 4329231
-0.7249667 -0.60362053 1.8727447 4329231
-0.67500216 -0.60362363 1.8728691 4329231
-0.62488502 -0.60362464 1.8726926 5381919
-0.57491761 -0.60362577 1.8728812 6566193
-0.52495331 -0.60362631 1.8727086 6566193
-0.47644538 -0.60361886 1.8709168 6566193
-0.43200332 -0.60355997 1.8595184 6566193
-0.35717574 -0.31218997 1.8620435 6447714
-0.34178343 -0.31233761 1.8876365 6447714
-1.4141442 -0.29394469 1.8792425 2039583
-1.388695 -0.29386973 1.8627278 2039583
-0.87862736 -0.29421705 1.8564898 1585740
-0.8033551 -0.29443204 1.8918334 6447714
-0.77367729 -0.2943615 1.8754885 5859962
-0.72515392 -0.29438058 1.8749621 3033185
-0.68751591 -0.29438138 1.8718365 6119265
-0.60392028 -0.29448915 1.8855535 3167871
-0.57491463 -0.2944501 1.875405 3164259
-0.52507585 -0.29447252 1.8754253 1974047
-0.47507781 -0.29449597 1.8756355 2039583
-0.42507067 -0.29451814 1.875592 2236962
-0.37201691 -0.29516751 1.8735918 6052956
-0.34242013 -0.29668137 1.8888799 6447714
-1.4161835 0.10602878 1.8865457 10000536
-1.390885 0.10609589 1.8712609 10000536
-1.3127373 0.10596813 1.8867846 9934743
-1.2752458 0.10597847 1.8808194 6519185
-1.2250655 0.10595214 1.8803592 1192274
-1.1885012 0.10596004 1.8749515 927298
-1.010957 0.10581464 1.8831035 1388881
-0.98102158 0.10583608 1.875867 1653603
-0.90288347 0.10571489 1.8901663 1191753
-0.88793302 0.105784 1.8756156 1125960
-0.80303556 0.10566257 1.8892308 10000536
-0.77387094 0.10571127 1.8769752 6716049
-0.72467351 0.10568984 1.8757041 1783126
-0.68643761 0.10568137 1.8731802 9606036
-0.6044203 0.10555853 1.8873703 3037321
-0.57542562 0.10561057 1.8745091 2180202
-0.52520698 0.10558529 1.8738483 8882830
-0.47501433 0.10555794 1.8735751 10132122
-0.42523244 0.10553186 1.8731115 10066329
-0.37509218 0.10550659 1.8724515 10132122
-0.3384589 0.1054933 1.8710034 10197915
-0.21785881 0.10542022 1.8717287 10132122
-0.17476511 0.10540158 1.8705879 10197915
-0.12474656 0.10537433 1.8703158 10197915
-0.074751057 0.10534917 1.8696575 10197915
-0.02478388 0.10532194 1.8693858 10197915
0.025163533 0.10529678 1.8687282 10197915
0.075079456 0.1052696 1.8684567 10197915
0.12497884 0.10524447 1.8677995 10197915
0.17484361 0.10521729 1.8675283 10197915
0.22507739 0.10519096 1.8670611 10197915
0.27528608 0.10516463 1.866594 10197915
0.32507724 0.10513957 1.8659379 10197915
0.37523741 0.10511326 1.8654715 10197915
0.42498001 0.10508617 1.8652012 10197915
0.47470519 0.10506115 1.8645459 10197915
0.52516723 0.10503366 1.8642693 10197915
0.57522595 0.10500742 1.8638034 10197915
0.62487292 0.10498241 1.863149 10197915
0.67526317 0.10495497 1.8628722 6908265
0.72152632 0.10489325 1.869459 6447714
0.77816486 0.10481258 1.8784775 6447714
0.82075745 0.10473429 1.8885635 6447714
-0.32437778 -0.76305813 1.9392618 6447714
-0.31487262 -0.74424732 1.9367048 6447714
-0.34513229 -0.65110785 1.9487058 6566193
-1.5082061 -0.60394561 1.9385227 6447714
-1.4737463 -0.60387158 1.9242357 6447714
-1.42498 -0.60386723 1.9229826 6447714
-1.3749537 -0.60386747 1.9229647 6447714
-1.3250077 -0.6038698 1.9229816 6447714
-1.2749804 -0.60387188 1.9229817 4736839
-1.2295923 -0.60385334 1.9195085 5188395
-1.1980582 -0.60375208 1.9000318 6500400
-1.0532835 -0.6039843 1.9435651 4329231
-1.0223423 -0.60388869 1.9250622 4135199
-0.97496927 -0.60387886 1.9229392 4221074
-0.92509997 -0.60387963 1.923028 2506326
-0.8750698 -0.60388124 1.9230161 2892593
-0.82488149 -0.60388154 1.9229939 4329231
-0.77493095 -0.60388345 1.9229869 4329231
-0.72498095 -0.60388488 1.9230489 4329231
-0.67495108 -0.60388798 1.9230833 4329231
-0.62492275 -0.60388744 1.9229422 6171435
-0.57530731 -0.60388619 1.9225866 6566193
-0.52938825 -0.60384059 1.9135609 6566193
-0.49312979 -0.60378504 1.9027405 6566193
-0.34470826 -0.62510133 1.9485914 6566193
-0.34443861 -0.5777024 1.9486849 6502713
-0.34391084 -0.52555287 1.9486492 6447714
-0.34396422 -0.47557384 1.9489506 6447714
-0.34401736 -0.42557934 1.9492526 6447714
-0.34341514 -0.37840772 1.9491457 6447714
-0.34320328 -0.34158817 1.9492167 6447714
-1.4614745 -0.29421166 1.9337316 2039583
-1.4316207 -0.29410937 1.9116968 2039583
-0.81184971 -0.29463264 1.9316667 6513507
-0.77497154 -0.29462618 1.9271878 4481922
-0.72519469 -0.2946482 1.927125 3424333
-0.69507647 -0.29459959 1.9150331 5855577
-0.61137861 -0.29472145 1.9314954 4221332
-0.57490402 -0.29471916 1.9278634 2242897
-0.52462357 -0.29474244 1.9280145 2039583
-0.47561944 -0.29474208 1.9236641 2039583
-0.42501321 -0.294761 1.9229311 2039583
-0.36451399 -0.28268054 1.9281286 2894892
-0.3439801 -0.27438748 1.925631 2829099
-0.35485941 -0.22508964 1.9335166 6316128
-0.3440443 -0.2247946 1.927014 6250335
-0.3549147 -0.17545295 1.9338186 6447714
-0.34360033 -0.17404296 1.9270219 6185316
-0.35497087 -0.1249997 1.9341244 6447714
-0.3433325 -0.1252429 1.9271239 6053990
-0.35502717 -0.074530624 1.9344298 6447714
-0.34333673 -0.07496085 1.9273978 5922918
-0.35508242 -0.024846988 1.934732 6447714
-0.34341544 -0.024756877 1.927716 5857126
-0.35513777 0.024852149 1.9350336 6447714
-0.34346873 0.024762001 1.9280158 5857126
-0.35519317 0.074566759 1.9353362 9408399
-0.34348047 0.07489904 1.9282928 8554638
-1.4619157 0.10575747 1.9422888 9934743
-1.4366758 0.10581884 1.9280708 9934743
-1.3592269 0.10567283 1.9471061 9934743
-1.3247889 0.10572605 1.93343 8620948
-1.2748119 0.10569993 1.9329513 1588581
-1.2307287 0.10569426 1.9292699 993348
-1.0527105 0.10551269 1.9441553 1588846
-1.0231569 0.10556073 1.9319736 1257297
-0.99291551 0.10560177 1.921033 1920645
-0.91513842 0.10550877 1.9300926 1191753
-0.89936942 0.1055747 1.9160454 992836
-0.81200743 0.1054408 1.9317398 10000536
-0.77481627 0.1054385 1.928171 3101306
-0.72471571 0.10541344 1.9274811 4937832
-0.6944676 0.10544974 1.9174255 10000536
-0.61059618 0.10533949 1.9290637 2972556
-0.57455152 0.10533381 1.9262565 2966623
-0.52494472 0.10530787 1.9257817 10197915
-0.47497025 0.10528287 1.9250932 10132122
-0.42501065 0.10525562 1.9248269 10000536
-0.37150773 0.10456343 1.926052 10000536
-0.34341222 0.10351249 1.9237406 10066329
-0.2210827 0.10514767 1.9231274 8159623
-0.17521307 0.10512502 1.9224389 10132122
-0.12500595 0.10509877 1.921959 10197915
-0.074823804 0.10507253 1.9214786 10197915
-0.02507109 0.10504764 1.9207916 10197915
0.025062755 0.10502142 1.9203134 10197915
0.074766092 0.10499433 1.9200485 10197915
0.12484845 0.10496813 1.9195697 10197915
0.17530005 0.10494289 1.9188776 10197915
0.22493295 0.10491583 1.918613 10197915
0.2745423 0.10489098 1.9179281 10197915
0.3249175 0.10486353 1.9176565 10197915
0.37527198 0.10483833 1.916966 10197915
0.42480281 0.1048113 1.9167017 10197915
0.4747107 0.10478523 1.9162245 10197915
0.52498609 0.10476006 1.9155341 10197915
0.57523787 0.10473266 1.9152632 10197915
0.62546444 0.10470753 1.9145737 10197915
0.67487395 0.10468058 1.9143106 8289918
0.7246576 0.10465454 1.9138345 6447714
0.77267945 0.10462326 1.914534 6447714
0.82508039 0.10453157 1.9260782 6447714
0.85448009 0.10451625 1.925795 6447714
-0.35800102 -0.7703405 1.9558018 6447714
-0.34998298 -0.76705277 1.9509972 6447714
-0.41539106 -0.65126818 1.9909601 6566193
-0.37502423 -0.65121824 1.9666831 6566193
-0.34829694 -0.65133953 1.950608 6566193
-1.5542737 -0.60422611 1.9922024 6447714
-1.5215032 -0.60414213 1.9760956 6447714
-1.4749428 -0.60412824 1.9732145 6447714
-1.4250786 -0.60412949 1.9732406 6447714
-1.3751225 -0.6041317 1.9732813 6447714
-1.3250772 -0.60413355 1.9732465 5921370
-1.2755326 -0.60413128 1.9729052 4073769
-1.2425637 -0.60407037 1.9608984 6500400
-1.062495 -0.60416424 1.9779117 4329231
-1.0249778 -0.60414147 1.9732909 4409957
-0.97502047 -0.60414273 1.9732984 2772338
-0.92488188 -0.60414553 1.9734006 2439760
-0.87492496 -0.60414541 1.9732679 3936789
-0.8250581 -0.60414737 1.9732913 4329231
-0.77500886 -0.60414827 1.9732757 4329231
-0.72496033 -0.60414875 1.9733585 4329231
-0.67500263 -0.60415065 1.9734015 4658196
-0.62804061 -0.60412759 1.9688109 6566193
-0.58734512 -0.60406637 1.9568567 6566193
-0.41567016 -0.62525117 1.9912679 6566193
-0.37482134 -0.62499022 1.9667016 6566193
-0.34832573 -0.62472278 1.9507689 6566193
-0.41489917 -0.57499796 1.9910765 6503741
-0.37484184 -0.57499999 1.9669862 6503741
-0.34782127 -0.5703398 1.9507591 6505026
-0.41498822 -0.52498198 1.9914 6447714
-0.37491414 -0.5249936 1.9672993 6447714
-0.3475287 -0.52452487 1.9508308 6447714
-0.41424042 -0.47482967 1.9912207 6447714
-0.37421361 -0.47513136 1.9671448 6447714
-0.34758267 -0.47448963 1.9511331 6447714
-0.4137536 -0.42540741 1.9911954 6447714
-0.37408406 -0.42503312 1.9673376 6447714
-0.34763643 -0.42443889 1.9514357 6447714
-0.41288298 -0.37676227 1.9909335 6447714
-0.37420687 -0.37504101 1.9676836 6447714
-0.34688923 -0.37356511 1.951261 6447714
-1.2588882 -0.31223944 1.9965013 1585738
-0.36634246 -0.34498385 1.9631144 6447714
-0.34669551 -0.34195587 1.951315 6447714
-1.4862136 -0.2943238 1.9571151 2039583
-1.2562671 -0.28007969 1.9950974 1388104
-0.80898106 -0.29483074 1.970037 5532030
-0.77508914 -0.29488221 1.9771129 3494769
-0.73103911 -0.29489473 1.9757026 1909802
-0.61880845 -0.29496169 1.9789749 3892107
-0.57520157 -0.29497558 1.977874 2239801
-0.5252589 -0.29499876 1.978029 2039583
-0.47419584 -0.29499558 1.9729372 2039583
-0.42495289 -0.29501644 1.9727132 2039583
-0.38347903 -0.29501963 1.9697169 2039583
-1.2553704 -0.22479221 1.9948564 1322824
-1.2556413 -0.17524332 1.9952871 1190726
-1.2559166 -0.1248466 1.9957248 1058628
-1.2559617 -0.072394751 1.996035 1125445
-1.2551337 -0.024804115 1.9957939 1125188
-1.2554046 0.024811249 1.996225 1059139
-1.2550821 0.070178114 1.9962758 1058881
-1.4790622 0.1055888 1.9757215 9934743
-1.3686336 0.10553119 1.9746432 9934743
-1.3249902 0.1055084 1.9742172 4219527
-1.272464 0.10514632 1.9762841 1059398
-1.2443392 0.10546633 1.97343 927297
-1.0628232 0.10528339 1.9881828 993608
-1.0334959 0.10529844 1.9822122 1457256
-0.95393199 0.10516437 1.9987686 1191754
-0.93789655 0.10524627 1.9817072 1191753
-0.85164803 0.10511108 1.9977556 10000536
-0.82276827 0.10516314 1.9849005 7504530
-0.77463436 0.10514612 1.982919 1258586
-0.73100686 0.10513507 1.9803013 8159623
-0.61958027 0.10505728 1.9828905 2247546
-0.57527381 0.10504218 1.9809586 5529710
-0.52549464 0.10501746 1.9802388 10066329
-0.47491914 0.10498983 1.9799718 10000536
-0.42477617 0.10496371 1.9794788 10000536
-0.38359672 0.10494975 1.9776691 10000536
-0.25002906 0.10479766 1.9917988 1124164
-0.22406514 0.1048578 1.9777433 8488330
-0.17486066 0.10483465 1.9767919 10000536
-0.1252799 0.10480755 1.9765339 10132122
-0.075311139 0.10478152 1.976043 10197915
-0.02496453 0.10475649 1.9753178 10197915
0.02495626 0.10473045 1.9748272 10197915
0.075252578 0.10470299 1.9745625 10197915
0.12512186 0.10467703 1.9740719 10197915
0.17455471 0.10465246 1.9733565 10197915
0.22478017 0.10462504 1.9730922 10197915
0.27498186 0.1046001 1.9723691 10197915
0.32515529 0.10457271 1.9721056 10197915
0.37530857 0.1045478 1.9713829 10197915
0.42543018 0.10452043 1.9711194 10197915
0.47512564 0.10449453 1.9706305 10197915
0.52479643 0.10446861 1.9701422 10197915
0.57484013 0.10444377 1.9694211 10197915
0.62487185 0.10441644 1.9691584 10197915
0.67486703 0.10439161 1.9684374 9737364
0.7248472 0.10436431 1.9681753 6447714
0.77479446 0.1043395 1.9674553 6447714
0.82472289 0.10431226 1.9671931 6447714
0.86398107 0.10427598 1.9697684 6447714
-0.50677323 -0.65142655 2.0459185 6566193
-0.47595292 -0.6512624 2.0273833 6566193
-0.44096121 -0.65124476 2.0063386 6566193
-1.5590603 -0.60436809 2.0193074 6447714
-1.5250871 -0.60439074 2.0233727 6447714
-1.4750731 -0.60439217 2.0234392 6447714
-1.4249668 -0.60439181 2.0233164 6447714
-1.3748604 -0.60439545 2.0234711 6381921
-1.3249391 -0.60439551 2.0233896 3814195
-1.2854632 -0.60437 2.0181777 6106927
-1.1046381 -0.60449088 2.04041 4329231
-1.0735042 -0.60440892 2.0247517 4135715
-1.0250369 -0.60440332 2.0234578 4090004
-0.97492886 -0.60440427 2.0234239 2374998
-0.92491263 -0.60440624 2.0234258 2631222
-0.87498963 -0.60440779 2.0234721 4329231
-0.82506645 -0.60441035 2.0234969 4526610
-0.77505046 -0.60441148 2.0233757 4329231
-0.72649181 -0.60440367 2.0216773 4329231
-0.68143129 -0.6043421 2.0098786 4723989
-0.64822936 -0.60429561 2.0008731 6566193
-0.50690299 -0.62503242 2.046139 6566193
-0.47533664 -0.62499243 2.0271554 6566193
-0.44033074 -0.62459826 2.0061038 6566193
-0.50600928 -0.57502222 2.0458713 6503998
-0.47442675 -0.57500142 2.0268764 6503741
-0.43961278 -0.5750019 2.0059392 6503741
-0.50605893 -0.52497339 2.0461717 6447714
-0.47450784 -0.52503622 2.0271959 6447714
-0.43968686 -0.52499449 2.0062537 6447714
-0.5054093 -0.47562653 2.0460467 6447714
-0.47459716 -0.47502157 2.0275202 6447714
-0.43974373 -0.47489649 2.0065591 6447714
-0.50519663 -0.42513421 2.0461922 6447714
-0.47464186 -0.42499098 2.0278165 6447714
-0.43936923 -0.4243657 2.0066059 6447714
-0.5051716 -0.39038643 2.0463641 6447714
-0.47264791 -0.38555139 2.02683 6447714
-0.43860939 -0.38047785 2.0063856 6447714
-1.3236092 -0.31267348 2.0354233 2702932
-1.2817074 -0.31243047 2.0102236 2177104
-1.3195064 -0.29666665 2.0355892 2768724
-1.2829102 -0.29616022 2.0170844 1979982
-0.76866829 -0.29510936 2.0208387 2307656
-0.73917568 -0.29512167 2.0206609 2039583
-0.65317684 -0.29524732 2.0376487 2774916
-0.62478566 -0.29519212 2.0244124 3956094
-0.57533205 -0.29521459 2.0244677 1975595
-0.52505082 -0.29523787 2.0246279 2039583
-0.47601849 -0.29525495 2.0236716 2039583
-0.43085706 -0.29522392 2.0136731 2039583
-1.5182263 0.10535624 2.0234828 9934743
-1.4894918 0.10544339 2.004072 9934743
-1.4113551 0.10528278 2.0257514 9934743
-1.374837 0.10530608 2.017462 7635859
-1.3251989 0.10528025 2.0169671 1390942
-1.2826833 0.10528258 2.0119581 993605
-1.1004585 0.1050858 2.0292315 1721470
-1.0759568 0.10509182 2.0254691 1126227
-1.0455295 0.10505722 2.0286798 2052231
-0.96108174 0.10501329 2.0278316 1191753
-0.85730767 0.10495929 2.0267889 10132122
-0.82526982 0.10494263 2.0264668 4942219
-0.77554584 0.10491677 2.0259676 2440020
-0.73932076 0.10489791 2.0256038 10197915
-0.65092075 0.10485192 2.0247154 3825543
-0.62483764 0.10483835 2.0244534 1720427
-0.57521224 0.10481254 2.0239551 7567744
-0.52477086 0.10478629 2.0234482 10000536
-0.47519472 0.10476051 2.0229502 10000536
-0.42564303 0.10473474 2.0224526 10000536
-0.38786492 0.10471508 2.022073 10000536
-0.25198373 0.1046444 2.0207081 992579
-0.22191572 0.10461008 2.0239038 9474708
-0.17491299 0.10452358 2.0350502 10066329
-0.12515113 0.1045004 2.0340426 10000536
-0.074983962 0.10447298 2.033787 10132122
-0.024851728 0.10444828 2.0330279 10197915
0.024843534 0.10442242 2.0325248 10197915
0.074925914 0.10439505 2.03227 10197915
0.12499334 0.10437038 2.0315115 10197915
0.17502394 0.104343 2.0312569 10197915
0.22545882 0.10431678 2.0307467 10197915
0.27544683 0.10429217 2.0299892 10197915
0.32540685 0.10426483 2.0297348 10197915
0.37534705 0.10424021 2.0289786 10197915
0.42525548 0.10421293 2.0287249 10197915
0.47514769 0.10418835 2.0279689 10197915
0.52500486 0.10416108 2.0277152 10197915
0.5752638 0.10413495 2.0272064 10197915
0.62507713 0.1041104 2.0264518 10197915
0.67486382 0.10408317 2.0261989 10197915
0.72504789 0.10405708 2.025691 7500402
0.77478206 0.10403258 2.0249367 6447714
0.82449895 0.10400539 2.0246844 6447714
0.87382561 0.10397702 2.0246954 6447714
0.90455818 0.10388484 2.0386591 6447714
-0.57257581 -0.65131938 2.085494 6566193
-0.53098696 -0.65131557 2.0604818 6566193
-1.5500419 -0.60454184 2.0523639 6447714
-1.5201317 -0.60463762 2.0705023 6447714
-1.4749153 -0.60465288 2.0730846 6447714
-1.424996 -0.60465395 2.0731571 6447714
-1.374969 -0.60465646 2.0732105 4737096
-1.3278004 -0.60464472 2.0709124 5057323
-1.2964981 -0.604559 2.054352 6500400
-1.1144867 -0.60468227 2.0769451 4329231
-1.0750167 -0.60466278 2.0731883 4345195
-1.0249891 -0.60466486 2.0732174 2575730
-0.97495943 -0.60466665 2.0732503 2374225
-0.92503929 -0.60466766 2.0731149 3806747
-0.87511635 -0.60466892 2.0732338 5579298
-0.82508343 -0.60466969 2.073108 5381919
-0.77912229 -0.60462946 2.0652282 4329231
-0.74234229 -0.60457325 2.0542803 4329231
-0.57293648 -0.62499905 2.0858531 6566193
-0.53098392 -0.62499869 2.0606227 6566193
-0.57263744 -0.57522851 2.0859413 6503998
-0.5310781 -0.5750038 2.0609477 6503998
-0.57207227 -0.52501053 2.0858722 6447714
-0.53118306 -0.52499479 2.0612812 6447714
-0.57214803 -0.47504199 2.0861886 6447714
-0.53040886 -0.47477663 2.0610869 6447714
-0.5716964 -0.42590675 2.0861821 6447714
-0.53029484 -0.42491806 2.0612874 6447714
-0.55694032 -0.39791504 2.0774584 6447714
-0.52730441 -0.393433 2.0596588 6447714
-1.4151564 -0.31264639 2.0904815 2506325
-1.3747537 -0.31252918 2.0661826 4089487
-1.3478497 -0.30575034 2.0500391 1455182
-1.4136941 -0.29719859 2.0904553 2770529
-1.3725063 -0.29613906 2.0739334 3364989
-1.3278675 -0.29518959 2.0682046 2374225
-1.2957697 -0.29503417 2.0522981 1454153
-0.75683534 -0.2953203 2.0609214 2039583
-0.74609637 -0.29531112 2.0581949 2039583
-0.65968233 -0.29544425 2.0766084 4813209
-0.62480879 -0.29544106 2.0729377 2967652
-0.57461047 -0.29546541 2.0733135 1974047
-0.52830112 -0.29545155 2.066566 2039583
-0.49036148 -0.29540876 2.054904 2039583
-1.566216 0.10505359 2.0853341 9934743
-1.5376388 0.10513405 2.0671809 9934743
-1.4606123 0.10494896 2.0935838 9934743
-1.4245656 0.10501246 2.0778062 8686740
-1.3747282 0.10498803 2.077024 1983596
-1.3280644 0.10497747 2.0739875 993861
-1.2979178 0.10502888 2.0611105 1058625
-1.1143267 0.10482407 2.0797474 1059660
-1.0810019 0.10485367 2.0706165 1456998
-0.98261625 0.10478308 2.0732679 1191753
-0.86759901 0.10470698 2.0751588 9343896
-0.82517588 0.10470279 2.0713811 2180977
-0.77520275 0.10467681 2.0708773 5464174
-0.74425918 0.1047413 2.0554664 10197915
-0.65927571 0.10459068 2.0745509 2446215
-0.62501371 0.10459746 2.0695951 1718363
-0.57472259 0.10457274 2.0688181 9474451
-0.52487344 0.10454694 2.0682974 10000536
-0.47548434 0.10451987 2.0680594 10000536
-0.4252575 0.10449518 2.0672839 10000536
-0.3915447 0.1044892 2.0647774 10000536
-0.25520504 0.1043919 2.0683498 2044748
-0.2266106 0.10438463 2.0666375 10066330
-0.17495379 0.1042822 2.0802827 10197915
-0.12493619 0.10425623 2.0797651 10066329
-0.074943498 0.10423031 2.079248 10000536
-0.024975639 0.1042044 2.0787311 10132122
0.024967367 0.1041785 2.0782142 10197915
0.074885547 0.1041526 2.077698 10197915
0.12477893 0.10412672 2.0771818 10197915
0.17464752 0.10410086 2.0766654 10197915
0.22449134 0.10407502 2.0761499 10197915
0.27431047 0.10404918 2.0756347 10197915
0.324963 0.1040229 2.0751104 10197915
0.37559021 0.10399665 2.0745866 10197915
0.4253343 0.10397085 2.0740719 10197915
0.4750537 0.10394506 2.0735576 10197915
0.52474844 0.10391929 2.0730436 10197915
0.5744186 0.10389353 2.0725296 10197915
0.62491983 0.10386734 2.0720072 10197915
0.67539561 0.10384116 2.0714853 10197915
0.7249912 0.10381545 2.070972 8684676
0.77456206 0.10378974 2.0704591 6447714
0.82496244 0.1037636 2.0699377 6447714
0.87533742 0.10373747 2.0694163 6447714
0.911183 0.10371888 2.0690455 6447714
-0.66571289 -0.65132892 2.1415081 6566193
-0.62570244 -0.65140259 2.1174445 6566193
-0.59859973 -0.65140867 2.1011448 6566193
-1.5082897 -0.60484922 2.110754 6447714
-1.4747049 -0.60490936 2.1221156 6447714
-1.4249054 -0.60491157 2.1221941 5987163
-1.3750117 -0.60491401 2.1223054 3877161
-1.3402438 -0.60486394 2.1127477 6566193
-1.1556419 -0.60499567 2.1368797 4329231
-1.1240876 -0.60492331 2.1229277 4070693
-1.0749874 -0.6049214 2.1223624 4024726
-1.0250932 -0.60492378 2.1223679 2243414
-0.97508878 -0.6049242 2.1222456 2896196
-0.92508215 -0.60492629 2.1223783 6303021
-0.87772435 -0.6049065 2.1185672 6566193
-0.83562112 -0.60484552 2.1066339 5316126
-0.66478753 -0.62539506 2.1410918 6566193
-0.62433267 -0.62502128 2.1167631 6566193
-0.59794843 -0.62492943 2.1008959 6566193
-0.66442055 -0.57494032 2.1411436 6504255
-0.6245566 -0.57504892 2.1171687 6503998
-0.59747094 -0.5710125 2.1008995 6505540
-0.66448766 -0.52500546 2.141454 6447714
-0.62459981 -0.52502698 2.1174643 6447714
-0.59708405 -0.52484119 2.1009161 6447714
-0.66456115 -0.47498766 2.1417675 6447714
-0.62464952 -0.47502458 2.1177652 6447714
-0.59719491 -0.47486234 2.101253 6447714
-0.66388071 -0.43852299 2.1415553 6447714
-0.62294525 -0.43255052 2.1169686 6447714
-0.59724027 -0.42879766 2.1015289 6447714
-1.5050534 -0.31273776 2.144547 2039583
-1.4746029 -0.31265196 2.1262343 2039583
-1.4399825 -0.3126522 2.1054115 2039583
-1.1308942 -0.31277373 2.1277754 2375516
-1.5051522 -0.29765365 2.1446874 2039583
-1.4714404 -0.29640615 2.1308396 2039583
-1.4261792 -0.29570842 2.1205947 3231081
-1.375025 -0.29535481 2.1217222 2440791
-1.339898 -0.29532105 2.1120718 1651276
-1.156168 -0.29553613 2.1379569 2115696
-1.1335831 -0.29707095 2.1291306 2507101
-0.67222857 -0.27568057 2.1340621 4747674
-0.62754095 -0.2956844 2.1206129 2373192
-0.58483422 -0.295643 2.1088135 2039583
-0.67344886 -0.22497393 2.1359148 4550812
-0.67342693 -0.17491515 2.1362169 3893657
-0.67349374 -0.12510501 2.1364028 3301780
-0.67367971 -0.074876547 2.136483 2907793
-0.67364734 -0.024786465 2.1367838 2710928
-0.67371017 0.024789523 2.1369824 2447756
-0.67387521 0.074846759 2.1370876 2249865
-1.6071944 0.10485534 2.1268711 9934743
-1.5849924 0.10484384 2.1266379 9934743
-1.4713939 0.10478501 2.1254449 9934743
-1.4243942 0.10476069 2.1249511 3825799
-1.3747578 0.10473497 2.1244299 1059655
-1.3428605 0.10471846 2.1240947 993604
-1.1508093 0.10461903 2.1220779 1589627
-1.125172 0.10460573 2.1218085 1125711
-1.0942371 0.10458972 2.1214836 2052488
-1.0076724 0.10454491 2.1205745 1192010
-0.99707776 0.10453943 2.1204634 1191496
-0.90177566 0.10449007 2.119462 10197915
-0.87443823 0.10447592 2.119175 6979219
-0.82507098 0.10445035 2.1186566 1258070
-0.78101331 0.10442755 2.1181939 8356744
-0.66929585 0.10302691 2.1338027 1985407
-0.62512296 0.10426134 2.1325662 4280419
-0.57505757 0.10423394 2.1323221 10000536
-0.52501816 0.10420956 2.1315062 10000536
-0.47500473 0.10418215 2.1312633 10000536
-0.42501283 0.10415781 2.1304483 10000536
-0.39657864 0.10419372 2.120667 10000536
-0.25941467 0.10406192 2.1306081 5003368
-0.22529967 0.1040545 2.128335 10132122
-0.174997 0.10402542 2.1283727 10197915
-0.12471848 0.10400245 2.12727 10132122
-0.074896477 0.10397515 2.1270287 10000536
-0.02511009 0.1039509 2.1262162 10000536
0.025101727 0.10392495 2.1256852 10132122
0.074838661 0.10389768 2.1254437 10197915
0.12499848 0.10387173 2.1249127 10197915
0.1755693 0.10384708 2.1240928 10197915
0.22523649 0.1038199 2.123852 10197915
0.27488035 0.10379572 2.1230416 10197915
0.32537431 0.10376807 2.1227918 10197915
0.37540919 0.10374217 2.1222625 10197915
0.42497414 0.10371807 2.1214535 10197915
0.47496122 0.10369221 2.1209245 10197915
0.52491689 0.10366333 2.1209643 10197915
0.57484341 0.10364051 2.1198678 10197915
0.62475592 0.1036147 2.1193395 10197915
0.67507452 0.10358715 2.1190908 10197915
0.72537196 0.10356264 2.1182745 9803157
0.77476412 0.10353557 2.1180356 6513507
0.82457495 0.1035098 2.1175084 6447714
0.8747924 0.10348534 2.1166935 6447714
0.92208678 0.10344553 2.1190636 6447714
-0.69045013 -0.65138912 2.1563852 6566193
-1.4658139 -0.60515624 2.169071 6447714
-1.4250365 -0.60518265 2.1738338 3683380
-1.3829476 -0.60516 2.1692586 5975598
-1.1668615 -0.60520804 2.1774843 4329231
-1.12494 -0.60519081 2.1739228 4214897
-1.0749574 -0.60519099 2.1737781 2509938
-1.0249784 -0.6051932 2.1738739 2374226
-0.97625846 -0.60518515 2.1720653 4993080
-0.93070847 -0.60512531 2.1604323 6566193
-0.8973667 -0.60507649 2.1509886 6566193
-0.69004643 -0.62439972 2.1562889 6566193
-0.68964058 -0.57504046 2.1563115 6504255
-0.68977475 -0.52500594 2.156661 6447714
-0.68984652 -0.47495559 2.1569746 6447714
-0.68915814 -0.4421621 2.1567376 6447714
-1.1139147 -0.31289032 2.1560082 2777751
-1.5169384 -0.29559359 2.1806498 2039583
-1.4749959 -0.29558414 2.175154 2900053
-1.4248661 -0.29560843 2.1755128 2705253
-1.3832679 -0.29560101 2.1704326 2045518
-1.1677631 -0.29574779 2.1802242 2572893
-1.1302153 -0.29616767 2.1701021 2511227
-0.65900403 -0.27356729 2.1557183 1983333
-0.65913844 -0.22507295 2.1558616 1917542
-0.65918273 -0.1750685 2.1560066 1719907
-0.65922701 -0.12505727 2.1561525 1522273
-0.6592716 -0.075039335 2.1562977 1522529
-0.65931594 -0.025014596 2.1564431 1456477
-0.65936053 0.025016854 2.1565883 1390427
-0.65940493 0.07505504 2.1567333 1324376
-1.6578778 0.10452628 2.1939425 7373977
-1.6262518 0.10461169 2.1745472 7699846
-1.5969676 0.10467517 2.1595113 9934743
-1.5170603 0.10450593 2.1826169 9934743
-1.4750309 0.104522 2.1750863 6584977
-1.4246716 0.1044977 2.1742382 1324633
-1.381652 0.10450383 2.1684604 1059397
-1.1656393 0.1043341 2.1770267 1059660
-1.130565 0.1043666 2.1671724 1457512
-1.0285989 0.10429146 2.1702888 1191753
-0.91396105 0.10420656 2.1738646 10197915
-0.87502658 0.10421216 2.1686378 3562114
-0.8249678 0.10418792 2.1677935 3097433
-0.7889086 0.10419499 2.1625936 10197915
-0.65805852 0.10265412 2.1664927 1125711
-0.62486452 0.10399321 2.1827533 6910331
-0.57498634 0.10396745 2.1822133 10000536
-0.52513266 0.10394174 2.1816733 10000536
-0.47530389 0.10391603 2.181134 10000536
-0.42731011 0.10389127 2.1806138 10000536
-0.26177153 0.10380584 2.1788208 6383989
-0.22472177 0.10378671 2.1784198 10000536
-0.17504151 0.10376107 2.1778815 10197915
-0.12448306 0.10373498 2.1773341 10197915
-0.074852094 0.10370937 2.1767969 10197915
-0.025245802 0.10368378 2.1762588 10000536
0.025237346 0.10365773 2.1757121 10132122
0.074794397 0.10363215 2.1751754 10197915
0.12432687 0.1036066 2.1746392 10197915
0.17473486 0.10358059 2.1740928 10197915
0.22511761 0.10355458 2.1735473 10197915
0.27547503 0.10352858 2.173002 10197915
0.3249087 0.10350309 2.1724665 10197915
0.37431785 0.10347759 2.1719313 10197915
0.42460045 0.10345163 2.1713867 10197915
0.47485787 0.1034257 2.1708422 10197915
0.5250901 0.10339979 2.1702981 10197915
0.57529718 0.10337388 2.1697545 10197915
0.62547892 0.10334797 2.1692107 10197915
0.6756357 0.10332211 2.1686676 10197915
0.7257672 0.10329623 2.1681244 10197915
0.77497941 0.10327083 2.1675916 7434609
0.82416695 0.10324545 2.1670587 6447714
0.87422425 0.10321963 2.1665168 6447714
0.92425644 0.1031938 2.1659746 6447714
0.96439505 0.10306818 2.1852002 6447714
-1.4543164 -0.60535693 2.207257 3355443
-1.4245429 -0.60543191 2.2214794 4991530
-1.3948386 -0.60537004 2.2094734 6566193
-1.2072711 -0.60550714 2.2346544 4329231
-1.174841 -0.60545534 2.2245986 4005932
-1.1250736 -0.60545582 2.2243872 3893399
-1.0749205 -0.60545671 2.2243915 2112084
-1.0290489 -0.60541677 2.2165265 2045518
-0.99220586 -0.60536104 2.2057121 6369329
-1.06292 -0.31301531 2.2408011 1717582
-1.5554352 -0.27517572 2.2188106 2039583
-1.5251508 -0.29581466 2.2244565 2172718
-1.4755017 -0.29583776 2.2246301 3167611
-1.4268328 -0.29585463 2.2236757 2308433
-1.3956684 -0.2958011 2.2105222 1256776
-1.2072715 -0.29600212 2.2332621 2181230
-1.1756108 -0.29597744 2.2256806 2573410
-1.1446017 -0.29594252 2.2161729 2777495
-1.0639147 -0.2976591 2.2407703 1651790
-1.5554758 -0.2250986 2.2177095 2039583
-1.5555464 -0.17549288 2.2178097 2039583
-1.5556184 -0.12496402 2.217912 2039583
-1.5556899 -0.074430436 2.2180142 2039583
-1.5557597 -0.024811158 2.2181146 2039583
-1.5558308 0.024812648 2.2182148 2039583
-1.5556049 0.073339947 2.2188036 4144959
-1.6714034 0.10434723 2.2289488 2574444
-1.6481276 0.10433525 2.228693 2308430
-1.5551749 0.10260648 2.2212219 10000536
-1.5253249 0.10427202 2.2273412 9015189
-1.47513 0.10424613 2.2267892 1721455
-1.4249597 0.1042203 2.2262373 993605
-1.2032081 0.10410607 2.2237971 1258593
-1.1744821 0.10409125 2.2234812 1192018
-1.1448358 0.10407598 2.2231548 2118537
-1.0568783 0.10403068 2.2221873 1192010
-1.045773 0.10402496 2.2220647 1191497
-0.92369944 0.10396209 2.2207217 8292758
-0.87472636 0.10393687 2.2201824 1457253
-0.82485324 0.10391116 2.2196338 6647417
-0.79900199 0.10389784 2.2193494 10197915
-0.66155308 0.10382704 2.2178371 993605
-0.62560815 0.10380853 2.2174416 8619658
-0.57493734 0.10378242 2.2168839 10000536
-0.52429187 0.10375635 2.2163265 10000536
-0.47459206 0.10373073 2.21578 10000536
-0.43043467 0.10370799 2.2152941 10000536
-0.26537201 0.10352194 2.2323954 6975867
-0.22457458 0.10350657 2.2308919 10000536
-0.17508839 0.10348294 2.230006 10066329
-0.12562731 0.10345561 2.2297947 10197915
-0.075263798 0.10343143 2.2289112 10197915
-0.024930524 0.1034038 2.2286775 10197915
0.024922272 0.10337819 2.2281244 10197915
0.075205289 0.10335404 2.2272427 10197915
0.12546833 0.1033264 2.2270091 10197915
0.17524658 0.10330077 2.2264574 10197915
0.22499429 0.10327869 2.2252448 10197915
0.2747142 0.10324958 2.2253537 10197915
0.3244184 0.10322399 2.224802 10197915
0.37455821 0.10319998 2.2239225 10197915
0.42466491 0.1031724 2.2236903 10197915
0.47475684 0.10314837 2.2228112 10197915
0.52481133 0.10312087 2.2225797 10197915
0.57485545 0.10309689 2.2217011 10197915
0.62485749 0.10306942 2.2214699 10197915
0.67485392 0.10304542 2.2205918 10197915
0.72480434 0.10301799 2.2203615 10197915
0.7752018 0.10299201 2.2198021 8816262
0.8255741 0.10296612 2.2192433 6447714
0.87545741 0.10294216 2.2183671 6447714
0.92532039 0.10291478 2.2181373 6447714
0.9701435 0.10282851 2.2294774 6447714
0.99925703 -1.0144982 2.2993195 6447714
1.0101324 -1.0129125 2.2928052 6447714
0.99933338 -0.97551656 2.2994952 6447714
1.0106683 -0.97501671 2.2926979 6447714
0.99943215 -0.92511737 2.2997222 6447714
1.0107074 -0.92503554 2.2929587 6447714
0.99951786 -0.88136685 2.2999198 6447714
1.0108689 -0.87497944 2.2931464 6447714
1.0109079 -0.82497984 2.2934084 6447714
1.011061 -0.77503729 2.2935991 6447714
1.0111051 -0.72495127 2.2938573 6447714
1.0114017 -0.6752792 2.2939622 6447714
-1.4238875 -0.60560423 2.2542803 6566193
-1.2188777 -0.60572892 2.2769332 4329231
-1.1749531 -0.60571212 2.2737079 4084342
-1.1275467 -0.6056959 2.2703588 2510712
-1.0856487 -0.60563409 2.2582309 2374483
1.0121163 -0.6249392 2.2938194 6447714
1.0121713 -0.57499397 2.29407 6447714
1.0122623 -0.52503788 2.2942991 6447714
1.0125395 -0.47527668 2.2944162 6447714
1.0132145 -0.42495045 2.2942965 6447714
1.013404 -0.37492853 2.2944672 6447714
1.0129547 -0.32552415 2.2950177 6447714
-1.5604428 -0.29601282 2.266175 2039842
-1.5249482 -0.29607949 2.2760749 3298165
-1.4746213 -0.29610223 2.2761116 2374742
-1.4379408 -0.29606351 2.2653561 1651276
-1.2213242 -0.29622847 2.2786019 2704222
-1.1823376 -0.29618928 2.2675655 2379125
-1.076875 -0.29624987 2.2701643 1585997
1.0128729 -0.2753588 2.295352 6447714
1.0136898 -0.22478946 2.2951491 6447714
1.0137202 -0.17497672 2.2954137 6447714
1.0137722 -0.12534401 2.2956653 6447714
1.0140921 -0.075346984 2.2957573 6447714
1.0147707 -0.024727028 2.2956371 6447714
1.0148693 0.024730222 2.2958596 6447714
1.0150127 0.07494203 2.2960594 6447714
-1.7099705 0.10417493 2.2653632 3629456
-1.6863111 0.10416277 2.2650988 1585484
-1.5662049 0.104101 2.2637558 10000536
-1.5246271 0.10407964 2.2632909 5008783
-1.4719474 0.10397068 2.2780373 1125707
-1.4373838 0.10401 2.2669556 1059397
-1.2199359 0.10379791 2.2833042 1059915
-1.1829233 0.10383406 2.2725556 1589871
-1.0790972 0.10375164 2.2768378 1191753
-0.96207255 0.10365555 2.2822514 10197915
-0.92504454 0.10367437 2.2747509 4745355
-0.8748818 0.10364484 2.2748842 1914707
-0.83303404 0.10364848 2.2697093 9277330
-0.66965514 0.1035272 2.2748635 1782091
-0.62440896 0.10351992 2.2713625 10000536
-0.57485962 0.1034926 2.2711527 10000536
-0.52533579 0.10346902 2.2702463 10000536
-0.47489503 0.10344127 2.270026 10000536
-0.43510333 0.10343399 2.2671151 10000536
-0.26898491 0.10323694 2.2861581 7436159
-0.22536859 0.10321455 2.2856624 10000536
-0.175138 0.10318877 2.2850916 10000536
-0.12493236 0.10316303 2.2845209 10066329
-0.074751943 0.10313727 2.2839506 10197915
-0.024596415 0.10311154 2.2833807 10197915
0.024588387 0.1030863 2.2828219 10197915
0.074694194 0.10306059 2.2822523 10197915
0.12477518 0.10303487 2.2816832 10197915
0.174831 0.10300918 2.2811143 10197915
0.22486208 0.10298352 2.2805457 10197915
0.27486804 0.10295785 2.2799776 10197915
0.32484919 0.10293221 2.2794096 10197915
0.37480539 0.10290656 2.2788417 10197915
0.42473683 0.10288095 2.2782745 10197915
0.4746432 0.10285532 2.2777071 10197915
0.52546579 0.10282926 2.2771297 10197915
0.57532227 0.10280365 2.2765632 10197915
0.62515366 0.10277809 2.2759969 10197915
0.67496055 0.10275254 2.2754307 10197915
0.72474247 0.10272697 2.2748649 10197915
0.77543831 0.10270096 2.2742889 10197915
0.8251704 0.10267543 2.2737236 6447714
0.87487769 0.10264992 2.2731588 6447714
0.92549747 0.10262394 2.2725835 6447714
0.97515512 0.10259847 2.2720189 6447714
1.0109522 0.1019009 2.2870135 6447714
0.91581357 -1.0501199 2.3491733 6447714
0.93183321 -1.0233942 2.339716 6447714
0.97263139 -1.0179158 2.3152745 6447714
0.93242002 -0.97509313 2.3396382 6447714
0.97423327 -0.97492307 2.3145556 6447714
0.93254405 -0.92504531 2.3398483 6447714
0.97433746 -0.9249714 2.3147762 6447714
0.93294483 -0.87529075 2.3398912 6447714
0.97463953 -0.8748579 2.3148799 6447714
0.93349618 -0.82497853 2.3398452 6447714
0.97527504 -0.82498741 2.314784 6447714
0.93360239 -0.77492368 2.3400657 6447714
0.97540289 -0.77499318 2.3149889 6447714
0.93371975 -0.72499871 2.3402796 6447714
0.97549009 -0.72498858 2.3152204 6447714
-1.0070531 -0.65120608 2.3451986 6566193
-0.99826545 -0.65262824 2.3468175 6566193
0.93398952 -0.67522216 2.3404005 6447714
0.97554809 -0.67503232 2.3154707 6447714
1.00147 -0.65652978 2.3000262 6447714
-1.259541 -0.60602933 2.3344536 4329231
-1.2266068 -0.60597408 2.3237891 3939881
-1.1810758 -0.60591531 2.312309 4288414
-1.1478088 -0.60586745 2.3030403 2645136
-1.0064794 -0.62501866 2.3450508 6566193
-0.99843758 -0.62511724 2.3466518 6566193
0.93463272 -0.62487656 2.340301 6447714
0.97514927 -0.62519157 2.3159931 6447714
1.0009191 -0.62210774 2.3005524 6447714
-1.0066092 -0.57506382 2.345367 6504512
-0.99850702 -0.5752455 2.3467553 6505026
0.93477255 -0.57500172 2.3404996 6447714
0.97498786 -0.57497674 2.3163762 6447714
1.0008591 -0.57525671 2.3008549 6447714
-1.0056741 -0.53479409 2.3451576 6447714
-0.9985472 -0.52503955 2.3469086 6447714
0.93480128 -0.52506751 2.3407669 6447714
0.97507465 -0.52497649 2.3166077 6447714
1.0009867 -0.52480209 2.3010652 6447714
-0.99859929 -0.47742215 2.3470309 5263440
0.93505383 -0.47517607 2.3408988 6447714
0.97519779 -0.47499645 2.3168192 6447714
1.0013087 -0.47279456 2.3011672 6447714
0.93581837 -0.425001 2.3407254 6447714
0.97528344 -0.42497692 2.3170516 6447714
1.0019232 -0.42517379 2.3010688 6447714
-0.99889845 -0.35241356 2.3470814 6513507
0.93588042 -0.37507096 2.3409712 6447714
0.97540772 -0.37494794 2.3172605 6447714
1.0020021 -0.37531438 2.3013046 6447714
-0.99876571 -0.32481787 2.3474224 4605510
0.93546861 -0.32535034 2.3415022 6447714
0.97494215 -0.32481867 2.3178263 6447714
1.0021391 -0.32482895 2.3015099 6447714
-1.5181448 -0.2963433 2.3269091 2441308
-1.4828074 -0.29636079 2.3272202 1979983
-1.260139 -0.29650867 2.3366163 2311783
-1.2240522 -0.29647666 2.3272119 2508132
-1.1926018 -0.29638642 2.3068857 2645909
-1.1093638 -0.29656348 2.3341391 1651790
-1.0922456 -0.29644263 2.3090918 1454412
-0.99880528 -0.27490485 2.3475761 2039583
0.93538582 -0.27510545 2.3418367 6447714
0.97479105 -0.27505162 2.3181982 6447714
1.0024031 -0.27341464 2.3016431 6447714
-1.0000207 -0.21866332 2.3458016 2039583
-0.99851847 -0.22751135 2.3482599 2039583
0.93620378 -0.22495437 2.3416309 6447714
0.97493607 -0.22507451 2.3183966 6447714
1.0030717 -0.22502351 2.3015175 6447714
-1.0000685 -0.17493889 2.3459134 2039583
-0.9983598 -0.17515071 2.3487539 2039583
0.93618876 -0.17475128 2.3419244 6447714
0.97507703 -0.17505965 2.318594 6447714
1.0031688 -0.17545901 2.3017411 6447714
-1.0001239 -0.12440778 2.3460431 2039583
-0.99841505 -0.12455842 2.3488839 2039583
0.93626088 -0.12488051 2.3421652 6447714
0.97511578 -0.12497708 2.318857 6447714
1.0032685 -0.12493135 2.3019681 6447714
-1.0001779 -0.074843034 2.3461702 2039583
-0.99851698 -0.076708719 2.3489246 2039583
0.93655032 -0.075297713 2.3422732 6447714
0.97513008 -0.074941076 2.3191319 6447714
1.0035425 -0.073472738 2.3020964 6447714
-1.0002322 -0.025272887 2.3462973 2039583
-0.99909359 -0.025293278 2.3481905 2039583
0.93726844 -0.025286155 2.3421278 6447714
0.97522658 -0.024982531 2.3193586 6447714
1.0042206 -0.024795206 2.3019664 6447714
-1.0002873 0.025274742 2.346427 2039583
-0.99914879 0.02529514 2.3483202 2039583
0.93739319 0.025230894 2.34234 6447714
0.97532123 0.024985788 2.3195848 6447714
1.0043179 0.024798408 2.3021891 6447714
-1.0003417 0.074855715 2.346554 6776679
-0.99920297 0.074916117 2.3484478 6776679
0.93760514 0.075280927 2.3424966 6447714
0.97541761 0.074963875 2.3198111 6447714
1.0044153 0.074401654 2.3024132 6447714
-1.76361 0.10379881 2.3415649 2707580
-1.7285163 0.10392329 2.3144832 1981277
-1.6151322 0.10376547 2.3318512 10066329
-1.5748639 0.10380664 2.3198152 7045012
-1.52499 0.10377907 2.3196199 1456735
-1.4876666 0.10372267 2.3261683 1059398
-1.2589345 0.10354033 2.3357339 1125970
-1.2248607 0.10352286 2.3353405 1390686
