# .PCD v0.7 - Point Cloud Data file format
VERSION 0.7
FIELDS x y z rgb
SIZE 4 4 4 4
TYPE F F F U
COUNT 1 1 1 1
WIDTH 1180
HEIGHT 1
VIEWPOINT 0 0 0 1 0 0 0
POINTS 1180
DATA ascii
0.71038896 0.024817433 3.7439716 6447714
-2.0532625 0.075194351 3.704133 2119051
-2.0393188 0.074271344 3.7290478 1324119
-1.6487188 0.07451842 3.7473123 3355443
0.7104075 0.074454017 3.7440691 6447714
-2.0533898 0.10710374 3.7038085 2184586
-2.036525 0.10662121 3.7240064 1192276
-1.9164482 0.11192054 3.7007053 9606810
-1.8962053 0.11190217 3.700098 7440027
-1.648725 0.10556813 3.7473264 10066329
-0.30604151 0.1102992 3.7498302 10000536
-0.27645925 0.11027239 3.748919 10132122
-0.22511105 0.11022586 3.7473369 10197915
-0.17380576 0.11017935 3.7457559 10197915
-0.12409669 0.1101343 3.744225 10197915
-0.074428253 0.11008932 3.7426944 10197915
-0.024800405 0.11004431 3.7411654 10197915
0.024786914 0.10999937 3.7396374 10197915
0.074333742 0.10995449 3.738111 10197915
0.12384015 0.10990962 3.7365861 10197915
0.17485107 0.10986339 3.735014 10197915
0.22581959 0.10981718 3.7334437 10197915
0.27520248 0.10977244 3.7319221 10197915
0.32454512 0.10972773 3.730402 10197915
0.3738476 0.10968304 3.7288828 10197915
0.42464849 0.109637 3.7273176 10197915
0.47540718 0.10959099 3.7257538 10197915
0.52458692 0.10954644 3.7242386 10197915
0.57526141 0.10950052 3.7226772 10197915
0.62589377 0.10945462 3.7211168 8421504
0.6749512 0.10941016 3.7196057 6447714
0.71006608 0.1050174 3.7390153 6447714
0.62647879 -1.6722273 3.7872419 6447714
0.67058563 -1.6667116 3.762567 6447714
0.62757105 -1.624992 3.7867334 6447714
0.67171597 -1.6250558 3.7620275 6447714
0.62748611 -1.5750277 3.7868905 6447714
0.67181587 -1.5750151 3.7620792 6447714
0.62764388 -1.5251594 3.7869098 6447714
0.67175144 -1.5249734 3.7622273 6447714
0.6275472 -1.4751894 3.7870722 6447714
0.67176896 -1.475135 3.7623236 6447714
0.6275636 -1.4250209 3.7871733 6447714
0.67189199 -1.4250869 3.7623634 6447714
0.6276198 -1.3749483 3.7872496 6447714
0.67176938 -1.374933 3.7625415 6447714
0.62758005 -1.3249702 3.7873816 6447714
0.67200875 -1.324792 3.7625163 6447714
0.62766391 -1.27499 3.7874427 6447714
0.67328101 -1.274964 3.7619143 6447714
0.62763 -1.2249088 3.7875702 6447714
0.67327124 -1.2250255 3.7620265 6447714
0.62770277 -1.1749238 3.7876382 6447714
0.67332768 -1.1750851 3.7621047 6447714
0.62773585 -1.1250333 3.7877288 6447714
0.67327887 -1.1250443 3.7622414 6447714
0.62767911 -1.074945 3.7878692 6447714
0.67337352 -1.0750015 3.7622948 6447714
0.6291467 -1.0249569 3.7871566 6447714
0.67334181 -1.0250533 3.7624218 6447714
0.62907922 -0.97498417 3.7873037 6447714
0.67342013 -0.97510266 3.7624867 6447714
0.62919164 -0.92500913 3.787349 6447714
0.67343205 -0.92495459 3.7625895 6447714
0.62922025 -0.87503117 3.787441 6447714
0.67347747 -0.87480396 3.7626746 6447714
0.62920105 -0.82494682 3.7875609 6447714
0.6734128 -0.82484508 3.7628179 6447714
0.62926561 -0.77485913 3.7876332 6447714
0.67342466 -0.77488369 3.7629189 6447714
0.62923408 -0.72497827 3.7877605 6447714
0.67344809 -0.72491914 3.7630153 6447714
0.62932247 -0.6750958 3.7878191 6447714
0.67346573 -0.67505008 3.763113 6447714
-1.4134225 -0.61171907 3.7918117 6447714
-1.3743532 -0.61171013 3.7698877 6447714
-1.3449138 -0.61167055 3.7533686 6513507
0.62935138 -0.62510574 3.7879114 6447714
0.67348903 -0.62508041 3.7632105 6447714
-2.0139997 -0.56908613 3.7743371 5329233
-1.4131544 -0.57575738 3.7917297 6447714
-1.3743595 -0.57515931 3.7699621 6447714
-1.3451214 -0.57536906 3.7535536 6513507
0.62923557 -0.57511204 3.788085 6447714
0.67351794 -0.57501078 3.7633021 6447714
-2.0139663 -0.52504295 3.7743959 2039583
-1.4118665 -0.53107262 3.7910917 6447714
-1.3737991 -0.52772099 3.769738 6447714
-1.3451637 -0.5256241 3.7536719 6513507
0.62930024 -0.52501076 3.7881582 6447714
0.67370534 -0.52486861 3.7633057 6447714
-2.0140152 -0.47500482 3.7743044 2039583
0.62928045 -0.47490707 3.7882783 6447714
0.6749711 -0.47507933 3.7627075 6447714
-2.0139639 -0.43591356 3.7743907 2039583
-1.7037491 -0.40253401 3.7660017 2565927
-1.6941134 -0.40163916 3.7605424 2434341
0.62930918 -0.42490551 3.7883708 6447714
0.6749993 -0.42502442 3.762799 6447714
-1.7037576 -0.39473489 3.7660201 1452609
-1.6854799 -0.39391994 3.7556629 1777960
-1.6357369 -0.38014209 3.7698567 2568508
0.62933761 -0.37490147 3.7884636 6513507
0.67507911 -0.3748759 3.7628636 6513507
0.62937814 -0.32499996 3.7885497 6513507
0.67506558 -0.32472432 3.7629809 6513507
-1.6356236 -0.27420077 3.7701406 3890817
0.62949145 -0.27530819 3.788594 6447714
0.67517608 -0.27457285 3.7630262 6447714
-1.6354491 -0.22493781 3.7704873 3628161
0.63070297 -0.22600497 3.788023 6447714
0.67503893 -0.22450373 3.7632155 6447714
-1.6354581 -0.17495272 3.77051 3167870
0.63085407 -0.1757663 3.7880478 6447714
0.67505682 -0.17461859 3.7633131 6447714
-1.6354686 -0.12496693 3.7705371 2707578
0.63087052 -0.12555066 3.7881486 6447714
0.67507434 -0.12473076 3.763411 6447714
-1.635479 -0.074980587 3.7705541 2444920
0.63088745 -0.075332329 3.7882476 6447714
0.67509198 -0.074840374 3.7635109 6447714
-1.6354884 -0.024993662 3.7705781 2313591
0.63090384 -0.025111362 3.7883477 6447714
0.67510974 -0.024947373 3.7636075 6447714
-1.6354985 0.024993859 3.770601 2116212
0.63092107 0.025112247 3.7884469 6447714
0.67512751 0.024948247 3.7637064 6447714
-1.6355082 0.074982032 3.770622 2115699
0.63093758 0.07533852 3.7885473 6513507
0.67514515 0.074846476 3.7638049 6447714
-1.9252198 0.11176662 3.7997184 1388621
-1.7687033 0.11162476 3.7948959 1854336
-1.7495637 0.11160739 3.7943046 927812
-1.6327937 0.10684874 3.7729454 3167100
-1.5760008 0.11145013 3.7889583 7567745
-1.5489734 0.11142565 3.788126 10000536
-1.3157755 0.1112143 3.780941 927556
-1.2746227 0.111177 3.7796729 4083297
-1.2334951 0.11113973 3.7784057 10197915
-1.0172449 0.11094375 3.7717431 927555
-0.91333866 0.11084958 3.7685416 1125711
-0.88345891 0.11082251 3.7676208 6186868
-0.75310153 0.11070436 3.7636046 1058885
-0.72643793 0.11068019 3.7627826 5661295
-0.67627603 0.11063473 3.7612376 10000536
-0.62615532 0.11058932 3.7596931 10000536
-0.57607573 0.11054394 3.7581503 10000536
-0.52603722 0.11049858 3.7566087 10000536
-0.3309665 0.1103218 3.7505989 10000536
0.63094741 0.10516149 3.7886066 9013641
0.67515558 0.1044747 3.7638631 6447714
0.52982366 -1.7093084 3.8412564 6447714
0.56781828 -1.7045128 3.8200023 6447714
0.53144258 -1.6751093 3.8404264 6447714
0.57387382 -1.6749355 3.8166776 6447714
0.60156661 -1.6755683 3.8011775 6447714
0.53144854 -1.6251687 3.8405309 6447714
0.57398647 -1.6249393 3.8167226 6447714
0.60158241 -1.6252184 3.8012781 6447714
0.53144646 -1.5750904 3.8406394 6447714
0.57396889 -1.5749398 3.8168411 6447714
0.60159832 -1.5748657 3.8013785 6447714
0.53146839 -1.5248749 3.8407373 6447714
0.57403874 -1.5250312 3.8169122 6447714
0.60161436 -1.5245103 3.8014796 6447714
0.53153944 -1.4751773 3.8408046 6447714
0.57403141 -1.4749337 3.8170242 6447714
0.60163027 -1.4741522 3.80158 6447714
0.53292739 -1.4251717 3.8401368 6447714
0.57407975 -1.4249247 3.817106 6447714
0.60159916 -1.4245626 3.8017051 6447714
0.53304338 -1.3750205 3.8401804 6447714
0.57407284 -1.3750076 3.8172185 6447714
0.60166156 -1.3750019 3.8017781 6447714
0.53304052 -1.3250142 3.8402915 6447714
0.57412064 -1.3249948 3.8173003 6447714
0.60172397 -1.3254393 3.8018508 6447714
0.53291845 -1.2748575 3.8404698 6447714
0.57402682 -1.2750726 3.817462 6447714
0.6016928 -1.2758416 3.801976 6447714
0.53296584 -1.2248437 3.8405514 6447714
0.57404208 -1.2251465 3.8175621 6447714
0.60170889 -1.2254707 3.8020766 6447714
0.53311723 -1.1751204 3.8405752 6447714
0.57415438 -1.175033 3.8176079 6447714
0.60172474 -1.1750966 3.802177 6447714
0.53304499 -1.1250987 3.8407228 6447714
0.57421404 -1.1250114 3.8176823 6447714
0.60174066 -1.12472 3.8022778 6447714
0.53297359 -1.0750753 3.8408725 6447714
0.57408762 -1.0749853 3.817862 6447714
0.60175663 -1.0743408 3.8023787 6447714
0.53315872 -1.0252008 3.8408768 6447714
0.57413507 -1.0249557 3.817945 6447714
0.60315716 -1.0242524 3.8017032 6447714
0.5330193 -0.97503054 3.8410637 6447714
0.57424766 -0.97501665 3.8179901 6447714
0.60323441 -0.97494102 3.8017683 6447714
0.53313529 -0.92485261 3.84111 6447714
0.5743171 -0.92498285 3.8180609 6447714
0.60331148 -0.92562842 3.8018317 6513507
0.53306407 -0.87496507 3.8412557 6513507
0.57410407 -0.87494779 3.8182876 6513507
0.60326582 -0.87576032 3.801966 6513507
0.53311211 -0.82508057 3.8413393 6513507
0.57410824 -0.82500029 3.8183942 6513507
0.60328168 -0.82537872 3.8020666 6513507
0.53312606 -0.77504039 3.8414397 6513507
0.57425392 -0.77505153 3.8184211 6513507
0.60329777 -0.77499455 3.8021669 6513507
0.5332939 -0.7250002 3.8414543 6513507
0.57429105 -0.72510219 3.8185101 6513507
0.60331374 -0.72460753 3.8022671 6513507
0.53308594 -0.6749593 3.8416786 6513507
0.57429498 -0.67514938 3.8186162 6513507
0.60332972 -0.67421794 3.8023689 6513507
0.53406286 -0.6254316 3.8412404 6513507
0.57426643 -0.62500417 3.8187413 6513507
0.603284 -0.62433362 3.8025036 6513507
-1.9856306 -0.56908661 3.8250244 5329233
-1.4278955 -0.56202716 3.8000276 6447714
0.53481233 -0.57509351 3.8409302 6513507
0.57436842 -0.57485688 3.8187928 6513507
0.60336113 -0.57500499 3.8025665 6513507
-1.9855987 -0.52499646 3.8250802 2039583
-1.4279212 -0.53369921 3.8000956 6447714
0.53475869 -0.5249815 3.8410695 6513507
0.5743953 -0.52489597 3.8188863 6513507
0.60343838 -0.52567524 3.8026309 6513507
-1.9855484 -0.47503054 3.8251662 2039583
0.53449202 -0.47469744 3.8413301 6513507
0.57419258 -0.47502777 3.819109 6513507
0.60339248 -0.47578278 3.8027656 6513507
-1.9855834 -0.43597209 3.8251004 2039583
0.53475076 -0.42506704 3.8412912 6513507
0.57421815 -0.42505795 3.8192034 6513507
0.60340863 -0.42537996 3.8028653 6513507
0.53486669 -0.37527207 3.8413346 6513507
0.57435262 -0.37508819 3.8192377 6513507
0.60342449 -0.37497446 3.8029654 6513507
-1.9810257 -0.31774375 3.8332343 2568764
0.53473151 -0.3246651 3.8415208 6513507
0.57461947 -0.32530713 3.8191955 6513507
0.60344058 -0.32456627 3.8030665 6513507
-1.981535 -0.27520707 3.8323214 3095884
0.53451526 -0.27468288 3.8417501 6513507
0.57444769 -0.27523777 3.8194008 6513507
0.60345656 -0.2741555 3.8031673 6513507
-1.9815513 -0.22519764 3.8322892 2899019
0.5349865 -0.22538371 3.8415942 6513507
0.57437664 -0.22469981 3.8195505 6513507
0.60462964 -0.22307423 3.8026223 6513507
-1.981464 -0.17465086 3.832443 2701642
0.53477353 -0.1750782 3.8418224 6513507
0.57416415 -0.17433752 3.8197784 6513507
0.60500509 -0.17527522 3.8025157 6513507
-1.9813039 -0.12461898 3.8327277 2438986
0.53478771 -0.1241497 3.8419251 6513507
0.57455254 -0.12520716 3.8196688 6513507
0.60494959 -0.12603143 3.802654 6513507
-1.9816222 -0.075435489 3.8321552 2307399
0.53480148 -0.074810021 3.842026 6513507
0.57450795 -0.075871892 3.8198004 6513507
0.60496563 -0.075620808 3.8027554 6513507
-1.9814619 -0.025403729 3.8324382 2241863
0.53481543 -0.025467822 3.8421226 6513507
0.5744366 -0.025320841 3.8199503 6513507
0.60498178 -0.025207529 3.8028555 6513507
-1.9814612 0.025403699 3.8324339 2110278
0.53482974 0.025468737 3.8422275 6513507
0.57445198 0.025321737 3.8200517 6513507
0.60499769 0.025208423 3.8029556 6513507
-1.9816191 0.075435407 3.8321452 2109764
0.53484362 0.0748161 3.8423259 6513507
0.5746296 0.075788788 3.8200612 6579300
0.60501367 0.075627036 3.803057 6513507
-1.9778589 0.10681134 3.8269103 7044497
-1.9412129 0.11178111 3.8002105 3432593
-0.21211705 0.11004551 3.8496463 10000536
-0.17538366 0.11001227 3.8484836 10132122
-0.12431125 0.10996606 3.8468673 10197915
-0.074875504 0.10992133 3.8453023 10197915
-0.02548041 0.10987663 3.8437386 10197915
0.025466176 0.10983052 3.8421254 10197915
0.074780144 0.10978591 3.8405645 10197915
0.12405362 0.10974132 3.839005 10197915
0.17487483 0.10969532 3.8373961 10197915
0.22565347 0.10964937 3.8357885 10197915
0.27480495 0.1096049 3.8342326 10197915
0.32391614 0.10956047 3.8326781 10197915
0.37457001 0.10951462 3.831075 10197915
0.42518151 0.10946882 3.8294728 10197915
0.47575071 0.10942307 3.8278718 10197915
0.53186935 0.10552507 3.8367803 9803157
0.57403821 0.10573085 3.8201284 10066329
0.60502321 0.10556424 3.8031161 10197915
0.43671787 -1.720976 3.8933389 6447714
0.47333136 -1.7163923 3.8728578 6447714
0.5059672 -1.712481 3.8546014 6447714
0.43832582 -1.6753229 3.8925388 6447714
0.47481215 -1.6750515 3.8721194 6447714
0.50621194 -1.6751391 3.8545451 6447714
0.43858522 -1.6249002 3.8925033 6447714
0.47486007 -1.6249647 3.8722005 6447714
0.50633979 -1.6250371 3.8545821 6447714
0.43867019 -1.5749568 3.8925648 6447714
0.47495216 -1.5749729 3.8722591 6447714
0.50616336 -1.5749382 3.85479 6447714
0.43860823 -1.5249983 3.8927071 6447714
0.47477111 -1.5250837 3.8724678 6447714
0.50621372 -1.5248325 3.854871 6447714
0.43869323 -1.4750504 3.8927689 6447714
0.47492781 -1.4749855 3.8724895 6447714
0.50649118 -1.4747658 3.8548253 6447714
0.43863133 -1.4250848 3.8929112 6447714
0.4748143 -1.424989 3.8726618 6447714
0.50771785 -1.4251065 3.8542459 6447714
0.43871611 -1.3751336 3.8929727 6447714
0.47495914 -1.3750886 3.8726895 6447714
0.50777811 -1.3748434 3.8543215 6447714
0.43871573 -1.3249614 3.8930821 6447714
0.47495896 -1.3249863 3.8727975 6447714
0.50791836 -1.3248436 3.854352 6447714
0.43867847 -1.2750049 3.8932109 6447714
0.47487566 -1.2748778 3.8729534 6447714
0.50767833 -1.2748455 3.8545952 6447714
0.43873885 -1.2250283 3.893286 6447714
0.47497869 -1.2250735 3.8730044 6447714
0.50781816 -1.2248405 3.8546259 6447714
0.43870148 -1.1750658 3.8934157 6447714
0.47488865 -1.1750586 3.873163 6447714
0.50795829 -1.174836 3.8546567 6447714
0.43884662 -1.124884 3.8934431 6447714
0.47505227 -1.1250485 3.8731806 6447714
0.50771827 -1.1248244 3.8548994 6447714
0.43863794 -1.0749142 3.8936694 6447714
0.47495526 -1.0751309 3.8733435 6447714
0.50790602 -1.0750812 3.8549013 6447714
0.43886974 -1.0249317 3.8936493 6447714
0.47509477 -1.025111 3.8733733 6447714
0.50794983 -1.0250696 3.854986 6447714
0.43866098 -0.974953 3.8938739 6447714
0.47487271 -0.97509217 3.8736079 6447714
0.50775826 -0.97477967 3.8552032 6447714
0.4389793 -0.92517018 3.8938046 6447714
0.47510105 -0.92496639 3.8735883 6447714
0.50794613 -0.92503285 3.855207 6447714
0.43887001 -0.87547958 3.8939734 6513507
0.47497535 -0.87493902 3.8737674 6513507
0.50798988 -0.87501317 3.8552904 6513507
0.44049409 -0.82490587 3.8931744 6513507
0.47506639 -0.82511151 3.8738244 6513507
0.50779837 -0.82471102 3.8555067 6513507
0.44017011 -0.77491271 3.8934643 6513507
0.47511998 -0.77507985 3.873904 6513507
0.50806761 -0.77523214 3.8554647 6513507
0.44051728 -0.72494435 3.8933794 6513507
0.4750011 -0.72494102 3.8740788 6513507
0.50795156 -0.72519439 3.8556376 6513507
0.44019333 -0.67494088 3.8936684 6513507
0.47507358 -0.67501134 3.8741484 6513507
0.50783837 -0.67461896 3.8558114 6513507
0.44054028 -0.62497228 3.8935835 6513507
0.47512785 -0.62496352 3.8742261 6513507
0.50920498 -0.62429804 3.8551552 6513507
-1.9640373 -0.56894565 3.8636081 5263440
0.44021633 -0.57495934 3.8938732 6513507
0.47504443 -0.575028 3.8743804 6513507
0.50947767 -0.57496536 3.8551102 6513507
-1.964005 -0.52501774 3.8636622 2039583
0.44056344 -0.52498996 3.8937879 6513507
0.4751645 -0.52507967 3.8744223 6513507
0.50932586 -0.52477044 3.855305 6513507
-1.9639683 -0.47504094 3.8637254 2039583
0.44023958 -0.47496662 3.894079 6513507
0.47516036 -0.47503248 3.8745339 6513507
0.50966817 -0.47529709 3.8552208 6513507
-1.9640669 -0.43591356 3.8635459 2039583
0.44058672 -0.424997 3.8939929 6513507
0.47499064 -0.42508146 3.8747373 6513507
0.50951785 -0.42486897 3.8554146 6513507
0.44026259 -0.37496358 3.8942828 6513507
0.47549099 -0.3750343 3.874567 6513507
0.5093922 -0.37489334 3.8555932 6513507
-1.9637905 -0.32016429 3.864032 2440019
0.44060975 -0.32499346 3.8941972 6513507
0.47478265 -0.3248665 3.8750718 6513507
0.50967979 -0.32541379 3.8555396 6513507
-1.9640824 -0.27496481 3.8635073 3166837
0.44028577 -0.27495009 3.8944874 6513507
0.4755215 -0.2751261 3.8747666 6513507
0.50955808 -0.27474883 3.8557184 6513507
-1.9638793 -0.22479017 3.8638675 2904179
0.44063294 -0.2249795 3.8944013 6513507
0.47516778 -0.2247555 3.8750741 6513507
0.50957131 -0.22523613 3.8558185 6513507
-1.964119 -0.17519821 3.8634346 2641267
0.4403089 -0.17492603 3.8946919 6513507
0.47518027 -0.17499278 3.8751748 6513507
0.50958455 -0.1757206 3.8559189 6513507
-1.9639969 -0.12485173 3.8636503 2180718
0.44065598 -0.12495503 3.8946056 6513507
0.47519264 -0.12522736 3.8752761 6513507
0.50959814 -0.1246052 3.8560226 6513507
-1.9639963 -0.075231142 3.8636456 1983853
0.44033197 -0.074891463 3.8948963 6513507
0.47520503 -0.075459465 3.8753779 6513507
0.50961155 -0.075084522 3.8561225 6513507
-1.9639947 -0.025610579 3.8636448 1852524
0.44142136 -0.025879567 3.8943932 6513507
0.4752174 -0.025688918 3.8754783 6513507
0.5096246 -0.025561282 3.8562224 6513507
-1.9639944 0.025610568 3.863642 1720937
0.44217271 0.024759842 3.8940828 6513507
0.47523049 0.025689833 3.8755841 6513507
0.50963837 0.025562191 3.8563266 6513507
-1.9639938 0.075231023 3.8636415 1456997
0.44192329 0.0747298 3.8943317 6513507
0.47524273 0.075465672 3.8756855 6513507
0.50965166 0.075090662 3.856427 6513507
-1.9639928 0.10564354 3.8636386 1785446
-1.8015125 0.11148373 3.8999586 1126740
-1.7982326 0.11148072 3.8998535 927812
-1.6590251 0.11135479 3.895448 1453897
-1.6246823 0.11132372 3.894361 6976124
-1.5952586 0.11129711 3.89343 10197915
-1.3587557 0.11108309 3.8859434 993862
-1.3245803 0.11105217 3.8848612 1124676
-1.2757894 0.11100803 3.8833168 10000536
-1.0518482 0.11080538 3.8762283 927556
-1.0437497 0.11079803 3.8759713 992836
-0.95150304 0.11071452 3.87305 1589625
-0.92563641 0.11069117 3.8722327 2637142
-0.89654547 0.11066482 3.8713114 10197915
-0.76259118 0.11054362 3.8670716 993348
-0.72552431 0.11051007 3.8658981 9540243
-0.67559874 0.11046492 3.8643181 10000536
-0.62571359 0.11041977 3.8627388 10000536
-0.57586968 0.11037467 3.861161 10000536
-0.53248918 0.11033542 3.8597872 10000536
-0.35607544 0.11017579 3.8542039 10000536
-0.32565752 0.11014824 3.8532403 10000536
-0.27445877 0.11010192 3.8516197 10000536
-0.23608661 0.1100672 3.850405 10000536
0.44205937 0.10486909 3.8943202 10197915
0.47524998 0.10436881 3.8757436 10000536
0.50965929 0.10385021 3.8564849 9803157
0.3414441 -1.7579199 3.9465802 6447714
0.36817479 -1.7544999 3.9316282 6447714
0.34243301 -1.7264421 3.9460957 6447714
0.37423629 -1.7249744 3.9282994 6447714
0.41088238 -1.7241279 3.9077911 6447714
0.34320223 -1.6751258 3.9457762 6447714
0.37428361 -1.6749737 3.9283822 6447714
0.41250122 -1.6744142 3.9069936 6447714
0.343288 -1.6249043 3.9458375 6447714
0.37434393 -1.6249745 3.9284565 6447714
0.41275814 -1.6249032 3.9069579 6447714
0.34337366 -1.574682 3.9458992 6447714
0.37436017 -1.5750679 3.9285557 6447714
0.41274729 -1.5749475 3.9070706 6447714
0.34322935 -1.5248551 3.9460876 6447714
0.3743003 -1.524961 3.928699 6447714
0.41282454 -1.5251701 3.9071386 6447714
0.34328943 -1.4750341 3.9461625 6447714
0.37435484 -1.475054 3.9287765 6447714
0.41270372 -1.4750271 3.9073141 6447714
0.34342462 -1.4248081 3.9461961 6447714
0.37450787 -1.4251404 3.9287989 6447714
0.41284612 -1.4248878 3.9073439 6447714
0.34333313 -1.3749741 3.9463563 6447714
0.37419811 -1.3750244 3.9290817 6447714
0.41270244 -1.375095 3.9075322 6447714
0.34324145 -1.3251358 3.946516 6447714
0.37449715 -1.3250068 3.929023 6447714
0.41288927 -1.3251337 3.9075358 6447714
0.3433767 -1.2749038 3.9465489 6447714
0.37441272 -1.2750899 3.9291794 6447714
0.4127903 -1.2751545 3.9076998 6447714
0.34343672 -1.2250729 3.9466238 6447714
0.3743974 -1.2250619 3.9292972 6447714
0.41284496 -1.2250081 3.9077785 6447714
0.34329239 -1.1752203 3.9468129 6447714
0.37443823 -1.1749395 3.9293816 6447714
0.41290057 -1.175025 3.9078555 6447714
0.34337819 -1.1249778 3.9468746 6447714
0.37434158 -1.125011 3.9295444 6447714
0.41280094 -1.1250504 3.9080212 6447714
0.3434639 -1.0747341 3.9469354 6447714
0.3744958 -1.0750798 3.9295664 6447714
0.41285574 -1.0750666 3.9080992 6447714
0.34339619 -1.0252882 3.9470809 6447714
0.37441769 -1.0250492 3.9297199 6447714
0.41290998 -1.0250808 3.9081774 6447714
0.34330457 -0.97542644 3.9472404 6447714
0.37446544 -0.97501123 3.9298015 6447714
0.41283336 -0.9749161 3.9083295 6447714
0.34351489 -0.92478329 3.9472334 6447714
0.37450022 -0.92497236 3.9298911 6447714
0.41299799 -0.92492378 3.9083455 6447714
0.3442488 -0.87654555 3.9469275 6447714
0.37439072 -0.87503183 3.9300613 6447714
0.41309234 -0.87450683 3.9084029 6447714
0.3449921 -0.82569408 3.9466217 6513507
0.37462592 -0.82498986 3.9300389 6513507
0.41459507 -0.82500726 3.9076681 6513507
0.34500134 -0.77502865 3.946727 6513507
0.37446743 -0.7750442 3.930234 6513507
0.4142991 -0.77500516 3.9079432 6513507
0.34501049 -0.72436047 3.9468319 6513507
0.37443271 -0.72509271 3.9303634 6513507
0.41453767 -0.72499692 3.9079189 6513507
0.34501937 -0.67532408 3.946934 6513507
0.37451154 -0.67494619 3.9304292 6513507
0.41446862 -0.67514873 3.908066 6513507
0.34496209 -0.6251778 3.9470747 6513507
0.37454766 -0.6250897 3.930517 6513507
0.41448021 -0.62497437 3.9081683 6513507
0.34510541 -0.5745371 3.9471047 6513507
0.37460536 -0.57503217 3.930593 6513507
0.41465148 -0.57512528 3.9081819 6513507
0.34504664 -0.52493012 3.9472454 6513507
0.37435901 -0.52487326 3.9308414 6513507
0.41429737 -0.52509695 3.9084868 6513507
0.34505549 -0.47588348 3.9473467 6513507
0.37475258 -0.47491071 3.9307294 6513507
0.41472214 -0.47492886 3.9083579 6513507
0.34506467 -0.42519924 3.9474523 6513507
0.37453508 -0.42504987 3.9309587 6513507
0.41427675 -0.42504832 3.9087169 6513507
0.34507388 -0.37451243 3.9475577 6513507
0.374327 -0.37508014 3.9311848 6513507
0.4147808 -0.37488449 3.9085426 6513507
0.34508276 -0.32545805 3.9476585 6513507
0.37494987 -0.32481703 3.9309456 6513507
0.41438395 -0.32515776 3.908874 6513507
0.34509194 -0.27476585 3.9477644 6513507
0.37446892 -0.27514172 3.9313221 6513507
0.414711 -0.27498469 3.9087996 6513507
0.34510109 -0.22407094 3.9478693 6513507
0.37437242 -0.22506045 3.9314852 6513507
0.4145669 -0.22510312 3.9089909 6513507
0.34511 -0.17500879 3.9479709 6513507
0.37488878 -0.17469616 3.9313049 6513507
0.41457778 -0.17490479 3.9090905 6513507
0.34511894 -0.12594414 3.9480727 6513507
0.37459463 -0.12541793 3.9315772 6513507
0.41458872 -0.12470391 3.9091952 6513507
0.34512809 -0.075241297 3.9481781 6513507
0.37460458 -0.074926928 3.9316816 6513507
0.41459975 -0.074500367 3.9092975 6513507
0.34627131 -0.026317032 3.9476442 6513507
0.37461475 -0.024433285 3.9317861 6513507
0.4154608 -0.023718566 3.9089243 6513507
0.34670594 0.024531206 3.9475114 6513507
0.37462419 0.024434106 3.9318864 6513507
0.41614741 0.024289697 3.9086478 6513507
0.34671512 0.075230837 3.9476171 6579300
0.37463421 0.07493306 3.9319911 6579300
0.41615841 0.07449016 3.9087503 6513507
-1.8195527 0.11150006 3.9005294 1986181
0.044181656 0.10963611 3.9498119 10197915
0.075251393 0.10960802 3.9488003 10197915
0.12591319 0.10956226 3.9471512 10197915
0.17490025 0.10951801 3.9455571 10197915
0.2254784 0.1094723 3.9439106 10197915
0.27601483 0.10942665 3.942266 10197915
0.32947862 0.1083905 3.9421499 10197915
0.37461945 0.10587877 3.9318218 10197915
0.41616508 0.10525938 3.9088135 10197915
-1.9244728 -1.7664061 3.9846718 6447714
-1.8936158 -1.7675352 3.9895227 6447714
0.24688339 -1.7696071 3.9994771 6447714
0.2723484 -1.7664889 3.9852326 6447714
0.31563437 -1.7611042 3.9610183 6447714
-1.9227622 -1.7248765 3.9838541 6447714
-1.8939329 -1.7250475 3.9889517 6447714
0.24688919 -1.7249104 3.9995713 6447714
0.27398339 -1.7249659 3.9844084 6447714
0.31751463 -1.7243237 3.9600463 6447714
-1.9230138 -1.6749095 3.9840941 6447714
-1.8938924 -1.6749187 3.9890194 6447714
0.24689564 -1.675245 3.9996758 6447714
0.27410206 -1.6749743 3.9844508 6447714
0.31823528 -1.6749227 3.9597504 6447714
-1.9228173 -1.6249338 3.9841063 6447714
-1.8938819 -1.6250627 3.9890347 6447714
0.24690212 -1.6255769 3.9997802 6447714
0.27397168 -1.62498 3.9846313 6447714
0.31818342 -1.6250657 3.9598863 6447714
-1.923113 -1.5749593 3.9843302 6447714
-1.8938515 -1.5752077 3.9890864 6447714
0.24690853 -1.5759062 3.9998844 6447714
0.27405784 -1.5750841 3.9846909 6447714
0.31825203 -1.5749363 3.9599569 6447714
-1.9229015 -1.5249813 3.9843125 6447714
-1.8939093 -1.5250789 3.9889772 6447714
0.2469137 -1.5361676 3.9999683 6447714
0.27403203 -1.5250829 3.9848166 6447714
0.31832036 -1.5248053 3.9600279 6447714
-1.9231158 -1.4748725 3.9845138 6447714
-1.8938797 -1.475224 3.9890292 6447714
0.27407849 -1.4749774 3.9848979 6447714
0.31826869 -1.4749397 3.9601655 6447714
-1.9231788 -1.4250146 3.9846427 6447714
-1.8939178 -1.4250942 3.9889572 6447714
0.27415803 -1.4249719 3.9849608 6447714
0.31838861 -1.425073 3.960207 6447714
-1.9500178 -1.3602077 3.9990764 6447714
-1.9224201 -1.3755671 3.984329 6447714
-1.8938783 -1.3749658 3.9890249 6447714
0.27394882 -1.3749642 3.9851894 6447714
0.31828526 -1.3749334 3.9603753 6447714
-1.9500709 -1.3237947 3.9991858 6447714
-1.9209809 -1.3251361 3.9836929 6447714
-1.8938876 -1.3251088 3.9890044 6447714
0.27408066 -1.3249532 3.9852223 6447714
0.31824201 -1.3249261 3.9605067 6447714
-1.9501432 -1.2741376 3.9993341 6447714
-1.9212605 -1.275113 3.9838948 6447714
-1.8938276 -1.2749823 3.9891083 6447714
0.27402866 -1.2749393 3.9853604 6447714
0.31830212 -1.2749151 3.9605815 6447714
-1.9501963 -1.2377203 3.9994426 6447714
-1.9214238 -1.2377141 3.9839785 6447714
-1.8945234 -1.2416558 3.9878626 6447714
0.27407518 -1.2248209 3.9854443 6447714
0.31836218 -1.2249031 3.9606569 6447714
0.27418086 -1.1748027 3.9854934 6447714
0.31841329 -1.1750244 3.9607363 6447714
0.27404389 -1.1248848 3.9856784 6447714
0.31818116 -1.1250045 3.9609771 6447714
0.27407727 -1.074963 3.9857693 6447714
0.31837842 -1.074985 3.9609745 6447714
0.2741107 -1.0250391 3.985858 6447714
0.31844625 -1.0248288 3.9610453 6447714
0.27422896 -0.97500962 3.9859018 6447714
0.31834367 -0.97493666 3.961211 6447714
0.27419063 -0.92497903 3.9860308 6447714
0.31839523 -0.92531651 3.9612896 6447714
0.27401391 -0.87504697 3.9862382 6447714
0.31932214 -0.8747077 3.9608796 6447714
0.27416599 -0.82511288 3.9862621 6513507
0.32000762 -0.82484144 3.9606068 6513507
0.2740809 -0.77517593 3.986419 6513507
0.31990534 -0.77487761 3.9607739 6513507
0.27412766 -0.7250312 3.9865017 6513507
0.32000926 -0.72503638 3.9608235 6513507
0.27488059 -0.6751684 3.9861891 6513507
0.32016009 -0.67506772 3.9608479 6513507
0.27569357 -0.62484151 3.9858422 6513507
0.31983596 -0.62497586 3.9611375 6513507
0.27570122 -0.57498753 3.9859471 6513507
0.31989187 -0.5748747 3.9612145 6513507
0.2757645 -0.52502054 3.9860215 6513507
0.32004297 -0.52489901 3.9612393 6513507
0.27588323 -0.47494283 3.986064 6513507
0.32028735 -0.47479954 3.9612107 6513507
-1.9027684 -0.42960507 3.9730725 2039583
-1.8939534 -0.43050897 3.9888234 2039583
0.2760154 -0.42475471 3.9860973 6513507
0.32001185 -0.42506859 3.9614747 6513507
0.27577201 -0.37488881 3.9863417 6513507
0.319736 -0.3753286 3.961736 6513507
0.27577916 -0.32535267 3.9864478 6513507
0.32002923 -0.32497096 3.9616816 6513507
0.27560389 -0.27558735 3.9866536 6513507
0.32032108 -0.27461621 3.9616284 6513507
0.2755993 -0.22538212 3.9867642 6513507
0.32004559 -0.22486678 3.96189 6513507
0.27592531 -0.17474964 3.9866936 6513507
0.32005382 -0.17563036 3.961993 6513507
0.27605903 -0.12422071 3.9867277 6513507
0.31978524 -0.12523673 3.9622529 6513507
0.27581552 -0.07432887 3.9869714 6513507
0.32035476 -0.074390985 3.9620454 6513507
0.2758227 -0.024776859 3.9870751 6513507
0.32135117 -0.024333918 3.9615941 6513507
0.27582985 0.024777714 3.987179 6513507
0.32165459 0.024618343 3.9615319 6513507
0.27583706 0.074334875 3.9872832 6513507
0.32195631 0.074343443 3.9614718 6513507
-1.4041944 0.1109446 3.9969525 1059912
-1.3757268 0.11091888 3.9960256 993348
-1.3255193 0.11087351 3.9943919 7699073
-1.293741 0.11084481 3.9933574 10000536
-1.0750953 0.11064728 3.9862404 927300
-0.96523327 0.11054801 3.9826648 1125967
-0.93364298 0.11051948 3.9816372 6187124
-0.77427733 0.1103755 3.9764497 4412004
-0.72621733 0.11033209 3.9748852 10066329
-0.67488468 0.11028571 3.9732151 10000536
-0.62359458 0.11023938 3.9715462 10000536
-0.5740003 0.11019458 3.9699318 10000536
-0.53930676 0.11016322 3.9688017 10000536
-0.36120197 0.11000234 3.963006 10000536
-0.3249867 0.10996961 3.961827 10000536
-0.27399015 0.10992353 3.9601667 10000536
-0.22467956 0.10987898 3.9585619 10000536
-0.17540894 0.10983447 3.9569588 10000536
-0.12617822 0.10979 3.9553564 10000536
-0.075348571 0.10974409 3.9537017 10197915
-0.024560949 0.1096982 3.9520488 10197915
0.019639233 0.10965825 3.9506102 10197915
0.27584133 0.10407031 3.9873455 9934743
0.32001686 0.10376976 3.9626207 9803157
-2.0284183 -1.8041904 4.0419884 11711154
-1.8644737 -1.804203 4.0415945 3487029
0.17296903 -1.8040582 4.0407696 6447714
-2.0229371 -1.77522 4.0389838 11711154
-1.9779865 -1.7730949 4.0138302 9342606
-1.8734694 -1.7739265 4.0255151 5395026
0.1789556 -1.7752234 4.0374818 6447714
0.22181386 -1.7728297 4.0135002 6447714
-2.0231516 -1.7252682 4.0392122 11711154
-1.9769548 -1.7254076 4.0133576 9145227
-1.8741015 -1.7250286 4.0243812 5460819
0.17896034 -1.7250882 4.0375867 6447714
0.2227599 -1.7250276 4.0130749 6447714
-2.0211906 -1.67495 4.0382237 11711154
-1.9749383 -1.6754704 4.0123363 8947848
-1.8740097 -1.6750087 4.0245423 5460819
0.17901544 -1.6750799 4.0376658 6447714
0.22284979 -1.6750759 4.0131326 6447714
-2.0206995 -1.625417 4.0380569 11711154
-1.9748797 -1.6248719 4.0124159 8947848
-1.8740088 -1.6249889 4.0245409 5460819
0.17896977 -1.6250679 4.0377998 6447714
0.22279465 -1.6250032 4.0132723 6447714
-2.0187314 -1.5749401 4.0370646 11711154
-1.9748782 -1.5748949 4.0125217 8947848
-1.8740348 -1.575074 4.0244923 5460819
0.17897445 -1.5749255 4.0379062 6447714
0.22287677 -1.5749289 4.0133357 6447714
-2.0187035 -1.5250078 4.0371594 11711154
-1.9748154 -1.5249168 4.0125961 8882055
-1.8740411 -1.5250529 4.0244765 5526612
0.17902985 -1.5250369 4.0379839 6447714
0.2234537 -1.5245903 4.0131221 6447714
-2.0188828 -1.475072 4.0373678 11711154
-1.9750251 -1.4749329 4.0128245 8947848
-1.8741128 -1.4749306 4.0243444 5526612
0.17898382 -1.4751463 4.0381179 6447714
0.22449775 -1.4751089 4.0126472 6447714
-2.0189579 -1.4249463 4.037519 11711154
-1.9750538 -1.424948 4.0129461 8882055
-1.8740063 -1.4249115 4.0245328 5526612
0.17898853 -1.4249957 4.0382271 6447714
0.22438987 -1.4249437 4.012815 6447714
-2.0190339 -1.3750031 4.0376697 11711154
-1.9751723 -1.374956 4.0131226 8947848
-1.874006 -1.3748914 4.0245304 5526612
0.17907752 -1.374971 4.0382857 6447714
0.22440988 -1.3748841 4.0129132 6447714
-2.0189698 -1.3252437 4.0377426 11711154
-1.9752462 -1.3251281 4.0132723 8947848
-1.8740052 -1.3248712 4.0245275 5526612
0.17899786 -1.3250724 4.0384355 6447714
0.22445859 -1.3249328 4.0129938 6447714
-2.0191846 -1.2752912 4.0379705 11711154
-1.9752442 -1.2751286 4.0133805 8882055
-1.8751315 -1.277503 4.0225129 5723991
0.17910378 -1.2751722 4.0384874 6447714
0.22442146 -1.274979 4.0131235 6447714
-2.0193777 -1.2375944 4.0381613 11711154
-1.9752848 -1.2375834 4.0134845 8947848
-1.8844892 -1.2466251 4.0057917 6447714
0.17900737 -1.2251384 4.0386505 6447714
0.2244276 -1.2251344 4.0132289 6447714
0.1790121 -1.174975 4.0387559 6447714
0.22449048 -1.1751744 4.0133023 6447714
0.17903346 -1.1249372 4.0388522 6447714
0.22441085 -1.1251018 4.0134554 6447714
0.17912263 -1.075014 4.0389099 6447714
0.22451651 -1.0750276 4.013505 6447714
0.18070722 -1.024824 4.0381327 6447714
0.22445109 -1.0250617 4.0136509 6447714
0.18066651 -0.97480178 4.0382643 6447714
0.22454247 -0.97509223 4.0137086 6447714
0.18065296 -0.92491364 4.0383821 6447714
0.22454807 -0.92489988 4.0138135 6447714
0.18075809 -0.87516463 4.0384293 6447714
0.2244688 -0.87481374 4.013967 6447714
0.18068066 -0.8251332 4.0385823 6447714
0.22447474 -0.82494754 4.0140724 6447714
0.18078594 -0.77510035 4.038631 6513507
0.22448072 -0.77496725 4.0141783 6513507
0.18062642 -0.72520274 4.0388312 6513507
0.22448653 -0.72498459 4.0142837 6513507
0.18069494 -0.6751619 4.0389018 6513507
0.22449252 -0.67511016 4.0143895 6513507
0.25023112 -0.65954953 4.0000181 6513507
0.18069969 -0.62498027 4.0390081 6513507
0.22451265 -0.62512195 4.0144873 6513507
0.25023571 -0.62476051 4.0000906 6513507
0.18065876 -0.57493496 4.0391393 6513507
0.22453286 -0.57502097 4.0145841 6513507
0.2502422 -0.57505977 4.000196 6513507
0.18070918 -0.52488774 4.0392194 6513507
0.22451007 -0.52502823 4.0147061 6513507
0.25024873 -0.52535653 4.0002999 6513507
0.1806865 -0.47483703 4.0393419 6513507
0.22455889 -0.47503278 4.0147867 6513507
0.25025529 -0.47565067 4.0004044 6513507
-1.8739995 -0.43026143 4.0244765 4806501
0.18070944 -0.42492408 4.0394387 6513507
0.22457896 -0.4249244 4.014884 6513507
0.25026181 -0.42594221 4.0005088 6513507
0.18073244 -0.37500849 4.0395303 6513507
0.22468394 -0.37470436 4.0149355 6513507
0.25026834 -0.3762311 4.0006132 6513507
-1.8743217 -0.31428599 4.0238934 4286865
0.18080141 -0.32523248 4.0396023 6513507
0.2246335 -0.32447958 4.0150723 6513507
0.25027511 -0.32486024 4.000721 6513507
-1.8739982 -0.27510241 4.0244651 3892623
0.18098213 -0.27573967 4.0396094 6513507
0.22453962 -0.27447137 4.0152335 6513507
0.25028184 -0.27348667 4.0008292 6513507
-1.873998 -0.22508375 4.0244637 3432589
0.1807376 -0.22594446 4.039854 6513507
0.22454552 -0.22457343 4.0153399 6513507
0.25028837 -0.22376761 4.0009332 6513507
-1.8739974 -0.1750651 4.0244627 2972041
0.18191312 -0.17614748 4.0393028 6513507
0.22455151 -0.17467268 4.0154428 6513507
0.25029492 -0.17404604 4.0010386 6513507
-1.8739965 -0.12504642 4.0244598 2643591
0.1823824 -0.12550279 4.0391517 6513507
0.22455724 -0.12476946 4.0155497 6513507
0.25030145 -0.12432181 4.0011425 6513507
-1.8739953 -0.075027809 4.024456 2446982
0.18238725 -0.075303644 4.0392594 6513507
0.2245632 -0.074863605 4.0156536 6513507
0.25030798 -0.074594989 4.0012469 6513507
-1.8739941 -0.025009263 4.0244555 2315653
0.18239206 -0.025101798 4.0393639 6513507
0.2245691 -0.024955099 4.0157595 6513507
0.25031447 -0.024865573 4.0013514 6513507
-1.8739934 0.02500925 4.0244522 2183810
0.18239687 0.025102677 4.0394697 6513507
0.22457494 0.024955982 4.0158644 6513507
0.25032109 0.024866438 4.0014563 6513507
-1.8739922 0.075027712 4.0244489 1986176
0.18240169 0.075309835 4.0395765 6513507
0.22458081 0.074869707 4.0159707 6513507
0.25032762 0.074601047 4.0015607 6513507
-1.8729572 0.10651427 4.0213757 1854077
-1.8496901 0.11134703 4.0114503 993605
-1.7081274 0.11121917 4.006844 1322055
-1.6744711 0.11118877 4.0057487 6318710
-1.6425121 0.11115991 4.0047092 10197915
0.18240453 0.10543526 4.0396409 10197915
0.22458433 0.10481907 4.0160341 10197915
0.25033152 0.10444295 4.0016232 10197915
-2.0637443 -1.8085043 4.0617495 11711154
-2.0463352 -1.8062811 4.0520115 11711154
-1.8543807 -1.8081336 4.0596294 2039583
-1.8399409 -1.8138808 4.0854297 2039583
0.084015578 -1.815053 4.0905299 6447714
0.12362521 -1.8100468 4.0683727 6447714
0.15440732 -1.8058988 4.0511541 6447714
-2.0628097 -1.775085 4.0612988 11711154
-2.0463841 -1.7744281 4.0521078 11711154
-1.8547657 -1.7747259 4.058939 2039583
-1.8408043 -1.7749821 4.0838838 2039583
0.084759034 -1.7748481 4.0902009 6447714
0.1263974 -1.7750723 4.0668969 6447714
0.1544099 -1.7740399 4.0512214 6447714
-2.0628872 -1.7252342 4.0614519 11711154
-2.0464611 -1.7241305 4.0522609 11711154
-1.8548149 -1.7246131 4.0588465 2039583
-1.840835 -1.7250689 4.0838265 2039583
0.084704779 -1.7249056 4.0903401 6447714
0.1263998 -1.7251319 4.0670037 6447714
0.15435724 -1.7245568 4.0513582 6447714
-2.0629647 -1.6748192 4.0616035 11711154
-2.0465381 -1.6738294 4.052413 11711154
-1.8547643 -1.6748401 4.0589347 2039583
-1.8407832 -1.674989 4.0839152 2039583
0.084650256 -1.674962 4.0904789 6447714
0.12635881 -1.6750768 4.0671363 6447714
0.1544179 -1.6751024 4.0514321 6447714
-2.0629346 -1.6249623 4.0616965 11711154
-2.0460682 -1.6212327 4.0522647 11711154
-1.8547132 -1.6250635 4.0590224 2039583
-1.8407327 -1.6249069 4.0840044 2039583
0.084754542 -1.6250116 4.0905299 6447714
0.12636198 -1.6250201 4.0672441 6447714
0.15447861 -1.6256465 4.051506 6447714
-2.0631185 -1.5750985 4.0619078 11711154
-2.0442691 -1.5752345 4.0513573 11711154
-1.8547869 -1.5752902 4.0588861 2039583
-1.8408073 -1.5748265 4.083868 2039583
0.08476793 -1.5750597 4.0906301 6447714
0.12642519 -1.5749604 4.067317 6447714
0.15442596 -1.5761555 4.0516429 6447714
-2.06317 -1.5249498 4.0620451 11711154
-2.0444257 -1.5257653 4.0515528 11711154
-1.8547616 -1.5251781 4.0589294 2039583
-1.840813 -1.5249147 4.0838532 2039583
0.084815495 -1.5249366 4.090713 6447714
0.12645772 -1.5249003 4.0674076 6447714
0.15443006 -1.5258397 4.0517497 6447714
-2.0632732 -1.4748025 4.0622125 11711154
-2.0445025 -1.4754654 4.0517054 11711154
-1.8547602 -1.47473 4.0589271 2039583
-1.8408051 -1.4750044 4.0838637 2039583
0.084636621 -1.4748119 4.0909224 6447714
0.12626781 -1.4748349 4.0676227 6447714
0.15443413 -1.4755211 4.051857 6447714
-2.0634036 -1.4249264 4.0623932 11711154
-2.0445795 -1.425162 4.0518575 11711154
-1.8547851 -1.424958 4.0588794 2039583
-1.8407985 -1.4250891 4.0838728 2039583
0.084740721 -1.4248514 4.0909729 6447714
0.1263158 -1.4249911 4.0677032 6447714
0.15443823 -1.4251996 4.0519648 6447714
-2.0634274 -1.375051 4.0625153 11711154
-2.0446563 -1.3748547 4.0520096 11711154
-1.8547585 -1.3751811 4.0589223 2039583
-1.840778 -1.3748406 4.0839052 2039583
0.084720127 -1.3750613 4.0910916 6447714
0.12643816 -1.3750339 4.0677457 6447714
0.15444233 -1.3748754 4.0520716 6447714
-2.0634508 -1.3251729 4.0626364 11711154
-2.044733 -1.3245432 4.0521626 11711154
-1.8547575 -1.3250695 4.0589204 2039583
-1.8407768 -1.3247591 4.0839014 2039583
0.084824406 -1.3250982 4.0911422 6447714
0.12639718 -1.3250741 4.0678759 6447714
0.15444638 -1.3245488 4.0521789 6447714
-2.0635815 -1.2752855 4.0628185 11711154
-2.0448101 -1.2742285 4.0523152 11711154
-1.8550282 -1.2862413 4.0584345 2039583
-1.8429785 -1.2922192 4.0799665 2039583
0.08474721 -1.2747893 4.0912957 6447714
0.12644531 -1.2752247 4.067956 6447714
0.15445046 -1.2742193 4.0522861 6447714
-2.0636854 -1.2251179 4.0629859 11711154
-2.0457313 -1.2283217 4.0529294 11711154
0.084646516 -1.2248172 4.0914602 6447714
0.12641822 -1.2251447 4.0680804 6447714
0.15445454 -1.2238873 4.052393 6447714
-2.063736 -1.1749437 4.0631237 11711154
-2.0473032 -1.1739659 4.0539274 11711154
0.085076027 -1.1754673 4.0913267 6447714
0.12639199 -1.1749518 4.0682049 6447714
0.15440188 -1.1743718 4.0525303 6447714
-2.063787 -1.1247666 4.0632606 11711154
-2.04738 -1.1236235 4.0540805 11711154
0.086395137 -1.1251056 4.0906982 6447714
0.12642504 -1.1248682 4.0682964 6447714
0.1545192 -1.1257522 4.0525703 6447714
-2.0638113 -1.0748659 4.0633826 11711154
-2.0474544 -1.0749556 4.0542283 11711154
0.086447649 -1.0748558 4.0907769 6447714
0.12645815 -1.0747827 4.0683866 6447714
0.15462556 -1.0754503 4.0526199 6447714
-2.0638354 -1.0249627 4.0635042 11711154
-2.047529 -1.0262837 4.0543756 11711154
0.086450495 -1.0247903 4.0908847 6447714
0.12640235 -1.0249201 4.0685253 6447714
0.15611361 -1.0256561 4.0518956 6447714
-2.0641766 -0.97506011 4.0638041 11711154
-2.047606 -0.97593027 4.0545278 11711154
0.086401984 -0.97510839 4.0910201 6447714
0.12633108 -0.97505307 4.0686741 6447714
0.15611775 -0.97532231 4.0520024 6447714
-2.0642998 -0.94029051 4.0639486 11711154
-2.0476601 -0.94068056 4.0546346 11711154
0.086404458 -0.92503726 4.0911288 6447714
0.12636407 -0.92495894 4.0687633 6447714
0.15612185 -0.924986 4.0521097 6447714
0.086507797 -0.87496585 4.0911798 6447714
0.12647177 -0.87497538 4.0688128 6447714
0.15612601 -0.87464666 4.0522165 6447714
0.086610526 -0.82508206 4.0912313 6447714
0.1265206 -0.82521665 4.0688944 6447714
0.15613015 -0.82430524 4.0523243 6447714
0.086260162 -0.77500516 4.091536 6447714
0.12638891 -0.77522546 4.069077 6513507
0.15613426 -0.77396077 4.0524316 6513507
0.086362943 -0.72492594 4.0915871 6513507
0.12642172 -0.72500759 4.0691671 6513507
0.15606366 -0.72415501 4.0525789 6513507
-2.0647447 -0.66492468 4.0647955 10190205
-2.0480866 -0.66197383 4.0554795 10123898
0.08651685 -0.67503536 4.091609 6513507
0.12648457 -0.67489952 4.0692415 6513507
0.15614237 -0.67494178 4.0526428 6513507
-2.0642343 -0.63423187 4.0645766 11711154
-2.0481331 -0.63174564 4.0555716 11711154
0.08661966 -0.625144 4.0916595 6513507
0.12644382 -0.62490183 4.0693731 6513507
0.15622115 -0.62572783 4.0527058 6513507
0.086345509 -0.57486141 4.0919228 6513507
0.12652208 -0.57501835 4.0694375 6513507
0.1561505 -0.57591355 4.0528541 6513507
0.086295336 -0.52476853 4.0920601 6513507
0.12628669 -0.52501547 4.0696783 6513507
0.15615465 -0.52555609 4.0529604 6513507
0.086603299 -0.4752551 4.0919967 6513507
0.12633386 -0.4750084 4.0697618 6513507
0.15615879 -0.47519574 4.0530682 6513507
-1.8547415 -0.43047455 4.0588861 3424073
-1.8482459 -0.43002081 4.0704923 2437181
0.086552382 -0.42534816 4.092133 6513507
0.1264715 -0.42511368 4.0697908 6513507
0.1561629 -0.42483297 4.0531745 6513507
0.086454518 -0.37468109 4.0922971 6513507
0.12670036 -0.37533307 4.0697722 6513507
0.15616703 -0.37446737 4.0532827 6513507
0.086201012 -0.32456315 4.0925488 6513507
0.12653749 -0.32531935 4.069972 6513507
0.15617117 -0.32409912 4.05339 6513507
0.087856524 -0.27602771 4.0917273 6513507
0.12643701 -0.27485201 4.070137 6513507
0.1561753 -0.27372822 4.0534964 6513507
0.088138811 -0.22545272 4.0916796 6513507
0.12644039 -0.22427168 4.0702467 6513507
0.15617929 -0.22503392 4.0536003 6513507
0.088141173 -0.17460339 4.0917888 6513507
0.12603514 -0.17434385 4.0705824 6513507
0.15747407 -0.17498741 4.0529847 6513507
0.08791241 -0.12457274 4.0920253 6513507
0.12686114 -0.12548329 4.0702248 6513507
0.15783019 -0.12592974 4.0528917 6513507
0.088376813 -0.075465344 4.0918717 6513507
0.12645021 -0.07588724 4.0705628 6513507
0.15783434 -0.07555981 4.0529995 6513507
0.088148065 -0.025429565 4.0921087 6513507
0.12645359 -0.025296343 4.0706701 6513507
0.15783855 -0.025187192 4.0531063 6513507
0.088150404 0.025430474 4.0922184 6513507
0.12645699 0.025297239 4.0707784 6513507
0.1578427 0.025188081 4.0532136 6513507
0.088371173 0.075258225 4.0922041 6579300
0.12646034 0.075893544 4.0708876 6579300
0.1578469 0.075566024 4.0533214 6579300
-1.0037307 0.11039338 4.0994658 1324899
-0.97462833 0.11036714 4.0984912 3425883
-0.94724751 0.11034246 4.0975747 10197915
-0.81053489 0.11021914 4.0929961 993862
-0.77469993 0.11018682 4.0917959 8422538
-0.72524589 0.11014224 4.0901394 10197915
-0.67583209 0.11009767 4.0884848 10197915
-0.62475628 0.11005161 4.0867739 10066329
-0.57542336 0.11000711 4.0851216 10000536
-0.54822075 0.10998255 4.0842099 10000536
-0.36662647 0.1098188 4.0781288 10000536
-0.32597023 0.10978212 4.076767 10000536
-0.27518669 0.10973632 4.0750661 10000536
-0.22444555 0.10969057 4.0733666 10066329
-0.17374668 0.10964485 4.0716696 10197915
-0.1247777 0.10960068 4.0700288 10197915
-0.075848594 0.10955656 4.0683899 10197915
-0.025273504 0.10951095 4.0666971 10197915
0.025259495 0.10946537 4.0650039 10197915
0.082288079 0.10621265 4.0806642 10066329
0.1263714 0.1061663 4.0677524 10197915
0.15784939 0.10579395 4.0533848 10197915
-1.8070378 -1.8516788 4.1442237 2039583
-0.015463989 -1.8525275 4.1461234 6447714
-1.8172294 -1.8225008 4.1260152 2039583
-0.010533222 -1.8257056 4.1434216 6447714
0.024349162 -1.8225511 4.1239052 6447714
0.059317749 -1.8183484 4.1043448 6447714
-1.8181001 -1.7749987 4.1244569 2039583
-0.010304124 -1.7749249 4.143405 6447714
0.025749773 -1.7750813 4.1232257 6447714
0.059509974 -1.7751908 4.104332 6447714
-1.8181183 -1.7249576 4.1244226 2039583
-0.010304198 -1.7251893 4.1435142 6447714
0.025563749 -1.7250197 4.1234384 6447714
0.05955714 -1.7249042 4.1044145 6447714
-1.8180697 -1.6749134 4.1245022 2039583
-0.010323931 -1.6751667 4.1436319 6447714
0.025672805 -1.6748377 4.1234865 6447714
0.059513237 -1.6749573 4.104547 6447714
-1.8180548 -1.6249942 4.1245232 2039583
-0.0103246 -1.6248479 4.1437426 6447714
0.025549773 -1.6248864 4.1236649 6447714
0.059469093 -1.625007 4.104681 6447714
-1.8180628 -1.5749531 4.124505 2039583
-0.010285349 -1.5751159 4.1438274 6447714
0.025643053 -1.5749282 4.1237221 6447714
0.05956243 -1.5750521 4.1047368 6447714
-1.8181378 -1.5249094 4.1243687 2039583
-0.010227297 -1.5250758 4.1439047 6447714
0.025737451 -1.5249678 4.1237769 6447714
0.059609067 -1.5250964 4.1048198 6447714
-1.8180014 -1.4749904 4.1246104 2039583
-0.010364824 -1.475047 4.1440892 6447714
0.025458228 -1.4751202 4.1240411 6447714
0.059428275 -1.474798 4.1050296 6447714
-1.8180469 -1.4249476 4.1245241 2039583
-0.010306022 -1.4250079 4.1441665 6447714
0.025707128 -1.4251554 4.1240106 6447714
0.059474677 -1.4248356 4.105113 6447714
-1.8181503 -1.3751544 4.1243362 2039583
-0.010246797 -1.3749676 4.1442413 6447714
0.025676858 -1.3750756 4.1241364 6447714
0.059661213 -1.3752137 4.1051168 6447714
-1.8194816 -1.3290656 4.1219535 2039583
-0.010384678 -1.3249276 4.1444268 6447714
0.025584703 -1.3249885 4.1242971 6447714
0.05943292 -1.3252436 4.1053529 6447714
-1.830434 -1.2967699 4.1023808 2039583
-0.010128865 -1.274881 4.1443944 6447714
0.025647743 -1.2750195 4.1243701 6447714
0.059480023 -1.2749344 4.1054358 6447714
-0.010484879 -1.2251205 4.1447015 6447714
0.025570435 -1.22493 4.1245232 6447714
0.059573371 -1.2249651 4.1054921 6447714
-0.010229178 -1.1750712 4.1446667 6447714
0.025680078 -1.1748344 4.1245689 6447714
0.05988377 -1.1744683 4.1054292 6447714
-0.010366731 -1.125017 4.1448517 6447714
0.025587335 -1.1249731 4.124732 6447714
0.061158948 -1.1249224 4.1048222 6447714
-0.01024863 -1.0752499 4.1448932 6447714
0.025649948 -1.0751003 4.1248035 6447714
0.061217319 -1.0747844 4.1048989 6447714
-0.010211421 -1.0249082 4.1449828 6447714
0.025681907 -1.0251153 4.1248941 6447714
0.061372414 -1.0249317 4.1049209 6447714
-0.010163181 -0.97558481 4.1450639 6447714
0.025527345 -0.97501302 4.1250916 6447714
0.061125938 -0.9747808 4.1051664 6447714
-0.0084948847 -0.92508882 4.1442399 6447714
0.025698852 -0.9250226 4.125104 6447714
0.061163992 -0.92491841 4.1052551 6447714
-0.0087313363 -0.87495869 4.1444826 6447714
0.02571395 -0.87491596 4.1252031 6447714
0.061377212 -0.87534636 4.1052442 6447714
-0.008446984 -0.82521206 4.1444311 6447714
0.025467116 -0.82480162 4.125452 6447714
0.061225474 -0.8249042 4.1054382 6447714
-0.0086814007 -0.77473098 4.1446714 6447714
0.025732655 -0.77503777 4.1254101 6447714
0.061052568 -0.77473861 4.1056447 6447714
-0.0084919389 -0.7249738 4.1446733 6513507
0.025653906 -0.72491652 4.1255631 6513507
0.06140317 -0.72545487 4.1055551 6513507
-0.0085889706 -0.67484254 4.1448383 6513507
0.02571951 -0.6749118 4.1256366 6513507
0.061230283 -0.67528415 4.105762 6513507
-0.0085891951 -0.62506121 4.1449451 6513507
0.025454294 -0.62513816 4.1258931 6513507
0.061137199 -0.62454706 4.1059237 6513507
-0.0085894195 -0.57527739 4.1450543 6513507
0.025842274 -0.57500935 4.1257863 6513507
0.061233383 -0.57495666 4.1059775 6513507
-0.0086865546 -0.5251348 4.1452174 6513507
0.025471637 -0.52500057 4.1261005 6513507
0.061329927 -0.52536553 4.1060309 6513507
-0.0084968898 -0.47537088 4.1452193 6513507
0.025564261 -0.47509831 4.1261573 6513507
0.061236721 -0.47461984 4.1061931 6513507
-0.0087313959 -0.42485955 4.1454616 6513507
0.025999747 -0.42508572 4.1260219 6513507
0.061081331 -0.42471284 4.1063895 6513507
-0.0084470622 -0.37510678 4.1454101 6513507
0.025226075 -0.3749418 4.1265645 6513507
0.061393332 -0.37542331 4.1063213 6513507
-0.0085905511 -0.32460213 4.1456003 6513507
0.025801392 -0.32515681 4.1263509 6513507
0.061241552 -0.32494456 4.1065173 6513507
-0.0085907737 -0.27480268 4.1457086 6513507
0.025813278 -0.27502054 4.1264534 6513507
0.062309198 -0.27383932 4.106029 6513507
-0.008591 -0.22500053 4.1458178 6513507
0.025177391 -0.2247421 4.1269188 6513507
0.063130304 -0.22528015 4.1056767 6513507
-0.0085912272 -0.1751958 4.1459246 6513507
0.026055248 -0.17520221 4.1265345 6513507
0.062931642 -0.17520534 4.105895 6513507
-0.0085914526 -0.12538849 4.1460328 6513507
0.025616316 -0.12480956 4.1268907 6513507
