# .PCD v0.7 - Point Cloud Data file format
VERSION 0.7
FIELDS x y z rgb
SIZE 4 4 4 4
TYPE F F F U
COUNT 1 1 1 1
WIDTH 446
HEIGHT 1
VIEWPOINT 0 0 0 1 0 0 0
POINTS 446
DATA ascii
-0.15810964 -0.20039749 0.44888264 2894892
-0.15449448 -0.1743779 0.44539919 2894892
-0.12942047 -0.16921249 0.4210293 2894892
-0.15445779 -0.12499265 0.44542578 2894892
-0.12771186 -0.12500322 0.41941673 2894892
-0.15448652 -0.07501103 0.44551343 2894892
-0.12773941 -0.075004078 0.41949654 2894892
-0.15443437 -0.025312217 0.44552433 2894892
-0.12777063 -0.02500267 0.41959703 2894892
-0.15427062 0.025005614 0.44542873 2894892
-0.12767404 0.025076354 0.4195683 2894892
-0.15430498 0.074995823 0.44552204 3947580
-0.12757875 0.075000599 0.41954163 3881787
-0.35262945 0.11494986 0.44681498 10197915
-0.31966636 0.11501407 0.42796552 10197915
-0.27499983 0.11505712 0.42399818 10197915
-0.22503884 0.11509697 0.42355013 10197915
-0.17293288 0.11432602 0.42527753 10197915
-0.13039355 0.11036313 0.41710904 10132122
-0.20564188 -0.21074592 0.49508661 2894892
-0.18486716 -0.20624185 0.47489232 2894892
-0.20521043 -0.17526886 0.49471122 2894892
-0.17876227 -0.17501132 0.46899346 2894892
-0.20516641 -0.12498395 0.49473038 2894892
-0.17877539 -0.12500355 0.46907046 2894892
-0.20520908 -0.075016581 0.49483359 2894892
-0.17882538 -0.074998915 0.4691799 2894892
-0.20525025 -0.025001137 0.49493489 2894892
-0.17877015 -0.024918931 0.46918693 2894892
-0.20529342 0.025008129 0.49503791 2894892
-0.17859167 0.024997363 0.46907568 2894892
-0.20533542 0.074996926 0.49514118 3947580
-0.17862964 0.074999593 0.46917477 3947580
-0.36592326 0.11487268 0.48006487 10197915
-0.32500404 0.11491664 0.47418222 10197915
-0.27500609 0.11495636 0.47431868 10197915
-0.22298394 0.11409013 0.47588822 10197915
-0.18119797 0.11021528 0.4667795 10197915
-0.25618976 -0.22175536 0.54422235 2894892
-0.23167975 -0.21640965 0.52039617 2894892
-0.25612587 -0.17499045 0.54421759 2894892
-0.22969572 -0.17492294 0.51852101 2894892
-0.25587484 -0.12465601 0.54403573 2894892
-0.22937199 -0.12509938 0.51826471 2894892
-0.25581852 -0.075038724 0.54404163 2894892
-0.22930616 -0.074987702 0.51826108 2894892
-0.25586995 -0.025007674 0.54415345 2894892
-0.2293638 -0.025002113 0.51838505 2894892
-0.25578928 0.024635198 0.54413533 2894892
-0.22940989 0.024992501 0.51848191 2894892
-0.25556314 0.075014628 0.54397845 4013373
-0.22946471 0.074995026 0.51860505 4013373
-0.41200295 0.11472999 0.53313249 10197915
-0.37495279 0.1147785 0.52377343 10197915
-0.32499495 0.11481734 0.52386647 10197915
-0.27271834 0.11381261 0.52642703 10197915
-0.2319413 0.10997628 0.5167135 10197915
-0.30724597 -0.25785232 0.59382075 2894892
-0.29013458 -0.25412121 0.57718754 2894892
-0.30684346 -0.22500253 0.59346998 2894892
-0.28051421 -0.22475311 0.56787032 2894892
-0.30690369 -0.17500506 0.59358972 2894892
-0.2804046 -0.17501131 0.56782401 2894892
-0.30659395 -0.1253145 0.59334987 2894892
-0.28048939 -0.12501396 0.56796658 2894892
-0.30654025 -0.074993663 0.59335989 2894892
-0.28053078 -0.074995682 0.56806874 2894892
-0.30660272 -0.025021616 0.59348202 2894892
-0.28058776 -0.024990274 0.56818652 2894892
-0.30666977 0.02499078 0.59360832 2894892
-0.28049144 0.025134709 0.56815529 2894892
-0.30672899 0.075004511 0.5937286 4079166
-0.28026679 0.074993581 0.56799847 4013373
-0.45920125 0.11458092 0.5889526 10197915
-0.42423579 0.11463728 0.57463574 10197915
-0.37501574 0.11467943 0.57308221 10197915
-0.32272229 0.11359962 0.57593787 10197915
-0.28250879 0.10986888 0.56594157 10197915
-0.35788059 -0.26884159 0.64304048 2894892
-0.33330432 -0.26351169 0.61915094 2894892
-0.35773018 -0.22497532 0.64294803 2894892
-0.331532 -0.22500962 0.61747438 2894892
-0.35779238 -0.1749555 0.64307058 2894892
-0.33161449 -0.17498216 0.61761707 2894892
-0.3573381 -0.12508383 0.64269048 2894892
-0.33124152 -0.12485605 0.61731607 2894892
-0.35737246 -0.075006358 0.64278561 2894892
-0.33121884 -0.075009316 0.61735487 2894892
-0.35718939 -0.024496233 0.64266944 2894892
-0.33105099 -0.025174282 0.6172545 2894892
-0.35693908 0.025001138 0.64248633 2894892
-0.33081228 0.025002128 0.61708355 2894892
-0.35701883 0.074975699 0.64262611 4079166
-0.33087173 0.074997075 0.61720234 4079166
-0.50598192 0.11443457 0.64354569 10197915
-0.47270262 0.11449441 0.62686479 10197915
-0.42466429 0.11453904 0.62357408 10197915
-0.37247357 0.11330451 0.62579817 10197915
-0.33313787 0.10985243 0.61508346 10197915
-0.40919471 -0.30507058 0.69288987 2894892
-0.39566422 -0.30216128 0.67973745 2894892
-0.40824464 -0.27505293 0.69200307 2894892
-0.38296571 -0.27372766 0.66742587 2894892
-0.40832743 -0.22497743 0.69214535 2894892
-0.38239893 -0.22502138 0.66693389 2894892
-0.4084146 -0.17499995 0.69229156 2894892
-0.38249591 -0.17505653 0.66709054 2894892
-0.40850398 -0.12497806 0.69243973 2894892
-0.38197631 -0.12499234 0.66664708 2894892
-0.40858656 -0.074982926 0.69258195 2894892
-0.38201445 -0.074990407 0.66674644 2894892
-0.40778908 -0.025208656 0.69186777 2894892
-0.38160151 -0.025127936 0.66640496 2894892
-0.40741462 0.024998808 0.69156563 2894892
-0.38155508 0.024987532 0.66642207 2894892
-0.40749696 0.07500945 0.69170743 4079166
-0.38165265 0.075005211 0.66657841 4079166
-0.55219704 0.11429051 0.69723761 10197915
-0.51960552 0.11435293 0.67892367 10197915
-0.47460842 0.1143977 0.67432302 10197915
-0.42267954 0.11313734 0.67609125 10197915
-0.38372007 0.10974034 0.66451418 10197915
-0.45895994 -0.31577048 0.74126488 2894892
-0.43450364 -0.31051219 0.71749228 2894892
-0.45864505 -0.27496019 0.74100834 2894892
-0.43258208 -0.27500245 0.71566635 2894892
-0.45873579 -0.22501902 0.74115884 2894892
-0.43265286 -0.22499359 0.71579665 2894892
-0.45883983 -0.17495456 0.74132133 2894892
-0.43278006 -0.17497721 0.71598309 2894892
-0.45893043 -0.12497137 0.74147171 2894892
-0.4328393 -0.12499086 0.71610117 2894892
-0.45877844 -0.075498752 0.74138415 2894892
-0.43295524 -0.07502275 0.71627617 2894892
-0.45835713 -0.025005976 0.74103737 2894892
-0.4326669 -0.024736097 0.71605641 2894892
-0.4584527 0.025012925 0.74119222 2894892
-0.43240389 0.025012242 0.71586579 2894892
-0.45853782 0.074968137 0.74133593 4079166
-0.43249598 0.075000376 0.71601522 4079166
-0.56521374 0.11421508 0.72978055 10066329
-0.52499342 0.1142588 0.72384495 10132122
-0.47257519 0.11285973 0.72672904 10132122
-0.43444523 0.10934312 0.71465194 10132122
-0.51383275 -0.3527357 0.79457337 2894892
-0.50987732 -0.32461071 0.79076225 2894892
-0.48453712 -0.32163471 0.7661261 2894892
-0.50878584 -0.27501035 0.78976148 2894892
-0.48330697 -0.27489391 0.76498801 2894892
-0.50888586 -0.22502781 0.78992075 2894892
-0.48342881 -0.22496593 0.76516962 2894892
-0.50897723 -0.17508447 0.79007167 2894892
-0.48349747 -0.17498402 0.76529741 2894892
-0.50908381 -0.12503076 0.7902357 2894892
-0.48363772 -0.12503126 0.7654953 2894892
-0.50918567 -0.07501597 0.79039633 2894892
-0.48343921 -0.074692085 0.76536208 2894892
-0.50930464 -0.025040029 0.7905736 2894892
-0.48300251 -0.024973543 0.76499891 2894892
-0.50940233 0.02498748 0.79073083 2894892
-0.48310298 0.024980487 0.76515931 2894892
-0.50951272 0.075005002 0.79089922 4144959
-0.48321402 0.07500197 0.76532888 4144959
-0.61190438 0.11406886 0.78434747 9934743
-0.57487559 0.11411913 0.77386773 9934743
-0.52277613 0.11265673 0.77649975 10000536
-0.48499054 0.10937512 0.76364082 10066329
-0.56142193 -0.36309192 0.84083277 2894892
-0.53701031 -0.35781184 0.81710368 2894892
-0.55996817 -0.32530522 0.83946508 2894892
-0.53480858 -0.32503667 0.81500268 2894892
-0.55996448 -0.2750439 0.83952367 2894892
-0.53403497 -0.27511081 0.8143121 2894892
-0.56008971 -0.2249378 0.83970743 2894892
-0.53417701 -0.22500969 0.81451094 2894892
-0.56020325 -0.17494933 0.83988029 2894892
-0.53427041 -0.17502621 0.81466383 2894892
-0.56030786 -0.12497445 0.84004301 2894892
-0.53438729 -0.12498216 0.81483954 2894892
-0.5604459 -0.074979223 0.84023893 2894892
-0.5344848 -0.074976824 0.81499618 2894892
-0.56054842 -0.02499813 0.84040082 2894892
-0.53461426 -0.025010491 0.81518304 2894892
-0.56066573 0.02500507 0.84057504 2894892
-0.53472972 0.024997586 0.81535786 2894892
-0.56009948 0.075498804 0.84008712 4210752
-0.53419805 0.074685685 0.81490165 4144959
-0.65814406 0.11392525 0.83779562 9934743
-0.62389046 0.11397867 0.82465214 9934743
-0.57237291 0.11229584 0.82685769 9934743
-0.53572661 0.10917747 0.81340647 9934743
-0.62096709 -0.4009811 0.89868325 2894892
-0.61066681 -0.37417963 0.88870084 2894892
-0.58595824 -0.36843699 0.86468387 2894892
-0.61010349 -0.32499787 0.88821357 2894892
-0.58437413 -0.32484767 0.86319679 2894892
-0.61021918 -0.2749725 0.88838834 2894892
-0.58438545 -0.27502713 0.86326915 2894892
-0.61037868 -0.22503826 0.88860524 2894892
-0.58450896 -0.2250296 0.86344981 2894892
-0.61049163 -0.17497192 0.88877678 2894892
-0.58464527 -0.17498598 0.86364514 2894892
-0.61061102 -0.12495829 0.88895351 2894892
-0.58474952 -0.12502278 0.86380869 2894892
-0.61075014 -0.074997596 0.8891502 2894892
-0.5848819 -0.075064853 0.86399847 2894892
-0.61086738 -0.024979817 0.88932645 2894892
-0.5849973 -0.025009593 0.86417276 2894892
-0.61099494 0.024986736 0.88951159 2894892
-0.58511907 0.02501657 0.86435276 2894892
-0.6111269 0.074935637 0.88970172 4210752
-0.58524215 0.074985728 0.86453331 4210752
-0.70425928 0.11378193 0.89114273 9934743
-0.67153376 0.11383999 0.87507606 9934743
-0.62265861 0.1121641 0.87578118 9934743
-0.58666354 0.10909248 0.86287582 9934743
-0.66249347 -0.41008192 0.93904912 2894892
-0.63882917 -0.40494716 0.91604644 2894892
-0.66145772 -0.37499967 0.93808508 2894892
-0.63533193 -0.37459469 0.91268301 2894892
-0.66161937 -0.32485569 0.93830383 2894892
-0.63516837 -0.32494742 0.91258502 2894892
-0.66173553 -0.27488339 0.93847924 2894892
-0.63527381 -0.2749106 0.91274989 2894892
-0.66188735 -0.22496943 0.93868786 2894892
-0.63542122 -0.22497952 0.91295397 2894892
-0.66201913 -0.17503414 0.93887818 2894892
-0.63552976 -0.174964 0.91312146 2894892
-0.66138113 -0.12567495 0.93831825 2894892
-0.63570756 -0.12499152 0.91335452 2894892
-0.66105211 -0.075004913 0.93806005 2894892
-0.63581908 -0.074997455 0.91352665 2894892
-0.66120285 -0.025006713 0.93826866 2894892
-0.63593662 -0.02498325 0.91370201 2894892
-0.66134101 0.02501368 0.93846476 2894892
-0.63606924 0.024990162 0.91389197 2894892
-0.66146588 0.075053602 0.93864805 4276545
-0.63623053 0.075014636 0.91411042 4210752
-0.7525385 0.11362782 0.94903976 9934743
-0.7192058 0.11369353 0.92940634 9934743
-0.67347252 0.1121572 0.9258337 9868950
-0.63742816 0.10912181 0.91215456 9868950
-0.71259218 -0.42097822 0.98774797 2894892
-0.68749034 -0.41547611 0.96334785 2894892
-0.71221894 -0.37499219 0.9874419 2894892
-0.68684822 -0.37500986 0.96277285 2894892
-0.71236664 -0.32515249 0.98764652 2894892
-0.68698031 -0.3249009 0.96296334 2894892
-0.71251082 -0.27519929 0.9878484 2894892
-0.68713564 -0.27485079 0.96317607 2894892
-0.71265489 -0.22504507 0.98805052 2894892
-0.68726617 -0.22501872 0.96336478 2894892
-0.71281362 -0.1750512 0.98826569 2894892
-0.68742621 -0.1750866 0.96358168 2894892
-0.71294761 -0.12499079 0.98845828 2894892
-0.68667674 -0.12451746 0.96291524 2894892
-0.71312106 -0.07500051 0.98868823 2894892
-0.68638605 -0.074980639 0.96269321 2894892
-0.7132498 -0.025035892 0.98887551 2894892
-0.68655896 -0.024986638 0.96292305 2894892
-0.71341366 0.024997391 0.98909652 2894892
-0.6866985 0.024957241 0.9631201 2894892
-0.71145993 0.075466797 0.98725927 4408131
-0.68607116 0.074408166 0.96257144 4276545
-0.7651692 0.11355341 0.98120719 9868950
-0.72271287 0.11168786 0.97730607 9868950
-0.68722898 0.10849736 0.96183968 9868950
-0.76553541 -0.45748174 1.0391814 2894892
-0.74383825 -0.45272207 1.0180901 2894892
-0.76389343 -0.42499599 1.0376251 2894892
-0.73739564 -0.42476758 1.0118606 2894892
-0.76404148 -0.37501836 1.0378304 2894892
-0.73749095 -0.37500525 1.0120145 2894892
-0.76384258 -0.32566166 1.0376976 2894892
-0.73763365 -0.3251811 1.0122145 2894892
-0.76283723 -0.27511194 1.0367819 2894892
-0.73776633 -0.27514869 1.0124055 2894892
-0.76301271 -0.22495836 1.0370148 2894892
-0.73795825 -0.22500385 1.0126532 2894892
-0.76315248 -0.17494442 1.0372123 2894892
-0.73810112 -0.17502372 1.0128542 2894892
-0.76332474 -0.12490924 1.0374415 2894892
-0.73823965 -0.12497603 1.0130506 2894892
-0.76214641 -0.0746409 1.0363567 2894892
-0.73718697 -0.075293429 1.0120879 2894892
-0.76213682 -0.025046229 1.0364095 2894892
-0.7371161 -0.025000053 1.0120807 2894892
-0.7622959 0.025053225 1.0366255 2894892
-0.73727 0.025006991 1.0122919 2894892
-0.76243657 0.075028777 1.0368246 4408131
-0.73610967 0.075239897 1.0112258 4408131
-0.81212902 0.11340619 1.0361745 9868950
-0.77320945 0.11152275 1.0269536 9868950
-0.73752725 0.1085023 1.0105249 9868950
-0.81532466 -0.46831113 1.0875787 2894892
-0.78922486 -0.46266901 1.0622085 2894892
-0.81397766 -0.42564276 1.0863219 2894892
-0.78863716 -0.42507696 1.0616838 2894892
-0.81310058 -0.37495309 1.0855315 2894892
-0.78881079 -0.37501311 1.0619137 2894892
-0.81325895 -0.32504636 1.0857474 2894892
-0.78851318 -0.32438579 1.0616866 2894892
-0.81342846 -0.27506077 1.0859737 2894892
-0.78753489 -0.27505919 1.0607965 2894892
-0.81360948 -0.22511235 1.086211 2894892
-0.78773731 -0.2249516 1.0610551 2894892
-0.81376135 -0.17503007 1.0864203 2894892
-0.78787053 -0.17493129 1.0612466 2894892
-0.81394565 -0.1249829 1.0866611 2894892
-0.78804857 -0.12505509 1.0614804 2894892
-0.81412256 -0.075027637 1.0868952 2894892
-0.78820622 -0.075048253 1.0616957 2894892
-0.81427413 -0.02499559 1.087103 2894892
-0.78838098 -0.024966432 1.0619272 2894892
-0.81444359 0.025002535 1.0873301 2894892
-0.7885446 0.024973372 1.0621479 2894892
-0.81463259 0.074963629 1.087575 4408131
-0.78868884 0.074932061 1.0623497 4408131
-0.85866624 0.11326042 1.0905896 9934743
-0.8228218 0.11123042 1.0785346 9934743
-0.78918231 0.10791159 1.0614017 10000536
-0.86832899 -0.50484347 1.1390715 2894892
-0.84852493 -0.50057864 1.1198207 2894892
-0.86470073 -0.47492605 1.1355805 2894892
-0.8401646 -0.47356212 1.1117259 2894892
-0.86489791 -0.42491081 1.1358333 2894892
-0.83933246 -0.42408219 1.1109768 2894892
-0.86505646 -0.37505132 1.1360499 2894892
-0.8384921 -0.37505427 1.1102206 2894892
-0.86523819 -0.32499531 1.1362875 2894892
-0.83864921 -0.3249886 1.1104347 2894892
-0.86542255 -0.27497488 1.1365287 2894892
-0.83882481 -0.2749657 1.1106669 2894892
-0.86560768 -0.22505397 1.1367694 2894892
-0.83902675 -0.22498916 1.1109252 2894892
-0.86578876 -0.17493436 1.137008 2894892
-0.83918464 -0.17492583 1.1111393 2894892
-0.86595142 -0.12491158 1.1372287 2894892
-0.83935839 -0.12497263 1.1113707 2894892
-0.86421889 -0.075069442 1.1356046 2894892
-0.83841163 -0.075890072 1.1105103 2894892
-0.86271429 -0.025021173 1.1342034 2894892
-0.83796954 -0.024989022 1.1101431 2894892
-0.86289454 0.025028141 1.1344401 2894892
-0.838144 0.024995964 1.1103747 2894892
-0.86304873 0.07509616 1.1346521 4473924
-0.83835542 0.074922919 1.1106417 4408131
-0.90413105 0.11312244 1.1415312 10197915
-0.87039882 0.11077713 1.1281301 10132122
-0.8395111 0.10802736 1.110391 10066329
-0.91490507 -0.51488674 1.1843464 2894892
-0.88941085 -0.50944805 1.159564 2894892
-0.91379684 -0.47503638 1.1833169 2894892
-0.88873816 -0.47505185 1.1589521 2894892
-0.91396862 -0.42499837 1.1835467 2894892
-0.88892365 -0.4251098 1.1591949 2894892
-0.91421199 -0.37500164 1.1838444 2894892
-0.88912463 -0.37495473 1.1594517 2894892
-0.91436529 -0.3249225 1.1840556 2894892
-0.88929617 -0.32487589 1.1596797 2894892
-0.91455477 -0.27494332 1.1843013 2894892
-0.88951081 -0.27486959 1.1599503 2894892
-0.91476119 -0.22500648 1.1845632 2894892
-0.88963813 -0.22494043 1.1601354 2894892
-0.91494614 -0.1750482 1.1848053 2894892
-0.88986737 -0.17489417 1.1604202 2894892
-0.9151181 -0.12513024 1.1850333 2894892
-0.89005303 -0.12492235 1.1606622 2894892
-0.91532004 -0.074946158 1.1852912 2894892
-0.88939852 -0.07388778 1.1600888 2894892
-0.91552418 -0.024926137 1.1855519 2894892
-0.88856155 -0.024974661 1.159335 2894892
-0.9157142 0.024933042 1.1857983 2894892
-0.88874662 0.024981596 1.1595767 2894892
-0.9158923 0.074994721 1.1860324 4539717
-0.88885403 0.0750366 1.1597426 4473924
-0.91823035 0.11015665 1.1789656 10197915
-0.88985264 0.10835965 1.158668 10197915
-0.97637856 -0.5533005 1.2440711 2894892
-0.96721029 -0.52457821 1.2351918 2894892
-0.94011909 -0.52046824 1.2088556 2894892
-0.96609896 -0.47574392 1.2341719 2894892
-0.93992102 -0.47502002 1.208719 2894892
-0.96525997 -0.42492542 1.2334183 2894892
-0.94011724 -0.42503294 1.2089711 2894892
-0.96548593 -0.37499973 1.2336992 2894892
-0.94032985 -0.37502462 1.2092404 2894892
-0.96565175 -0.32483473 1.2339219 2894892
-0.94051147 -0.32479647 1.2094779 2894892
-0.96585166 -0.27479249 1.234179 2894892
-0.94069034 -0.27484471 1.2097131 2894892
-0.96605337 -0.22502297 1.2344363 2894892
-0.94093603 -0.22497535 1.210014 2894892
-0.96630484 -0.17508762 1.234742 2894892
-0.94109869 -0.17508376 1.210234 2894892
-0.96646875 -0.12505654 1.2349629 2894892
-0.94129562 -0.12507121 1.2104867 2894892
-0.96665859 -0.075005338 1.2352096 2894892
-0.94147503 -0.075038128 1.2107227 2894892
-0.96601003 -0.024196291 1.2346413 2894892
-0.94103718 -0.026358694 1.2103566 2894892
-0.96494937 0.024917437 1.2336709 2894892
-0.93985361 0.025050173 1.2092692 2894892
-0.96513587 0.074955121 1.2339135 4539717
-0.94001853 0.075038537 1.2094913 4539717
-0.96583855 0.1090985 1.2303659 10197915
-0.94083047 0.10859589 1.2079037 10197915
-1.0196184 -0.56265444 1.2861028 2894892
-0.99386001 -0.55716759 1.2610639 2894892
-1.0171726 -0.52414292 1.2837722 2894892
-0.99240005 -0.52687174 1.2596819 2894892
-1.0161755 -0.4750779 1.2828629 2894892
-0.98986304 -0.473214 1.2572811 2894892
-1.0163995 -0.42507461 1.2831427 2894892
-0.98923945 -0.42484328 1.2567344 2894892
-1.0166616 -0.37505063 1.2834587 2894892
-0.98944545 -0.37493896 1.2569965 2894892
-1.01675 -0.32513666 1.2836062 2894892
-0.98960727 -0.32475665 1.2572155 2894892
-1.0167933 -0.27554435 1.2837099 2894892
-0.98981261 -0.27480891 1.2574767 2894892
-1.0149678 -0.2250365 1.281997 2894892
-0.99006516 -0.22510488 1.2577828 2894892
-1.0151509 -0.17507342 1.2822365 2894892
-0.99027133 -0.17511736 1.2580451 2894892
-1.0153774 -0.12501305 1.2825189 2894892
-0.99044418 -0.12497935 1.2582755 2894892
-1.0155467 -0.075007707 1.2827441 2894892
-0.99065042 -0.074951343 1.2585371 2894892
-1.0158155 -0.025058929 1.2830672 2894892
-0.9908917 -0.025032073 1.2588335 2894892
-1.0160272 0.025065903 1.2833352 2894892
-0.99109858 0.025039049 1.2590963 2894892
-1.0161817 0.075056367 1.2835469 4605510
-0.99127024 0.074999951 1.2593248 4605510
-1.0155624 0.10739261 1.2824037 10197915
-0.99176258 0.1076811 1.2588321 10197915
-1.0335401 -0.25367242 1.3000199 2894892
-1.0336632 -0.22515349 1.3001744 2894892
-1.0338792 -0.1750959 1.3004464 2894892
-1.0340952 -0.12501743 1.3007182 2894892
-1.0343114 -0.074917957 1.3009899 2894892
-1.0345278 -0.02479762 1.301262 2894892
-1.0347416 0.024804458 1.3015312 2894892
-1.034958 0.074966602 1.3018035 4671303
-1.0350667 0.1067968 1.3019401 10197915
