# .PCD v0.7 - Point Cloud Data file format
VERSION 0.7
FIELDS x y z rgb
SIZE 4 4 4 4
TYPE F F F U
COUNT 1 1 1 1
WIDTH 1156
HEIGHT 1
VIEWPOINT 0 0 0 1 0 0 0
POINTS 1156
DATA ascii
-0.17500462 0.11531908 0.42366338 10197915
-0.12500203 0.11531718 0.4236705 10197915
-0.074997604 0.11531903 0.42367107 10197915
-0.025001129 0.11531994 0.42367989 10197915
0.025001582 0.1153221 0.42367908 10197915
0.074996553 0.11532402 0.42370027 10197915
0.12499733 0.11532695 0.42369917 5131854
0.17500369 0.11532843 0.42370281 2894892
0.21817559 0.11210445 0.42454904 2894892
0.23725323 -0.20766713 0.48129144 2894892
0.23571336 -0.17498352 0.47373804 2894892
0.23568115 -0.12500335 0.47367886 2894892
0.23564799 -0.075005375 0.47360712 2894892
0.23561244 -0.024995226 0.47353292 2894892
0.23557831 0.025001075 0.47346672 2894892
0.23554762 0.075009108 0.47340786 2894892
-0.36587259 0.11520763 0.47993594 10197915
-0.32501787 0.11521887 0.47375318 10197915
-0.27501297 0.11522081 0.47379771 10197915
-0.22501315 0.11522453 0.47380647 10197915
-0.17499949 0.11522501 0.47380629 10197915
-0.12500304 0.11522666 0.47382036 10197915
-0.075005427 0.11522711 0.47382751 10197915
-0.02500011 0.11522909 0.47382775 10197915
0.025000557 0.1152324 0.47383097 10197915
0.075008616 0.11523342 0.4738529 10197915
0.12501171 0.11523522 0.47385126 5131854
0.17500384 0.11523493 0.47385323 2894892
0.22390002 0.11266521 0.47449154 2894892
0.24580874 -0.21713439 0.52359056 2894892
0.25065401 -0.22245182 0.54754466 2894892
0.24532187 -0.17499858 0.52126896 2894892
0.25061563 -0.17501596 0.54744804 2894892
0.24528591 -0.12501907 0.52118009 2894892
0.2505801 -0.12510166 0.54737055 2894892
0.24525151 -0.075006969 0.52111453 2894892
0.25054568 -0.075050689 0.54729789 2894892
0.24521646 -0.024994174 0.52103519 2894892
0.25050896 -0.025013877 0.54721469 2894892
0.24518074 0.025004854 0.52095848 2894892
0.2504732 0.025009124 0.54713696 2894892
0.24514648 0.075004816 0.52088749 2894892
0.25043872 0.075017489 0.54706419 2894892
-0.41194761 0.11510996 0.53291464 10197915
-0.37493387 0.11512762 0.52335793 10197915
-0.32496595 0.1151301 0.52336794 10197915
-0.2749989 0.115132 0.52335203 10197915
-0.22500226 0.11513313 0.5233621 10197915
-0.17499608 0.115136 0.52337098 10197915
-0.12498952 0.11513829 0.52338392 10197915
-0.074989252 0.11513822 0.52338678 10197915
-0.02499694 0.11514161 0.52339339 10197915
0.024997396 0.11514164 0.52340627 10197915
0.074992523 0.11514367 0.52341115 10197915
0.12498954 0.1151453 0.52341747 5131854
0.17498761 0.11514605 0.52341306 2894892
0.22892196 0.11308451 0.52339756 2894892
0.25041196 0.10764296 0.54700607 2894892
0.25827187 -0.25591764 0.58515871 2894892
0.25594458 -0.22483245 0.57370716 2894892
0.25607097 -0.17497648 0.57443297 2894892
0.25604096 -0.12498124 0.57437652 2894892
0.25600299 -0.074991152 0.57428479 2894892
0.25596476 -0.024997123 0.57420486 2894892
0.25592938 0.025010644 0.57411939 2894892
0.25589302 0.074994609 0.57404679 2894892
-0.45913807 0.11500777 0.58869475 10197915
-0.4239758 0.11503448 0.57466853 10197915
-0.37506056 0.11503784 0.57369685 10197915
-0.32505488 0.11503923 0.57372397 10197915
-0.27500454 0.11504103 0.57373422 10197915
-0.22500707 0.115042 0.57372844 10197915
-0.17500743 0.11504424 0.57374454 10197915
-0.12500727 0.11504457 0.57374996 10197915
-0.075016141 0.11504739 0.57374436 10197915
-0.025013059 0.11504901 0.57376814 10197915
0.025013549 0.11505024 0.57377815 10197915
0.075008504 0.11505255 0.5737738 10197915
0.1249943 0.1150526 0.5737983 5197647
0.17500335 0.11505572 0.57378757 2894892
0.22500284 0.11505743 0.57381415 2894892
0.25532809 0.10936881 0.57581282 2894892
0.26666796 -0.2651999 0.62666982 2894892
0.26596788 -0.22499464 0.62328637 2894892
0.26616335 -0.17500447 0.6243512 2894892
0.26612478 -0.12497883 0.62425721 2894892
0.26608962 -0.074979186 0.62418222 2894892
0.2660507 -0.024994252 0.6240899 2894892
0.26601174 0.025001857 0.62399429 2894892
0.26597571 0.074995302 0.62391186 2894892
-0.5058558 0.11490744 0.64336252 10197915
-0.47232053 0.11493835 0.62714505 10197915
-0.42499691 0.1149435 0.62490147 10197915
-0.37498081 0.1149447 0.62494022 10197915
-0.32497725 0.11494652 0.62484884 10197915
-0.27501568 0.11494795 0.62490201 10197915
-0.22500935 0.11495059 0.62492436 10197915
-0.17500176 0.11495219 0.62492722 10197915
-0.12502137 0.11495314 0.62492639 10197915
-0.07499665 0.11495411 0.62494701 10197915
-0.024984999 0.11495584 0.62496245 10197915
0.024985457 0.1149586 0.62496537 10197915
0.074999869 0.11495965 0.62496829 10197915
0.12501584 0.11496186 0.62497407 5197647
0.17500435 0.11496254 0.62497866 2894892
0.22500874 0.11496388 0.6249916 2894892
0.26230845 0.11107048 0.62566447 2894892
0.27960742 -0.30453345 0.69059342 2894892
0.27647841 -0.2740868 0.67517674 2894892
0.27627796 -0.22499888 0.67428064 2894892
0.27624473 -0.17499885 0.6742121 2894892
0.27620086 -0.12498353 0.67409724 2894892
0.2761662 -0.074982703 0.67402291 2894892
0.27612367 -0.02499624 0.67391253 2894892
0.27608442 0.024991503 0.67381638 2894892
0.27604654 0.074993663 0.67372847 2894892
-0.55223536 0.11480905 0.69696808 10197915
-0.51952487 0.1148434 0.67856926 10197915
-0.47500116 0.11485153 0.67450172 10197915
-0.4250052 0.11485353 0.67453098 10197915
-0.37493354 0.11485545 0.67452919 10197915
-0.32495251 0.11485685 0.67455912 10197915
-0.27500832 0.11485872 0.67455065 10197915
-0.2249877 0.11486004 0.67457873 10197915
-0.17498466 0.11486173 0.67457658 10197915
-0.12498014 0.11486325 0.67457443 10197915
-0.074974142 0.11486431 0.67460787 10197915
-0.02498577 0.11486623 0.67460257 10197915
0.02498623 0.11486838 0.67461008 10197915
0.07497739 0.11486948 0.67463589 10197915
0.12498887 0.11487147 0.67462307 5197647
0.17500179 0.11487343 0.67464048 2894892
0.22499734 0.11487424 0.67464858 2894892
0.26859498 0.11176243 0.67512822 2894892
0.28735176 -0.31306419 0.72888261 2894892
0.28656381 -0.27499753 0.72505838 2894892
0.28651962 -0.22500871 0.72494268 2894892
0.28648138 -0.17501552 0.72484905 2894892
0.2864373 -0.12499876 0.72472936 2894892
0.28639963 -0.074996315 0.72464424 2894892
0.28635782 -0.025008431 0.72453207 2894892
0.28631687 0.025003707 0.72442907 2894892
0.28627586 0.075000651 0.72432607 2894892
-0.56509113 0.11475003 0.72939032 10197915
-0.5249936 0.11476272 0.72328436 10197915
-0.47498289 0.11476374 0.72326446 10197915
-0.42499468 0.11476585 0.72327697 10197915
-0.3750045 0.11476737 0.72328991 10197915
-0.32498983 0.11476801 0.72330713 10197915
-0.27499676 0.11477002 0.72333425 10197915
-0.22500277 0.11477209 0.72332507 10197915
-0.17500697 0.11477342 0.72332382 10197915
-0.12501006 0.11477483 0.7233398 10197915
-0.07501173 0.11477662 0.72336966 10197915
-0.025012141 0.1147783 0.72336853 10197915
0.025012627 0.11477999 0.72337639 10197915
0.075014941 0.11478142 0.7234028 10197915
0.12501884 0.1147825 0.72339422 5263440
0.17500104 0.11478442 0.72338361 2894892
0.22498488 0.11478658 0.72341275 2894892
0.27421716 0.112307 0.7244463 2894892
0.29912084 -0.35102829 0.78702086 2894892
0.30091727 -0.35309073 0.79590213 2894892
0.29610592 -0.32198796 0.7721656 2894892
0.30096743 -0.32731038 0.79620129 2894892
0.29593557 -0.2750006 0.77141529 2894892
0.30108282 -0.27500185 0.79687446 2894892
0.29588905 -0.2249804 0.77128386 2894892
0.3010402 -0.22511947 0.79676121 2894892
0.29585093 -0.17500143 0.77119184 2894892
0.30099478 -0.17508715 0.79663563 2894892
0.29580212 -0.12498349 0.77105004 2894892
0.30095455 -0.1250679 0.79653502 2894892
0.29576707 -0.07497973 0.7709744 2894892
0.30090928 -0.075063273 0.79640913 2894892
0.29572114 -0.024990423 0.77084571 2894892
0.30086902 -0.025073087 0.79630858 2894892
0.29567921 0.024985664 0.7707364 2894892
0.30082613 0.025068328 0.79619521 2894892
0.29563773 0.074999735 0.77063096 2894892
0.30078101 0.075030103 0.79606986 2894892
-0.61186731 0.11464968 0.78412586 10197915
-0.57488251 0.11467104 0.77329391 10197915
-0.52499366 0.11467281 0.77314395 10197915
-0.47500455 0.11467393 0.77317601 10197915
-0.42498738 0.11467475 0.77318883 10197915
-0.37504947 0.11467639 0.77318978 10197915
-0.32505572 0.11467896 0.77320701 10197915
-0.27500811 0.11468095 0.77323079 10197915
-0.22501218 0.11468176 0.77323318 10197915
-0.17498828 0.11468253 0.77323896 10197915
-0.12498937 0.11468459 0.77326381 10197915
-0.075015962 0.11468715 0.77323836 10197915
-0.025014898 0.11468863 0.77328777 10197915
0.025015365 0.11468947 0.77329594 10197915
0.075019158 0.1146905 0.77326691 10197915
0.12499825 0.11469279 0.7733193 5263440
0.17500523 0.11469524 0.77331287 2894892
0.22501363 0.1146967 0.77330846 2894892
0.27858278 0.11292006 0.77336925 2894892
0.30075267 0.10750189 0.7960766 2894892
0.30758208 -0.36044431 0.82885379 2894892
0.30662525 -0.32503754 0.82418954 2894892
0.30658713 -0.27500352 0.8240993 2894892
0.30653805 -0.22498386 0.82395637 2894892
0.30649912 -0.17500709 0.82386208 2894892
0.30644765 -0.12498747 0.8237049 2894892
0.30641204 -0.074982017 0.82362831 2894892
0.30636421 -0.024991237 0.82348806 2894892
0.30632055 0.024986509 0.82337129 2894892
0.3062782 0.0750058 0.82325929 2894892
-0.6580506 0.11455172 0.83746046 10197915
-0.62382001 0.11457732 0.82411438 10197915
-0.57501554 0.11458023 0.82312405 10197915
-0.52502996 0.11458143 0.82311738 10197915
-0.47497571 0.11458338 0.8231709 10197915
-0.42498741 0.1145849 0.82318777 10197915
-0.37513497 0.11458692 0.82314229 10197915
-0.32510948 0.11458775 0.82318711 10197915
-0.27498141 0.11458962 0.82320553 10197915
-0.22498769 0.11459093 0.82322943 10197915
-0.17499295 0.11459286 0.82320446 10197915
-0.1249966 0.11459434 0.82321912 10197915
-0.074999169 0.11459659 0.82324892 10197915
-0.02500036 0.1145978 0.82325292 10197915
0.025000837 0.11459929 0.82326603 10197915
0.07500238 0.11460092 0.82328713 10197915
0.12500536 0.11460222 0.82327491 5263440
0.17497592 0.11460383 0.82330424 2894892
0.2249818 0.11460552 0.82331288 2894892
0.27498928 0.11460741 0.82332557 2894892
0.30558306 0.1092537 0.82484555 2894892
0.32128125 -0.40039444 0.89653426 2894892
0.31700996 -0.37078506 0.87546581 2894892
0.31652778 -0.32498223 0.87317008 2894892
0.31649131 -0.27498886 0.87308717 2894892
0.31643784 -0.22500993 0.87292272 2894892
0.31640118 -0.17501207 0.87284094 2894892
0.31634086 -0.12499601 0.87263906 2894892
0.31631023 -0.074993625 0.87258673 2894892
0.31625545 -0.025006123 0.87241477 2894892
0.31621066 0.025001403 0.87229103 2894892
0.3161768 0.075026147 0.87222105 2894892
-0.70587474 0.11444654 0.89476466 10197915
-0.67189121 0.11447868 0.87746078 10197915
-0.62496197 0.11448583 0.87449253 10197915
-0.57497287 0.11448747 0.8745296 10197915
-0.52498221 0.11448891 0.87449515 10197915
-0.47499073 0.11449063 0.87458551 10197915
-0.42499769 0.11449233 0.87459052 10197915
-0.37500247 0.11449366 0.87460697 10197915
-0.32500798 0.11449538 0.8744936 10197915
-0.27500984 0.11449683 0.8746084 10197915
-0.22501141 0.11449826 0.87459087 10197915
-0.17501102 0.11449984 0.87463236 10197915
-0.12500978 0.11450156 0.87458211 10197915
-0.075006686 0.11450328 0.87467951 10197915
-0.025003044 0.11450492 0.87461448 10197915
0.024967207 0.11450645 0.87465143 10197915
0.074973665 0.1145078 0.87469006 10197915
0.12498233 0.11450994 0.87467092 5329233
0.17499186 0.11451111 0.87469411 2894892
0.22486719 0.11451301 0.87457711 2894892
0.27499887 0.11451932 0.87197471 2894892
0.31242338 0.11074048 0.87328213 2894892
0.32818821 -0.40821868 0.93068182 2894892
0.32670525 -0.37502307 0.92341238 2894892
0.32665461 -0.32505286 0.92326081 2894892
0.32661346 -0.27505875 0.92315507 2894892
0.32656908 -0.22504064 0.92303467 2894892
0.32652554 -0.1750365 0.92291659 2894892
0.32646453 -0.12500867 0.92271417 2894892
0.32642701 -0.075033024 0.9226262 2894892
0.32638192 -0.025033688 0.92250341 2894892
0.32633573 0.025028942 0.92237222 2894892
0.32628831 0.075038068 0.92223644 2894892
-0.75210291 0.11434794 0.94849044 10197915
-0.71976417 0.11438169 0.93049467 10197915
-0.67506409 0.11438989 0.92655867 10197915
-0.62497944 0.1143916 0.92657149 10197915
-0.57498932 0.11439327 0.92654914 10197915
-0.52494973 0.11439464 0.92662811 10197915
-0.47495624 0.11439647 0.92661631 10197915
-0.42500988 0.11439779 0.92661041 10197915
-0.37487024 0.11439981 0.92660737 10197915
-0.32487181 0.11440108 0.92665327 10197915
-0.27501777 0.1144029 0.9266606 10197915
-0.22501746 0.11440431 0.92669845 10197915
-0.17501605 0.11440614 0.92664981 10197915
-0.12501316 0.11440767 0.92667741 10197915
-0.075008869 0.11440889 0.9267121 10197915
-0.02500383 0.11441088 0.92671329 10197915
0.025004284 0.11441231 0.92672688 10197915
0.075012118 0.11441368 0.9267481 10197915
0.12502193 0.1144157 0.92674309 5329233
0.17498538 0.11441679 0.92677999 2894892
0.22512764 0.11441921 0.92656392 2894892
0.27498776 0.11442548 0.92376244 2894892
0.31829756 0.11170695 0.92433447 2894892
0.33749545 -0.41849077 0.9766981 2894892
0.33693027 -0.3749921 0.97398847 2894892
0.33687654 -0.32500091 0.97382152 2894892
0.33682844 -0.27497908 0.97368115 2894892
0.3367911 -0.22501613 0.97359425 2894892
0.33672699 -0.1750232 0.97337532 2894892
0.33669531 -0.12499841 0.97331804 2894892
0.33663541 -0.074988641 0.97311884 2894892
0.33659944 -0.024993675 0.97304118 2894892
0.3365519 0.024988938 0.97290325 2894892
0.33648789 0.075000271 0.97268462 2894892
-0.7649942 0.11428946 0.980609 10197915
-0.72509944 0.11430115 0.97495264 10197915
-0.67508382 0.11430263 0.97487116 10197915
-0.62495178 0.11430394 0.97494823 10197915
-0.57499105 0.11430573 0.97492957 10197915
-0.52502942 0.11430717 0.97498864 10197915
-0.47500858 0.11430872 0.97500461 10197915
-0.42498589 0.11431056 0.97490579 10197915
-0.37490529 0.11431216 0.97501653 10197915
-0.32493669 0.11431377 0.97501022 10197915
-0.27502611 0.11431522 0.97505742 10197915
-0.22499827 0.11431696 0.97503829 10197915
-0.17502668 0.11431837 0.97503781 10197915
-0.12499606 0.11432012 0.97503597 10197915
-0.074964009 0.11432156 0.97507948 10197915
-0.024988862 0.11432325 0.97510916 10197915
0.024989322 0.11432469 0.97512388 10197915
0.074967258 0.11432671 0.97512192 10197915
0.12500483 0.1143281 0.97510231 5329233
0.17504381 0.11432963 0.97513282 2894892
0.22502647 0.11433102 0.9751609 2894892
0.27501053 0.11433267 0.97523826 2894892
0.324541 0.11195009 0.97498435 2894892
0.34751347 -0.45458025 1.026179 2894892
0.35104123 -0.45846537 1.0436203 2894892
0.34588081 -0.4248921 1.0181613 2894892
0.35095766 -0.42486453 1.0432731 2894892
0.34582666 -0.37499526 1.0179917 2894892
0.35090223 -0.37489048 1.0430974 2894892
0.34577784 -0.32504323 1.0178481 2894892
0.35085815 -0.32493183 1.0429772 2894892
0.3457233 -0.27503559 1.0176778 2894892
0.35080796 -0.27476969 1.0428283 2894892
0.34567583 -0.22504187 1.0175413 2894892
0.35075262 -0.22483847 1.0426521 2894892
0.34564066 -0.17499179 1.0174655 2894892
0.35070857 -0.1749223 1.0425322 2894892
0.34578881 -0.12409837 1.0182979 2894892
0.35078931 -0.12808384 1.0430239 2894892
0.34615684 -0.074990854 1.0202152 2894892
0.35125929 -0.074930117 1.0454531 2894892
0.34609863 -0.024994377 1.0200256 2894892
0.35120958 -0.025117932 1.0453053 2894892
0.34604943 0.024989653 1.0198804 2894892
0.35115939 0.025113149 1.045156 2894892
0.34600046 0.075018078 1.0197362 2894892
0.35110983 0.074897066 1.0450082 2894892
-0.81186938 0.11418805 1.035906 10197915
-0.77478462 0.11420898 1.0249431 10197915
-0.72487229 0.1142107 1.0247984 10197915
-0.67484123 0.11421229 1.0248457 10197915
-0.62499261 0.11421398 1.0248964 10197915
-0.57495981 0.11421566 1.0248781 10197915
-0.52492565 0.11421719 1.0248699 10197915
-0.47501168 0.11421852 1.0249599 10197915
-0.42503515 0.11422058 1.0248082 10197915
-0.37493706 0.11422163 1.0249704 10197915
-0.32489628 0.11422338 1.0249647 10197915
-0.2749773 0.11422513 1.0249784 10197915
-0.22499548 0.11422669 1.0249741 10197915
-0.17495155 0.11422849 1.024918 10197915
-0.12496726 0.1142297 1.0250224 10197915
-0.074981369 0.1142312 1.0250175 10197915
-0.024994686 0.11423295 1.0250493 10197915
0.024995157 0.11423454 1.0250658 10197915
0.074984588 0.11423615 1.0250602 10197915
0.12497607 0.11423755 1.025092 5329233
0.17496885 0.11423943 1.025016 2894892
0.22496302 0.11424091 1.0251212 2894892
0.27495861 0.11424232 1.0251156 2894892
0.32873118 0.11258819 1.024528 2894892
0.35105494 0.10769115 1.045253 2894892
0.35759309 -0.4657442 1.0760139 2894892
0.35697874 -0.42500043 1.0730537 2894892
0.35692757 -0.37496603 1.0729003 2894892
0.35688767 -0.32500872 1.0728005 2894892
0.35682297 -0.27506661 1.0725784 2894892
0.35677618 -0.22507425 1.0724453 2894892
0.35672513 -0.17509709 1.0722919 2894892
0.35669217 -0.12506905 1.0722268 2894892
0.35724255 -0.074712455 1.0750474 2894892
0.3572714 -0.02500318 1.0752889 2894892
0.35722044 0.024998432 1.0751365 2894892
0.35715759 0.074984148 1.074923 2894892
-0.85840523 0.11408884 1.0899184 10197915
-0.82399547 0.11411333 1.0769156 10197915
-0.77504212 0.11411691 1.0759026 10197915
-0.72490454 0.1141183 1.0760269 10197915
-0.67491156 0.11412009 1.0760053 10197915
-0.62499315 0.11412126 1.0760939 10197915
-0.57507324 0.11412313 1.0760095 10197915
-0.52507716 0.11412452 1.0760869 10197915
-0.47508022 0.11412624 1.0760401 10197915
-0.42500734 0.11412793 1.0761057 10197915
-0.37493327 0.11412943 1.0760942 10197915
-0.3250052 0.11413119 1.0761094 10197915
-0.27500275 0.11413238 1.0761849 10197915
-0.22499879 0.11413396 1.0761397 10197915
-0.17499308 0.11413596 1.0761182 10197915
-0.12498616 0.11413715 1.0761688 10197915
-0.074978158 0.11413901 1.0762463 10197915
-0.024968639 0.11414045 1.0761995 10197915
0.024969097 0.11414219 1.0762136 10197915
0.074981399 0.11414343 1.0762906 10197915
0.1249949 0.11414528 1.0762445 5395026
0.17501023 0.11414697 1.0762239 2894892
0.22502699 0.11414825 1.0762743 2894892
0.27504483 0.11414994 1.076349 2894892
0.32506391 0.11415142 1.0763036 2894892
0.356336 0.10904588 1.0768043 2894892
0.37027276 -0.5048297 1.1386533 2894892
0.36726698 -0.47421917 1.1238462 2894892
0.36707675 -0.42496166 1.1230017 2894892
0.36701617 -0.3749958 1.1228008 2894892
0.36697647 -0.32504287 1.1227027 2894892
0.36691236 -0.27497199 1.1224843 2894892
0.36685601 -0.22498144 1.1223031 2894892
0.36682004 -0.17493871 1.1222233 2894892
0.36676395 -0.12491018 1.1220449 2894892
0.36736774 -0.075414337 1.1251287 2894892
0.36740854 -0.025023958 1.1254289 2894892
0.36735639 0.02501921 1.1252686 2894892
0.3673059 0.074967884 1.1251191 2894892
-0.90355361 0.11399545 1.1408024 10197915
-0.87163818 0.11402368 1.1256918 10197915
-0.82501334 0.11402943 1.1234137 10197915
-0.77503884 0.11403076 1.1235287 10197915
-0.72506094 0.11403258 1.1234447 10197915
-0.67498803 0.11403415 1.1234589 10197915
-0.62500852 0.11403552 1.1235751 10197915
-0.57502687 0.1140373 1.12349 10197915
-0.52495104 0.11403883 1.1235399 10197915
-0.47496668 0.11404056 1.1234537 10197915
-0.42507437 0.11404184 1.1236383 10197915
-0.37508774 0.11404362 1.1235529 10197915
-0.32500499 0.11404525 1.1235688 10197915
-0.27501535 0.11404653 1.1236838 10197915
-0.22502437 0.11404832 1.1236005 10197915
-0.17503154 0.11405008 1.1235793 10197915
-0.12503748 0.11405151 1.1236306 10197915
-0.075042583 0.11405298 1.1237459 10197915
-0.025046021 0.11405467 1.1236616 10197915
0.025046473 0.11405624 1.1236775 10197915
0.075045824 0.11405777 1.1237932 10197915
0.12504627 0.11405946 1.1237084 5395026
0.17504868 0.11406106 1.1236889 2894892
0.22495948 0.11406258 1.1237401 2894892
0.27496418 0.114064 1.1238555 2894892
0.32506353 0.11406581 1.1237712 2894892
0.36303318 0.11051482 1.1253902 2894892
0.3781043 -0.51339036 1.1773728 2894892
0.37737834 -0.47504184 1.1738573 2894892
0.37732005 -0.42505422 1.1736676 2894892
0.37726319 -0.37499949 1.1734838 2894892
0.37722594 -0.32503924 1.1733989 2894892
0.37715077 -0.27509448 1.1731254 2894892
0.37710577 -0.22508194 1.1730005 2894892
0.37704888 -0.17508489 1.1728183 2894892
0.37700915 -0.1250999 1.1727197 2894892
0.37693411 -0.075049534 1.172447 2894892
0.37690192 -0.025014251 1.1723855 2894892
0.37684834 0.025009511 1.1722192 2894892
0.37677339 0.075016372 1.171947 2894892
-0.9174698 0.11393254 1.1753007 10197915
-0.87508184 0.11394298 1.1703285 10197915
-0.82505566 0.11394444 1.1704185 10197915
-0.77493 0.11394621 1.1703606 10197915
-0.72499812 0.11394771 1.1703742 10197915
-0.67506349 0.11394927 1.1703924 10197915
-0.62503201 0.11395074 1.1704843 10197915
-0.57509595 0.1139524 1.1704602 10197915
-0.52506119 0.11395409 1.1704432 10197915
-0.47502545 0.11395553 1.1705329 10197915
-0.42498648 0.11395733 1.1703986 10197915
-0.3750464 0.11395868 1.1705663 10197915
-0.32500431 0.11396032 1.1705067 10197915
-0.2749632 0.11396175 1.1705979 10197915
-0.22501712 0.11396344 1.1705749 10197915
-0.17497292 0.11396512 1.1705559 10197915
-0.12492701 0.11396649 1.1706471 10197915
-0.07497596 0.11396834 1.1705116 10197915
-0.025025679 0.11396968 1.1706777 10197915
0.02502615 0.11397129 1.1706961 10197915
0.074979179 0.11397316 1.1705596 10197915
0.12493575 0.11397441 1.1707286 5460819
0.17499006 0.11397616 1.170669 2894892
0.22504534 0.11397766 1.1707217 2894892
0.27500525 0.11397917 1.1707754 2894892
0.32506305 0.11398094 1.1707181 2894892
0.36865279 0.11126541 1.1720829 2894892
0.39173326 -0.55347902 1.2447062 2894892
0.38802674 -0.52330536 1.2264334 2894892
0.38768244 -0.47497523 1.2248245 2894892
0.38763621 -0.42493078 1.2246935 2894892
0.38758695 -0.37498531 1.2245492 2894892
0.38753235 -0.32505363 1.224377 2894892
0.38746813 -0.27505231 1.2241575 2894892
0.38741606 -0.22506447 1.2239987 2894892
0.38738534 -0.17500605 1.2239451 2894892
0.38728178 -0.12496356 1.2235315 2894892
0.38726646 -0.075018093 1.2235531 2894892
0.38719288 -0.025003841 1.2232881 2894892
0.38713786 0.024999112 1.2231144 2894892
0.38710144 0.074984901 1.2230314 2894892
-0.96411854 0.11383265 1.2297778 10197915
-0.92506212 0.1138492 1.2213331 10197915
-0.87508136 0.11385055 1.2214348 10197915
-0.82499838 0.11385244 1.2212826 10197915
-0.77501619 0.11385363 1.2215135 10197915
-0.72523403 0.11385555 1.2214004 10197915
-0.67514604 0.11385705 1.2214206 10197915
-0.62495703 0.11385849 1.221521 10197915
-0.57496876 0.11386027 1.2214512 10197915
-0.5249781 0.1138617 1.2215543 10197915
-0.47498652 0.11386362 1.2213995 10197915
-0.42499477 0.11386474 1.2216315 10197915
-0.37510219 0.11386648 1.2215185 10197915
-0.32510498 0.11386798 1.221622 10197915
-0.2750079 0.11386985 1.2214668 10197915
-0.2250092 0.11387102 1.2216574 10197915
-0.17500944 0.11387289 1.2215869 10197915
-0.12511054 0.1138742 1.221734 10197915
-0.075106867 0.11387616 1.2215352 10197915
-0.025003364 0.1138774 1.2217233 10197915
0.025003828 0.11387897 1.221741 10197915
0.075110115 0.11388086 1.2215855 10197915
0.1251193 0.11388205 1.2218176 5395026
0.17502646 0.11388391 1.2217044 2894892
0.22503754 0.11388539 1.2218082 2894892
0.27505022 0.11388722 1.2216544 2894892
0.32516384 0.11388835 1.221843 2894892
0.37442517 0.11170748 1.2229099 2894892
0.39646342 -0.55861837 1.268093 2894892
0.40110686 -0.56366336 1.2910504 2894892
0.39680767 -0.52344334 1.2698641 2894892
0.40149695 -0.52901739 1.2930478 2894892
0.39698508 -0.47506145 1.2708372 2894892
0.40192512 -0.47490534 1.2952715 2894892
0.39694905 -0.42497984 1.2707579 2894892
0.40186775 -0.42493948 1.2950869 2894892
0.3968927 -0.37491456 1.270577 2894892
0.40181071 -0.3749882 1.2949032 2894892
0.39683127 -0.32499391 1.2703718 2894892
0.40175384 -0.32505107 1.2947196 2894892
0.39677495 -0.27495486 1.2701914 2894892
0.4016968 -0.27512807 1.2945365 2894892
0.39672866 -0.22493237 1.2700613 2894892
0.40163928 -0.22468266 1.2943509 2894892
0.39666221 -0.1749227 1.2698303 2894892
0.40158242 -0.17478812 1.2941673 2894892
0.39660588 -0.12492619 1.2696506 2894892
0.4015255 -0.12490772 1.2939839 2894892
0.39655975 -0.074945875 1.2695209 2894892
0.40146869 -0.075041436 1.2938006 2894892
0.39649317 -0.024979332 1.2692897 2894892
0.40141174 -0.025189318 1.2936175 2894892
0.39643696 0.024974613 1.2691096 2894892
0.40135425 0.025184514 1.2934321 2894892
0.39639083 0.074912772 1.2689794 2894892
0.40129745 0.075008295 1.2932492 2894892
-1.0096384 0.11373721 1.2817386 10197915
-0.97471642 0.11375714 1.2713263 10197915
-0.92508072 0.11375893 1.2712554 10197915
-0.87506062 0.11376037 1.2713326 10197915
-0.82503897 0.11376201 1.2712898 10197915
-0.7750144 0.11376361 1.2713073 10197915
-0.7251206 0.1137652 1.2713547 10197915
-0.67509609 0.11376713 1.2711914 10197915
-0.62493682 0.11376841 1.2713603 10197915
-0.57490653 0.11376999 1.2713779 10197915
-0.52487671 0.11377148 1.2714566 10197915
-0.47484505 0.11377302 1.2714134 10197915
-0.42494217 0.11377489 1.2713382 10197915
-0.375173 0.11377618 1.2714788 10197915
-0.32513493 0.11377768 1.2714971 10197915
-0.27496681 0.11377946 1.2714835 10197915
-0.22492848 0.11378103 1.2714422 10197915
-0.17488797 0.11378256 1.2715187 10197915
-0.12484613 0.11378433 1.2714752 10197915
-0.074935861 0.11378572 1.2715855 10197915
-0.025023188 0.11378731 1.271572 10197915
0.025023654 0.11378892 1.27159 10197915
0.074939109 0.11379037 1.2716378 10197915
0.12485489 0.11379215 1.2715632 5526612
0.17490512 0.11379361 1.2716422 2894892
0.22482415 0.11379515 1.2716902 2894892
0.27487811 0.11379692 1.2715881 2894892
0.32519341 0.11379831 1.2717257 2894892
0.37885514 0.11218845 1.2714903 2894892
0.40117565 0.10712147 1.2928566 2894892
0.41250587 -0.60117567 1.3473588 2894892
0.40858024 -0.57186204 1.3279999 2894892
0.4081502 -0.52515119 1.3259628 2894892
0.40810117 -0.47498494 1.3258207 2894892
0.40801513 -0.42494324 1.3254931 2894892
0.40797618 -0.37502652 1.325398 2894892
0.40791816 -0.32501292 1.3252095 2894892
0.40785122 -0.27501449 1.3249775 2894892
0.40780237 -0.22503011 1.3248335 2894892
0.40772587 -0.17517009 1.3245533 2894892
0.40769589 -0.12521213 1.3245039 2894892
0.40761051 -0.075051896 1.3241801 2894892
0.40757075 -0.025014829 1.3240813 2894892
0.40751263 0.025010092 1.3238928 2894892
0.40743667 0.075018719 1.3236156 2894892
-1.0558834 0.11363948 1.3350093 10197915
-1.0227758 0.11366601 1.3208783 10197915
-0.97494572 0.11367089 1.3190606 10197915
-0.9249537 0.11367234 1.3191444 10197915
-0.87509817 0.11367383 1.3191967 10197915
-0.82496679 0.11367567 1.3191152 10197915
-0.77483571 0.11367698 1.3193028 10197915
-0.72470236 0.11367881 1.3191514 10197915
-0.67470276 0.11368023 1.3192358 10197915
-0.6248396 0.11368173 1.3192883 10197915
-0.57497591 0.11368351 1.3192064 10197915
-0.52511007 0.11368487 1.3193254 10197915
-0.47510538 0.11368674 1.3192089 10197915
-0.4251014 0.11368812 1.3193616 10197915
-0.37523124 0.11368965 1.3193461 10197915
-0.32522145 0.11369139 1.3192978 10197915
-0.27507645 0.11369272 1.3194855 10197915
-0.22506584 0.11369444 1.3194348 10197915
-0.17505381 0.1136962 1.3193181 10197915
-0.12504059 0.11369751 1.3194716 10197915
-0.075024143 0.11369935 1.3193549 10197915
-0.025009789 0.11370068 1.319508 10197915
0.02501026 0.11370228 1.3195266 10197915
0.075027376 0.1137041 1.3194104 10197915
0.12504938 0.11370539 1.3195624 5526612
0.1750709 0.11370722 1.3194466 2894892
0.22509399 0.11370862 1.3195994 2894892
0.27511862 0.11371003 1.3196862 2894892
0.32528022 0.11371196 1.3195362 2894892
0.37530944 0.11371339 1.3196206 2894892
0.40649903 0.10873763 1.3241799 2894892
0.41899145 -0.60860234 1.3794235 2894892
0.41801497 -0.57505214 1.3746599 2894892
0.41793671 -0.52500224 1.3743706 2894892
0.41790932 -0.4749693 1.374334 2894892
0.41783699 -0.42509282 1.3740745 2894892
0.41775867 -0.37508628 1.3737854 2894892
0.41773149 -0.32509485 1.3737491 2894892
0.41764012 -0.2751188 1.3733956 2894892
0.41759327 -0.22501311 1.3732623 2894892
0.41754061 -0.17478125 1.3731003 2894892
0.41747436 -0.12484487 1.3728715 2894892
0.41742212 -0.074925318 1.3727108 2894892
0.41736242 -0.02487825 1.3725135 2894892
0.4172841 0.025016241 1.3722248 2894892
0.41726342 0.075033739 1.37222 2894892
-1.1030906 0.11353651 1.3911275 9934743
-1.0705444 0.11356772 1.3744279 10066329
-1.025021 0.11357605 1.3706712 10197915
-0.97506219 0.11357722 1.3709188 10197915
-0.92510128 0.11357927 1.3706325 10197915
-0.87499666 0.11358041 1.3708439 10197915
-0.82503325 0.11358204 1.3708601 10197915
-0.77520823 0.11358386 1.3707664 10197915
-0.72495896 0.11358532 1.3708631 10197915
-0.67484701 0.11358684 1.3709166 10197915
-0.62502033 0.11358838 1.3709006 10197915
-0.57504976 0.11359013 1.3708423 10197915
-0.5250771 0.11359155 1.3709356 10197915
-0.47496226 0.11359297 1.3709955 10197915
-0.424844 0.11359487 1.3708994 10197915
-0.37515256 0.1135964 1.3709927 10197915
-0.32517329 0.11359787 1.3710152 10197915
-0.27491105 0.11359957 1.3709561 10197915
-0.2249292 0.11360066 1.3712037 10197915
-0.17494835 0.11360276 1.3709937 10197915
-0.12496366 0.11360452 1.3709372 10197915
-0.074980408 0.11360549 1.3712608 10197915
-0.024994666 0.11360741 1.3710519 10197915
0.024995131 0.11360908 1.3710703 10197915
0.074983604 0.11361018 1.3713174 10197915
0.12497242 0.11361232 1.3710318 5526612
0.17496552 0.11361382 1.371127 2894892
0.22495741 0.11361491 1.3713747 2894892
0.27495307 0.11361689 1.3711648 2894892
0.32523206 0.11361834 1.3712626 2894892
0.37523064 0.11361987 1.371278 2894892
0.4124864 0.11061383 1.3729768 2894892
0.4278667 -0.61835068 1.4233038 2894892
0.42735004 -0.5748089 1.4208336 2894892
0.42729652 -0.52484512 1.4206671 2894892
0.42720705 -0.47504643 1.4203231 2894892
0.42716822 -0.42511156 1.4202294 2894892
0.42712179 -0.375047 1.4200978 2894892
0.42704684 -0.32499436 1.4198256 2894892
0.42698619 -0.27495486 1.4196242 2894892
0.42815757 -0.22487719 1.4255158 2894892
0.42806196 -0.17489368 1.4251416 2894892
0.42802444 -0.12492203 1.4250551 2894892
0.42795202 -0.074966781 1.4247936 2894892
0.42790312 -0.025026079 1.4246504 2894892
0.4278422 0.025021348 1.4244481 2894892
0.42776975 0.074933693 1.4241871 2894892
-1.1511139 0.11343093 1.4486628 9934743
-1.1191356 0.11346137 1.4323637 9934743
-1.0750425 0.11347353 1.4264863 10066329
-1.0251149 0.11347493 1.4265941 10197915
-0.97503978 0.11347639 1.4266567 10197915
-0.92496437 0.11347822 1.4265462 10197915
-0.87488693 0.11347951 1.4266967 10197915
-0.82480794 0.1134811 1.4266738 10197915
-0.77487403 0.11348291 1.4266051 10197915
-0.72494102 0.11348432 1.4267128 10197915
-0.67485589 0.11348584 1.4267757 10197915
-0.62492061 0.11348768 1.426622 10197915
-0.57498109 0.11348888 1.4268154 10197915
-0.5248943 0.11349061 1.4267921 10197915
-0.47495246 0.11349243 1.4267232 10197915
-0.42515871 0.11349354 1.4269586 10197915
-0.37536323 0.11349548 1.4267623 10197915
-0.32526791 0.11349685 1.4269139 10197915
-0.27502653 0.11349842 1.4269342 10197915
-0.22507955 0.11350035 1.4267797 10197915
-0.17512967 0.11350154 1.4269736 10197915
-0.12503137 0.11350323 1.4269503 10197915
-0.075078256 0.11350489 1.426882 10197915
-0.025125774 0.11350642 1.42699 10197915
0.025126228 0.11350796 1.4270098 10197915
0.075081505 0.11350968 1.4269408 10197915
0.12504019 0.11351112 1.4270498 5526612
0.17514671 0.11351247 1.4271122 2894892
0.22510779 0.11351442 1.4269581 2894892
0.27506855 0.1135157 1.4271512 2894892
0.3248857 0.11351749 1.4270394 2894892
0.3748481 0.11351857 1.427317 2894892
0.41938931 0.11093816 1.4270544 2894892
0.43972546 -0.65636492 1.4818853 2894892
0.43741101 -0.62488943 1.4704995 2894892
0.43730995 -0.57500404 1.470098 2894892
0.43731084 -0.52498555 1.4702007 2894892
0.43720147 -0.47497568 1.4697583 2894892
0.43718672 -0.42498249 1.4697835 2894892
0.43707737 -0.37500215 1.469341 2894892
0.43706265 -0.32503635 1.4693662 2894892
0.43693784 -0.275087 1.4688463 2894892
0.43822271 -0.22511494 1.4752994 2894892
0.43813899 -0.17517807 1.4749846 2894892
0.43809819 -0.12525374 1.4748813 2894892
0.43799356 -0.07514175 1.4744618 2894892
0.43797362 -0.025045516 1.4744611 2894892
0.43791121 0.025040764 1.4742521 2894892
0.43780655 0.075108469 1.4738325 2894892
-1.1650774 0.11336646 1.4841028 9934743
-1.1247758 0.11337648 1.4792558 9934743
-1.0751513 0.11337803 1.4792756 10066329
-1.0251143 0.11337963 1.479301 10197915
-0.97487444 0.11338118 1.4793173 10197915
-0.92483515 0.11338256 1.4794658 10197915
-0.87479538 0.11338434 1.4793584 10197915
-0.8251642 0.11338591 1.4793795 10197915
-0.77511984 0.11338747 1.4794028 10197915
-0.72487319 0.1133891 1.4794204 10197915
-0.67503065 0.1133906 1.4794402 10197915
-0.6249842 0.113392 1.4795908 10197915
-0.57493752 0.113394 1.4793553 10197915
-0.52509224 0.11339533 1.4795015 10197915
-0.47504184 0.1133967 1.4796512 10197915
-0.424988 0.11339852 1.479543 10197915
-0.37493289 0.11339983 1.4796928 10197915
-0.32488251 0.1134019 1.4794574 10197915
-0.27502891 0.11340322 1.4796048 10197915
-0.22497001 0.11340453 1.4797537 10197915
-0.17491084 0.11340639 1.4796463 10197915
-0.12505426 0.11340816 1.4795394 10197915
-0.074994482 0.1134093 1.4798151 10197915
-0.024930835 0.11341111 1.4797074 10197915
0.024931287 0.11341268 1.479728 10197915
0.074997723 0.11341399 1.479877 10197915
0.12506306 0.11341605 1.4796422 5526612
0.17492801 0.11341734 1.4797894 2894892
0.22499815 0.11341874 1.4799385 2894892
0.27507094 0.11342054 1.4798305 2894892
0.32473364 0.11342206 1.4798505 2894892
0.3748098 0.1134237 1.4798748 2894892
0.42434597 0.11172909 1.4790539 2894892
0.44717002 -0.66485614 1.5186914 2894892
0.45239824 -0.6705991 1.5445397 2894892
0.44675559 -0.62497407 1.5167195 2894892
0.4523398 -0.62508702 1.5443404 2894892
0.44666904 -0.57504731 1.5163897 2894892
0.45227563 -0.57510072 1.5441211 2894892
0.44662878 -0.5251295 1.5162894 2894892
0.45221114 -0.52512842 1.5439011 2894892
0.44651932 -0.47481328 1.5158463 2894892
0.45214707 -0.47517073 1.5436825 2894892
0.44647861 -0.42492399 1.5157434 2894892
0.45208305 -0.4252272 1.5434635 2894892
0.44643873 -0.37505531 1.5156441 2894892
0.45201883 -0.37529773 1.5432447 2894892
0.44635206 -0.32498732 1.5153136 2894892
0.45195487 -0.32538253 1.5430261 2894892
0.4463118 -0.27493331 1.515213 2894892
0.45189086 -0.27548143 1.5428076 2894892
0.44622523 -0.22489436 1.5148828 2894892
0.4518261 -0.22495501 1.5425861 2894892
0.44618547 -0.17507763 1.514784 2894892
0.45176116 -0.17444302 1.5423647 2894892
0.44607618 -0.12507051 1.5143417 2894892
0.45169723 -0.1245847 1.5421464 2894892
0.44605824 -0.074863948 1.5143522 2894892
0.45163321 -0.074740469 1.5419277 2894892
0.44597179 -0.024882814 1.5140227 2894892
0.45156923 -0.024910346 1.5417098 2894892
0.44593158 0.025087396 1.5139222 2894892
0.45150536 0.024905646 1.5414914 2894892
0.44584516 0.075039648 1.5135927 2894892
0.45144156 0.074707538 1.5412734 2894892
-1.2113938 0.11326926 1.5370213 10000536
-1.1750646 0.11328736 1.5276377 9934743
-1.1250833 0.11328898 1.5276595 9934743
-1.0748879 0.11329003 1.5279608 10066329
-1.0249045 0.11329211 1.5277022 10197915
-0.97491574 0.11329366 1.5277231 10197915
-0.92492902 0.11329524 1.5277441 10197915
-0.87493747 0.11329683 1.5277652 10197915
-0.82494813 0.11329843 1.5277866 10197915
-0.77495378 0.11329991 1.5278082 10197915
-0.72496164 0.1133016 1.5278288 10197915
-0.67496455 0.1133031 1.5278505 10197915
-0.62496966 0.11330469 1.5278713 10197915
-0.57496977 0.11330628 1.5278916 10197915
-0.52497208 0.11330782 1.5279132 10197915
-0.47496933 0.11330941 1.5279348 10197915
-0.42475918 0.11331074 1.5280981 10197915
-0.3745442 0.11331256 1.5279777 10197915
-0.32474735 0.11331387 1.5281396 10197915
-0.2749536 0.11331567 1.5280197 10197915
-0.22494756 0.11331724 1.5280402 10197915
-0.17493664 0.11331882 1.5280619 10197915
-0.12492782 0.1133204 1.5280833 10197915
-0.074914075 0.11332195 1.5281049 10197915
-0.024902513 0.11332355 1.528125 10197915
0.024902973 0.11332508 1.5281463 10197915
0.074917309 0.11332671 1.5281676 10197915
0.12493657 0.11332824 1.5281889 5526612
0.17495376 0.11332979 1.52821 2894892
0.22497575 0.11333138 1.5282314 2894892
0.27478364 0.11333273 1.5283923 2894892
0.32459581 0.11333451 1.5282737 2894892
0.37462202 0.11333605 1.5282943 2894892
0.42864609 0.11185932 1.5254228 2894892
0.45128834 0.10765313 1.5417589 2894892
0.46042413 -0.70444602 1.5841713 2894892
0.45825756 -0.67462409 1.5735137 2894892
0.4581669 -0.62498546 1.5731624 2894892
0.45807597 -0.57494104 1.5728123 2894892
0.45801103 -0.52490717 1.5725887 2894892
0.45797139 -0.4748902 1.5724913 2894892
0.45788097 -0.42488968 1.5721421 2894892
0.45781597 -0.37489837 1.5719197 2894892
0.45777655 -0.32492295 1.571822 2894892
0.45768616 -0.27496567 1.5714725 2894892
0.45762128 -0.225017 1.5712506 2894892
0.45755616 -0.17486927 1.5710268 2894892
0.45751664 -0.12494951 1.5709305 2894892
0.45742631 -0.075046346 1.5705817 2894892
0.45736119 -0.024941245 1.5703572 2894892
0.45854145 0.026085433 1.5762955 2894892
0.45868829 0.074983187 1.5771182 2894892
-1.2582974 0.11316653 1.5930234 10000536
-1.2236503 0.11319102 1.5801054 10000536
-1.1751243 0.11319372 1.5794704 9934743
-1.125193 0.11319554 1.5793382 9934743
-1.0748279 0.11319711 1.5793605 10066329
-1.0248939 0.11319868 1.5793777 10197915
-0.97518021 0.11320026 1.5794035 10197915
-0.92502511 0.11320179 1.5794262 10197915
-0.87487257 0.11320315 1.5796005 10197915
-0.82471734 0.11320498 1.5794693 10197915
-0.77499449 0.11320653 1.5794872 10197915
-0.72527409 0.11320809 1.5795131 10197915
-0.67511231 0.11320966 1.5795345 10197915
-0.62495089 0.11321095 1.57971 10197915
-0.57479084 0.11321282 1.5795795 10197915
-0.5248431 0.11321465 1.5794424 10197915
-0.47511488 0.11321569 1.5797772 10197915
-0.42516461 0.11321752 1.5796449 10197915
-0.37477979 0.11321907 1.579667 10197915
-0.32482648 0.11322071 1.5796843 10197915
-0.27509353 0.11322222 1.5797108 10197915
-0.22513795 0.11322349 1.5798862 10197915
-0.1751823 0.11322537 1.5797533 10197915
-0.12500669 0.11322725 1.57962 10197915
-0.075050719 0.11322823 1.5799526 10197915
-0.025090454 0.11323011 1.5798208 10197915
0.025090916 0.11323166 1.5798414 10197915
0.075053953 0.11323295 1.5800182 10197915
0.12501548 0.11323506 1.5797288 5526612
0.17498191 0.11323608 1.5800622 2894892
0.2249473 0.11323798 1.5799297 2894892
0.2751357 0.11323953 1.5799518 2894892
0.32488513 0.11324105 1.5799699 2894892
0.37485802 0.11324266 1.5799947 2894892
0.42526504 0.11324421 1.5800169 2894892
0.45760468 0.10881826 1.5800552 2894892
0.46799514 -0.71282095 1.6216033 2894892
0.46795347 -0.67329544 1.6214746 2894892
0.46885711 -0.62496799 1.6260391 2894892
0.46878058 -0.57486928 1.6257601 2894892
0.46872362 -0.52478147 1.6255766 2894892
0.46864772 -0.47504961 1.6252987 2894892
0.46855953 -0.42516106 1.6249614 2894892
0.46854627 -0.3751196 1.6249932 2894892
0.46842661 -0.32509118 1.6244994 2894892
0.46839243 -0.27507526 1.6244287 2894892
0.46834651 -0.22490825 1.6243006 2894892
0.46822682 -0.17492411 1.6238062 2894892
0.46819276 -0.12494998 1.6237367 2894892
0.46811485 -0.074993856 1.6234492 2894892
0.46805972 -0.025052298 1.6232756 2894892
0.46917275 0.023675617 1.6288764 2894892
0.46946853 0.074984595 1.6304399 2894892
-1.2721189 0.11310503 1.6268082 10000536
-1.2250168 0.1131097 1.6250575 10000536
-1.1748753 0.11311107 1.6252056 9934743
-1.1250665 0.11311261 1.6252283 9934743
-1.0749238 0.11311441 1.6251249 10066329
-1.0247751 0.11311575 1.6252733 10197915
-0.97496206 0.11311729 1.625296 10197915
-0.92481768 0.11311914 1.6251928 10197915
-0.87500107 0.1131207 1.6252118 10197915
-0.8251825 0.11312228 1.6252376 10197915
-0.77503431 0.11312358 1.6253862 10197915
-0.72521496 0.11312516 1.6254084 10197915
-0.67505592 0.11312695 1.6253055 10197915
-0.62490124 0.11312831 1.6254537 10197915
-0.575077 0.11312986 1.6254761 10197915
-0.52491671 0.11313169 1.6253732 10197915
-0.47475532 0.11313302 1.6255214 10197915
-0.42492706 0.11313459 1.6255438 10197915
-0.37476513 0.11313638 1.6254408 10197915
-0.32459679 0.11313771 1.6255893 10197915
-0.27510443 0.1131395 1.6254823 10197915
-0.22526939 0.11314107 1.6255084 10197915
-0.17510347 0.11314244 1.6256567 10197915
-0.12526692 0.11314399 1.625679 10197915
-0.075092897 0.11314578 1.625576 10197915
-0.024920113 0.11314713 1.6257243 10197915
0.024920568 0.11314869 1.6257468 10197915
0.075096138 0.11315052 1.6256435 10197915
0.12527573 0.11315185 1.625792 5526612
0.17512059 0.11315339 1.6258144 2894892
0.2252977 0.11315522 1.6257114 2894892
0.27514657 0.11315677 1.6257304 2894892
0.32465553 0.1131581 1.625882 2894892
0.37484315 0.11315992 1.6257787 2894892
0.42502728 0.11316127 1.6259271 2894892
0.46459502 0.10977322 1.628878 2894892
0.48047322 -0.75174189 1.6832459 2894892
0.47813952 -0.72108769 1.6717639 2894892
0.47910562 -0.676597 1.6766304 2894892
0.48032287 -0.62506443 1.6827509 2894892
0.48022288 -0.57525879 1.6823556 2894892
0.48015571 -0.52523005 1.6821212 2894892
0.48008659 -0.47498703 1.6818775 2894892
0.48005012 -0.42498913 1.6817962 2894892
0.47995016 -0.37500453 1.6814004 2894892
0.47991392 -0.32503429 1.6813188 2894892
0.47978279 -0.27508134 1.6807683 2894892
0.47977778 -0.22514082 1.6808425 2894892
0.479678 -0.17521398 1.6804466 2894892
0.4796418 -0.12529932 1.6803656 2894892
0.47951081 -0.075169079 1.6798167 2894892
0.47950518 -0.025055051 1.6798869 2894892
0.47943687 0.025050294 1.6796476 2894892
0.47930616 0.075135775 1.6790991 2894892
-1.3182298 0.11300638 1.6805602 10000536
-1.2748871 0.11302064 1.6734449 10000536
-1.2249814 0.11302149 1.6738389 10000536
-1.1748438 0.11302344 1.673679 9934743
-1.1249323 0.11302499 1.6736976 9934743
-1.0750241 0.11302656 1.6737258 10066329
-1.0248786 0.1130278 1.6739314 10197915
-0.97496885 0.11303005 1.6735839 10197915
-0.92505276 0.11303094 1.6739783 10197915
-0.87513644 0.11303315 1.6736311 10197915
-0.82522124 0.11303406 1.6740247 10197915
-0.7750693 0.11303596 1.6738642 10197915
-0.72515148 0.11303755 1.6738831 10197915
-0.67522806 0.11303908 1.6739111 10197915
-0.62507403 0.11304034 1.6741178 10197915
-0.57515186 0.11304256 1.6737704 10197915
-0.52499479 0.11304348 1.6741625 10197915
-0.47483516 0.1130457 1.6738162 10197915
-0.42491031 0.11304661 1.6742101 10197915
-0.37474862 0.1130485 1.6740512 10197915
-0.32481527 0.1130501 1.6740689 10197915
-0.27488497 0.11305163 1.6740972 10197915
-0.22471845 0.11305287 1.6743029 10197915
-0.1747839 0.1130551 1.6739563 10197915
-0.12484822 0.11305599 1.6743494 10197915
-0.074907318 0.11305826 1.6740023 10197915
-0.0249725 0.11305915 1.674395 10197915
0.024972966 0.11306072 1.6744187 10197915
0.074910536 0.11306295 1.6740716 10197915
0.12485701 0.11306387 1.6744663 5592405
0.17480093 0.11306609 1.6741179 2894892
0.22474658 0.113067 1.6745118 2894892
0.27492699 0.11306886 1.6743525 2894892
0.32487392 0.11307044 1.6743704 2894892
0.3748267 0.11307202 1.6743982 2894892
0.42477646 0.11307358 1.6744171 2894892
0.46881244 0.11107945 1.6773486 2894892
0.48832273 -0.76029003 1.7220551 2894892
0.48786947 -0.72720253 1.7198778 2894892
0.48905715 -0.67494351 1.7258554 2894892
0.48896194 -0.62516433 1.7254826 2894892
0.48891875 -0.57539892 1.7253668 2894892
0.48884919 -0.5252884 1.7251216 2894892
0.48877954 -0.47519216 1.7248764 2894892
0.48865938 -0.4251129 1.7243797 2894892
0.48864076 -0.37504929 1.7243859 2894892
0.48857123 -0.32499579 1.7241409 2894892
0.48850197 -0.27495626 1.7238958 2894892
0.48843265 -0.22493099 1.7236512 2894892
0.48833796 -0.17528157 1.7232807 2894892
0.48991883 -0.124442 1.7312005 2894892
0.49002635 -0.07485234 1.7318287 2894892
0.48992193 -0.024869252 1.7314116 2894892
0.48988703 0.025103925 1.731337 2894892
0.48978293 0.075057968 1.73092 2894892
-1.3627743 0.11291739 1.7289904 10000536
-1.3250895 0.11292537 1.7252376 10000536
-1.2750748 0.11292692 1.7252618 10000536
-1.2250592 0.1129285 1.7252854 10000536
-1.1750436 0.1129306 1.725006 9934743
-1.1250318 0.11293163 1.7253335 9934743
-1.0750117 0.1129332 1.7253577 10066329
-1.0249907 0.11293476 1.7253813 10197915
-0.97496772 0.11293633 1.7254055 10197915
-0.92494845 0.11293845 1.7251257 10197915
-0.87492722 0.11293948 1.725453 10197915
-0.82489967 0.11294103 1.7254773 10197915
-0.77487123 0.11294261 1.7255013 10197915
-0.72520357 0.11294444 1.725371 10197915
-0.67517132 0.112946 1.7253991 10197915
-0.62478667 0.1129473 1.7255732 10197915
-0.57475281 0.11294887 1.7255968 10197915
-0.52507693 0.11295072 1.7254667 10197915
-0.47540006 0.11295199 1.7256446 10197915
-0.42500511 0.11295383 1.7255189 10197915
-0.37461215 0.11295515 1.7256925 10197915
-0.32492769 0.11295698 1.7255625 10197915
-0.27524823 0.11295824 1.7257404 10197915
-0.22520462 0.11295983 1.7257643 10197915
-0.17515962 0.1129614 1.7257882 10197915
-0.12511602 0.1129635 1.7255085 10197915
-0.075074233 0.11296453 1.7258362 10197915
-0.025025051 0.11296608 1.7258601 10197915
0.025025513 0.11296766 1.725884 10197915
0.07471627 0.1129695 1.7257537 10197915
0.12477095 0.11297105 1.7257817 5658198
0.17517672 0.11297236 1.7259556 2894892
0.2252329 0.11297393 1.7259796 2894892
0.27493197 0.11297577 1.7258495 2894892
0.32462978 0.11297706 1.7260276 2894892
0.37469003 0.11297863 1.7260513 2894892
0.42510542 0.11298047 1.7259257 2894892
0.4764742 0.11077406 1.7279441 2894892
0.50214922 -0.80032349 1.7903656 2894892
0.49663469 -0.76935011 1.7631506 2894892
0.50211328 -0.77504981 1.7902373 2894892
0.49639726 -0.72487301 1.7620624 2894892
0.50204235 -0.72525537 1.7899851 2894892
0.49632683 -0.67513746 1.761813 2894892
0.50197035 -0.67473173 1.7897278 2894892
0.49622953 -0.62505275 1.7614297 2894892
0.50189954 -0.62496561 1.7894754 2894892
0.49618575 -0.57498157 1.7613124 2894892
0.50182867 -0.57521337 1.7892228 2894892
0.49608856 -0.52492255 1.7609292 2894892
0.50175685 -0.52473301 1.7889667 2894892
0.49604499 -0.47488284 1.7608123 2894892
0.5016861 -0.47500908 1.7887144 2894892
0.49597511 -0.42521805 1.7605643 2894892
0.50161529 -0.42529926 1.788462 2894892
0.49587768 -0.37520227 1.760181 2894892
0.50154346 -0.37486172 1.7882055 2894892
0.49583423 -0.3252044 1.7600645 2894892
0.50147277 -0.32518005 1.7879535 2894892
0.49573693 -0.27521399 1.7596817 2894892
0.50140196 -0.27551249 1.7877014 2894892
0.49571985 -0.22488198 1.7596956 2894892
0.5013302 -0.22511788 1.7874454 2894892
0.49559537 -0.17455995 1.7591784 2894892
0.50125849 -0.17473769 1.7871898 2894892
0.49710613 -0.12637055 1.7667465 2894892
0.50118786 -0.12511244 1.786938 2894892
0.49733347 -0.074710473 1.7679727 2894892
0.50111723 -0.075501285 1.7866862 2894892
0.49726307 -0.024900362 1.7677225 2894892
0.50104553 -0.025163895 1.7864307 2894892
0.49719277 0.024895666 1.7674723 2894892
0.50097394 0.025159094 1.7861751 2894892
0.4971225 0.074677601 1.7672224 2894892
0.5009023 0.075467691 1.7859201 2894892
-1.407717 0.11282384 1.7799469 10000536
-1.3742983 0.11284473 1.7689604 10000536
-1.3248471 0.11284659 1.7688179 10000536
-1.2750391 0.11284876 1.7685137 10000536
-1.2252293 0.11284968 1.7688667 10000536
-1.1754137 0.11285126 1.7688913 9934743
-1.1252309 0.11285315 1.768754 9934743
-1.0750505 0.11285441 1.7689403 10066329
-1.0252309 0.11285597 1.7689649 10197915
-0.97504681 0.11285783 1.7688277 10197915
-0.92485934 0.11285911 1.7690141 10197915
-0.87503541 0.11286068 1.7690384 10197915
-0.82485026 0.11286253 1.7689013 10197915
-0.7746554 0.11286382 1.7690878 10197915
-0.72519886 0.11286568 1.7689451 10197915
-0.67536801 0.1128672 1.7689748 10197915
-0.62517661 0.11286849 1.769161 10197915
-0.5753445 0.11287005 1.7691855 10197915
-0.52514666 0.11287194 1.7690483 10197915
-0.47494775 0.11287317 1.7692349 10197915
-0.42511156 0.11287474 1.7692592 10197915
-0.37491259 0.11287662 1.7691221 10197915
-0.32470661 0.1128779 1.7693088 10197915
-0.27486613 0.11287946 1.7693328 10197915
-0.2250303 0.1128816 1.7690288 10197915
-0.17519042 0.11288258 1.7693819 10197915
-0.12534583 0.11288413 1.7694064 10197915
-0.075134091 0.11288601 1.7692692 10197915
-0.024924129 0.11288726 1.7694559 10197915
0.024924586 0.11288884 1.7694801 10197915
0.075137362 0.11289069 1.7693431 10197915
0.12535466 0.11289199 1.7695296 5592405
0.17520751 0.11289353 1.7695539 2894892
0.2250585 0.11289569 1.7692497 2894892
0.27490813 0.11289668 1.7696028 2894892
0.32476515 0.11289824 1.7696276 2894892
0.37499073 0.11290008 1.7694899 2894892
0.42521176 0.11290138 1.7696766 2894892
0.47683644 0.11208083 1.7698331 2894892
0.50085807 0.10653403 1.7857621 2894892
0.51135242 -0.81074828 1.8358663 2894892
0.5098874 -0.77513802 1.8286896 2894892
0.50989562 -0.72502851 1.8288294 2894892
0.50982291 -0.6749267 1.8285682 2894892
0.50966978 -0.62484598 1.8279095 2894892
