# .PCD v0.7 - Point Cloud Data file format
VERSION 0.7
FIELDS x y z rgb
SIZE 4 4 4 4
TYPE F F F U
COUNT 1 1 1 1
WIDTH 1174
HEIGHT 1
VIEWPOINT 0 0 0 1 0 0 0
POINTS 1174
DATA ascii
-0.62491465 0.1083332 2.752552 10000536
-0.58120263 0.10826293 2.7507665 10000536
-0.42557454 0.10784238 2.7990077 10000536
-0.37543166 0.10776187 2.7969184 10000536
-0.32536322 0.1076815 2.7948322 10132122
-0.27536985 0.10760126 2.7927492 10197915
-0.2254504 0.10752109 2.7906692 10197915
-0.17560588 0.10744109 2.7885926 10197915
-0.12467857 0.10735934 2.7864707 10197915
-0.074983262 0.10727956 2.7844 10197915
-0.02536232 0.10719991 2.7823327 10197915
0.025336664 0.10711853 2.7802203 10197915
0.074809358 0.10703911 2.7781589 10197915
0.12420818 0.10695979 2.7761004 10197915
0.17468041 0.10687878 2.773998 10197915
0.22507624 0.10679787 2.771898 10197915
0.27539581 0.10671711 2.7698019 10197915
0.32563931 0.10663645 2.7677081 10197915
0.37580693 0.10655591 2.7656183 10197915
0.42589882 0.1064755 2.763531 10197915
0.46685833 0.1046563 2.770123 3881787
0.46777239 -1.2580616 2.8298824 2894892
0.4679741 -1.2249264 2.8240454 2894892
0.46805361 -1.1748164 2.8245208 2894892
0.46813744 -1.1249893 2.8247805 2894892
0.46821666 -1.0748324 2.8252616 2894892
0.46828541 -1.0246884 2.8261712 2894892
0.46837431 -0.97508502 2.8262091 2894892
0.46844798 -0.92518723 2.8269002 2894892
0.46852702 -0.87497586 2.8273814 2894892
0.4686076 -0.82504308 2.8277826 2894892
0.46868825 -0.77509034 2.8281877 2894892
0.46876553 -0.72511941 2.8287349 2894892
0.46884274 -0.6751346 2.8292863 2894892
0.4689222 -0.62483865 2.8297634 2894892
0.46900666 -0.57482743 2.830024 2894892
0.46920624 -0.52422303 2.8255739 2894892
0.46930745 -0.47516254 2.8250697 2894892
0.46954221 -0.42485932 2.8191609 2894892
0.46961567 -0.37499219 2.8198485 2894892
0.46969977 -0.32510599 2.8201075 2894892
0.46977007 -0.27520382 2.8209398 2894892
0.46985635 -0.22499299 2.821131 2894892
0.46993345 -0.17505406 2.8216743 2894892
0.47001079 -0.12510119 2.8222229 2894892
0.47009039 -0.074837781 2.8226976 2894892
0.4701744 -0.024859926 2.8229573 2894892
0.47025308 0.024865467 2.8234298 2894892
0.47032693 0.074876882 2.8241189 2894892
-0.77042919 0.10839597 2.8133759 7765639
-0.72565794 0.1083241 2.8115101 10000536
-0.67506629 0.10824288 2.8094025 10000536
-0.6245501 0.10816179 2.8072979 10000536
-0.5752818 0.1080827 2.8052452 10000536
-0.5249154 0.10800183 2.8031466 10000536
-0.47462377 0.10792111 2.8010514 10000536
-0.26912832 0.10741454 2.8491762 10197915
-0.22530815 0.10734432 2.8473132 10197915
-0.17563429 0.1072647 2.8452017 10197915
-0.12485425 0.10718331 2.8430429 10197915
-0.074150622 0.10710204 2.8408873 10197915
-0.02470061 0.1070228 2.8387852 10197915
0.024676275 0.10694367 2.8366864 10197915
0.075152904 0.10686278 2.8345406 10197915
0.12555385 0.10678202 2.8323979 10197915
0.17470887 0.10670322 2.8303082 10197915
0.22495884 0.10662267 2.8281713 10197915
0.27513367 0.10654226 2.8260391 10197915
0.32523218 0.10646199 2.8239095 10197915
0.37525591 0.10638179 2.8217826 10197915
0.42520377 0.10630176 2.8196597 10197915
0.46601221 0.10451851 2.8214285 3618615
0.46662915 -1.2681754 2.8761632 2894892
0.4667615 -1.2249407 2.873946 2894892
0.46683389 -1.175427 2.8746579 2894892
0.46691251 -1.1255968 2.8751423 2894892
0.46699092 -1.0757499 2.8756249 2894892
0.46707526 -1.0255848 2.8758869 2894892
0.46715137 -0.97511882 2.8765252 2894892
0.46722856 -0.92492604 2.8770883 2894892
0.467307 -0.87501156 2.8775721 2894892
0.46738574 -0.82508016 2.878056 2894892
0.46746445 -0.77513212 2.878541 2894892
0.46754909 -0.72487479 2.8788035 2894892
0.46762803 -0.67489421 2.8792818 2894892
0.4677006 -0.62519544 2.8799953 2894892
0.4677794 -0.57518005 2.8804805 2894892
0.46799383 -0.52587384 2.8753364 2894892
0.46809271 -0.47523868 2.875037 2894892
0.46833053 -0.42523521 2.868979 2894892
0.46840426 -0.3750807 2.8696866 2894892
0.4684853 -0.32490817 2.8700955 2894892
0.46856263 -0.27471477 2.8706555 2894892
0.46864632 -0.22510186 2.8709052 2894892
0.46872491 -0.17517406 2.8713939 2894892
0.46879888 -0.12493645 2.8721027 2894892
0.46887743 -0.074974194 2.8725858 2894892
0.46895626 -0.024995139 2.8730683 2894892
0.46903515 0.025000736 2.8735511 2894892
0.4691138 0.075013392 2.8740342 2894892
-0.8031044 0.10827035 2.8718767 1719137
-0.77422112 0.10822403 2.8706477 9343122
-0.724931 0.10814504 2.8685527 10000536
-0.67571348 0.10806615 2.8664601 10000536
-0.62536955 0.10798547 2.86432 10000536
-0.57510078 0.1079049 2.8621831 10000536
-0.52490681 0.10782446 2.8600497 10000536
-0.47478771 0.10774415 2.857919 10000536
-0.42474321 0.10766393 2.8557911 10000536
-0.3747732 0.10758387 2.853667 10000536
-0.32487744 0.10750391 2.851546 10132122
-0.29402384 0.10745442 2.8502338 10197915
-0.064863876 0.10690358 2.8993444 10197915
-0.02521264 0.10684015 2.8976245 10197915
0.025187286 0.10675951 2.8954372 10197915
0.075511187 0.106679 2.8932536 10197915
0.12575924 0.1065986 2.8910735 10197915
0.17593163 0.10651834 2.8888965 10197915
0.22602849 0.10643816 2.8867226 10197915
0.27605003 0.10635814 2.8845518 10197915
0.32599637 0.10627825 2.8823853 10197915
0.37586778 0.10619846 2.8802204 10197915
0.42566431 0.10611879 2.8780599 10197915
0.4651252 0.10437769 2.8739004 3355443
0.4650887 -1.3071586 2.9366393 2894892
0.46541464 -1.2750458 2.9256279 2894892
0.46550104 -1.2249537 2.9258003 2894892
0.46557194 -1.1748483 2.9266179 2894892
0.46564308 -1.1247095 2.9274356 2894892
0.46573648 -1.0751932 2.9272788 2894892
0.46580747 -1.0250208 2.9280972 2894892
0.46589419 -0.97484189 2.9282699 2894892
0.46596271 -0.92495525 2.9291666 2894892
0.46604306 -0.87504607 2.9295764 2894892
0.46618688 -0.82698452 2.9272342 2894892
0.46636093 -0.77525008 2.923924 2894892
0.46644485 -0.72530437 2.9242034 2894892
0.46651885 -0.67494023 2.9249117 2894892
0.4665921 -0.62495083 2.9256217 2894892
0.46668038 -0.57537371 2.9256806 2894892
0.466903 -0.52441859 2.9203274 2894892
0.46700031 -0.47485071 2.9200158 2894892
0.46706891 -0.42502576 2.9209058 2894892
0.46714923 -0.37517244 2.9213152 2894892
0.46722969 -0.32530624 2.9217279 2894892
0.46731243 -0.27511472 2.9220617 2894892
0.4673835 -0.22491772 2.9228742 2894892
0.46747172 -0.17499354 2.9229646 2894892
0.46753666 -0.12506172 2.9240131 2894892
0.46762112 -0.075107478 2.9242685 2894892
0.46770561 -0.025148809 2.9245205 2894892
0.46778473 0.025154479 2.9250145 2894892
0.46785736 0.075146802 2.9257462 2894892
-0.81134224 0.10809787 2.9317355 6187899
-0.77448416 0.10803892 2.9301362 10000536
-0.72539967 0.10796039 2.9280066 10000536
-0.67516243 0.10788 2.9258265 10000536
-0.62499917 0.10779975 2.92365 10000536
-0.57491124 0.10771962 2.9214768 10000536
-0.52489722 0.1076396 2.9193063 10000536
-0.47495782 0.1075597 2.9171395 10000536
-0.42509198 0.10747992 2.9149756 10000536
-0.37530074 0.10740026 2.9128151 10000536
-0.32437116 0.10731879 2.9106052 10132122
-0.27472842 0.10723934 2.9084508 10197915
-0.22515967 0.10716005 2.9063003 10197915
-0.17445761 0.10707894 2.9041004 10197915
-0.12503642 0.10699986 2.9019561 10197915
-0.09012191 0.10694399 2.9004407 10197915
0.18817684 0.1063081 2.949475 10197915
0.2247092 0.10624976 2.9478564 10197915
0.27457461 0.10617012 2.9456465 10197915
0.32557917 0.10608866 2.943387 10197915
0.37529427 0.10600928 2.941184 10197915
0.42493433 0.10593 2.9389842 10066329
0.46415186 0.10420451 2.9307327 3289650
0.46396595 -1.3169259 2.982101 2894892
0.46421105 -1.2762057 2.9750509 2894892
0.46435732 -1.2247266 2.9728827 2894892
0.46442926 -1.1752433 2.9736021 2894892
0.46450818 -1.1249253 2.9741068 2894892
0.464587 -1.0745902 2.9746125 2894892
0.46467009 -1.0250489 2.9748859 2894892
0.46474314 -0.97510105 2.9756103 2894892
0.46481594 -0.92512512 2.9763367 2894892
0.46490487 -0.87513083 2.9763892 2894892
0.46507382 -0.82320869 2.9733136 2894892
0.46522334 -0.77506196 2.9707503 2894892
0.4652997 -0.72503334 2.9713373 2894892
0.46537608 -0.67498392 2.9719207 2894892
0.46546486 -0.62492537 2.9720066 2894892
0.46553478 -0.57514751 2.972837 2894892
0.46561942 -0.52504003 2.9730914 2894892
0.46568623 -0.47463211 2.9740956 2894892
0.46577671 -0.42479843 2.9740911 2894892
0.46585074 -0.37496114 2.9747567 2894892
0.46592486 -0.32509887 2.9754241 2894892
0.46601111 -0.27522972 2.9755883 2894892
0.46608549 -0.22533388 2.9762552 2894892
0.46616209 -0.17511943 2.9768443 2894892
0.46623886 -0.12488382 2.9774292 2894892
0.46632785 -0.074641235 2.9775167 2894892
0.46639806 -0.024677211 2.978349 2894892
0.46647525 0.024682662 2.978843 2894892
0.46659282 0.073476478 2.9776442 2894892
-0.8211872 0.10792011 2.9941998 7634054
-0.77601254 0.10784797 2.9921982 10000536
-0.72588807 0.10776792 2.9899764 10000536
-0.67583793 0.10768799 2.9877591 10000536
-0.625862 0.10760816 2.9855447 10000536
-0.57596016 0.10752849 2.9833336 10000536
-0.52613217 0.10744889 2.9811254 10000536
-0.47513518 0.10736745 2.9788661 10000536
-0.42421478 0.10728613 2.9766102 10000536
-0.37461108 0.10720692 2.974412 10000536
-0.32508048 0.10712779 2.9722171 10132122
-0.27562296 0.10704881 2.9700255 10197915
-0.22500493 0.10696799 2.967783 10197915
-0.17446265 0.10688727 2.9655435 10197915
-0.1252269 0.10680864 2.9633617 10197915
-0.07483568 0.10672816 2.9611287 10197915
-0.024519732 0.1066478 2.9589 10197915
0.024495749 0.10656951 2.9567275 10197915
0.074661687 0.10648938 2.9545047 10197915
0.12475286 0.10640939 2.9522851 10197915
0.16257858 0.106349 2.9506097 10197915
0.46671724 0.10299083 2.9747264 2894892
0.46256748 -1.3545771 3.036833 2894892
0.46283746 -1.3249876 3.0279369 2894892
0.46305552 -1.2736725 3.0227873 2894892
0.46317038 -1.2249024 3.0216937 2894892
0.4632552 -1.1747191 3.0219448 2894892
0.46332732 -1.124514 3.0227172 2894892
0.46340546 -1.0746038 3.0232263 2894892
0.46348339 -1.0246769 3.0237353 2894892
0.46356148 -0.974733 3.0242448 2894892
0.46364576 -0.92508835 3.0244825 2894892
0.46372342 -0.87511164 3.0249994 2894892
0.4637959 -0.82480937 3.0257735 2894892
0.46387401 -0.77479815 3.026284 2894892
0.46395221 -0.72477037 3.0267937 2894892
0.46403208 -0.67503881 3.0272119 2894892
0.46410781 -0.62529111 3.0278087 2894892
0.46419206 -0.57553673 3.0280468 2894892
0.46436104 -0.52747792 3.0246811 2894892
0.46451387 -0.47578195 3.0222442 2894892
0.46459827 -0.42535043 3.0225277 2894892
0.46467164 -0.37491196 3.0232713 2894892
0.46474999 -0.32486635 3.0237806 2894892
0.46482819 -0.27480403 3.0242898 2894892
0.46490651 -0.22472487 3.0247996 2894892
0.46499002 -0.17504865 3.0250661 2894892
0.46506187 -0.12535504 3.025811 2894892
0.4651404 -0.07522542 3.0263212 2894892
0.46521884 -0.025078896 3.0268314 2894892
0.46529731 0.025084533 3.0273414 2894892
0.46543026 0.076645806 3.0257151 2894892
-0.61273307 0.1073861 3.0494864 10000536
-0.57578194 0.10732719 3.0478137 10000536
-0.52487791 0.10724604 3.0455096 10000536
-0.47532022 0.10716704 3.0432661 10000536
-0.42583609 0.10708816 3.0410268 10000536
-0.37515837 0.10700737 3.0387316 10000536
-0.32455721 0.10692672 3.0364416 10132122
-0.27403218 0.10684617 3.0341542 10197915
-0.2248432 0.10676775 3.0319276 10197915
-0.17572699 0.10668948 3.0297046 10197915
-0.12542582 0.10660928 3.027427 10197915
-0.07520023 0.10652921 3.0251536 10197915
-0.025050014 0.10644928 3.0228839 10197915
0.02502499 0.10636946 3.020617 10197915
0.075024948 0.10628974 3.018353 10197915
0.12495004 0.10621016 3.0160937 10197915
0.17480041 0.1061307 3.0138371 10197915
0.22457623 0.10605136 3.0115838 10197915
0.27427772 0.10597213 3.0093336 10197915
0.32514441 0.10589103 3.007031 10197915
0.37593392 0.10581009 3.0047321 10197915
0.42540962 0.10573121 3.0024924 9868950
0.46240023 0.1040529 3.0117011 3223857
0.46145415 -1.364628 3.0818896 2894892
0.46173915 -1.3262805 3.0730252 2894892
0.46188083 -1.2745047 3.0710561 2894892
0.46194649 -1.2246624 3.0720673 2894892
0.46203563 -1.1752346 3.0720823 2894892
0.46210736 -1.1253551 3.0728509 2894892
0.46218646 -1.0746171 3.0733759 2894892
0.46227041 -1.0246998 3.0736432 2894892
0.46233538 -0.97521371 3.0746541 2894892
0.4624252 -0.92526197 3.0746763 2894892
0.46249709 -0.87530679 3.0754433 2894892
0.46257564 -0.82490706 3.0759649 2894892
0.46265373 -0.77491373 3.0764828 2894892
0.462731 -0.72532743 3.0769975 2894892
0.46281505 -0.6753059 3.0772686 2894892
0.46288767 -0.62483668 3.0780396 2894892
0.46296501 -0.57520026 3.0785537 2894892
0.4631705 -0.52399552 3.0739245 2894892
0.4633041 -0.47506613 3.0720696 2894892
0.46337783 -0.42486987 3.0727749 2894892
0.46345168 -0.37464744 3.0734785 2894892
0.46353367 -0.32504758 3.0738029 2894892
0.46360928 -0.27510795 3.0744152 2894892
0.46369225 -0.22483933 3.0747488 2894892
0.46376792 -0.1748662 3.0753615 2894892
0.46384385 -0.12487989 3.0759671 2894892
0.46392122 -0.075193189 3.0764854 2894892
0.46400607 -0.025183506 3.0767229 2894892
0.46408448 0.025189197 3.0772443 2894892
0.4642067 0.073172115 3.0757949 2894892
-0.8545655 0.1077716 3.0604339 1586522
-0.82504606 0.10772453 3.0590968 9803158
-0.77504593 0.10764482 3.0568337 10000536
-0.72511911 0.10756522 3.0545738 10000536
-0.67526686 0.10748579 3.0523171 10000536
-0.63696611 0.1074247 3.0505831 10000536
-0.2246746 0.10655855 3.098902 10197915
-0.17447436 0.10647868 3.0965791 10197915
-0.1243487 0.10639893 3.0942597 10197915
-0.075580776 0.10632135 3.0920036 10197915
-0.025603708 0.10624184 3.0896909 10197915
0.025577566 0.10616042 3.0873241 10197915
0.075404137 0.10608112 3.0850177 10197915
0.12515572 0.10600197 3.0827157 10197915
0.17483376 0.10592295 3.0804176 10197915
0.22443715 0.10584404 3.0781224 10197915
0.27523598 0.10576322 3.075772 10197915
0.32469058 0.10568453 3.0734839 10197915
0.37407094 0.10560597 3.0711992 10197915
0.4246417 0.10552552 3.0688593 9803157
0.46121746 0.10374139 3.0682044 3026478
0.45986298 -1.403038 3.1444981 2894892
0.46026307 -1.3740058 3.1301992 2894892
0.4605042 -1.324015 3.1240087 2894892
0.4606145 -1.2754207 3.1230862 2894892
0.46068799 -1.2251689 3.1238108 2894892
0.4607783 -1.1745811 3.1238616 2894892
0.4608461 -1.1249367 3.1247716 2894892
0.46093079 -1.0749438 3.1250114 2894892
0.46099493 -1.0246421 3.126123 2894892
0.46108651 -0.97493696 3.1260598 2894892
0.4611589 -0.92523324 3.1267772 2894892
0.46134818 -0.87664068 3.1226165 2894892
0.46149671 -0.82474941 3.1203671 2894892
0.46158063 -0.77489138 3.1206343 2894892
0.46164566 -0.72502452 3.1216764 2894892
0.46173632 -0.67470831 3.1216915 2894892
0.46180785 -0.62480104 3.1224716 2894892
0.46188417 -0.57573926 3.1229877 2894892
0.46196258 -0.52536958 3.1235173 2894892
0.46204093 -0.47498283 3.124048 2894892
0.46212494 -0.42500642 3.1243181 2894892
0.46219635 -0.37502402 3.1250999 2894892
0.46227422 -0.3250173 3.1256251 2894892
0.46235213 -0.27499384 3.1261508 2894892
0.46242931 -0.22538489 3.1266727 2894892
0.46251339 -0.17533021 3.126941 2894892
0.4625788 -0.1252514 3.1279867 2894892
0.46266976 -0.074741758 3.1280029 2894892
0.46274158 -0.024627466 3.1287851 2894892
0.46281824 0.024632907 3.1293035 2894892
0.46299127 0.076586522 3.1260567 2894892
-0.86450106 0.10757647 3.1285048 6516606
-0.82513952 0.10751385 3.126684 10000536
-0.77534455 0.10743464 3.1243801 10000536
-0.72562295 0.10735554 3.1220794 10000536
-0.67597443 0.10727653 3.1197822 10000536
-0.62509573 0.10719559 3.1174283 10132122
-0.57429302 0.10711478 3.1150777 10197915
-0.524867 0.10703614 3.1127911 10197915
-0.4755134 0.10695762 3.1105072 10197915
-0.42493659 0.10687717 3.1081672 10197915
-0.37443516 0.1067968 3.1058304 10197915
-0.32530198 0.10671864 3.1035573 10197915
-0.2749508 0.10663853 3.1012275 10197915
0.18788412 0.10568529 3.1493952 10197915
0.22559199 0.10562544 3.1476114 10197915
0.27494058 0.10554709 3.1452768 10197915
0.32421598 0.10546885 3.1429455 10197915
0.37471187 0.10538869 3.1405559 10197915
0.42513186 0.10530862 3.1381707 9671571
0.46043018 0.10377228 3.1280589 2894892
0.45900488 -1.4109416 3.1792123 2894892
0.45916158 -1.3752778 3.1754212 2894892
0.4592385 -1.3254992 3.1759653 2894892
0.45930976 -1.2752817 3.1767724 2894892
0.45938712 -1.225476 3.1773067 2894892
0.45946437 -1.1756537 3.1778412 2894892
0.45954168 -1.1258144 3.1783757 2894892
0.45961899 -1.0759584 3.1789098 2894892
0.45970353 -1.0256394 3.1791813 2894892
0.45977485 -0.97532457 3.1799889 2894892
0.45985299 -0.92497998 3.1805277 2894892
0.46007282 -0.87336701 3.1753323 2894892
0.46020395 -0.82474357 3.1735609 2894892
0.46027449 -0.77458 3.1743994 2894892
0.46035194 -0.72472727 3.1749334 2894892
0.46042904 -0.67485791 3.1754665 2894892
0.46050653 -0.62497175 3.1760006 2894892
0.46064913 -0.57603234 3.173779 2894892
0.46085295 -0.52387601 3.1692824 2894892
0.46093035 -0.47406176 3.1698134 2894892
0.4610137 -0.42466426 3.1700633 2894892
0.46108359 -0.3752619 3.1708679 2894892
0.46116096 -0.32539767 3.1714005 2894892
0.46123835 -0.27551675 3.1719332 2894892
0.46132305 -0.22517951 3.1722033 2894892
0.46139467 -0.17483301 3.1730072 2894892
0.46147209 -0.12490148 3.1735406 2894892
0.46154973 -0.074953198 3.1740737 2894892
0.4616273 -0.024988135 3.1746066 2894892
0.46170479 0.024993729 3.1751401 2894892
0.46178234 0.074992396 3.1756747 2894892
-0.86683273 0.10735986 3.199297 10066329
-0.82523841 0.10729383 3.197329 10000536
-0.77431899 0.10721298 3.1949193 10000536
-0.72481322 0.10713439 3.1925774 10000536
-0.67538059 0.1070559 3.1902385 10000536
-0.62468678 0.10697541 3.1878407 10132122
-0.57406914 0.10689506 3.1854458 10197915
-0.52485633 0.10681692 3.1831172 10197915
-0.47571599 0.10673888 3.1807919 10197915
-0.42532188 0.10665888 3.1784077 10197915
-0.37500325 0.10657901 3.1760271 10197915
-0.32476005 0.10649922 3.1736503 10197915
-0.27459183 0.10641956 3.1712768 10197915
-0.22449875 0.10634004 3.1689065 10197915
-0.17448042 0.10626063 3.1665399 10197915
-0.12453674 0.10618133 3.1641767 10197915
-0.074667551 0.10610215 3.1618173 10197915
-0.024872696 0.10602311 3.1594617 10197915
0.024848023 0.10594414 3.1571093 10197915
0.074494757 0.10586533 3.1547601 10197915
0.12406766 0.10578662 3.152415 10197915
0.16185229 0.10572664 3.1506274 10197915
0.46182525 0.10262974 3.1759689 2894892
0.45788902 -1.4213727 3.2243438 2894892
0.45800233 -1.3749011 3.2231436 2894892
0.45807979 -1.3248287 3.2236896 2894892
0.45816365 -1.2751821 3.2239418 2894892
0.45823416 -1.22508 3.2247748 2894892
0.45831233 -1.1745132 3.2253246 2894892
0.45838213 -1.1248027 3.2261586 2894892
0.45847234 -1.0755606 3.2261143 2894892
0.45854297 -1.025373 3.2269485 2894892
0.45862117 -0.97473776 3.2274976 2894892
0.45870587 -0.92452908 3.2277567 2894892
0.45877582 -0.87475342 3.2285869 2894892
0.45885357 -0.82451147 3.2291338 2894892
0.45893061 -0.77469724 3.2296741 2894892
0.45900702 -0.7253114 3.2302139 2894892
0.45909119 -0.67546993 3.230468 2894892
0.459162 -0.62515873 3.231303 2894892
0.45932811 -0.5726108 3.2283845 2894892
0.45951086 -0.52496636 3.2244132 2894892
0.45958745 -0.47561926 3.2249496 2894892
0.45967311 -0.42525551 3.2251742 2894892
0.45989048 -0.37644479 3.2198651 2894892
0.46001601 -0.32490122 3.2185457 2894892
0.46009353 -0.2747227 3.2190912 2894892
0.46017763 -0.2249697 3.2193429 2894892
0.46024841 -0.17476359 3.2201715 2894892
0.46031925 -0.12452732 3.2210011 2894892
0.46040964 -0.075184785 3.2209609 2894892
0.46047977 -0.025359519 3.2217913 2894892
0.46055824 0.025365282 3.2223406 2894892
0.46064243 0.075224154 3.2225904 2894892
-0.89100796 0.10739825 3.2004411 3624039
-0.36882731 0.10634021 3.2491374 10197915
-0.32554391 0.10627165 3.2470424 10197915
-0.27556601 0.10619248 3.2446227 10197915
-0.22431436 0.10611127 3.2421412 10197915
-0.17448647 0.10603233 3.2397299 10197915
-0.12473331 0.10595351 3.2373219 10197915
-0.075053379 0.10587481 3.2349162 10197915
-0.025447881 0.10579621 3.2325156 10197915
0.025422059 0.10571562 3.2300537 10197915
0.074879229 0.10563728 3.2276587 10197915
0.12426247 0.10555902 3.2252686 10197915
0.17490467 0.1054788 3.2228172 10197915
0.22546995 0.10539869 3.2203693 10197915
0.27595845 0.1053187 3.2179255 10197915
0.32504511 0.10524093 3.2155492 10197915
0.37405857 0.10516328 3.213177 10197915
0.42432189 0.10508364 3.2107437 9408399
0.45829067 0.1034364 3.2176137 2894892
0.45652524 -1.4581223 3.2777159 2894892
0.45674446 -1.4248787 3.2711735 2894892
0.45681497 -1.3745154 3.2720263 2894892
0.45689201 -1.3245831 3.2725763 2894892
0.45697567 -1.275084 3.2728243 2894892
0.45703825 -1.2251176 3.2739718 2894892
0.45712981 -1.1751444 3.2739279 2894892
0.45720038 -1.1246891 3.2747867 2894892
0.45727763 -1.0746725 3.2753391 2894892
0.45736116 -1.0250801 3.2755897 2894892
0.45742387 -0.97504878 3.2767417 2894892
0.45751566 -0.9249714 3.2766964 2894892
0.4575783 -0.87488842 3.2778485 2894892
0.45766956 -0.82524693 3.2777941 2894892
0.45774674 -0.77512181 3.278352 2894892
0.45780966 -0.72499305 3.279505 2894892
0.45790145 -0.67484444 3.2794602 2894892
0.45797098 -0.62512636 3.2803054 2894892
0.45804843 -0.57494086 3.2808611 2894892
0.45812601 -0.52473843 3.2814157 2894892
0.4582099 -0.47496325 3.2816696 2894892
0.45827284 -0.42474347 3.2828221 2894892
0.45853576 -0.37394062 3.2757921 2894892
0.45882094 -0.3252579 3.267688 2894892
0.45891309 -0.27480653 3.2676594 2894892
0.45899025 -0.22475554 3.2682116 2894892
0.45906764 -0.1746877 3.2687597 2894892
0.45915157 -0.1250615 3.2690077 2894892
0.45921463 -0.074945673 3.2701509 2894892
0.45930627 -0.024850827 3.2701092 2894892
0.45938301 0.024856364 3.2706556 2894892
0.45944604 0.074984893 3.2717996 2894892
-0.91050828 0.10719839 3.275358 4544366
-0.87476832 0.10714176 3.2736278 10066329
-0.82396829 0.1070613 3.2711687 10066329
-0.77461475 0.1069831 3.2687798 10000536
-0.72533327 0.10690502 3.2663941 10000536
-0.67475814 0.1068249 3.2639465 10000536
-0.6242578 0.10674489 3.2615013 10132122
-0.57519543 0.10666714 3.2591269 10197915
-0.524845 0.1065874 3.2566895 10197915
-0.47456905 0.10650773 3.254256 10197915
-0.42572439 0.10643036 3.2518911 10197915
-0.3945525 0.10638098 3.2503829 10197915
0.17767003 0.10523674 3.2989385 10197915
0.22534239 0.10516137 3.296576 10197915
0.27566618 0.10508183 3.2940822 10197915
0.32455647 0.10500453 3.2916596 10197915
0.37472963 0.10492522 3.2891738 10197915
0.42482772 0.10484605 3.2866912 9145227
0.45735666 0.10359934 3.2759371 2894892
0.45538169 -1.4686979 3.3239746 2894892
0.4555198 -1.4252571 3.3215313 2894892
0.45558953 -1.3750312 3.3224018 2894892
0.45566633 -1.3252436 3.3229616 2894892
0.45575032 -1.2754395 3.3232117 2894892
0.4558126 -1.2251613 3.3243952 2894892
0.45589766 -1.174866 3.3246474 2894892
0.45598248 -1.1245676 3.3249047 2894892
0.45605168 -1.0746864 3.325773 2894892
0.45612767 -1.0252553 3.3263264 2894892
0.45621198 -0.9753449 3.3265777 2894892
0.45628187 -0.92497462 3.3274512 2894892
0.45635879 -0.8750357 3.3280125 2894892
0.45643499 -0.8255381 3.328568 2894892
0.45651245 -0.77510709 3.3291347 2894892
0.45659021 -0.72465885 3.3297002 2894892
0.45666641 -0.67511111 3.3302557 2894892
0.45674342 -0.62508804 3.330816 2894892
0.45682865 -0.57460427 3.331073 2894892
0.45689812 -0.52453625 3.3319457 2894892
0.45697448 -0.47492173 3.3325033 2894892
0.45720819 -0.42711243 3.3264482 2894892
0.45734152 -0.37536669 3.3248208 2894892
0.4576115 -0.32479444 3.3174808 2894892
0.45769626 -0.27489284 3.317719 2894892
0.45777363 -0.22453289 3.3182805 2894892
0.45784989 -0.17507197 3.3188312 2894892
0.45792684 -0.12513635 3.3193896 2894892
0.45801187 -0.074737638 3.3196461 2894892
0.45808142 -0.024760982 3.3205106 2894892
0.4581576 0.024766471 3.3210635 2894892
0.45824215 0.074776635 3.3213146 2894892
-0.85073537 0.10686236 3.3498983 10066329
-0.82404423 0.10682014 3.3485749 10066329
-0.77492553 0.1067425 3.3461409 10000536
-0.72587895 0.10666498 3.3437109 10000536
-0.67550498 0.10658533 3.3412142 10000536
-0.62520611 0.10650583 3.3387227 10132122
-0.57498229 0.10642644 3.3362336 10197915
-0.52483332 0.10634717 3.3337488 10197915
-0.47475895 0.10626802 3.3312674 10197915
-0.42475903 0.10618898 3.3287897 10197915
-0.37483346 0.10611009 3.3263159 10197915
-0.32498202 0.10603127 3.3238456 10197915
-0.27520457 0.10595259 3.3213789 10197915
-0.22550096 0.10587401 3.3189161 10197915
-0.175871 0.10579558 3.316457 10197915
-0.12493937 0.10571505 3.3139331 10197915
-0.074084491 0.10563467 3.3114135 10197915
-0.024678595 0.10555658 3.3089652 10197915
0.024654306 0.10547861 3.3065209 10197915
0.075281329 0.10539857 3.3040121 10197915
0.12583226 0.10531865 3.301507 10197915
0.15312797 0.1052755 3.3001537 10197915
0.45819464 0.10221908 3.325315 2894892
0.45383877 -1.5073487 3.3845761 2894892
0.45418069 -1.4752465 3.3729012 2894892
0.4542504 -1.4247209 3.373796 2894892
0.45432734 -1.3746355 3.3743668 2894892
0.45440421 -1.3245332 3.3749378 2894892
0.45448843 -1.2748781 3.3751719 2894892
0.45455652 -1.2252108 3.3760707 2894892
0.4546335 -1.1750579 3.3766418 2894892
0.45471045 -1.1248876 3.377213 2894892
0.45478731 -1.0747007 3.377785 2894892
0.45486435 -1.0244963 3.3783569 2894892
0.4549489 -0.97473484 3.3785901 2894892
0.45501706 -0.92497247 3.3794909 2894892
0.45509419 -0.87471795 3.3800631 2894892
0.4551706 -0.82491171 3.3806329 2894892
0.45524707 -0.77508879 3.3811994 2894892
0.45532423 -0.72478324 3.381772 2894892
0.4554947 -0.67727846 3.3782997 2894892
0.45569235 -0.62483037 3.3740785 2894892
0.45576942 -0.57460523 3.3746493 2894892
0.45584664 -0.52436322 3.3752213 2894892
0.45592371 -0.4741042 3.375792 2894892
0.4561967 -0.42332795 3.3683481 2894892
0.45628798 -0.37489343 3.3682013 2894892
0.45636502 -0.32471365 3.3687701 2894892
0.4564414 -0.27498183 3.3693349 2894892
0.45651785 -0.22523333 3.3698978 2894892
0.45659491 -0.17500298 3.3704677 2894892
0.45667949 -0.12522876 3.3707016 2894892
0.45674795 -0.075427152 3.3715971 2894892
0.45682526 -0.025146166 3.3721666 2894892
0.45690244 0.025151826 3.3727367 2894892
0.45697975 0.075466834 3.3733072 2894892
-0.92108607 0.10697353 3.3533831 7436933
-0.8760466 0.10690235 3.3511522 10066329
-0.21967898 0.10561395 3.3990505 10197915
-0.17450047 0.1055427 3.3967578 10197915
-0.12515451 0.10546488 3.3942535 10197915
-0.075881958 0.10538718 3.3917525 10197915
-0.025276953 0.10530738 3.389184 10197915
0.025251474 0.10522769 3.3866196 10197915
0.075703502 0.10514815 3.3840592 10197915
0.12607928 0.1050687 3.3815026 10197915
0.17498314 0.10499158 3.3790207 10197915
0.22381459 0.10491458 3.3765421 10197915
0.27396691 0.10483548 3.373997 10197915
0.32404372 0.10475652 3.3714552 10197915
0.37404504 0.10467768 3.3689172 10197915
0.42397127 0.10459894 3.3663836 8816262
0.45538566 0.10343218 3.3673885 2894892
0.45274332 -1.5171058 3.4289191 2894892
0.45287064 -1.475031 3.4268165 2894892
0.45293877 -1.4251058 3.4277353 2894892
0.45303175 -1.3751729 3.4276288 2894892
0.45309988 -1.3252143 3.4285512 2894892
0.45318466 -1.2752417 3.4287848 2894892
0.45325348 -1.2247853 3.429713 2894892
0.45332158 -1.1747684 3.4306409 2894892
0.45341405 -1.1252377 3.430521 2894892
0.4534829 -1.0747149 3.4314489 2894892
0.45376766 -1.0251802 3.4234264 2894892
0.45385042 -0.97509736 3.4237556 2894892
0.45393357 -0.92488891 3.424077 2894892
0.45401675 -0.87467527 3.4243984 2894892
0.4540799 -0.8251617 3.4254868 2894892
0.45416829 -0.77562606 3.4255416 2894892
0.45423901 -0.72536439 3.4263804 2894892
0.45444873 -0.67270005 3.4216802 2894892
0.45461857 -0.62551188 3.4182048 2894892
0.45468754 -0.57508951 3.4191265 2894892
0.45477307 -0.52464283 3.4193661 2894892
0.45483211 -0.47516429 3.4206247 2894892
0.45491713 -0.42515489 3.4208536 2894892
0.45500284 -0.374672 3.4210939 2894892
0.45507103 -0.32464725 3.4220121 2894892
0.45514709 -0.27507365 3.4225802 2894892
0.45522296 -0.22548352 3.4231539 2894892
0.45530799 -0.17540726 3.4233885 2894892
0.45537722 -0.12484059 3.4243114 2894892
0.45545319 -0.075200424 3.4248841 2894892
0.45552918 -0.025543526 3.4254558 2894892
0.45560744 0.025549367 3.4260433 2894892
0.45568353 0.075239763 3.4266167 2894892
-0.95815945 0.10677852 3.4365304 2309213
-0.92496324 0.10672615 3.4348457 10066329
-0.87450492 0.1066466 3.4322846 10066329
-0.82556045 0.10656939 3.4298005 10066329
-0.77525085 0.10649005 3.427247 10000536
-0.7250154 0.10641085 3.4246974 10000536
-0.67485541 0.10633174 3.4221518 10000536
-0.62476915 0.10625276 3.4196103 10132122
-0.57475793 0.1061739 3.4170721 10197915
-0.52482015 0.10609514 3.4145374 10197915
-0.47495726 0.10601652 3.4120066 10197915
-0.42516735 0.10593801 3.4094794 10197915
-0.37545192 0.10585959 3.4069564 10197915
-0.32439238 0.10577907 3.4043646 10197915
-0.27482527 0.10570092 3.4018497 10197915
-0.24511756 0.10565406 3.4003413 10197915
0.43585435 0.10431943 3.4493713 7105644
0.45466071 0.10273942 3.4323351 2894892
0.45111695 -1.55667 3.4928813 2894892
0.45167822 -1.5247743 3.4721689 2894892
0.45176011 -1.4753846 3.4724822 2894892
0.45182365 -1.4252875 3.4736025 2894892
0.45191312 -1.3751478 3.4736581 2894892
0.45197663 -1.3250012 3.4747787 2894892
0.45206615 -1.2748425 3.4748344 2894892
0.45213515 -1.2253746 3.4756813 2894892
0.45221171 -1.1751759 3.4762707 2894892
0.4522883 -1.1249603 3.4768581 2894892
0.45236486 -1.0747275 3.4774475 2894892
0.45265827 -1.0241485 3.4691453 2894892
0.45275092 -0.97494853 3.4689987 2894892
0.45281032 -0.92481041 3.470295 2894892
0.45290357 -0.87512076 3.4701612 2894892
0.45297092 -0.82541621 3.4710984 2894892
0.45304748 -0.7752161 3.4716885 2894892
0.45312423 -0.72499907 3.4722738 2894892
0.45320871 -0.67525011 3.4724998 2894892
0.45326835 -0.62498587 3.4737957 2894892
0.45336232 -0.5747419 3.4736757 2894892
0.45342895 -0.52540272 3.4746101 2894892
0.45350572 -0.47510093 3.475199 2894892
0.45358264 -0.42478248 3.4757876 2894892
0.45366672 -0.37540647 3.4760089 2894892
0.45373419 -0.32553774 3.476948 2894892
0.45381111 -0.27516836 3.4775403 2894892
0.45388812 -0.22478193 3.4781275 2894892
0.45397297 -0.17486143 3.4783549 2894892
0.45403177 -0.12491511 3.4796562 2894892
0.45412612 -0.074493915 3.4795346 2894892
0.45419386 -0.024511935 3.4804718 2894892
0.45426866 0.024517322 3.4810455 2894892
0.45457235 0.074804418 3.4723001 2894892
-0.51896125 0.10582141 3.4990351 10197915
-0.47516531 0.10575251 3.4967563 10197915
-0.42413953 0.10567223 3.4941025 10197915
-0.37464613 0.10559437 3.4915283 10197915
-0.32522553 0.10551664 3.4889579 10197915
-0.27587771 0.10543903 3.4863911 10197915
-0.22515458 0.10535923 3.483753 10197915
-0.17450747 0.10527956 3.4811187 10197915
-0.12538107 0.10520227 3.4785633 10197915
-0.074885383 0.10512285 3.4759369 10197915
-0.024465175 0.10504354 3.4733145 10197915
0.024441307 0.10496661 3.4707704 10197915
0.074711084 0.10488754 3.4681559 10197915
0.12490589 0.10480858 3.4655454 10197915
0.17502445 0.10472973 3.4629383 10197915
0.22506842 0.10465102 3.4603355 10197915
0.27503648 0.10457242 3.457736 10197915
0.32493028 0.10449392 3.4551413 10197915
0.3747485 0.10441557 3.4525502 10197915
0.41171086 0.10435744 3.450628 10197915
0.45461416 0.10214518 3.4726191 2894892
0.44998813 -1.5742253 3.5380199 2894892
0.45034319 -1.5602467 3.5244544 2894892
0.45052898 -1.5251 3.5194259 2894892
0.45059654 -1.4748073 3.5203948 2894892
0.45068145 -1.4249709 3.5206192 2894892
0.45076615 -1.375134 3.5208426 2894892
0.45083392 -1.3247845 3.5218074 2894892
0.45090982 -1.2749053 3.5224025 2894892
0.4509947 -1.2250149 3.5226283 2894892
0.4510617 -1.1751019 3.5235901 2894892
0.45113692 -1.1256568 3.5241771 2894892
0.45122263 -1.0752097 3.5244143 2894892
0.4512822 -1.0243081 3.5257516 2894892
0.45136726 -0.97431159 3.5259764 2894892
0.45144275 -0.9248001 3.5265656 2894892
0.45152777 -0.87479079 3.526792 2894892
0.45159492 -0.82476038 3.5277557 2894892
0.45167047 -0.77519846 3.5283449 2894892
0.45174673 -0.72513431 3.5289383 2894892
0.45183259 -0.6745736 3.5291731 2894892
0.45189995 -0.62447351 3.5301373 2894892
0.45205882 -0.57726508 3.5271184 2894892
0.4522849 -0.52523404 3.5216954 2894892
0.45236033 -0.47570738 3.5222833 2894892
0.4524436 -0.4254255 3.5226064 2894892
0.45251352 -0.37515086 3.5234754 2894892
0.45258355 -0.32484737 3.5243447 2894892
0.45266682 -0.27451825 3.5246689 2894892
0.45274237 -0.22490802 3.5252571 2894892
0.4528257 -0.17456059 3.5255814 2894892
0.45289579 -0.12418149 3.5264521 2894892
0.45297143 -0.074521065 3.5270412 2894892
0.45304704 -0.024844045 3.5276303 2894892
0.45312279 0.024849575 3.5282202 2894892
0.45342916 0.07435897 3.5193038 2894892
-0.97046113 0.10653163 3.5225184 7042434
-0.92607486 0.10646179 3.5202103 10066329
-0.87583947 0.10638279 3.517597 10066329
-0.82567835 0.10630387 3.5149877 10066329
-0.77559173 0.10622509 3.5123825 10000536
-0.72557926 0.10614642 3.5097818 10000536
-0.67564076 0.10606786 3.507184 10000536
-0.62577617 0.10598943 3.5045903 10132122
-0.57598537 0.1059111 3.5020008 10197915
-0.54380399 0.10586045 3.5003257 10197915
0.19854116 0.10441795 3.549886 10197915
0.22492096 0.10437652 3.5484781 10197915
0.27469838 0.10429844 3.5458226 10197915
0.32440144 0.10422045 3.5431714 10197915
0.37403014 0.10414258 3.5405247 10197915
0.42504075 0.10406255 3.5378034 8026746
0.45342013 0.10205811 3.5192311 2894892
0.44850719 -1.6047915 3.5966694 2894892
0.44900551 -1.5740333 3.5784588 2894892
0.44910958 -1.5251977 3.5778151 2894892
0.4491857 -1.4750513 3.5784216 2894892
0.44926187 -1.4248875 3.5790277 2894892
0.44934696 -1.3752081 3.579232 2894892
0.44952658 -1.3279352 3.575362 2894892
0.44972181 -1.2759048 3.5712085 2894892
0.45000371 -1.2526333 3.5613434 2894892
0.44956851 -1.224072 3.5813837 2894892
0.45004389 -1.2261844 3.5616615 2894892
0.44964463 -1.173824 3.5819898 2894892
0.45011964 -1.1762136 3.5622616 2894892
0.44971859 -1.125038 3.5825796 2894892
0.45019558 -1.1262262 3.5628617 2894892
0.44979265 -1.0762358 3.5831692 2894892
0.45027155 -1.0762219 3.5634632 2894892
0.44986898 -1.0259382 3.5837774 2894892
0.45034754 -1.0262009 3.5640643 2894892
0.44994536 -0.97562331 3.5843856 2894892
0.45042351 -0.97616309 3.5646663 2894892
0.44999254 -0.94453871 3.5847616 2894892
0.4502964 -0.92318803 3.5738471 2894892
0.45033684 -0.87548947 3.575736 2894892
0.45041314 -0.82526231 3.5763416 2894892
0.4504894 -0.77501786 3.5769477 2894892
0.45056576 -0.7247563 3.5775542 2894892
0.45064822 -0.67523056 3.577852 2894892
0.45071629 -0.62566614 3.5787487 2894892
0.45093256 -0.57277918 3.5737875 2894892
0.4511072 -0.52506036 3.570163 2894892
0.45118347 -0.47485206 3.5707648 2894892
0.45125979 -0.42462668 3.5713704 2894892
0.45134491 -0.37487805 3.5715749 2894892
0.45141089 -0.32511628 3.5725663 2894892
0.45148736 -0.27484033 3.5731714 2894892
0.45156303 -0.22504051 3.5737715 2894892
0.45163864 -0.17522401 3.5743687 2894892
0.4517239 -0.12539953 3.5745749 2894892
0.45179012 -0.075546347 3.5755672 2894892
0.45186663 -0.025185905 3.5761726 2894892
0.45194316 0.02519159 3.5767784 2894892
0.45201963 0.075586155 3.5773842 2894892
-0.7201429 0.10585924 3.5988855 10000536
-0.67496264 0.10578835 3.5964761 10000536
-0.62533253 0.10571048 3.5938284 10132122
-0.57577604 0.10563274 3.5911853 10197915
-0.52479362 0.10555274 3.5884659 10197915
-0.47538415 0.10547523 3.5858305 10197915
-0.42604789 0.10539783 3.5831988 10197915
-0.37529194 0.1053182 3.5804915 10197915
-0.32461265 0.10523869 3.5777884 10197915
-0.27400976 0.10515931 3.5750895 10197915
-0.22496784 0.10508237 3.5724735 10197915
-0.17599835 0.10500554 3.5698621 10197915
-0.12561935 0.10492648 3.5671747 10197915
-0.075316176 0.10484757 3.5644917 10197915
-0.02508861 0.10476876 3.5618129 10197915
0.025063515 0.10469007 3.5591378 10197915
0.075140364 0.10461151 3.5564668 10197915
0.12514211 0.10453307 3.5537996 10197915
0.1736019 0.10445704 3.5512147 10197915
0.45206025 0.10227183 3.5777051 2894892
0.44771099 -1.611948 3.6288962 2894892
0.44781649 -1.5748727 3.627317 2894892
0.44789967 -1.5247753 3.6276226 2894892
0.44795942 -1.4754486 3.628844 2894892
0.44804284 -1.4253175 3.6291506 2894892
0.44812626 -1.3751819 3.6294565 2894892
0.4483653 -1.3228713 3.6235178 2894892
0.44851577 -1.2750483 3.6208892 2894892
0.44860119 -1.2252569 3.6210904 2894892
0.44866735 -1.1749444 3.6221101 2894892
0.4487443 -1.1241169 3.6227312 2894892
0.44881904 -1.0747677 3.6233346 2894892
0.44889373 -1.0254019 3.6239386 2894892
0.44897994 -0.97501582 3.6241479 2894892
0.44904545 -0.92512947 3.6251667 2894892
0.44912192 -0.87471557 3.6257806 2894892
0.44919762 -0.82478374 3.6263902 2894892
0.44927242 -0.77533472 3.626997 2894892
0.4493579 -0.72537148 3.6271996 2894892
0.44942459 -0.67489326 3.6282229 2894892
0.44941708 -0.62695909 3.6321084 2894892
0.45001516 -0.60998726 3.608762 2894892
0.44935113 -0.57665616 3.6385655 2894892
0.45006716 -0.57566661 3.6091793 2894892
0.44965357 -0.52484572 3.6299818 2894892
0.45014411 -0.5249182 3.609796 2894892
0.44972855 -0.47529778 3.6305873 2894892
0.45022106 -0.47415233 3.6104133 2894892
0.44980362 -0.42573318 3.6311934 2894892
0.45029581 -0.42486316 3.6110125 2894892
0.44988099 -0.37464932 3.6318178 2894892
0.45037055 -0.37555742 3.6116121 2894892
0.44995612 -0.32505122 3.6324244 2894892
0.45044759 -0.32474053 3.6122301 2894892
0.44999707 -0.29799137 3.6327548 2894892
0.45028692 -0.27396336 3.622622 2894892
0.45035291 -0.22517367 3.6235425 2894892
0.45043659 -0.17492343 3.6238494 2894892
0.45050529 -0.12464021 3.624768 2894892
0.45058036 -0.075096779 3.6253724 2894892
0.45065543 -0.025536651 3.6259761 2894892
0.4507328 0.025542492 3.6265991 2894892
0.45080799 0.075136013 3.6272042 2894892
-1.0077031 0.10631039 3.6142235 2309213
-0.97580194 0.10626034 3.6125216 10066329
-0.92572886 0.10618179 3.6098504 10066329
-0.87572891 0.10610334 3.6071837 10066329
-0.82580358 0.10602502 3.604521 10066329
-0.77444214 0.10594443 3.6017816 10000536
-0.74426252 0.10589706 3.6001713 10000536
0.081633396 0.10431143 3.6490548 10197915
0.12539044 0.10424297 3.6466603 10197915
0.17511535 0.10416517 3.6439385 10197915
0.22476538 0.10408749 3.641222 10197915
0.27584293 0.10400758 3.6384258 10197915
0.32534364 0.10393014 3.6357167 10197915
0.37476993 0.10385281 3.6330113 10197915
0.42561749 0.10377325 3.630228 7566195
0.45093003 0.10159587 3.6241553 2894892
0.44593608 -1.6519556 3.6989393 2894892
0.4464432 -1.6222252 3.6802964 2894892
0.44662705 -1.5766662 3.6761231 2894892
0.44689247 -1.524604 3.6690831 2894892
0.44696778 -1.4746903 3.6697011 2894892
0.44704321 -1.4247603 3.67032 2894892
0.44712508 -1.3755693 3.6706145 2894892
0.44718522 -1.3256073 3.6718647 2894892
0.44727606 -1.2756338 3.6718531 2894892
0.44734493 -1.2248753 3.6727972 2894892
0.44742039 -1.174861 3.6734166 2894892
0.44749594 -1.1248296 3.6740367 2894892
0.44757149 -1.0747814 3.6746576 2894892
0.44764706 -1.0247164 3.6752782 2894892
0.44772276 -0.97463465 3.6758997 2894892
0.44780493 -0.92528683 3.6761951 2894892
0.44786522 -0.87518746 3.677448 2894892
0.44795629 -0.82504737 3.6774383 2894892
0.44801664 -0.77489686 3.6786914 2894892
0.44810778 -0.72474009 3.6786814 2894892
0.44817472 -0.67531258 3.67961 2894892
0.44825059 -0.62511218 3.6802335 2894892
0.44837269 -0.57363409 3.6790431 2894892
0.44865409 -0.52469832 3.6711171 2894892
0.44872972 -0.47458887 3.6717367 2894892
0.44881493 -0.42496398 3.6719346 2894892
0.44887018 -0.37483004 3.6733944 2894892
0.44896585 -0.32517856 3.6731615 2894892
0.44903055 -0.27550751 3.6741972 2894892
0.44910637 -0.22531371 3.6748207 2894892
0.44918242 -0.17510304 3.6754375 2894892
0.44926775 -0.12539184 3.6756308 2894892
0.44932327 -0.075129323 3.6770906 2894892
0.4494195 -0.024897425 3.6768739 2894892
0.44942227 0.022457937 3.6802957 2894892
0.45001334 0.040910367 3.6573501 2894892
0.44930768 0.074886084 3.6889112 2894892
0.45006382 0.074253686 3.6577604 2894892
-0.82438231 0.10572895 3.698643 10066329
-0.7747795 0.10565135 3.6959281 10000536
-0.72524947 0.10557384 3.693217 10000536
-0.67579198 0.10549647 3.6905103 10000536
-0.62486523 0.1054168 3.6877232 10132122
-0.57401454 0.10533723 3.6849403 10197915
-0.52477849 0.10526019 3.682245 10197915
-0.47561428 0.10518327 3.6795549 10197915
-0.42498934 0.10510407 3.6767833 10197915
-0.3744399 0.10502498 3.6740172 10197915
-0.32549506 0.1049484 3.6713376 10197915
-0.27509591 0.10486955 3.6685798 10197915
-0.22477165 0.10479081 3.6658254 10197915
-0.17452367 0.10471221 3.6630757 10197915
-0.12435023 0.1046337 3.6603289 10197915
-0.075769357 0.1045577 3.6576703 10197915
-0.02574461 0.10447942 3.6549327 10197915
0.02571818 0.10439891 3.6521158 10197915
0.057467539 0.10434926 3.6503785 10197915
0.44934922 0.1024037 3.6892533 2894892
0.4501051 0.10153886 3.6580958 2894892
0.44508505 -1.6598282 3.7333653 2894892
0.44519839 -1.6246672 3.7313247 2894892
0.44538102 -1.5732328 3.7276413 2894892
0.44561782 -1.5254431 3.721462 2894892
0.4456729 -1.4748278 3.7229645 2894892
0.44576964 -1.4246861 3.7227221 2894892
0.44583377 -1.3750461 3.7237818 2894892
0.44590858 -1.3253872 3.7244051 2894892
0.44599479 -1.2751995 3.7246013 2894892
0.44604895 -1.2249938 3.7261069 2894892
0.44613531 -1.1747723 3.7262988 2894892
0.44622144 -1.1245513 3.7264946 2894892
0.44628572 -1.0747963 3.7275579 2894892
0.44635999 -1.0255495 3.7281773 2894892
0.44669718 -0.97503215 3.7180655 2894892
0.4467735 -0.92435861 3.7187011 2894892
0.44684756 -0.87520415 3.7193184 2894892
0.44693065 -0.82526523 3.7196207 2894892
0.44699809 -0.77531302 3.720571 2894892
0.44706553 -0.72533101 3.7215211 2894892
0.44715771 -0.67459023 3.7215106 2894892
0.44722521 -0.62457424 3.7224607 2894892
0.44729942 -0.57532024 3.7230787 2894892
0.44737363 -0.52604973 3.7236965 2894892
0.44745028 -0.47522253 3.7243347 2894892
0.44752684 -0.42437798 3.7249713 2894892
0.44760114 -0.37505749 3.7255905 2894892
0.44768456 -0.32494694 3.7258947 2894892
0.44775215 -0.27482921 3.7268472 2894892
0.44782653 -0.22545907 3.7274671 2894892
0.44789425 -0.17529026 3.7284203 2894892
0.44798675 -0.12436364 3.7284102 2894892
0.44805446 -0.074160792 3.7293637 2894892
0.44812897 -0.024723923 3.729984 2894892
0.44820353 0.024729395 3.7306039 2894892
0.44827804 0.07419917 3.7312241 2894892
-1.0204033 0.10603563 3.7093713 7239555
-0.97362894 0.10596244 3.7068112 10066329
-0.92380685 0.10588449 3.7040846 10066329
-0.87405801 0.10580666 3.7013619 10066329
0.038832605 0.10407294 3.7493899 10197915
0.074516766 0.10401728 3.7473845 10197915
0.12410429 0.10393991 3.7445974 10197915
0.17516387 0.10386027 3.7417278 10197915
0.226146 0.10378073 3.738863 10197915
0.27550837 0.10370374 3.736089 10197915
0.32479751 0.10362684 3.7333186 10197915
0.3740136 0.10355006 3.7305527 10197915
0.42714354 0.10314885 3.7278233 6776679
0.44404027 -1.6694934 3.7756305 2894892
0.44413939 -1.6248641 3.774879 2894892
0.44421408 -1.5750848 3.7755141 2894892
0.44428885 -1.5252887 3.7761495 2894892
0.44436371 -1.4754761 3.7767851 2894892
0.44443846 -1.4256463 3.7774208 2894892
0.44452259 -1.3750199 3.7777324 2894892
0.44459051 -1.3243823 3.7787127 2894892
0.44466522 -1.2745017 3.7793484 2894892
0.44474015 -1.224604 3.7799842 2894892
0.44481507 -1.1746898 3.780622 2894892
0.44489002 -1.1247587 3.7812586 2894892
0.44496498 -1.074811 3.7818961 2894892
0.44504005 -1.0248463 3.7825336 2894892
0.44538096 -0.97515136 3.772213 2894892
0.44545588 -0.92529792 3.7728469 2894892
0.44554248 -0.87491357 3.7730408 2894892
0.4456073 -0.82450724 3.7741296 2894892
0.44568214 -0.77460295 3.7747648 2894892
0.44575718 -0.72468215 3.7753994 2894892
0.44584283 -0.67527276 3.7755601 2894892
0.44590569 -0.62583679 3.7766581 2894892
0.44598076 -0.57586569 3.777293 2894892
0.44614369 -0.52830464 3.7741373 2894892
0.44639844 -0.47605395 3.7675471 2894892
0.44648272 -0.42538735 3.7678583 2894892
0.44655079 -0.37473106 3.7688324 2894892
0.4466258 -0.32482132 3.7694659 2894892
0.44670084 -0.27489495 3.7700994 2894892
0.44677594 -0.22495173 3.7707322 2894892
0.44685104 -0.17499168 3.7713666 2894892
0.44692618 -0.12501489 3.7720006 2894892
0.44700125 -0.075021259 3.7726345 2894892
0.44707647 -0.025010828 3.7732692 2894892
0.44715163 0.025016433 3.7739038 2894892
0.44722685 0.075060509 3.7745385 2894892
-0.85634893 0.10546942 3.7997003 10000536
-0.82447946 0.1054197 3.7979085 10000536
-0.77513641 0.10534271 3.7951355 10000536
-0.7258662 0.10526586 3.7923665 10000536
-0.67508155 0.10518662 3.7895124 10000536
-0.62437326 0.10510752 3.7866626 10132122
-0.57374114 0.10502854 3.7838166 10197915
-0.52476341 0.10495213 3.7810643 10197915
-0.47585768 0.10487584 3.7783158 10197915
-0.42544848 0.1047972 3.7754827 10197915
-0.37511483 0.10471869 3.7726541 10197915
-0.32485655 0.1046403 3.7698295 10197915
-0.27467346 0.10456201 3.7670093 10197915
-0.22456536 0.10448383 3.7641928 10197915
-0.17453215 0.10440577 3.7613809 10197915
-0.12457366 0.10432784 3.7585735 10197915
-0.074689671 0.10425002 3.7557697 10197915
-0.024880053 0.10417233 3.7529707 10197915
0.013984187 0.1041117 3.7507868 10197915
0.44726685 0.10165259 3.7748761 2894892
0.44276962 -1.7061121 3.8251805 2894892
0.44298002 -1.6754167 3.8188124 2894892
0.44305539 -1.6250666 3.8194623 2894892
0.44313082 -1.5746989 3.8201127 2894892
0.4432064 -1.5243146 3.8207626 2894892
0.44328952 -1.4746904 3.8210397 2894892
0.44335499 -1.4250743 3.8220444 2894892
0.44343057 -1.3746392 3.8226955 2894892
0.44349596 -1.3249708 3.8237007 2894892
0.44357914 -1.2752887 3.823977 2894892
0.44366232 -1.2256045 3.8242538 2894892
0.443728 -1.1758816 3.8252602 2894892
0.44380358 -1.1253611 3.8259125 2894892
0.44387946 -1.0748234 3.8265653 2894892
0.44395497 -1.0242685 3.8272173 2894892
0.44403845 -0.97447282 3.8274961 2894892
0.44409409 -0.92549223 3.8288574 2894892
0.44417757 -0.87566364 3.8291366 2894892
0.44425347 -0.82504076 3.8297896 2894892
0.44433704 -0.77519739 3.8300686 2894892
0.44440269 -0.72533095 3.8310773 2894892
0.4444786 -0.67465681 3.8317308 2894892
0.44455463 -0.6239652 3.8323858 2894892
0.44462821 -0.57484144 3.8330202 2894892
0.44485259 -0.5231818 3.8276393 2894892
0.44505048 -0.47514305 3.8230741 2894892
0.44513717 -0.4250541 3.8232386 2894892
0.44520053 -0.37496492 3.8243637 2894892
0.44527566 -0.32484752 3.825011 2894892
0.4453508 -0.27471298 3.8256543 2894892
0.44543761 -0.22455917 3.8258193 2894892
0.44548875 -0.17492418 3.8274169 2894892
0.44575909 -0.12774268 3.8198063 2894892
0.44592327 -0.075901896 3.816921 2894892
0.44599912 -0.025304461 3.81757 2894892
0.44607508 0.0253102 3.8182201 2894892
0.44615096 0.075942092 3.8188696 2894892
-1.0610455 0.10578873 3.8112037 3558246
-1.0257779 0.1057337 3.8092217 10000536
-0.97454107 0.10565377 3.8063419 10000536
-0.92497861 0.10557645 3.8035572 10000536
-0.88186979 0.1055092 3.8011341 10000536
0.092502654 0.10366698 3.8496807 10197915
0.12433772 0.10361746 3.847842 10197915
0.17521548 0.10353834 3.8449035 10197915
0.22601566 0.10345934 3.84197 10197915
0.27515477 0.10338293 3.8391325 10197915
0.32422066 0.10330662 3.8362985 10197915
0.37479374 0.10322797 3.8333781 10197915
0.42513531 0.10311393 3.8291435 6842472
0.44140089 -1.7179011 3.8806188 2894892
0.44160008 -1.6753778 3.8755918 2894892
0.44178918 -1.6278971 3.871345 2894892
0.44202173 -1.5743036 3.8657773 2894892
0.44209555 -1.5249102 3.8664219 2894892
0.44216925 -1.4755003 3.8670676 2894892
0.44225332 -1.4252713 3.8673508 2894892
0.44231939 -1.3750411 3.8683798 2894892
0.44238523 -1.3247789 3.8694086 2894892
0.44247711 -1.2753097 3.8693085 2894892
0.44254315 -1.2250141 3.8703384 2894892
0.4426094 -1.174687 3.8713686 2894892
0.44270152 -1.1251971 3.8712697 2894892
0.44276765 -1.0748358 3.8723011 2894892
0.44284171 -1.0252756 3.8729482 2894892
0.4429158 -0.97569877 3.8735957 2894892
0.44300011 -0.92529613 3.8738811 2894892
0.44305614 -0.87570405 3.8752761 2894892
0.44314048 -0.82526749 3.8755615 2894892
0.44322491 -0.77482814 3.8758473 2894892
0.44328094 -0.72515678 3.8772435 2894892
0.44337326 -0.67549986 3.8771448 2894892
0.4434396 -0.6249941 3.8781781 2894892
0.44351399 -0.57528335 3.8788273 2894892
0.44358829 -0.52555579 3.8794775 2894892
0.4436729 -0.47499177 3.8797641 2894892
0.44372886 -0.42526549 3.8811619 2894892
0.44381365 -0.37466726 3.8814487 2894892
0.4438881 -0.32487258 3.8820996 2894892
0.44396234 -0.2750611 3.8827505 2894892
0.44404718 -0.2244359 3.8830369 2894892
0.44410345 -0.17457737 3.884438 2894892
0.44443068 -0.12286868 3.8748271 2894892
0.44452921 -0.074877329 3.8743501 2894892
0.44462776 -0.0251632 3.8740034 2894892
0.44470301 0.025168877 3.8746583 2894892
0.44475311 0.074916407 3.8763027 2894892
-0.76407123 0.10499906 3.8991475 10000536
