# .PCD v0.7 - Point Cloud Data file format
VERSION 0.7
FIELDS x y z rgb
SIZE 4 4 4 4
TYPE F F F U
COUNT 1 1 1 1
WIDTH 1171
HEIGHT 1
VIEWPOINT 0 0 0 1 0 0 0
POINTS 1171
DATA ascii
-0.72504431 0.1159448 1.8658499 2039583
-0.67490304 0.11589643 1.86488 4210752
-0.62480968 0.11584783 1.8642896 10132122
-0.5751406 0.11579979 1.8635166 10197915
-0.52388912 0.11574898 1.8647171 10197915
-0.47595507 0.11568915 1.8857578 10197915
-0.42505237 0.11563922 1.8860826 10197915
-0.37528443 0.11559122 1.8850971 10197915
-0.32515875 0.11554275 1.884313 10197915
-0.28402692 0.11550319 1.8832283 10197915
-0.15946461 0.11538204 1.8824407 9277587
-0.12548378 0.11534952 1.8813572 2051969
-0.075180106 0.11530099 1.8803704 2578057
-0.024922263 0.11525224 1.8797708 10066329
0.024908375 0.11520407 1.8789849 10066329
0.075081788 0.11515565 1.8780003 10066329
0.12521651 0.11510704 1.8774027 10066329
0.1753071 0.11505873 1.8764194 10066329
0.22535594 0.11501022 1.8758229 10066329
0.27497748 0.11496221 1.8750403 10066329
0.32493868 0.11491401 1.8740594 10066329
0.36146194 0.11487778 1.8749728 10066329
0.49090713 0.11475508 1.8689127 6253691
0.52476543 0.11472065 1.8711005 1523047
0.57490867 0.11467216 1.8703097 2118537
0.62539327 0.11462342 1.8693206 9343383
0.67506289 0.11457527 1.8687297 10197915
0.72469485 0.11452742 1.8677545 10197915
0.77504796 0.11447857 1.8671528 10197915
0.82497996 0.11443031 1.8663647 10197915
0.87448269 0.11438254 1.8653921 10197915
0.9247123 0.11433385 1.8647919 10197915
0.97489911 0.11428544 1.8638085 10197915
1.0250419 0.11423683 1.8632095 10197915
1.0707304 0.11418984 1.866994 10197915
1.1263002 0.11412378 1.8860325 10197915
1.1751395 0.11407606 1.8860774 10197915
1.2250159 0.11402794 1.8850832 10197915
1.2748548 0.11397971 1.8844841 10197915
1.3249586 0.10769857 1.8751289 6316128
1.3123091 -0.45951688 1.9243755 2829099
1.3123304 -0.42505711 1.9244409 2894892
1.3123646 -0.37499979 1.9245244 2894892
-0.35541654 -0.30657572 1.9321802 6513507
-0.34801877 -0.30698243 1.9048541 6513507
1.3124036 -0.32501858 1.9245954 2894892
-0.35467446 -0.28910258 1.9345597 6513507
-0.32592246 -0.28493646 1.9225355 6513507
-0.28681713 -0.28451863 1.9224859 6513507
-0.16125669 -0.28464311 1.9254575 1783376
-0.1250343 -0.2846781 1.9247751 4485019
-0.074968867 -0.28472725 1.9252433 4156312
-0.025049103 -0.28477609 1.9253684 2505554
0.025054878 -0.2848253 1.9257011 3097174
0.075009018 -0.28487444 1.9262384 3360088
0.1248241 -0.28492323 1.9264315 2834261
0.17497537 -0.28497237 1.926765 2045777
0.20853928 -0.28500292 1.9231395 1717327
1.3124491 -0.27503455 1.9246399 2894892
-0.79159737 -0.21660621 1.922303 2039583
1.3124866 -0.22499439 1.9247139 2894892
-0.79232144 -0.17349245 1.9251707 2039583
1.3125324 -0.17500404 1.9247514 2894892
-0.79279149 -0.12486789 1.927109 2039583
1.3125809 -0.12495724 1.9247854 2894892
-0.7926845 -0.075034596 1.9268976 2039583
1.3125879 -0.074907117 1.9249729 2894892
-0.79248267 -0.025063077 1.9263331 2039583
1.3126683 -0.024963403 1.9248866 2894892
-0.79233682 0.025056941 1.9259803 2039583
1.3127096 0.024964439 1.9249424 2894892
-0.79224813 0.074991822 1.9258382 2039583
1.3127111 0.074914373 1.9251547 2894892
-0.78101969 0.1119433 1.921726 2039583
-0.72485822 0.11591332 1.9164532 2039583
-0.67495382 0.11586519 1.9154496 5987163
-0.62509751 0.11581685 1.9148585 10132122
-0.57527411 0.1157688 1.9138558 10197915
-0.52654886 0.1157209 1.914382 10197915
-0.47462031 0.11566335 1.9254196 10197915
-0.42498779 0.11561535 1.9246206 10197915
-0.37539655 0.11556742 1.9238223 10197915
-0.32449678 0.11551033 1.9356569 10197915
-0.2878145 0.11547503 1.93483 10197915
-0.16144289 0.11535201 1.9341269 7634054
-0.12492892 0.11531698 1.9330767 2118534
-0.074845299 0.11526869 1.9320542 2840713
-0.024807248 0.11522018 1.9314539 10066329
0.024793489 0.11517222 1.9306501 10066329
0.074747853 0.11512406 1.9296299 10066329
0.12506579 0.11507541 1.9288146 10066329
0.17493266 0.11502706 1.9282171 10066329
0.2251642 0.11497851 1.9274026 10066329
0.27535349 0.11492997 1.9265894 10066329
0.32509595 0.114882 1.9255732 10066329
0.36656219 0.11484119 1.926079 10066329
0.49669269 0.11472144 1.9141906 10197915
0.52525491 0.11468849 1.9223292 2244704
0.57519299 0.1146402 1.92152 2250636
0.62507927 0.11459172 1.9211307 6518415
0.67492855 0.11454378 1.9199036 10197915
0.72474086 0.11449561 1.9190964 10197915
0.77489841 0.11444699 1.9184929 10197915
0.82502115 0.11439866 1.9174712 10197915
0.87509239 0.11435012 1.9168692 10197915
0.92513186 0.11430185 1.9158492 10197915
0.97511697 0.11425342 1.915248 10197915
1.0254616 0.11420473 1.9144322 10197915
1.0753698 0.11415662 1.9134146 10197915
1.1231374 0.11410355 1.9237418 10197915
1.1748154 0.11405219 1.9251528 10197915
1.2245458 0.11400411 1.9243413 10197915
1.2750233 0.11395535 1.9235182 10197915
1.3125633 0.10715533 1.9251025 6118749
1.2960498 -0.45933458 1.9848766 2894892
1.3026645 -0.4594619 1.9602624 2894892
1.2960494 -0.42495826 1.9850228 2894892
1.3026792 -0.42488778 1.9603555 2894892
1.2960947 -0.3750627 1.9850683 2894892
1.3027209 -0.37495208 1.960412 2894892
-0.36822602 -0.30750805 1.9794893 6513507
1.2961262 -0.32495829 1.9851626 2894892
1.3027668 -0.32501435 1.9604545 2894892
-0.36247882 -0.28773773 1.9773443 6513507
-0.32498375 -0.28451276 1.9733183 6513507
-0.29059166 -0.28454587 1.9725008 6513507
-0.16321571 -0.28467181 1.9749515 2112340
-0.12496839 -0.28470916 1.9748187 4617377
-0.075074635 -0.28475812 1.9752532 3893141
-0.02496385 -0.28480718 1.9753602 2834004
0.024969582 -0.28485608 1.9756998 3491416
0.075114951 -0.2849054 1.9762751 3688537
0.12507746 -0.28495443 1.9765208 2899797
0.1746511 -0.28500289 1.9766688 2111826
0.20245627 -0.28502283 1.9648774 1651791
1.2961742 -0.2749539 1.9851966 2894892
1.3027987 -0.27500439 1.9605465 2894892
-0.80683172 -0.2166727 1.9791857 2039583
-0.79909062 -0.21653847 1.9502817 2039583
1.2962211 -0.22499716 1.9852366 2894892
1.3028573 -0.22506003 1.9605409 2894892
-0.80670261 -0.1750326 1.978861 2039583
-0.79900992 -0.18904802 1.9500849 2039583
1.2962525 -0.17503703 1.9853307 2894892
1.3028731 -0.17504518 1.9606955 2894892
-0.80660582 -0.12499952 1.9786903 2039583
1.2962898 -0.12507464 1.9854044 2894892
1.3029195 -0.1250252 1.9607356 2894892
-0.80640692 -0.074987292 1.9781356 2039583
1.2963219 -0.074902132 1.9854981 2894892
1.3029845 -0.075210422 1.960705 2894892
-0.80623341 -0.024994543 1.9776767 2039583
1.2963898 -0.024886001 1.9854565 2894892
1.3030027 -0.025182927 1.9608507 2894892
-0.80608541 0.024988446 1.9773144 2039583
1.2963709 0.024563739 1.9857405 2894892
1.3029801 0.025582697 1.9611512 2894892
-0.80600142 0.075148143 1.9771906 2039583
1.296209 0.074892022 1.9865577 2894892
1.3028744 0.075214528 1.9617549 2894892
-0.80548328 0.10917501 1.9773666 2039583
-0.77476174 0.11592852 1.9707015 2039583
-0.72507358 0.11588063 1.9696602 2039583
-0.67500734 0.11583222 1.9688375 7697781
-0.62498659 0.11578359 1.9684651 10132122
-0.57501608 0.11573557 1.9671941 10197915
-0.52507508 0.1156873 1.9663737 10197915
-0.47477177 0.11563852 1.9657717 10197915
-0.42450902 0.11559005 1.9647211 10197915
-0.37510836 0.11554216 1.964134 10197915
-0.32660764 0.11548788 1.975361 10197915
-0.29067752 0.11545212 1.9764253 10197915
-0.16358809 0.11532927 1.9743221 7042433
-0.12510595 0.11529207 1.9736853 2184585
-0.075196244 0.11524382 1.9728596 2906505
-0.021081788 0.11518697 1.9793153 10066329
0.02508411 0.11513834 1.9850001 10066329
0.07480485 0.11509013 1.9844016 10066329
0.12490108 0.11504171 1.9835668 10066329
0.17536251 0.11499307 1.982496 10066329
0.22496186 0.11494501 1.9818991 10066329
0.27493182 0.11489669 1.9810665 10066329
0.32526213 0.11484818 1.9799981 10066329
0.3719672 0.11480244 1.9802413 10066329
0.52927947 0.11465174 1.9754022 3624550
0.57467043 0.11460697 1.9760709 1920383
0.62475258 0.11455871 1.9750077 3628938
0.67478991 0.1145102 1.9744028 10197915
0.72519541 0.11446148 1.9735627 10197915
0.7751466 0.11441333 1.9725013 10197915
0.82506096 0.11436495 1.9718981 10197915
0.87492979 0.1143169 1.9708383 10197915
0.92475855 0.11426862 1.9702374 10197915
0.97495168 0.11422014 1.9694011 10197915
1.0246906 0.11417221 1.9683444 10197915
1.0748 0.11412377 1.9675164 10197915
1.1252642 0.11407484 1.9668962 10197915
1.1752874 0.1140265 1.9660624 10197915
1.2248608 0.11397874 1.9650087 10197915
1.2890383 0.10927989 1.9791342 7566195
1.3027951 0.1070917 1.9618953 6250335
1.2848561 -0.46224451 2.0265138 2894892
1.2855507 -0.4250336 2.0240824 2894892
1.2855704 -0.37497953 2.0242321 2894892
-0.381475 -0.30721673 2.0284266 6513507
1.2856143 -0.325046 2.024276 2894892
-0.36947849 -0.28601572 2.0253952 6513507
-0.32534084 -0.28454122 2.0199964 6513507
-0.29405367 -0.28457084 2.0183756 6513507
-0.16539578 -0.28469852 2.021584 2046806
-0.12499063 -0.28473794 2.0214932 4814757
-0.075175717 -0.28478673 2.0217385 3695505
-0.02513295 -0.28483593 2.0222385 2965332
0.025138749 -0.28488529 2.0225883 3820122
0.075005807 -0.28493416 2.0227334 3819865
0.12489086 -0.28498316 2.0232832 2899540
0.16992511 -0.28502649 2.0221977 2308948
1.2856557 -0.27504721 2.0243335 2894892
-0.81963569 -0.21626049 2.026994 2039583
1.2857013 -0.22498406 2.0243812 2894892
-0.81956857 -0.17508313 2.0268991 2039583
1.2857517 -0.17497882 2.0244057 2894892
-0.81944621 -0.1250975 2.0266325 2039583
1.2857667 -0.12497188 2.0245538 2894892
-0.81924033 -0.075128883 2.0260532 2039583
1.2858306 -0.07508447 2.0245399 2894892
-0.8191461 -0.025179837 2.0258901 2039583
1.2858458 -0.025103103 2.0246868 2894892
-0.81899464 0.025173634 2.0255163 2039583
1.2858855 0.025104154 2.024755 2894892
-0.81878906 0.075085998 2.0249364 2039583
1.285953 0.075060628 2.0247204 2894892
-0.81565642 0.11086162 2.0269947 2039583
-0.77514559 0.11589396 2.0272243 2039583
-0.72487772 0.11584551 2.0261285 2039583
-0.67506409 0.11579736 2.0252864 9539985
-0.62487954 0.11574872 2.0246842 10197915
-0.57472706 0.11570042 2.0235903 10197915
-0.52504629 0.11565209 2.0232422 10197915
-0.47540718 0.11560442 2.0219114 10197915
-0.42537969 0.11555592 2.021312 10197915
-0.37540403 0.11550778 2.0202212 10197915
-0.32546216 0.11545935 2.0196221 10197915
-0.29384467 0.11543059 2.0161934 10197915
-0.1650458 0.11530408 2.0173013 6253949
-0.12445513 0.11526511 2.0162246 2250636
-0.074724667 0.11521719 2.0151389 3169418
-0.028615016 0.11517048 2.0178466 10066329
0.025205135 0.11511158 2.028131 10066329
0.07558699 0.11506288 2.0272732 10066329
0.12508771 0.11501504 2.0264304 10066329
0.17454706 0.11496724 2.0255883 10066329
0.22480272 0.11491869 2.0247328 10066329
0.27501583 0.11487017 2.0238776 10066329
0.32518664 0.11482167 2.0230234 10066329
0.37531513 0.11477325 2.0221703 10132122
0.40120003 0.11474823 2.0217295 10197915
0.53694695 0.11460935 2.0318263 5004913
0.57537937 0.11457074 2.0335536 1655405
0.62524211 0.11452272 2.0324476 2118794
0.67505991 0.11447441 2.0318441 8818070
0.72525853 0.11442591 2.030983 10197915
0.77499133 0.11437803 2.02988 10197915
0.82468766 0.11432984 2.0292776 10197915
0.87517262 0.11428121 2.0281699 10197915
0.92561638 0.11423231 2.0275466 10197915
0.97518498 0.11418463 2.0264478 10197915
1.0247102 0.11413665 2.0258486 10197915
1.0750281 0.11408816 2.0247443 10197915
1.1252983 0.11403944 2.0241234 10197915
1.1751161 0.11399131 2.0232689 10197915
1.2253021 0.11394297 2.0221672 10197915
1.2832084 0.10803235 2.0239391 6974058
1.2715015 -0.46953896 2.0761735 2894892
-1.0699987 -0.43005595 2.0990884 2039583
1.2719966 -0.424934 2.0745246 2894892
1.2720324 -0.37496513 2.0746019 2894892
-0.39287731 -0.30708393 2.0705428 6513507
1.2720717 -0.3249931 2.0746713 2894892
-0.37242538 -0.26931065 2.0693097 6513507
-0.33577082 -0.27266824 2.0742886 6513507
-0.2971265 -0.2845948 2.0619462 6513507
-0.16768159 -0.28472656 2.0704799 2047579
-0.12501396 -0.28476816 2.0704246 4946085
-0.074850798 -0.28481731 2.0706766 3498125
-0.024883332 -0.28486642 2.0711932 3360087
0.024889026 -0.2849153 2.071548 4280412
0.074890845 -0.28496423 2.0717449 3885914
0.12512317 -0.28501359 2.0722091 2899797
0.1636506 -0.28504997 2.0701749 2374483
1.2721163 -0.27498573 2.0747118 2894892
-0.83316433 -0.21669179 2.0775068 2039583
-0.37212369 -0.22515622 2.0701189 6513507
-0.34170613 -0.22465061 2.0776126 6513507
1.2721497 -0.22500631 2.0748069 2894892
-0.83308917 -0.17492184 2.0773842 2039583
-0.3721627 -0.17505509 2.0701501 6513507
-0.34170926 -0.17472959 2.0776296 6513507
1.272189 -0.17499255 2.0748668 2894892
-0.83290625 -0.12498171 2.0768905 2039583
-0.3723608 -0.12472612 2.0701385 6513507
-0.34171131 -0.12480798 2.077647 6513507
1.2722359 -0.12504078 2.0749111 2894892
-0.83275509 -0.075063273 2.076515 2039583
-0.37221834 -0.07461752 2.0702348 6513507
-0.34171468 -0.074885346 2.0776634 6513507
1.2722986 -0.074988589 2.0748875 2894892
-0.83264619 -0.024946142 2.0762978 2039583
-0.37222615 -0.024872957 2.0702775 6513507
-0.34171748 -0.024961961 2.0776801 6513507
1.272284 -0.024931526 2.0751581 2894892
-0.83249384 0.024940057 2.075918 2039583
-0.37223533 0.024873806 2.0703313 6513507
-0.3417199 0.024962233 2.0776973 6513507
1.2723236 0.024932565 2.0752206 2894892
-0.83229673 0.075020418 2.075372 2039583
-0.37224841 0.074623667 2.0703998 7303023
-0.3417232 0.074887194 2.0777156 7303023
1.2724175 0.074995928 2.0750849 2894892
-0.82677287 0.11065961 2.074213 2039583
-0.77501851 0.1158663 2.071672 2039583
-0.72493613 0.11581793 2.070807 3092271
-0.67489541 0.1157696 2.0699425 10066329
-0.62167102 0.11571061 2.0812023 10197915
-0.57486606 0.11566345 2.0835922 10197915
-0.52501619 0.11561543 2.0824554 10197915
-0.47520769 0.11556716 2.0818579 10197915
-0.4250049 0.11551864 2.0809844 10197915
-0.37261787 0.10813096 2.0698192 10197915
-0.33510065 0.11022258 2.0771878 10197915
-0.29730198 0.1154 2.0710907 10197915
-0.16820134 0.1152703 2.0768893 5860478
-0.1255507 0.11522935 2.075773 2250380
-0.075211935 0.11518086 2.0746365 3497866
-0.024919761 0.11513212 2.0740216 10066329
0.024905873 0.115084 2.0731542 10066329
0.075113513 0.11503564 2.0720217 10066329
0.12528318 0.114987 2.0714068 10066329
0.17498334 0.11493898 2.0705423 10066329
0.22506036 0.11489078 2.069412 10066329
0.27510801 0.11484227 2.0687997 10066329
0.32510278 0.11479413 2.0676706 10066329
0.37506425 0.11474571 2.0670598 10132122
0.40576538 0.11471387 2.0700457 10197915
0.54272044 0.11457434 2.0793772 8488588
0.57443923 0.11454369 2.0788212 1390686
0.62498504 0.11449487 2.077935 2184844
0.67548823 0.11444607 2.0770495 6518928
0.72509331 0.11439817 2.07618 10197915
0.77465683 0.11435027 2.0753105 10197915
0.82503229 0.11430161 2.0744278 10197915
0.8753652 0.11425299 2.0735452 10197915
0.92480296 0.11420521 2.0726781 10197915
0.97505075 0.11415669 2.0717976 10197915
1.025256 0.11410819 2.0709176 10197915
1.0745687 0.11406057 2.0700531 10197915
1.125482 0.11401077 2.0701675 10197915
1.1749347 0.11395396 2.0839033 10197915
1.2249156 0.11390588 2.0827572 10197915
1.2712257 0.10774154 2.0756068 6974058
1.2551664 -0.50364476 2.1368139 2894892
1.2584972 -0.47475418 2.124537 2894892
-1.0570947 -0.42417091 2.1025453 2039583
-1.0243936 -0.41685125 2.1113079 2039583
-0.97527033 -0.41655844 2.1244631 2039583
-0.92475659 -0.41646689 2.1379907 3421236
-0.8897537 -0.41665325 2.1473677 6447714
1.2585698 -0.42502847 2.1244836 2894892
-1.0136793 -0.38817796 2.1141868 2039583
-0.97423613 -0.37601912 2.1247554 2039583
-0.92466223 -0.37492344 2.1380336 2039583
-0.88961583 -0.37535551 2.1474221 2631720
1.2586316 -0.37501952 2.1244712 2894892
-0.96170199 -0.33978632 2.128125 2039583
-0.92319709 -0.32654202 2.1384432 2039583
-0.88961148 -0.32531434 2.1474388 2039583
-0.40159729 -0.30751365 2.1027493 6513507
1.2586672 -0.32500741 2.1245422 2894892
-0.90873182 -0.29094118 2.142329 2039583
-0.88894099 -0.28219408 2.1476321 2039583
-0.40168837 -0.2744711 2.1032262 6513507
-0.32038864 -0.2846081 2.1201761 6513507
-0.17008108 -0.28475589 2.1218059 2902373
-0.12503847 -0.28479993 2.1217866 5011621
-0.074946955 -0.28484911 2.122267 3432075
-0.025063219 -0.28489786 2.1223431 3622744
0.025068985 -0.28494707 2.12271 4543324
0.074987076 -0.28499624 2.1233635 3820378
0.12492893 -0.28504509 2.1234396 2636626
0.15688391 -0.2850737 2.1192 2045519
1.2586948 -0.27499202 2.1246624 2894892
-0.84560317 -0.21645878 2.1239517 2039583
-0.40182447 -0.22488089 2.1039386 6513507
1.2587297 -0.22501069 2.1247396 2894892
-0.84547454 -0.17507605 2.1236286 2039583
-0.4019604 -0.17525679 2.1046507 6513507
1.2587836 -0.17502618 2.1247487 2894892
-0.84531927 -0.12490479 2.1232386 2039583
-0.40209886 -0.1247277 2.1053753 6513507
1.2588234 -0.12492824 2.1248186 2894892
-0.85240501 -0.053442333 2.1499662 2039583
-0.84516335 -0.07475204 2.1228473 2039583
-0.40223503 -0.075035982 2.1060884 6513507
1.2588303 -0.074862778 2.1250083 2894892
-0.8523159 -0.024937904 2.1497416 2039583
-0.84496683 -0.02491769 2.1223018 2039583
-0.40237135 -0.025310408 2.1068017 6513507
1.2589231 -0.024946541 2.1248667 2894892
-0.85216004 0.024931824 2.1493485 2039583
-0.84481227 0.024911625 2.1219137 2039583
-0.40251002 0.025322041 2.1075282 6513507
1.2589649 0.024947571 2.1249371 2894892
-0.85200417 0.074783325 2.1489551 2039583
-0.84474164 0.075003035 2.1218398 2039583
-0.40264645 0.07511545 2.1082425 7171437
1.2589473 0.074870035 2.1252041 2894892
-0.85190135 0.10771158 2.1486959 2039583
-0.82983989 0.11315404 2.12079 2039583
-0.77488172 0.11583739 2.1183472 2039583
-0.72500336 0.11578938 2.1171877 4539717
-0.67515677 0.11574107 2.116585 10132122
-0.62966466 0.1156925 2.1232889 10197915
-0.57552892 0.11563506 2.1306682 10197915
-0.52499276 0.11558624 2.1297688 10197915
-0.47449914 0.11553747 2.1288702 10197915
-0.42145252 0.11330067 2.1227756 10197915
-0.32150662 0.1153897 2.1261473 10197915
-0.16978687 0.11524314 2.1234472 5466752
-0.12487475 0.11519978 2.122648 2184588
-0.074718334 0.11515134 2.1217556 3826316
-0.024603844 0.11510295 2.1208632 10066329
0.02459031 0.11505543 2.119988 10066329
0.074621119 0.1150071 2.1190977 10066329
0.12461017 0.1149588 2.1182077 10066329
0.17717327 0.11489961 2.1309009 10066329
0.22484809 0.11485212 2.1323578 10066329
0.27508214 0.11480325 2.1320252 10066329
0.32528186 0.11475512 2.1305568 10066329
0.37500352 0.11470693 2.1299496 10132122
0.4117085 0.11467037 2.1310902 10197915
0.54652339 0.11455131 2.1106994 10197915
0.57518536 0.11451396 2.1257818 2835809
0.62471843 0.11446592 2.1251879 2118535
0.67505872 0.11441713 2.1245682 4023179
0.72536141 0.11436873 2.123383 10197915
0.77474058 0.11432086 2.1227808 10197915
0.8245219 0.1142728 2.1218882 10197915
0.87469286 0.11422453 2.1207054 10197915
0.92482382 0.1141759 2.1200891 10197915
0.97491205 0.1141277 2.1189086 10197915
1.024956 0.11407921 2.1182942 10197915
1.0749613 0.1140311 2.1171143 10197915
1.1244918 0.11398292 2.1167915 10197915
1.1754456 0.11392392 2.1316838 10197915
1.2252665 0.1138758 2.1307836 10197915
1.2588801 0.10696818 2.1252556 6710886
1.2434366 -0.51011014 2.1804345 2894892
1.2509779 -0.50586647 2.1523898 2894892
1.2441829 -0.47500622 2.1778042 2894892
1.2510303 -0.47496906 2.1523261 2894892
-0.86626345 -0.41651857 2.1576765 6513507
1.2442242 -0.4250094 2.1778653 2894892
1.2510694 -0.42504814 2.1523933 2894892
-0.86620915 -0.3747794 2.1576746 4473924
1.2442636 -0.37501034 2.1779294 2894892
1.2511153 -0.37482986 2.1524363 2894892
-0.86615866 -0.32476115 2.1576118 2039583
1.2440255 -0.32508501 2.1790287 2894892
1.2508733 -0.32453999 2.1535516 2894892
-0.86594361 -0.27518776 2.1576805 2039583
-0.17031267 -0.28478396 2.1675212 4086130
-0.12330925 -0.28483358 2.1736116 5208486
-0.075049996 -0.28488225 2.1761339 3957644
-0.025024027 -0.2849313 2.1763828 5659231
0.02502978 -0.28498042 2.1767576 4870486
0.084830306 -0.27315044 2.1885421 2961718
0.1142676 -0.27556783 2.1881702 2831164
0.15193009 -0.28509235 2.1572104 2111056
1.2440469 -0.27503601 2.1791623 2894892
1.2509047 -0.27480671 2.1536467 2894892
-0.85960454 -0.23073462 2.1674798 2039583
0.089961573 -0.22493155 2.194813 2894892
0.10566668 -0.22499461 2.198734 2894892
1.2440919 -0.22498354 2.1792064 2894892
1.2509432 -0.22484882 2.1537144 2894892
-0.85840094 -0.17501058 2.1718931 2039583
0.090084814 -0.17491154 2.1948893 6184542
0.10511363 -0.17597781 2.198602 6184542
1.2441212 -0.1750171 2.1793132 2894892
1.2509825 -0.1748879 2.1537809 2894892
-0.8582781 -0.1250501 2.1716239 2039583
0.089964166 -0.12491391 2.19488 6513507
0.1047452 -0.12478244 2.1985207 6513507
1.2442039 -0.12520301 2.1792128 2894892
1.2510215 -0.12492379 2.1538484 2894892
-0.85826504 -0.075923957 2.171762 2039583
0.090087332 -0.074888982 2.1949561 6513507
0.10474608 -0.074687868 2.1985378 6513507
1.2445073 -0.075189613 2.1782959 2894892
1.2510605 -0.074956559 2.1539156 2894892
-0.85984612 -0.025264069 2.1778572 2039583
0.089966774 -0.024890225 2.1949458 6513507
0.10474693 -0.024592524 2.1985567 6513507
1.2445352 -0.025176775 2.1784053 2894892
1.2510999 -0.024986206 2.1539824 2894892
-0.85968691 0.025257831 2.177454 2039583
0.089967974 0.024890728 2.1949794 6513507
0.10474773 0.024592781 2.1985738 6513507
1.2445749 0.025177849 2.1784754 2894892
1.2511386 0.024987254 2.1540501 2894892
-0.85948318 0.075159311 2.1768827 2039583
0.090091281 0.074892513 2.1950555 7171437
0.10474861 0.074689746 2.1985919 7171437
1.2446239 0.075196914 2.1785028 2894892
1.2511778 0.074963853 2.1541173 2894892
-0.8586489 0.10894207 2.1757038 2039583
-0.82445961 0.1158552 2.1678212 2039583
-0.77474284 0.11580719 2.1669228 2039583
-0.72280151 0.11574786 2.1808181 7303023
-0.67476714 0.11570045 2.1816604 10132122
-0.62525052 0.11565243 2.1810651 10197915
-0.57531321 0.11560423 2.1801555 10197915
-0.52496767 0.11555579 2.1789329 10197915
-0.47466424 0.11550704 2.178323 10197915
-0.43284178 0.11546779 2.175693 10197915
-0.32899538 0.11536635 2.1756706 10197915
-0.17239892 0.11521495 2.173161 5335425
-0.12506922 0.11516944 2.1719568 2184331
-0.075099006 0.11512138 2.1707418 3957900
-0.02517551 0.11507299 2.1701376 10066329
0.025161332 0.11502439 2.1692209 10066329
0.084250532 0.11025708 2.1846528 10066329
0.11644763 0.11182513 2.1804054 10066329
0.17155051 0.11487686 2.1765933 10066329
0.22511984 0.114821 2.1823039 10066329
0.27473068 0.1147731 2.1813934 10066329
0.32520112 0.11472438 2.1804671 10066329
0.37562877 0.11467566 2.1795418 10197915
0.41702056 0.11463572 2.1787825 10197915
0.58050084 0.11447787 2.1757822 3887721
0.62533361 0.11443458 2.1749594 1919865
0.67550695 0.11438613 2.1740386 2052487
0.72563761 0.11433773 2.1731186 9672345
0.77572614 0.11428938 2.1721997 10197915
0.82577217 0.11424105 2.1712813 10197915
0.87577587 0.11419278 2.1703637 10197915
0.92573744 0.11414455 2.1694467 10197915
0.97565681 0.11409633 2.1685309 10197915
1.0255338 0.11404818 2.1676157 10197915
1.075369 0.11400007 2.1667011 10197915
1.1293182 0.11394124 2.1765673 10197915
1.1750889 0.1138932 2.1819856 10197915
1.2389569 0.1087059 2.1789553 7763574
1.2512029 0.10709318 2.1541607 6908265
1.2309877 -0.51707613 2.2267244 2894892
1.2315124 -0.47496992 2.2249494 2894892
-0.87259513 -0.4165487 2.2239783 6513507
1.2315419 -0.42499807 2.2250559 2894892
-0.87260956 -0.37502462 2.2241883 5066061
1.2315745 -0.37506387 2.2251444 2894892
-0.87245011 -0.32520673 2.2237828 2039583
1.2316206 -0.32495949 2.2251842 2894892
-0.87229079 -0.27540702 2.2233775 2039583
-0.063212574 -0.28491563 2.2113297 4349564
-0.020531515 -0.28496027 2.2160811 6513507
0.027328489 -0.28501099 2.222614 5066061
0.071250901 -0.27092066 2.223038 2894892
0.12510009 -0.26753318 2.2039809 5131854
1.2316532 -0.27493513 2.2252803 2894892
-0.87208247 -0.22531691 2.2227883 2039583
0.073684968 -0.22502783 2.2226205 2894892
0.12522694 -0.22510175 2.204031 5197647
1.2316959 -0.22503373 2.2253325 2894892
-0.87196982 -0.17494473 2.2225573 2039583
0.0736757 -0.17508881 2.2228656 6381921
0.1243627 -0.17451721 2.2038143 6381921
1.2317412 -0.17504664 2.2253742 2894892
-0.87180996 -0.12489282 2.2221503 2039583
0.07365948 -0.12513871 2.2231362 6513507
0.12417698 -0.12508106 2.2037814 6513507
1.2318174 -0.12491358 2.2253118 2894892
-0.87160182 -0.074862726 2.2215631 2039583
0.073717959 -0.07495293 2.2231324 6513507
0.12455611 -0.074497357 2.2039025 6513507
1.2321397 -0.074927367 2.2243211 2894892
-0.8714903 -0.024848117 2.2213349 2039583
0.073668107 -0.024871537 2.2235277 6513507
0.12510717 -0.024654185 2.2040679 6513507
1.2321249 -0.024883615 2.2245874 2894892
-0.87133127 0.024842085 2.2209318 2039583
0.073674314 0.024874328 2.2237151 6513507
0.12510839 0.024654446 2.2040868 6513507
1.232163 0.02488466 2.224658 2894892
-0.87112361 0.074820079 2.2203441 2039583
0.073725581 0.074857749 2.223737 7105644
0.12510948 0.074877024 2.2041042 7237230
1.232254 0.074934639 2.2245286 2894892
-0.86656934 0.11156216 2.221734 2039583
-0.82548261 0.11582459 2.2189877 2039583
-0.77505666 0.11577611 2.2177389 2039583
-0.72794843 0.11572301 2.2291381 7566195
-0.67457819 0.11566811 2.2335787 10197915
-0.62434775 0.11561962 2.2326427 10197915
-0.57415938 0.11557118 2.2317069 10197915
-0.52494109 0.11552367 2.2307894 10197915
-0.47576365 0.1154762 2.2298725 10197915
-0.43867391 0.11544038 2.2291811 10197915
-0.35345733 0.11535814 2.2275927 10197915
-0.33402357 0.11533936 2.2272303 10197915
-0.17416152 0.11518505 2.2242506 5073027
-0.12434965 0.11513697 2.2233222 2118539
-0.074579351 0.11508892 2.2223935 4286349
-0.02485056 0.11504091 2.2214665 10066329
0.024836756 0.11499295 2.220541 10066329
0.07174024 0.10878123 2.2231684 10066329
0.12585507 0.10800307 2.2046182 10066329
0.17548527 0.11484752 2.2177327 10066329
0.22500573 0.11479971 2.2168095 10066329
0.2744849 0.11475194 2.2158871 10066329
0.32483798 0.11470334 2.2149484 10066329
0.37581733 0.11464336 2.2314472 10197915
0.42202982 0.11459787 2.2320492 10197915
0.58703363 0.11444118 2.2247529 5268084
0.62552303 0.11440212 2.2270908 1655401
0.67551333 0.11435407 2.2258289 2052745
0.72547299 0.11430568 2.2252128 6979218
0.77538133 0.11425769 2.2239528 10197915
0.8252545 0.11420932 2.2233374 10197915
0.87508094 0.11416144 2.2220795 10197915
0.92486799 0.11411319 2.2214663 10197915
0.97461277 0.11406537 2.2202096 10197915
1.0252253 0.11401631 2.2195804 10197915
1.0753441 0.11396794 2.2186384 10197915
1.120837 0.11392094 2.2228324 10197915
1.1747119 0.11386115 2.2344365 10197915
1.2306678 0.10750671 2.225533 7368816
1.2130249 -0.55217421 2.2934153 11711154
1.2180036 -0.52375793 2.2750092 3092271
1.2182608 -0.47509202 2.2742622 2894892
-0.88487971 -0.41657123 2.269846 6513507
1.2183075 -0.42503378 2.2742996 2894892
-0.88469219 -0.37482628 2.2693048 4802889
1.2183349 -0.3749733 2.274411 2894892
-0.88458329 -0.32525134 2.2690868 2039583
1.2183809 -0.32504359 2.2744529 2894892
-0.88632733 -0.27471963 2.2757885 2039583
0.066186331 -0.26940617 2.2501295 2894892
1.218403 -0.27506641 2.2745845 2894892
-0.88626623 -0.22487612 2.2757487 2039583
1.2184484 -0.22499636 2.2746251 2894892
-0.88614273 -0.1748731 2.2754788 2039583
1.2185059 -0.17496751 2.2746263 2894892
-0.88600039 -0.12512241 2.2751341 2039583
1.218544 -0.12502441 2.2746964 2894892
-0.88587767 -0.075153276 2.2748649 2039583
1.2185013 -0.075034246 2.2750664 2894892
-0.88561678 -0.024972746 2.2740815 2039583
1.2186433 -0.025002321 2.2747557 2894892
-0.88545448 0.024966652 2.2736652 2039583
1.2186805 0.025003377 2.2748249 2894892
-0.88538969 0.075110309 2.2736127 2039583
1.2186164 0.075041495 2.275281 2894892
-0.87866968 0.11089996 2.2730584 2039583
-0.82465839 0.11579084 2.2723055 2039583
-0.7753877 0.11574329 2.2713723 2039583
-0.72521102 0.11569485 2.2704217 9803157
-0.67507619 0.11564647 2.2694724 10197915
-0.62498361 0.11559812 2.2685237 10197915
-0.57493252 0.11554982 2.2675757 10197915
-0.52492344 0.11550155 2.2666283 10197915
-0.47495601 0.11545333 2.265682 10197915
-0.44198009 0.1154215 2.2650573 10197915
-0.35633144 0.11533883 2.2634351 10197915
-0.33553156 0.11531393 2.2708197 10197915
-0.20238666 0.11517307 2.2881994 10066329
-0.17509024 0.11515266 2.2781034 4547714
-0.12500666 0.11510435 2.2771478 2118539
-0.074980393 0.11505564 2.2768879 4483469
-0.024985829 0.11500783 2.2752376 10066329
0.024971865 0.11495961 2.2742839 10066329
0.058876541 0.11492608 2.2749534 10066329
0.14717859 0.11484373 2.2686179 10066329
0.17457366 0.11481525 2.2714276 10066329
0.22482739 0.11476652 2.2708154 5664393
0.27504101 0.11471827 2.2695098 6387858
0.32520759 0.11466964 2.2688985 10132122
0.37420964 0.11461181 2.2849667 10197915
0.4251079 0.11456186 2.2853475 10197915
0.45246235 0.11453545 2.284821 10197915
0.59374088 0.11439913 2.2821014 10197915
0.62477523 0.11436916 2.2815039 1455960
0.67552668 0.1143202 2.2805271 2184587
0.72529608 0.11427217 2.2795691 4023436
0.77502358 0.1142242 2.2786119 10197915
0.82470936 0.11417624 2.2776554 10197915
0.87435341 0.11412834 2.2766995 10197915
0.92489129 0.11407957 2.275727 10197915
0.97538596 0.11403084 2.2747545 10197915
1.0249037 0.11398306 2.2738013 10197915
1.0743799 0.11393534 2.2728491 10197915
1.1247485 0.11388683 2.2718816 10197915
1.1750728 0.11383829 2.2709138 10197915
1.2182567 0.10741198 2.2743702 7500402
1.1987088 -0.55998141 2.3466523 11711154
1.2045797 -0.55675888 2.324821 11711154
1.1987351 -0.52499384 2.3467033 3618615
1.2057096 -0.52502179 2.3207529 3487029
1.198764 -0.47477567 2.3468096 2894892
1.2057228 -0.47503972 2.3209145 2894892
-0.90409195 -0.41660696 2.3415813 6513507
-0.89542663 -0.41659081 2.309227 6513507
1.1988101 -0.42488208 2.3468506 2894892
1.2057711 -0.42500034 2.3209479 2894892
-0.90384787 -0.374843 2.3408284 4473924
-0.89522934 -0.37492064 2.3086476 4605510
1.1988558 -0.37498736 2.3468912 2894892
1.2058185 -0.37501183 2.3209839 2894892
-0.90372556 -0.3248356 2.3405604 2039583
-0.8950243 -0.32465512 2.3080721 2039583
1.198885 -0.32475904 2.346997 2894892
1.2058522 -0.3250213 2.3210723 2894892
-0.90355843 -0.27436221 2.3401277 2039583
-0.89673483 -0.27602407 2.3146436 2039583
1.1989132 -0.2748495 2.3471031 2894892
1.2058758 -0.27502647 2.3211968 2894892
-0.90339446 -0.22487745 2.3397028 2039583
-0.89687008 -0.22445811 2.3153443 2039583
1.1989685 -0.22527596 2.347111 2894892
1.2059097 -0.22497453 2.3212829 2894892
-0.90323043 -0.17541082 2.3392782 2039583
-0.89670587 -0.17454678 2.3149204 2039583
1.1989973 -0.17503615 2.3472168 2894892
1.2059635 -0.17497325 2.3212962 2894892
-0.90306365 -0.12499269 2.3388462 2039583
-0.89654195 -0.12465365 2.3144975 2039583
1.199035 -0.12447406 2.3472908 2894892
1.2060421 -0.12502444 2.3212147 2894892
-0.90285528 -0.07508374 2.3382576 2039583
-0.8963781 -0.074778832 2.314074 2039583
1.1990721 -0.074881189 2.3473635 2894892
1.2060167 -0.075018629 2.321523 2894892
-0.90273309 -0.025184415 2.3379903 2039583
-0.89621419 -0.024922226 2.3136511 2039583
1.1991094 -0.025285248 2.3474364 2894892
1.2060547 -0.025006918 2.3215947 2894892
-0.90256637 0.025178216 2.3375583 2039583
-0.89605045 0.024916155 2.3132279 2039583
1.1993049 0.02273003 2.3469121 2894892
1.2060921 0.02500795 2.3216686 2894892
-0.90235817 0.075040914 2.3369703 2039583
-0.89588684 0.074736319 2.3128054 2039583
1.19952 0.074848622 2.3463354 2894892
1.2061298 0.075025953 2.3217404 2894892
-0.90239125 0.10912043 2.3391194 2039583
-0.87693858 0.11461011 2.3274775 2039583
-0.82476521 0.11575612 2.3285749 2039583
-0.77476156 0.11570811 2.3272276 3552822
-0.72480452 0.11565967 2.3266344 10066329
-0.67488158 0.11561172 2.3252892 10197915
-0.62501037 0.11556339 2.324697 10197915
-0.5746879 0.11551482 2.3237205 10197915
-0.52489501 0.11546703 2.3223794 10197915
-0.47514328 0.11541879 2.3217883 10197915
-0.44598201 0.1153985 2.3084848 10197915
-0.36105171 0.11530701 2.3223014 10197915
-0.34247372 0.11529008 2.3203361 10197915
-0.20416573 0.11514555 2.3355966 10066329
-0.17509638 0.11511753 2.3350277 3759744
-0.12570834 0.11506987 2.3340614 2118539
-0.0753939 0.11502132 2.3330767 4680590
-0.025121875 0.11497283 2.3320928 10066329
0.025107767 0.11492436 2.33111 10066329
0.05985884 0.11489085 2.33043 10066329
0.14953502 0.1148043 2.3286746 10066329
0.17554292 0.11477923 2.328166 10066329
0.22560364 0.11473094 2.3271866 3889274
0.27562219 0.11468268 2.3262076 4220045
0.32559866 0.11463447 2.3252294 10132122
0.37553313 0.11458628 2.3242526 10197915
0.42542571 0.11453816 2.323276 10197915
0.45610964 0.11450856 2.3226757 10197915
0.59876543 0.11437093 2.3198841 10197915
0.62457728 0.11434602 2.3193789 3164515
0.67426085 0.11429808 2.3184066 2052483
0.72485697 0.11424927 2.3174167 2118279
0.77541006 0.1142005 2.316427 10197915
0.82496727 0.11415268 2.3154573 10197915
0.87448305 0.11410492 2.3144882 10197915
0.92490816 0.11405626 2.3135016 10197915
0.97529066 0.11400767 2.3125157 10197915
1.0246809 0.11396 2.3115492 10197915
1.0757225 0.11389939 2.3289018 10197915
1.125001 0.11385112 2.3290768 10197915
1.1802531 0.1121617 2.3321724 9539985
1.2062026 0.10723253 2.3207707 7566195
1.1906925 -0.56442899 2.3764615 11711154
1.1912682 -0.52499098 2.3744876 3618615
1.1913244 -0.4749918 2.3744929 2894892
1.1913455 -0.42499036 2.3746257 2894892
1.1913844 -0.37498444 2.3746941 2894892
1.1914161 -0.32492453 2.3747888 2894892
1.1914749 -0.2749646 2.3747845 2894892
1.1914946 -0.22505285 2.3749208 2894892
1.1915309 -0.17508693 2.3749955 2894892
1.1915755 -0.12501435 2.3750448 2894892
1.1915753 -0.074884929 2.3752599 2894892
1.1916802 -0.024915975 2.375082 2894892
1.1919223 0.025252886 2.3743939 2894892
1.1920221 0.074895933 2.3742352 2894892
-0.91058409 0.1158025 2.3890746 2039583
-0.87568915 0.11576883 2.3883805 2039583
-0.82587242 0.11572081 2.3873887 2039583
-0.77510196 0.1156718 2.3863783 5658198
-0.72437423 0.11562291 2.3853691 10132122
-0.67468309 0.11557498 2.3843801 10197915
-0.6250329 0.11552709 2.3833923 10197915
-0.57542384 0.11547924 2.3824053 10197915
-0.52486509 0.11543046 2.3813994 10197915
-0.47731879 0.11538459 2.3804529 10197915
-0.36553636 0.11527678 2.3782282 10197915
-0.34478524 0.11525676 2.3778155 10197915
-0.206632 0.1151235 2.3750663 10066329
-0.17510073 0.11509308 2.3744388 3431553
-0.12487921 0.11504465 2.3734396 2053003
-0.074700244 0.11499624 2.3724406 4943246
-0.024563201 0.1149479 2.3714433 10066329
0.024549711 0.11490052 2.370466 10066329
0.059887305 0.11486643 2.3697627 10066329
0.17556342 0.11475485 2.3674607 10066329
0.22548994 0.1147067 2.3664675 4349049
0.27537492 0.11465856 2.3654745 3168650
0.32521766 0.11461051 2.3644826 10132122
0.37501898 0.11456247 2.3634915 10197915
0.42477834 0.11451446 2.3625016 10197915
0.45987907 0.1144806 2.3618031 10197915
0.63125956 0.1143048 2.3754416 4347756
0.6747278 0.11426093 2.3777654 1787761
0.72466123 0.11421276 2.3767638 2052745
0.77503353 0.11416438 2.3753562 7110547
0.82488519 0.11411633 2.3743553 10197915
0.87516904 0.11406755 2.3737433 10197915
0.92493379 0.11401954 2.3727441 10197915
0.97465676 0.11397164 2.3717461 10197915
1.0248133 0.11392349 2.3703437 10197915
1.0735548 0.11386558 2.3870492 10197915
1.1252717 0.11381394 2.3888845 10197915
1.1892333 0.10764755 2.3758605 7895160
1.1779233 -0.56816792 2.4239609 11711154
1.177973 -0.5249486 2.4239578 3815994
1.1779997 -0.47501677 2.4240732 2894892
1.1780331 -0.42502755 2.4241595 2894892
1.1780806 -0.37498292 2.4241946 2894892
1.1781104 -0.32504156 2.4243014 2894892
1.1781336 -0.27499038 2.4244261 2894892
1.1782093 -0.22499029 2.4243557 2894892
1.1782151 -0.17498627 2.4245431 2894892
1.1782529 -0.12497821 2.4246187 2894892
1.1783167 -0.075129367 2.4245937 2894892
1.178308 -0.025114402 2.4248376 2894892
1.1783451 0.025115462 2.4249146 2894892
1.1784348 0.075083815 2.4247913 2894892
-0.91822296 0.11578458 2.4302475 2039583
-0.87461263 0.11574254 2.4293647 2039583
-0.82495469 0.11569463 2.4283595 2039583
-0.77533799 0.11564679 2.4273551 6842472
-0.72475106 0.115598 2.4263313 10132122
-0.67521691 0.11555024 2.4253287 10197915
-0.62572402 0.11550252 2.4243269 10197915
-0.57526308 0.11545385 2.4233053 10197915
-0.52484465 0.11540522 2.4222851 10197915
-0.48151791 0.11536344 2.4214077 10197915
-0.36881617 0.11525474 2.419127 10197915
-0.3477073 0.1152344 2.4186995 10197915
-0.20818076 0.11509983 2.415875 10066329
-0.17510517 0.11506795 2.415206 2840448
-0.1250231 0.11501966 2.414192 2118539
-0.074983083 0.11497139 2.4131794 5009038
-0.024985041 0.11492319 2.4121671 10066329
0.024971087 0.11487499 2.4111562 10066329
0.06091499 0.11484034 2.4104285 10066329
0.18077606 0.11471805 2.4188569 10066329
0.22480565 0.11466958 2.427707 5202810
0.27498958 0.11462124 2.4266994 2116740
0.32562286 0.11457212 2.4260774 9672088
0.37521958 0.11452452 2.4246361 10197915
0.42476392 0.11447649 2.4240532 10197915
0.46604782 0.1144351 2.425833 10197915
0.63902998 0.11425699 2.4406302 7042946
0.67421752 0.11422307 2.4399054 1390940
0.72445136 0.11417463 2.4388709 2184588
0.77464265 0.11412624 2.4378369 3826572
0.82479149 0.11407788 2.4368043 10197915
0.8748976 0.11402958 2.4357722 10197915
0.92496157 0.11398132 2.434741 10197915
0.97498298 0.11393308 2.4337111 10197915
1.0249623 0.11388492 2.4326818 10197915
1.0748991 0.11383674 2.431653 10197915
1.1247941 0.11378865 2.4306254 10197915
1.1770183 0.10748151 2.425339 8026746
1.1644112 -0.56820565 2.4742386 11711154
1.1644663 -0.5250538 2.4742179 4013373
1.1644832 -0.47501209 2.4743671 2894892
1.1645243 -0.42502421 2.4744256 2894892
1.1645753 -0.37497643 2.4744503 2894892
1.1646004 -0.32498148 2.4745696 2894892
1.1646442 -0.27504185 2.4746196 2894892
1.164701 -0.22498345 2.4746201 2894892
1.1646891 -0.1750367 2.4748762 2894892
1.1647483 -0.12508762 2.4748681 2894892
1.1647563 -0.074905008 2.4750552 2894892
1.1648549 -0.024898762 2.4748988 2894892
1.1648911 0.024899783 2.4749761 2894892
1.1648649 0.074912339 2.4752865 2894892
-0.95194489 0.11579093 2.4733963 2039583
-0.92509758 0.11576501 2.4728429 2039583
-0.87452984 0.11571626 2.4718015 2039583
-0.82503587 0.11566854 2.4707823 2039583
-0.77558237 0.11562086 2.4697638 8355711
-0.72514093 0.11557224 2.4687247 10132122
-0.67474151 0.11552366 2.4676869 10197915
-0.62541193 0.11547608 2.4666712 10197915
-0.57509673 0.11542757 2.4656343 10197915
-0.52482349 0.1153791 2.4645994 10197915
-0.48586407 0.11534154 2.4637971 10197915
-0.37221068 0.11523197 2.4614563 10197915
-0.20978367 0.11507535 2.458111 10066329
-0.17510973 0.11504192 2.4573967 2249342
-0.12085055 0.11498084 2.4704413 2184332
-0.074909456 0.11493177 2.477159 5271695
-0.025136001 0.1148841 2.4756794 10066329
0.025121877 0.11483563 2.4746361 10066329
0.06201385 0.11479921 2.4752624 10066329
0.17596118 0.11468756 2.4757893 10066329
0.22512561 0.11462906 2.4926965 6056827
0.27458075 0.11458138 2.4916599 1919876
0.32502356 0.11453275 2.490602 8095123
0.37542388 0.11448418 2.4895456 10197915
0.42475411 0.11443663 2.4885118 10197915
0.4719907 0.1143911 2.4875216 10197915
0.64521199 0.11422415 2.483891 10197915
0.6748836 0.11419553 2.483269 1784152
0.72498733 0.11414722 2.4822185 2184328
0.77504903 0.11409899 2.4811692 2053001
0.82506806 0.11405077 2.4801209 9606553
0.87504524 0.11400259 2.4790735 10197915
0.92497993 0.11395445 2.4780262 10197915
0.97487253 0.11390638 2.4769809 10197915
1.0247231 0.11385833 2.4759359 10197915
1.0755477 0.11380932 2.4748704 10197915
1.1253133 0.11376134 2.4738274 10197915
1.1645203 0.10730246 2.4749167 8092539
1.1468301 -0.56815714 2.5396576 11711154
1.1538478 -0.5681659 2.5135462 11711154
1.1469203 -0.52546448 2.5395043 4210752
1.1538572 -0.52496517 2.5136945 4144959
1.1472952 -0.47487184 2.5383227 2894892
1.1538882 -0.47488835 2.5137906 2894892
-0.67172146 -0.41725725 2.5176289 7368816
-0.6247896 -0.41728458 2.530242 7303023
-0.57532835 -0.41728625 2.5435336 7237230
1.1473408 -0.42500949 2.5383668 2894892
1.1539246 -0.42491296 2.5138698 2894892
-0.67174679 -0.37511206 2.5176373 6513507
-0.62492973 -0.37503505 2.5302172 6513507
-0.57549846 -0.37491995 2.543504 6513507
1.1473572 -0.37514445 2.538517 2894892
1.1539682 -0.37503916 2.5139177 2894892
-0.671767 -0.32523927 2.5176504 6513507
-0.62474251 -0.32496297 2.5302887 6513507
-0.57512933 -0.3248654 2.5436194 6513507
1.1473981 -0.32497406 2.538579 2894892
1.1540041 -0.32505766 2.5139966 2894892
-0.67174381 -0.27531743 2.5176733 6513507
-0.62463814 -0.27476743 2.5303304 6513507
-0.57533979 -0.27503443 2.5435812 6513507
1.1474481 -0.27495173 2.5386052 2894892
1.1540555 -0.27496925 2.5140204 2894892
-0.671709 -0.22529948 2.5176997 6513507
-0.624632 -0.22477278 2.5303538 6513507
-0.57555127 -0.22520554 2.5435412 6513507
1.1474838 -0.22492832 2.5386853 2894892
1.1540973 -0.22498256 2.514075 2894892
-0.67171311 -0.17523403 2.5177157 6513507
-0.62472957 -0.17498162 2.5303435 6513507
-0.57534754 -0.17492884 2.5436137 6513507
1.1474917 -0.17474686 2.5388689 2894892
1.1541047 -0.17499346 2.5142615 2894892
-0.67171657 -0.12516803 2.5177333 6513507
-0.62501508 -0.12539862 2.5302832 6513507
-0.57514298 -0.12464821 2.5436873 6513507
1.1475275 -0.12486321 2.5389495 2894892
1.1541406 -0.1249992 2.5143406 2894892
-0.67172223 -0.075101256 2.5177488 6513507
-0.62476325 -0.075477675 2.5303724 6513507
-0.57556653 -0.075134419 2.5435901 6513507
1.1476054 -0.075290248 2.5388687 2894892
1.1541768 -0.075001791 2.5144193 2894892
-0.67172652 -0.025033906 2.5177662 6513507
-0.62476695 -0.025159393 2.5303843 6513507
-0.57535905 -0.025291402 2.5436649 6513507
1.1476128 -0.025245465 2.5390539 2894892
1.1542133 -0.025001304 2.5144961 2894892
-0.67173147 0.025034131 2.5177827 6513507
-0.62477177 0.025159596 2.5304046 6513507
-0.5753631 0.025291633 2.5436814 6513507
1.1474837 0.024297759 2.5397453 2894892
1.1540629 0.025606481 2.5152707 2894892
-0.67173535 0.075102828 2.5177991 8158332
-0.62477535 0.075479232 2.5304179 8224125
-0.57557827 0.075135969 2.5436406 8158332
1.1473187 0.075266369 2.5405772 2894892
1.1538992 0.075051993 2.5160935 2894892
-0.95954341 0.11577097 2.5175278 2039583
-0.92485934 0.11573754 2.5168009 2039583
-0.87549335 0.11568996 2.5157661 2039583
-0.82511872 0.11564139 2.5147102 2039583
-0.77478653 0.11559287 2.5136549 9803157
-0.72449642 0.11554442 2.5126014 10197915
-0.67207676 0.10852545 2.5169656 10197915
-0.62481302 0.10881589 2.5281966 10197915
-0.57487226 0.10865194 2.5399301 10197915
-0.52584481 0.11535293 2.5084372 10197915
-0.49036464 0.11531874 2.5076935 10197915
-0.37884903 0.11521123 2.5053561 10197915
-0.21288759 0.11503675 2.5254269 8751759
-0.17459811 0.1150004 2.5237112 2118531
-0.12853043 0.11495134 2.5302784 2118796
-0.074838437 0.11489029 2.544219 5665680
-0.025288217 0.11484253 2.5431612 10197915
0.025273921 0.11479383 2.5420821 10197915
0.063168712 0.11475732 2.5412738 10132122
0.18090485 0.11464385 2.5387609 10066329
0.22499537 0.11460135 2.5378201 6713726
0.27534539 0.11455283 2.5367458 1920132
0.32565278 0.11450437 2.5356719 7306384
0.37591767 0.11445591 2.5345991 10197915
0.42509428 0.11440852 2.53355 10197915
0.47422981 0.11436117 2.5325015 10197915
0.50139558 0.11433499 2.5319216 10197915
0.67557448 0.11416715 2.5282049 3756136
0.7245031 0.11412 2.5271604 1985914
0.77443105 0.11407185 2.5260949 2052746
0.82431704 0.11402381 2.5250304 7242131
0.87416101 0.11397577 2.523967 10197915
0.92499977 0.11392678 2.5228817 10197915
0.97579527 0.11387781 2.5217977 10197915
1.0255117 0.11382991 2.5207365 10197915
1.0751865 0.11378205 2.5196767 10197915
1.1386898 0.10944825 2.5325093 8947848
1.1540173 0.10709053 2.5156126 8224125
1.1373006 -0.56824052 2.5751171 11711154
1.137383 -0.52483547 2.5749919 4342338
1.1377614 -0.47500893 2.5737967 2894892
-0.55044973 -0.41732755 2.5502191 7237230
-0.5253973 -0.4173691 2.5569508 6645093
1.137781 -0.42496946 2.5739388 2894892
-0.55045283 -0.37506858 2.5502336 6513507
-0.52543199 -0.37495488 2.5569589 6513507
1.1378347 -0.37498692 2.5739517 2894892
-0.5504564 -0.32541373 2.5502505 6513507
-0.5252775 -0.32494646 2.5570166 6513507
1.1378477 -0.32500374 2.5741141 2894892
-0.55046004 -0.27470171 2.5502672 6513507
-0.5250361 -0.27480379 2.5570986 6513507
1.1378933 -0.27495432 2.5741584 2894892
-0.55046362 -0.22504556 2.5502839 6513507
-0.52419269 -0.2248961 2.5573435 6513507
-0.49521944 -0.21679159 2.5651324 6513507
-0.40659651 -0.216979 2.5889497 6513507
-0.38484004 -0.21714863 2.5947964 6513507
1.1379192 -0.2249632 2.5742755 2894892
-0.55046719 -0.17538877 2.5503001 6513507
-0.52462602 -0.17511213 2.5572448 6513507
-0.49522221 -0.17534707 2.5651469 6513507
-0.40650859 -0.17483163 2.5889883 6513507
-0.3848421 -0.1752248 2.5948105 6513507
1.1379724 -0.17503342 2.5742886 2894892
-0.55047083 -0.12467477 2.5503173 6513507
-0.52441269 -0.12501702 2.5573213 6513507
-0.49522552 -0.12540056 2.5651639 6513507
-0.40651131 -0.12549347 2.5890055 6513507
-0.38469353 -0.12530531 2.5948706 6513507
1.1380136 -0.12503585 2.5743484 2894892
-0.55047446 -0.075016648 2.5503342 6513507
-0.52441597 -0.075222634 2.5573373 6513507
-0.4952288 -0.075453371 2.565181 6513507
-0.4065139 -0.075082019 2.5890226 6513507
-0.38499755 -0.074799791 2.5948043 6513507
1.1379772 -0.074908383 2.5746965 2894892
-0.5504781 -0.025357885 2.5503504 6513507
-0.52441961 -0.025427507 2.557354 6513507
-0.49523196 -0.025505504 2.5651977 6513507
-0.40651664 -0.024669964 2.58904 6513507
-0.38484961 -0.024725445 2.594861 6513507
1.1381159 -0.024914732 2.5743926 2894892
-0.55048186 0.025358113 2.5503676 6513507
-0.52442348 0.025427746 2.5573699 6513507
-0.4952352 0.025505742 2.5652153 6513507
-0.4065192 0.024670182 2.5890563 6513507
-0.38485241 0.024725664 2.5948787 6513507
1.1381514 0.024915764 2.5744734 2894892
-0.55048525 0.075018175 2.5503838 8158332
-0.52442729 0.075224191 2.5573874 6842472
-0.49523851 0.075454891 2.5652316 6513507
-0.40652195 0.075083576 2.5890744 6513507
-0.3850053 0.074801333 2.5948572 6513507
1.1380837 0.074915662 2.5749388 2894892
-0.96849048 0.11575149 2.5632899 2039583
-0.92461377 0.11570921 2.5623529 2039583
-0.87542361 0.11566181 2.5613036 2039583
-0.82520574 0.11561342 2.5602319 3815994
-0.77502972 0.11556503 2.5591609 10066329
-0.72809428 0.11551982 2.5581596 10197915
-0.55048776 0.10777303 2.5503955 10197915
-0.52445859 0.10800957 2.5569077 8421504
-0.4950476 0.10854321 2.5634127 8092539
-0.40631473 0.10885394 2.5862286 8026746
-0.38397154 0.10908449 2.5888047 8158332
-0.21602359 0.11499724 2.5941865 7502982
-0.17512442 0.11495784 2.593298 2250633
-0.12565117 0.11491019 2.5922227 2184588
-0.075144902 0.11486152 2.591125 5797008
-0.02468111 0.1148129 2.5900283 10197915
0.024667487 0.11476536 2.5889559 10197915
0.063260794 0.11472818 2.5881171 10197915
0.18209568 0.11461368 2.5855343 10197915
0.22486003 0.11457247 2.5846047 7568517
0.27507022 0.11452412 2.5835137 1919872
0.32523778 0.11447578 2.5824234 6255244
0.37536323 0.11442746 2.5813334 10197915
0.42544615 0.11437923 2.5802455 10197915
0.47548717 0.11433101 2.5791578 10197915
0.50634402 0.1143013 2.5784874 10197915
0.68159378 0.11413246 2.5746784 4742256
0.72505975 0.11409056 2.5737333 1655659
0.77484852 0.11404262 2.5726516 2053003
0.82459521 0.11399467 2.5715697 4943246
0.87535739 0.11394576 2.5704672 10197915
0.92501986 0.11389791 2.5693877 10197915
0.97464031 0.11385009 2.5683093 10197915
1.0252739 0.11380134 2.567209 10197915
1.0748105 0.11375361 2.5661318 10197915
1.1354378 0.10792046 2.5730047 8618883
1.1241119 -0.56817585 2.6241903 11711154
1.1241459 -0.5249753 2.6242487 4473924
1.1241776 -0.47504735 2.6243439 2894892
1.1242352 -0.42504779 2.6243408 2894892
1.1242698 -0.37497884 2.624428 2894892
1.1242759 -0.32504225 2.6246147 2894892
1.1243129 -0.27503276 2.6246881 2894892
-0.21765633 -0.21730757 2.6397257 4805728
-0.18972862 -0.21714982 2.6472316 2250124
1.1243593 -0.22495306 2.6247327 2894892
-0.21766856 -0.17510876 2.6397369 4740191
-0.18972988 -0.17437884 2.6472468 2249867
1.1244112 -0.17500664 2.6247504 2894892
-0.2177356 -0.12557898 2.6397371 4740191
-0.18973109 -0.12502712 2.6472645 2184588
1.1244746 -0.1250596 2.6247268 2894892
-0.21762121 -0.075460546 2.6397855 4674399
-0.18973221 -0.07567475 2.6472795 2184587
1.1244459 -0.075039133 2.625046 2894892
-0.2176228 -0.025153665 2.6398029 4608607
-0.18973352 -0.025225077 2.6472991 2052745
1.1244813 -0.025013737 2.6251278 2894892
-0.21762432 0.025153885 2.6398206 4543070
-0.18973473 0.025225302 2.6473143 1788290
1.1245167 0.025014784 2.6252105 2894892
-0.21762556 0.075462103 2.6398385 4542814
-0.18973601 0.075676367 2.6473341 2184842
1.1245513 0.075046465 2.6252923 2894892
