# .PCD v0.7 - Point Cloud Data file format
VERSION 0.7
FIELDS x y z rgb
SIZE 4 4 4 4
TYPE F F F U
COUNT 1 1 1 1
WIDTH 1174
HEIGHT 1
VIEWPOINT 0 0 0 1 0 0 0
POINTS 1174
DATA ascii
-0.52341878 0.11113664 1.8638605 2039583
-0.47499907 0.11121974 1.8643919 2039583
-0.42472973 0.11130455 1.8656141 2039583
-0.37515756 0.11138733 1.8672012 7171437
-0.32512102 0.11147133 1.8686091 10132122
-0.27462751 0.11155652 1.8698374 10197915
-0.22482686 0.11163968 1.8714315 10197915
-0.17610359 0.11172237 1.8723977 10197915
-0.051304057 0.11193094 1.8763137 10197915
-0.024881473 0.11197532 1.8770577 10197915
0.024906224 0.11205889 1.8784581 10197915
0.07515388 0.11214365 1.8796786 10197915
0.12548053 0.1122277 1.8812884 7371656
0.17509925 0.11231144 1.8824846 2316686
0.22479191 0.11239439 1.8840832 4284809
0.27495325 0.11247861 1.8854942 10066329
0.32547054 0.11257594 1.8812516 10066329
0.37477624 0.11270177 1.8631567 10066329
0.4248786 0.1127855 1.864737 10066329
0.47090626 0.11286078 1.8669289 10066329
0.62783015 0.11312874 1.8692888 10066329
0.67497051 0.11320594 1.8714851 10066329
0.72474486 0.1132891 1.8730637 10066329
0.77498484 0.11337345 1.8744588 10197915
0.82489729 0.11345772 1.8756479 3953000
0.87489665 0.11354128 1.8772327 1986176
0.92495883 0.11362578 1.8784261 2839942
0.97510445 0.11370955 1.8800154 10066330
1.0253178 0.11379438 1.8812131 10197915
1.0752163 0.11387821 1.8825988 10197915
1.1251818 0.11396124 1.8843812 10197915
1.1752192 0.11404613 1.8853751 10197915
1.2266215 0.11415447 1.8768528 10197915
1.2750938 0.11426833 1.8635211 10197915
1.3250974 0.11435194 1.8650843 10197915
1.3751701 0.11443649 1.8662635 10197915
1.4198771 0.10793215 1.8740029 10197915
1.4109474 -0.46054974 1.9262575 2894892
1.411252 -0.4251028 1.9245398 2894892
1.4111983 -0.37504473 1.9244877 2894892
-0.22996287 -0.30911034 1.9209869 6513507
1.4111502 -0.32501641 1.9244062 2894892
-0.21859099 -0.2896989 1.9239669 6513507
-0.17725201 -0.28839236 1.9225799 6513507
-0.05188119 -0.28819385 1.9315243 6513507
-0.024905935 -0.28813592 1.9265674 6513507
0.025055572 -0.28804746 1.9259089 6185058
0.074979246 -0.28795981 1.9255248 1520460
0.12503511 -0.28787097 1.9247968 1980754
0.17505984 -0.28778258 1.9242051 4880549
0.22505292 -0.28769413 1.9235463 3563660
0.27485743 -0.28760663 1.9231638 2899796
0.31557694 -0.28753084 1.9209524 3622744
1.4109756 -0.27519536 1.9249445 2894892
-0.66373223 -0.21918689 1.925567 2039583
1.4108763 -0.22496578 1.9251188 2894892
-0.66391063 -0.17495242 1.9261385 2039583
1.4108253 -0.17496118 1.9250513 2894892
-0.66407496 -0.12491232 1.9265956 2039583
1.4107814 -0.12493227 1.9249487 2894892
-0.66425663 -0.074845679 1.927141 2039583
1.4107056 -0.074906752 1.9250023 2894892
-0.66423833 -0.024280762 1.9266983 2039583
1.4106863 -0.024970731 1.924785 2894892
-0.6634348 0.025012147 1.9223967 2039583
1.4106359 0.024969552 1.9247165 2894892
-0.66364992 0.074887261 1.9231079 2039583
1.4105554 0.074898332 1.9247952 5066061
-0.66243625 0.10634879 1.9234478 2039583
-0.62508476 0.11082553 1.9245205 2039583
-0.57107556 0.11092919 1.9201692 2039583
-0.52497852 0.11102247 1.9142638 2039583
-0.47458375 0.11110699 1.9157206 2039583
-0.42450756 0.11119143 1.9169595 2039583
-0.3751505 0.11127373 1.9185959 7697781
-0.32531863 0.11135729 1.9200368 10132122
-0.27502024 0.11144208 1.9212811 10197915
-0.22503652 0.1115259 1.9227262 10197915
-0.17815644 0.11160459 1.9240509 10197915
-0.052305412 0.11180922 1.9305832 10197915
-0.025167555 0.11186108 1.9285043 10197915
0.024791969 0.11194438 1.9301596 10197915
0.074821137 0.11202872 1.9313951 10197915
0.12492885 0.11211229 1.9330552 8094346
0.17511007 0.1121969 1.9342947 2250636
0.22536664 0.11228071 1.9359583 3431305
0.27500823 0.11239342 1.9240637 10066329
0.32757404 0.11248958 1.9219666 10066329
0.37464267 0.11258972 1.9137284 10066329
0.42491275 0.11267315 1.9155743 10066329
0.47525132 0.11275852 1.9165971 10066329
0.50409216 0.11278728 1.9263034 10066329
0.63565183 0.11303227 1.9190778 10066329
0.67457557 0.11309247 1.9224889 10066329
0.72489697 0.11317737 1.9237164 10066329
0.77528465 0.11326145 1.9253607 10197915
0.82535118 0.11334545 1.9267888 7831432
0.87508476 0.11342936 1.9279932 1457253
0.92489082 0.11351245 1.9296277 2250636
0.9751789 0.11359685 1.9310622 6715278
1.0251304 0.11368111 1.9322711 10197915
1.0751606 0.11376453 1.9339128 10197915
1.125262 0.11384906 1.9351269 10197915
1.1713756 0.11393443 1.9328223 10197915
1.2270513 0.11405361 1.922761 10197915
1.2747562 0.1141569 1.9136279 10197915
1.324885 0.11424105 1.9150385 10197915
1.374679 0.11432509 1.916229 10197915
1.4103101 0.10751342 1.923995 10197915
1.3977937 -0.46919256 1.9908029 2894892
1.4028089 -0.46558663 1.9661914 2894892
1.3978592 -0.42456785 1.9902003 2894892
1.4029881 -0.42536926 1.9650654 2894892
1.3979274 -0.37496501 1.9895468 2894892
1.4030582 -0.37502584 1.9643987 2894892
-0.24182473 -0.30900854 1.9785947 6513507
1.3978727 -0.32494864 1.9895016 2894892
1.4029956 -0.32501447 1.9643871 2894892
-0.22360161 -0.28939906 1.9750676 6513507
-0.17929839 -0.28850588 1.9722878 6513507
-0.052811839 -0.28829971 1.9786514 6513507
-0.024980219 -0.2882466 1.976498 6513507
0.02497003 -0.28815818 1.9758923 6316386
0.075084187 -0.28807023 1.9755187 1322825
0.12496787 -0.28798172 1.9748192 1717326
0.17482048 -0.28789338 1.9741232 4419998
0.22484764 -0.28780526 1.9736575 3893142
0.27483872 -0.2877166 1.972911 3162709
0.31066355 -0.28765032 1.971084 3951707
1.3978319 -0.27493662 1.9893878 2894892
1.4029553 -0.27505717 1.9642671 2894892
-0.67317879 -0.21913245 1.9720857 2039583
1.3977723 -0.22499594 1.9893637 2894892
1.4028969 -0.22510323 1.9642375 2894892
-0.67325425 -0.17526394 1.9721502 2039583
1.39774 -0.17505893 1.9892025 2894892
1.4028608 -0.17510265 1.9641029 2894892
-0.67343915 -0.12524857 1.9727129 2039583
1.3976591 -0.12505712 1.9892869 2894892
1.4027909 -0.12505402 1.96413 2894892
-0.67365444 -0.075004511 1.9734215 2039583
1.3976426 -0.074724466 1.9890497 2894892
1.4027752 -0.075263642 1.9638916 2894892
-0.67378026 -0.024942329 1.9736921 2039583
1.3977631 -0.024775032 1.9881451 2894892
1.4028777 -0.025211763 1.9630717 2894892
-0.67395514 0.024950936 1.9742032 2039583
1.3977131 0.024773864 1.9880755 2894892
1.4028263 0.025210552 1.9630027 2894892
-0.67417997 0.075065158 1.9749597 2039583
1.3976656 0.074822426 1.9879888 5197647
1.4027977 0.075196661 1.9628237 5197647
-0.66724288 0.10816019 1.9704398 2039583
-0.62491965 0.11073568 1.9652442 2039583
-0.57527548 0.11081833 1.966948 2039583
-0.52515024 0.1109023 1.9684385 2039583
-0.47536227 0.11098618 1.9696903 2039583
-0.42548907 0.11106923 1.9714013 2039583
-0.37554917 0.1111534 1.9726573 8158332
-0.32552716 0.11123668 1.9743736 10132122
-0.27543491 0.11132108 1.9756335 10197915
-0.22526363 0.11140462 1.9773544 10197915
-0.1803178 0.1114812 1.9781071 10197915
-0.052966837 0.11168879 1.9844805 10197915
-0.025058426 0.1117405 1.9830769 10197915
0.025083542 0.11182449 1.9845673 10197915
0.071208082 0.11191922 1.9780318 10197915
0.12510876 0.11202262 1.9737076 8554381
0.17511815 0.11210641 1.9751837 2184585
0.22520281 0.11219033 1.9766623 2709385
0.27547726 0.11230543 1.9642177 10066329
0.32494983 0.11238783 1.9658926 10066329
0.3749103 0.11247157 1.9673573 10066329
0.42535076 0.1125566 1.9686109 10066329
0.47504869 0.1126394 1.9702928 10066329
0.50992554 0.11269277 1.9736079 10066329
0.64379627 0.11293747 1.9683505 10066329
0.67457098 0.1129738 1.9761424 10066329
0.72464132 0.11305821 1.977384 10066329
0.774777 0.11314175 1.9790797 10197915
0.82457942 0.11322522 1.9805399 10197915
0.87486947 0.11330999 1.9817878 3295843
0.92523259 0.1133939 1.9834907 2052227
0.97525722 0.11347775 1.9849573 2709128
1.0209671 0.1135709 1.9788349 9540760
1.0745991 0.11367493 1.9740016 10197915
1.1244942 0.11375858 1.975454 10197915
1.1787201 0.11386753 1.9688627 10197915
1.22463 0.11395683 1.9646285 10197915
1.2748141 0.11404049 1.9663008 10197915
1.3246609 0.11412408 1.9677421 10197915
1.3895476 0.10961376 1.9811985 10197915
1.4027201 0.10722953 1.9628713 10197915
1.3872373 -0.50219011 2.0427673 3092271
1.3906976 -0.4738138 2.0256236 2894892
1.3908058 -0.42503688 2.024781 2894892
1.3907534 -0.37504718 2.0247271 2894892
-0.25205705 -0.30969834 2.0282931 6513507
1.3907053 -0.3250294 2.0246434 2894892
-0.25258499 -0.2929132 2.0339618 6513507
-0.22535068 -0.28878117 2.0258191 6513507
-0.18142848 -0.28862584 2.0248528 6513507
-0.053658299 -0.28840089 2.0237389 6513507
-0.025149217 -0.28835046 2.0233853 6513507
0.025138887 -0.28826159 2.0227609 6382178
0.075184487 -0.28817272 2.0219889 3233663
0.12498877 -0.28808498 2.0214722 1586773
0.17497435 -0.28799593 2.0206032 4025240
0.22513334 -0.28790796 2.0202796 4222364
0.27620238 -0.28782833 2.0244985 3360089
0.30580816 -0.28776491 2.0191095 4017242
1.3906567 -0.2750144 2.0245683 2894892
-0.68297201 -0.21927817 2.0203125 2039583
1.3906044 -0.2250368 2.0245023 2894892
-0.68306619 -0.17496246 2.0204678 2039583
1.3905642 -0.17499696 2.0243821 2894892
-0.6832968 -0.12497521 2.0212519 2039583
1.3904995 -0.12492961 2.0243888 2894892
-0.68345189 -0.07517273 2.0216691 2039583
1.3904182 -0.074879408 2.0244675 2894892
-0.6836614 -0.025133999 2.0223525 2039583
1.3902105 -0.02507882 2.0251708 2894892
-0.6838401 0.025142748 2.0228806 2039583
1.3901604 0.025077607 2.0250988 2894892
-0.68397444 0.075023174 2.0231938 2039583
1.3901205 0.075037718 2.0249863 5329233
-0.67355192 0.10844171 2.0230446 2039583
-0.62468791 0.11060952 2.0224891 2039583
-0.5744279 0.11069307 2.0242684 2039583
-0.52492434 0.11077646 2.025533 2039583
-0.475348 0.11085884 2.0273001 2039583
-0.42527589 0.11094263 2.028832 2039583
-0.37471637 0.11102775 2.0301366 8750469
-0.32449049 0.11111183 2.0316653 10132122
-0.2746169 0.11119471 2.033442 10197915
-0.22786306 0.11128028 2.0315452 10197915
-0.18172844 0.1113829 2.0214572 10197915
-0.053700835 0.11159715 2.0253453 10197915
-0.0251799 0.11164493 2.0262122 10197915
0.025205255 0.11172923 2.0277426 10197915
0.077584878 0.11184448 2.0168574 10197915
0.12446035 0.11192735 2.0162866 9211795
0.17471091 0.1120115 2.017802 2118020
0.22460827 0.11209555 2.0190616 2118537
0.27459246 0.11217869 2.0208147 9606295
0.32464102 0.11226301 2.0220778 10066329
0.37477273 0.11234641 2.0238357 10066329
0.42497316 0.112431 2.0251031 10066329
0.47483316 0.11251447 2.0266066 10066329
0.51734596 0.11258115 2.0299108 10066329
0.67854142 0.11285902 2.0311735 10066329
0.72479564 0.11293235 2.0343916 10066329
0.772111 0.11303606 2.024749 10197915
0.82460827 0.11313181 2.0227799 10197915
0.87469906 0.11321568 2.0242794 6648190
0.92486447 0.11329972 2.0257819 1589355
0.97510403 0.11338384 2.0272858 2250893
1.0278711 0.11349796 2.0172293 8095380
1.0748633 0.11358246 2.0160091 10197915
1.1253933 0.11366767 2.0172708 10197915
1.175148 0.11375051 2.0189919 10197915
1.224977 0.11383448 2.0202312 10197915
1.2748754 0.11391754 2.0219572 10197915
1.3248539 0.11400181 2.0232 10197915
1.3867323 0.10821956 2.0246162 10197915
1.3799461 -0.50726068 2.0785458 8947848
1.3808153 -0.47499606 2.0740769 2894892
1.3806334 -0.42480797 2.0746541 2894892
1.380519 -0.37498474 2.0748978 2894892
-0.26080707 -0.30969441 2.0707896 6513507
1.3804703 -0.32498416 2.0748208 2894892
-0.25737852 -0.2726714 2.0821722 6513507
-0.2271246 -0.27202255 2.0875704 6513507
-0.18323894 -0.28873715 2.0737803 6513507
-0.054098088 -0.28850999 2.0727108 6513507
-0.024899084 -0.28845832 2.0723398 6513507
0.024888953 -0.28837031 2.0717068 6513507
0.07485874 -0.28828147 2.0709121 4944538
0.12501073 -0.28819302 2.0703804 3625063
0.17513363 -0.28810409 2.0696375 3564689
0.22501245 -0.28801623 2.0691633 4682400
0.27375093 -0.28794011 2.0730934 4215398
0.30153418 -0.28786692 2.0618613 4017244
1.3804249 -0.27498746 2.0747299 2894892
-0.69334245 -0.21943824 2.0713813 2039583
-0.25731781 -0.22537002 2.0842686 6513507
-0.22769989 -0.22490443 2.090368 6513507
1.3803648 -0.22502615 2.0747056 2894892
-0.69339055 -0.17507522 2.0713086 2039583
-0.25733331 -0.17529827 2.0843942 6513507
-0.22780043 -0.17510474 2.0904751 6513507
1.3803278 -0.17500344 2.0745773 2894892
-0.69362783 -0.12511627 2.0721285 2039583
-0.25734881 -0.12522055 2.0845196 6513507
-0.22792347 -0.12536533 2.0905778 6513507
1.3802757 -0.12501656 2.0745065 2894892
-0.6937862 -0.074918352 2.0725579 2039583
-0.25840631 -0.075101286 2.0862551 6513507
-0.22778426 -0.075356252 2.0907352 6513507
1.3801994 -0.075152993 2.0745718 2894892
-0.6940006 -0.024907844 2.0732632 2039583
-0.25844172 -0.025065836 2.0863283 6513507
-0.22779809 -0.025120089 2.0908616 6513507
1.3799531 -0.024935443 2.0754614 2894892
-0.69418007 0.024916444 2.0738001 2039583
-0.2584438 0.025066154 2.0863481 6513507
-0.22781184 0.025122119 2.0909879 6513507
1.3799042 0.02493426 2.0753844 2894892
-0.6943267 0.074978895 2.0741725 2039583
-0.25844586 0.075199142 2.0863683 10066329
-0.22782561 0.075370416 2.0911138 10066329
1.379894 0.074970394 2.075124 5460819
-0.67984086 0.10880031 2.0802453 2039583
-0.62529773 0.11047439 2.0831337 2039583
-0.57734853 0.11058201 2.0722039 2039583
-0.52506369 0.1106759 2.0709085 2039583
-0.47480482 0.11075991 2.0724802 2039583
-0.42532316 0.11084262 2.0740283 2039583
-0.37491232 0.11092687 2.0756047 9145227
-0.32442528 0.11101127 2.0771842 10197915
-0.26413241 0.10742361 2.0837109 10197915
-0.22647668 0.10676377 2.0875826 10197915
-0.18401587 0.11128154 2.0655046 10197915
-0.054036189 0.1114971 2.070344 10197915
-0.024881629 0.11154586 2.0712495 10197915
0.024906389 0.11162911 2.0727954 10197915
0.075193755 0.11171377 2.0740967 10197915
0.12556097 0.11179741 2.0759206 9803415
0.17513911 0.11188089 2.0771902 1986176
0.22479111 0.1119634 2.0790017 2184330
0.27495265 0.11204721 2.080559 8489364
0.3247484 0.1121311 2.0818355 10066329
0.37462702 0.11221388 2.0836539 10066329
0.42243028 0.11232151 2.0726194 10066329
0.47454923 0.11241508 2.0713375 10066329
0.52298063 0.11249609 2.07283 10066329
0.68608338 0.1127689 2.077857 10066329
0.72437352 0.11283295 2.079037 10066329
0.77682418 0.11295145 2.0667269 10197915
0.82550561 0.1130354 2.0671027 10197915
0.87539113 0.11311944 2.0683646 9474709
0.9253484 0.11320244 2.0701575 1915997
0.9753837 0.11328673 2.0714235 2184842
1.0250562 0.11336868 2.0734735 3168904
1.0747902 0.11345306 2.0744653 10197915
1.1246121 0.11353642 2.0759892 10197915
1.1749398 0.11362002 2.0777938 10197915
1.2253437 0.11370493 2.0790703 10197915
1.2749395 0.11378733 2.0808537 10197915
1.3246154 0.11387104 2.0821075 10197915
1.3776892 0.10801373 2.0761073 10197915
1.3700682 -0.51465666 2.1270211 11184810
1.3704981 -0.47503635 2.1246605 2894892
1.3703059 -0.42524013 2.1252885 2894892
1.3701911 -0.37501934 2.125545 2894892
-0.26983014 -0.30923903 2.1146078 6513507
1.3701419 -0.3249979 2.125464 2894892
-0.26975876 -0.27500132 2.1140485 6513507
-0.20400496 -0.28889704 2.1297193 6513507
-0.18536064 -0.28885373 2.1248169 6513507
-0.054771263 -0.2886267 2.1249697 6513507
-0.024858302 -0.28857151 2.1235518 6513507
0.025068576 -0.28848302 2.122844 6513507
0.074954025 -0.2883954 2.122483 5338779
0.12503381 -0.28830653 2.1217167 5333619
0.1750824 -0.28821772 2.1209476 3366795
0.22509797 -0.28812918 2.1202979 4945571
0.27009234 -0.28804865 2.1192982 5070964
1.3700935 -0.2749795 2.1253753 2894892
-0.70471221 -0.21795093 2.1273611 2039583
-0.69996458 -0.22925347 2.1040597 2039583
-0.26961458 -0.22543497 2.113039 6513507
1.3700349 -0.22503889 2.1253428 2894892
-0.70431089 -0.17497425 2.1250846 2039583
-0.26954934 -0.1750261 2.1124079 6513507
1.3699913 -0.17502832 2.1252406 2894892
-0.70446992 -0.12482388 2.1255164 2039583
-0.26940352 -0.12465478 2.1113856 6513507
1.3699547 -0.124911 2.125123 2894892
-0.70468926 -0.074869439 2.1262479 2039583
-0.27163878 -0.074724331 2.1219289 6513507
1.3698742 -0.074869484 2.1251891 2894892
-0.70483547 -0.024891805 2.1266198 2039583
-0.27153292 -0.024606492 2.1211026 6513507
1.3698678 -0.024947276 2.1249104 2894892
-0.70501775 0.02490039 2.1271701 2039583
-0.27142903 0.024593947 2.120291 6513507
1.3698173 0.024946075 2.1248319 2894892
-0.70523769 0.074929908 2.1279032 2039583
-0.27323252 0.077496022 2.1287189 10000536
1.3697284 0.074861191 2.1249638 5526612
-0.70501083 0.10572211 2.1280336 2039583
-0.67494112 0.11028504 2.1296301 2039583
-0.62512243 0.11036821 2.1312361 2039583
-0.57400948 0.11048728 2.1176467 2039583
-0.52520871 0.11057135 2.1180465 2039583
-0.47511005 0.11065441 2.1199319 2039583
-0.42493215 0.11073884 2.1212544 2039583
-0.37468359 0.11082213 2.1231453 9671571
-0.32479101 0.11090545 2.124742 10197915
-0.282675 0.10935025 2.1256828 10197915
-0.20426916 0.11110274 2.1303988 10197915
-0.18652569 0.1111375 2.1286423 10197915
-0.055233836 0.11135235 2.1348429 10197915
-0.02797384 0.11142841 2.1219277 10197915
0.024591194 0.11152495 2.1196587 10197915
0.07470195 0.11160866 2.1212497 10197915
0.12488756 0.1116925 2.1228433 10066329
0.17514907 0.11177649 2.1244388 2380159
0.22548573 0.11186056 2.1260374 2184330
0.27501336 0.1119433 2.12761 7569809
0.32461429 0.11202618 2.129185 10066329
0.37428877 0.11210916 2.1307623 10066329
0.42603284 0.11222809 2.1177073 10066329
0.47513494 0.11231336 2.1178002 10066329
0.52510864 0.11239625 2.1196539 10066329
0.55530691 0.11243266 2.1269677 10066329
0.6934725 0.11269273 2.1181304 10066329
0.72527152 0.11273141 2.1256721 10066329
0.77471298 0.11281339 2.1275201 10197915
0.82468164 0.11289688 2.1290953 10197915
0.87472433 0.11298052 2.1306722 10197915
0.92528009 0.11306562 2.1319849 6056826
0.97191107 0.11315258 2.1293695 1589097
1.0255612 0.113268 2.1194108 2184587
1.0755242 0.11335153 2.1209733 7504274
1.1255611 0.11343516 2.1225386 10197915
1.1756718 0.11351891 2.1241057 10197915
1.2249595 0.11360129 2.1256471 10197915
1.2743189 0.1136838 2.1271911 10197915
1.3246499 0.11376793 2.1287653 10197915
1.3691723 0.10715746 2.1250682 10197915
1.3598596 -0.52198917 2.1771173 11645361
1.3601049 -0.47496209 2.1756184 2960685
-0.91474307 -0.42577687 2.1638756 6513507
-0.87454814 -0.4196291 2.1720533 6513507
-0.82446563 -0.41951656 2.182224 6513507
-0.77477831 -0.41951838 2.192313 4737096
-0.74323136 -0.41969031 2.1987195 2039583
1.3600572 -0.42494193 2.175534 2894892
-0.86681014 -0.38483086 2.1737142 6513507
-0.8243807 -0.37510958 2.1823549 6513507
-0.77471334 -0.37503201 2.1924415 4737096
-0.74396861 -0.37576392 2.1986828 2039583
1.360005 -0.37496564 2.1754761 2894892
-0.81476593 -0.33651629 2.184407 6513507
-0.77449393 -0.32544845 2.1926131 4737096
-0.74422079 -0.32519835 2.1987615 2039583
1.3599672 -0.32499254 2.1753414 2894892
-0.76288468 -0.288477 2.195065 3158064
-0.74398226 -0.28031921 2.1989253 2039583
-0.18158333 -0.28892303 2.1591222 6513507
-0.055768821 -0.28873068 2.1711855 6513507
-0.025182463 -0.28867647 2.1707785 6513507
0.025029073 -0.28860256 2.1768701 6513507
0.075056113 -0.28851426 2.1763287 5404057
0.12483328 -0.28842604 2.1755993 5202806
0.17480358 -0.28833789 2.1750576 3365764
0.22960949 -0.27218142 2.1830921 4748450
0.26286179 -0.27262357 2.1870866 3039120
1.3599032 -0.27498376 2.1753416 2894892
-0.71412194 -0.21972363 2.1737101 2039583
0.23107274 -0.22484273 2.1859336 4222878
0.26236373 -0.22513857 2.191272 2644623
1.359867 -0.22501829 2.1752007 2894892
-0.71425289 -0.17503957 2.1740422 2039583
0.23079568 -0.17504945 2.1859796 3499160
0.26237965 -0.17521918 2.1914039 2314634
1.35981 -0.17501588 2.1751645 2894892
-0.71447402 -0.12493173 2.174782 2039583
0.2309778 -0.12493923 2.1860657 3170966
0.26239529 -0.12529372 2.1915355 2513036
1.359763 -0.12497991 2.1750813 2894892
-0.71462369 -0.075099856 2.1751709 2039583
0.23092708 -0.075128734 2.186178 2908309
0.26241103 -0.075362206 2.1916668 2776975
1.3597226 -0.07510224 2.1749616 2894892
-0.71484441 -0.025239583 2.175909 2039583
0.23099615 -0.025318448 2.1862314 2777750
0.26242685 -0.025424745 2.1917982 2645646
1.3596699 -0.025114173 2.1749027 2894892
-0.71503174 0.025248403 2.1764798 2039583
0.23097621 0.025361797 2.1863327 2514322
0.26244283 0.025426818 2.1919329 2381706
1.3596215 0.025112964 2.1748269 2894892
-0.71518159 0.075160585 2.1768689 2039583
0.23066397 0.075459138 2.1866653 2250637
0.26245865 0.075376347 2.1920638 2184070
1.3595768 0.075093865 2.1747265 5723991
-0.71193612 0.1075274 2.1800387 2039583
-0.67548406 0.11017288 2.1799197 2039583
-0.6249404 0.11025788 2.1812873 2039583
-0.5781197 0.11035803 2.1728446 2039583
-0.52447015 0.1104627 2.1677446 2039583
-0.47453579 0.110546 2.1693797 2039583
-0.42452615 0.11062945 2.1710169 2171169
-0.37444088 0.11071301 2.1726568 10000536
-0.32427984 0.11079669 2.1742992 10197915
-0.2902016 0.11085355 2.175415 10197915
-0.20664525 0.11099297 2.1781509 10197915
-0.18864815 0.11102299 2.17874 10197915
-0.056074157 0.11124417 2.1830807 10197915
-0.023509087 0.1113327 2.1686778 10197915
0.025163362 0.11141678 2.1689706 10197915
0.075084612 0.11150079 2.1702876 10197915
0.12508558 0.11158357 2.1722171 10066329
0.17515875 0.11166781 2.1735384 2905727
0.22863325 0.10705087 2.1829548 2118281
0.26785478 0.10802413 2.1856592 4088971
0.32492274 0.11191709 2.1787097 10066329
0.37484571 0.11200041 2.1803317 10066329
0.42529151 0.11208528 2.1816642 10066329
0.47136751 0.11218525 2.1727235 10066329
0.52461141 0.11228771 2.1683023 10066329
0.56084287 0.11234821 2.1694701 10066329
0.72711462 0.1126258 2.1748309 10066329
0.77451128 0.11270493 2.1763589 10197915
0.82471454 0.11278874 2.1779776 10197915
0.87499201 0.11287267 2.1795983 10197915
0.92442852 0.11295522 2.1811919 10066330
0.97905034 0.11306703 2.1736472 1456736
1.0251793 0.11316065 2.1676345 2184844
1.0749164 0.11324304 2.1695261 3366025
1.1247233 0.11332691 2.170819 10197915
1.1746042 0.11340953 2.1727154 10197915
1.2245605 0.11349362 2.1740131 10197915
1.2745857 0.11357652 2.175915 10197915
1.324692 0.11366088 2.177217 10197915
1.3593048 0.10723379 2.1746414 10197915
1.3471868 -0.55610484 2.2394633 11711154
1.3517481 -0.55310017 2.2170815 11711154
1.3473752 -0.52494121 2.238344 11711154
1.3524867 -0.52498943 2.2132826 11711154
1.3473332 -0.47493392 2.2382324 3421236
1.3524324 -0.47495767 2.2132332 3223857
-0.72738898 -0.41944346 2.2082977 2039583
1.3472862 -0.42501459 2.2381446 2894892
1.3523885 -0.42492971 2.2131312 2894892
-0.72793388 -0.37456465 2.2081563 2039583
1.3472322 -0.37509888 2.2380962 2894892
1.3523412 -0.37490472 2.2130525 2894892
-0.728127 -0.32494894 2.2081237 2039583
1.3473725 -0.32467118 2.2370894 2894892
1.3524729 -0.32526979 2.2120831 2894892
-0.72818303 -0.27516535 2.2085066 2039583
0.082450405 -0.28857884 2.2113197 6062503
0.12944338 -0.28850481 2.2148418 5530482
0.17581256 -0.28843129 2.2181246 3431040
0.20841677 -0.27076405 2.2197268 5011365
1.3473713 -0.27498814 2.2367804 2894892
1.3524688 -0.27489328 2.2117887 2894892
-0.72466075 -0.22805022 2.2220249 2039583
0.20872654 -0.22502254 2.2195833 4551586
1.3473318 -0.22501735 2.2366617 2894892
1.3524263 -0.22503714 2.2116766 2894892
-0.72466248 -0.17518643 2.2253053 2039583
0.2087196 -0.1749579 2.2193055 3565209
1.3472862 -0.17497395 2.2365658 2894892
1.3523786 -0.17509486 2.2116017 2894892
-0.7249217 -0.12519798 2.2262306 2039583
0.20867977 -0.12503216 2.2191868 3434394
1.3472319 -0.12501113 2.2365186 2894892
1.3523121 -0.12506101 2.2116125 2894892
-0.72508311 -0.07495483 2.2266767 2039583
0.20869885 -0.074856766 2.2187815 3303836
1.3471752 -0.075050391 2.2364793 2894892
1.3522955 -0.07476449 2.2113743 2894892
-0.72426081 -0.026339948 2.2222884 2039583
0.20863928 -0.024818927 2.2187583 3238042
1.3471274 -0.025015993 2.2363985 2894892
1.3522271 -0.024736287 2.2113938 2894892
-0.72396475 0.024838772 2.2204716 2039583
0.2086193 0.024815774 2.2185466 2645138
1.3470789 0.025014812 2.2363186 2894892
1.3521787 0.02473513 2.2113144 2894892
-0.72411567 0.074839517 2.2208662 2039583
0.20843412 0.073938303 2.2191391 2250638
1.3470308 0.075042032 2.2362387 5855577
1.3521522 0.074756227 2.2111361 5789784
-0.71927398 0.1072822 2.2259181 2039583
-0.67513913 0.11005748 2.2323906 2039583
-0.62474877 0.11014143 2.2340939 2039583
-0.57251197 0.11026178 2.2207963 2039583
-0.52552021 0.11034664 2.2194149 2039583
-0.47484952 0.11043036 2.2214358 2039583
-0.42455444 0.11051421 2.2231219 2631720
-0.37464881 0.11059809 2.2244728 10066329
-0.32465979 0.11068068 2.2264714 10197915
-0.29368851 0.11074138 2.2234075 10197915
-0.20889227 0.11086968 2.232132 10197915
-0.19033153 0.11090852 2.2291946 10197915
-0.056043077 0.11116781 2.2176414 10197915
-0.024814589 0.11121989 2.2186804 10197915
0.024839211 0.11130267 2.2203314 10197915
0.074566983 0.11138558 2.2219853 10197915
0.1243689 0.11146862 2.2236416 10066329
0.17424513 0.11155179 2.2253006 3628417
0.20747814 0.10637397 2.2217236 2118282
0.2890552 0.11174319 2.2291193 10066329
0.3243213 0.11180197 2.2302921 10066329
0.37449643 0.11188564 2.231961 10066329
0.42474663 0.11196947 2.2336323 10066329
0.4774332 0.11209097 2.2201436 10066329
0.52502453 0.11217517 2.2195373 10066329
0.56797361 0.11224271 2.2227914 10066329
0.73501331 0.11253411 2.2225192 10132122
0.77522904 0.11259247 2.2277935 10197915
0.82522213 0.11267658 2.2291138 10197915
0.87527251 0.11275934 2.2310956 10197915
0.92087543 0.11285424 2.2240827 10197915
0.97442788 0.11296348 2.21682 3821928
1.0247831 0.11304751 2.2184694 1919866
1.0752134 0.11313166 2.2201207 2118537
1.1247828 0.11321434 2.2217433 7372946
1.1744249 0.11329717 2.2233686 10197915
1.2250781 0.11338168 2.2250273 10197915
1.2748678 0.11346482 2.2266588 10197915
1.3417152 0.10833408 2.2340896 10197915
1.3520257 0.10680018 2.2115493 10197915
1.3392668 -0.56220853 2.2783318 11711154
1.3397399 -0.52506 2.2757654 11711154
1.3396927 -0.47498411 2.2756834 3684408
-0.73470432 -0.41939849 2.2764585 2039583
1.3396558 -0.4249112 2.2755649 2894892
-0.73496616 -0.3748467 2.2774377 2039583
1.3395969 -0.37493169 2.2755284 2894892
-0.73507655 -0.32493147 2.2776337 2039583
1.3395514 -0.32495636 2.275435 2894892
-0.73530948 -0.2746726 2.278429 2039583
1.339499 -0.27493972 2.2753808 2894892
-0.73550045 -0.22470288 2.2790205 2039583
1.3394616 -0.22497152 2.2752421 2894892
-0.73565018 -0.17502448 2.2794116 2039583
1.3394213 -0.17496149 2.2751327 2894892
-0.73584116 -0.12500378 2.2800021 2039583
1.3393642 -0.12495402 2.2750835 2894892
-0.73611319 -0.0749579 2.280992 2039583
1.3392736 -0.074996263 2.2752249 2894892
-0.73495543 -0.023629444 2.2749338 2039583
1.339295 -0.025003044 2.274797 2894892
-0.7348088 0.024970725 2.2738721 2039583
1.3392476 0.025001844 2.2747157 2894892
-0.73507571 0.075152531 2.2748351 2039583
1.3391199 0.075032718 2.2750239 5987163
-0.72619671 0.10743691 2.271384 2039583
-0.67489982 0.10997716 2.2688947 2039583
-0.62554777 0.11005936 2.2705898 2039583
-0.57518899 0.1101432 2.2723196 2039583
-0.52475345 0.11022717 2.2740519 2039583
-0.47517717 0.11030971 2.2757547 2039583
-0.42552635 0.11039237 2.2774603 2960685
-0.37486216 0.1104767 2.2792003 10066329
-0.3250612 0.11055962 2.2809107 10197915
-0.29778278 0.11060504 2.2818477 10197915
-0.21202935 0.11074781 2.2847931 10197915
-0.19315326 0.11077924 2.2854416 10197915
-0.05693423 0.11104403 2.2729292 10197915
-0.024950281 0.11110078 2.2724438 10197915
0.024975179 0.11118395 2.2741439 10197915
0.074970409 0.11126566 2.2765436 10197915
0.12503028 0.11135057 2.2775528 10066329
0.17518055 0.11143411 2.2792611 4088193
0.20425215 0.1114715 2.285223 2448271
0.29184002 0.11166856 2.2650695 10066329
0.32484621 0.11172353 2.266185 10066329
0.3748852 0.11180691 2.2678759 10066329
0.42499846 0.11189041 2.2695696 10066329
0.47518712 0.11197402 2.2712657 10066329
0.52545035 0.11205779 2.2729645 10066329
0.57483858 0.11214006 2.2746332 10066329
0.74444586 0.11242265 2.2803652 10197915
0.77503109 0.11247359 2.281399 10197915
0.82478672 0.11255651 2.2830803 10197915
0.87461573 0.11263951 2.2847645 10197915
0.92799336 0.11276007 2.2722561 10197915
0.97471857 0.11284708 2.2696941 7897225
1.0248421 0.11292987 2.2717161 1456735
1.0745698 0.11301276 2.2733834 2184331
1.1248455 0.11309732 2.2747266 3300746
1.1751963 0.11318047 2.2767572 9869465
1.2251449 0.11326373 2.2784319 10197915
1.2746766 0.11334703 2.279736 10197915
1.3350027 0.10811346 2.2749996 10197915
1.3295234 -0.56782073 2.3261359 11711154
1.3295715 -0.52499157 2.325629 11711154
1.3295288 -0.47497079 2.3255227 4079166
-0.7445091 -0.41963241 2.3247433 2039583
1.3294874 -0.42490503 2.3254085 2894892
-0.74473602 -0.37508768 2.3255506 2039583
1.329434 -0.37498838 2.3253531 2894892
-0.74488527 -0.32539952 2.3259385 2039583
1.3293922 -0.3249785 2.3252475 2894892
-0.7451216 -0.27567858 2.3267541 2039583
1.3293418 -0.27497143 2.325176 2894892
-0.74527442 -0.22528931 2.3271561 2039583
1.329294 -0.22506544 2.3250947 2894892
-0.74551207 -0.17488156 2.3279729 2039583
1.3292463 -0.17496899 2.3250117 2894892
-0.74570632 -0.12476259 2.3285801 2039583
1.3292143 -0.12487756 2.3248453 2894892
-0.74585569 -0.074942805 2.3289685 2039583
1.3291594 -0.074983999 2.324806 2894892
-0.74609256 -0.025094172 2.3297865 2039583
1.3290868 -0.025042199 2.324846 2894892
-0.74628705 0.0251029 2.3303936 2039583
1.3290391 0.02504101 2.3247619 2894892
-0.74643695 0.075003311 2.3307829 2039583
1.3290093 0.075024031 2.3245943 6118749
-0.72814792 0.1085446 2.3273082 2039583
-0.67452312 0.10985123 2.3261063 2039583
-0.62488091 0.10993377 2.3278546 2039583
-0.57517242 0.1100181 2.3288538 2039583
-0.52485377 0.1101433 2.3118405 2039583
-0.47540462 0.11022557 2.3135672 2039583
-0.42492825 0.11030956 2.3153298 3487029
-0.37437528 0.11039364 2.317095 10066329
-0.3247011 0.11047627 2.3188293 10197915
-0.21362308 0.11066108 2.3227081 10197915
-0.19443451 0.110693 2.3233783 10197915
-0.057871103 0.11092018 2.3281469 10197915
-0.025086794 0.11097474 2.3292913 10197915
0.025111962 0.11105823 2.3310442 10197915
0.07538633 0.11114187 2.3327997 8950170
0.12573649 0.11122564 2.334558 9080983
0.17519189 0.1113079 2.3362849 4679041
0.20625754 0.11135958 2.3373692 2514321
0.29494041 0.11155796 2.3175106 10066329
0.32469621 0.11159983 2.3219914 10066329
0.37452552 0.11168192 2.3240926 10066329
0.42491215 0.11176579 2.3258376 10066329
0.4748742 0.11184978 2.3271918 10066329
0.52493227 0.11193224 2.3293018 10066329
0.57082081 0.11202928 2.3215592 10066329
0.60461354 0.11210741 2.3128424 10066329
0.77521563 0.11239143 2.318702 10197915
0.82481259 0.11247401 2.3204057 10197915
0.87545669 0.11255834 2.3221452 10197915
0.92520052 0.11264114 2.3238535 10197915
0.97501844 0.1127241 2.3255649 10197915
1.0249088 0.11280714 2.3272784 3361636
1.0748736 0.11289032 2.3289948 1985914
1.1249113 0.11297363 2.3307133 2052232
1.1750234 0.11305706 2.3324342 6453649
1.2252095 0.11314061 2.3341582 10197915
1.2744836 0.11322264 2.3358505 10197915
1.3276147 0.10734211 2.3248158 10197915
1.3195217 -0.56838417 2.3751748 11711154
1.3194895 -0.52501941 2.3750584 11711154
1.3194356 -0.47497699 2.3750079 4539717
-0.75479627 -0.41986841 2.3754041 2039583
1.3194017 -0.42498833 2.3748569 2894892
-0.75497305 -0.37501493 2.3759608 2039583
1.3193455 -0.37500358 2.3748152 2894892
-0.75512576 -0.32457712 2.3763592 2039583
1.3192942 -0.32491955 2.3747518 2894892
-0.75536686 -0.27476123 2.3771987 2039583
1.3192638 -0.2749418 2.3745875 2894892
-0.75551534 -0.22524683 2.3775847 2039583
1.3192025 -0.22501926 2.3745658 2894892
-0.7557568 -0.17538711 2.3784263 2039583
1.3191558 -0.17504919 2.3744817 2894892
-0.75595438 -0.12516677 2.3790491 2039583
1.3191143 -0.12497912 2.3743715 2894892
-0.7561512 -0.0749202 2.3796678 2039583
1.3190378 -0.074858889 2.374429 2894892
-0.75630158 -0.024984609 2.3800609 2039583
1.3190428 -0.024905803 2.3740864 2894892
-0.75649816 0.024993252 2.3806782 2039583
1.3189987 0.024956683 2.373987 2894892
-0.75674039 0.074980713 2.3815212 2039583
1.3188868 0.074953899 2.3742228 6184542
-0.75626409 0.10570128 2.3820896 2039583
-0.72497165 0.10963518 2.3841004 2039583
-0.67510855 0.10971799 2.3859015 2039583
-0.62516952 0.10980094 2.3877046 2039583
-0.57419097 0.10988905 2.3879924 2039583
-0.52501267 0.1100111 2.37151 2039583
-0.4752771 0.11009548 2.3724995 2039583
-0.42496866 0.11017822 2.3746979 4013373
-0.37459618 0.11026277 2.3761048 10132122
-0.32847059 0.11034169 2.3767393 10197915
-0.2152708 0.11057155 2.3619056 10197915
-0.19575915 0.11060397 2.3625982 10197915
-0.057868268 0.1108332 2.3674943 10197915
-0.024529876 0.11088862 2.3686783 10197915
0.024553938 0.11097019 2.3704214 10197915
0.074694142 0.11105355 2.3722014 4877458
0.12490923 0.11113703 2.3739843 5533327
0.17520036 0.11122061 2.3757703 5138818
0.20876667 0.11127641 2.3769619 2514577
0.29877964 0.11142606 2.3801589 10066329
0.32454517 0.11146888 2.3810732 10066329
0.37513715 0.11155295 2.38287 10066329
0.42580512 0.11163719 2.3846691 10066329
0.47555411 0.11171991 2.3864353 10066329
0.52537692 0.11180272 2.3882046 10066329
0.57879168 0.11192577 2.3745978 10066329
0.6130808 0.11198365 2.375422 7504016
0.78426456 0.1122859 2.373491 10197915
0.82485121 0.11234637 2.3781066 10197915
0.87225932 0.11245538 2.3661263 10197915
0.92491263 0.11255513 2.3624635 10197915
0.97456437 0.11263775 2.3641973 10197915
1.0242889 0.11272045 2.3659334 6517118
1.0740867 0.11280332 2.3676722 1589093
1.1249561 0.11288795 2.3694484 2118282
1.1759013 0.11297267 2.3712275 3432330
1.2259223 0.11305592 2.3729739 10197915
1.275014 0.11313758 2.3746884 10197915
1.3182447 0.10706253 2.3738103 10197915
1.3092881 -0.56840855 2.4253478 11711154
1.3092394 -0.52497411 2.425313 11711154
1.3091866 -0.47492984 2.4252536 4868682
1.3091383 -0.42499384 2.4251735 2894892
1.3090893 -0.37506193 2.4250982 2894892
1.3090537 -0.32497576 2.4249613 2894892
1.308996 -0.27494442 2.424932 2894892
1.3089738 -0.22502415 2.4247179 2894892
1.3089012 -0.17494863 2.4247575 2894892
1.3088541 -0.12487452 2.4246774 2894892
1.3088377 -0.07507284 2.4244382 2894892
1.3087499 -0.025111755 2.4245543 2894892
1.308702 0.025110556 2.4244683 2894892
1.3086904 0.075117461 2.4242079 6381921
-0.75837642 0.10948752 2.4245756 2039583
-0.72459257 0.10954359 2.4258173 2039583
-0.6748513 0.10962614 2.4276452 2039583
-0.62503505 0.10970882 2.429476 2039583
-0.57514364 0.10979161 2.4313095 2039583
-0.52517694 0.10987452 2.4331458 2039583
-0.47513467 0.10995758 2.4349849 2039583
-0.42501658 0.11004076 2.4368267 4605510
-0.37482274 0.11012405 2.4386716 10132122
-0.3326028 0.11019411 2.4402227 10197915
-0.21839918 0.11042885 2.4239757 10197915
-0.19793861 0.11047956 2.4171476 10197915
-0.059776388 0.11073071 2.4123378 10197915
-0.024951367 0.11079788 2.4093838 10197915
0.024976265 0.11088079 2.4111874 10197915
0.074978679 0.11096386 2.412993 4351373
0.12505607 0.11104702 2.4148023 5139086
0.17520857 0.11113031 2.4166138 5532802
0.21035747 0.11118869 2.4178829 2514577
0.32611817 0.11138096 2.4220641 10066329
0.37455371 0.11146144 2.4238138 10066329
0.42508137 0.11154536 2.4256387 10066329
0.47568515 0.11162939 2.4274664 10066329
0.52535075 0.1117119 2.42926 10066329
0.57509023 0.11179449 2.4310567 10066329
0.6208328 0.11187048 2.4327087 3955067
0.79522568 0.11216015 2.4390075 10197915
0.82489389 0.11220941 2.4400792 10197915
0.87651634 0.11233682 2.4231021 10197915
0.92496824 0.11242221 2.4226224 10197915
0.97487837 0.11250514 2.4244092 10197915
1.02536 0.11258808 2.4266386 9737879
1.0754147 0.11267129 2.4284317 2507358
1.1250032 0.11279947 2.4094961 2250378
1.1747769 0.1128822 2.4112632 2052744
1.2246244 0.11296508 2.4130335 7898772
1.2745447 0.11304805 2.4148054 10197915
1.3085023 0.10686541 2.4237545 10197915
1.2971315 -0.5686813 2.4849496 11711154
1.3020085 -0.56863517 2.4610381 11711154
1.2971017 -0.52511853 2.4848197 11711154
1.3019668 -0.52492291 2.4609668 11711154
1.2970464 -0.47496676 2.4847724 5329233
1.3019234 -0.47480303 2.4608622 5131854
1.2970095 -0.42492357 2.4846361 2894892
1.3018738 -0.42497608 2.4607909 2894892
1.296947 -0.37508851 2.4846289 2894892
1.3018205 -0.37500975 2.4607348 2894892
1.2969211 -0.32494903 2.4844415 2894892
1.3017871 -0.32489789 2.4605815 2894892
1.2968588 -0.27491507 2.4844329 2894892
1.3017209 -0.27493861 2.460592 2894892
1.2969704 -0.22449829 2.483567 2894892
1.3019705 -0.22496739 2.4590528 2894892
1.2967801 -0.17513312 2.484184 2894892
1.3019071 -0.17487638 2.4590497 2894892
1.2966976 -0.12512614 2.4842751 2894892
1.3018911 -0.12496374 2.4588113 2894892
1.2967021 -0.074786447 2.4839308 2894892
1.3018191 -0.075205661 2.4588463 2894892
1.2966253 -0.024698298 2.4839971 2894892
1.3017918 -0.025300505 2.4586647 2894892
1.2965796 0.024697132 2.4839067 2894892
1.3017454 0.025299277 2.4585752 2894892
1.2965641 0.074778184 2.4836648 6447714
1.3016797 0.075197309 2.4585822 6447714
-0.76565892 0.10938 2.4674692 2039583
-0.72521138 0.10944707 2.4689822 2039583
-0.67458498 0.10953102 2.4708757 2039583
-0.62489581 0.10961342 2.4727347 2039583
-0.57513136 0.10969593 2.474596 2039583
-0.52529246 0.10977855 2.4764605 2039583
-0.47537795 0.10986134 2.4783273 2039583
-0.4253886 0.1099442 2.4801974 5000268
-0.37532318 0.11002722 2.4820695 10132122
-0.33542368 0.11009339 2.4835625 10197915
-0.22262006 0.11028043 2.487782 10197915
-0.059458502 0.11059383 2.4744961 10197915
-0.02510288 0.11065718 2.4729013 10197915
0.02512808 0.11074048 2.4747632 10197915
0.074907608 0.11082206 2.4770548 4088201
0.12345167 0.1109438 2.4602222 4679308
0.17521711 0.11103687 2.4588854 5992322
0.21200414 0.11109792 2.4602375 2514321
0.32877207 0.11129171 2.4645288 10066329
0.37497762 0.11136838 2.4662268 10066329
0.42536107 0.11145201 2.4680784 10066329
0.47479007 0.11153403 2.4698951 10066329
0.52429193 0.11161619 2.471714 10066329
0.57490057 0.11170016 2.4735744 10066329
0.62558478 0.11178428 2.4754364 4151671
0.65147078 0.11182727 2.4763887 2642569
0.82700539 0.11211856 2.4828389 10197915
0.87494248 0.11219808 2.4846003 10197915
0.92503554 0.11228123 2.4864419 10197915
0.9752031 0.1123645 2.4882853 10197915
1.025445 0.11244788 2.4901319 10197915
1.0757617 0.11253136 2.4919808 7108739
1.1250767 0.11266162 2.4719014 1655401
1.1745816 0.1127428 2.4741611 2118538
1.2246854 0.11282599 2.475987 3301003
1.2878616 0.10898533 2.4810193 10000794
1.3017255 0.10645963 2.4581587 10197915
1.2892005 -0.56848985 2.5238328 11382704
1.289166 -0.52492923 2.5237257 11514033
1.2891108 -0.47484812 2.523679 5526870
-0.53261572 -0.42077929 2.5488727 6513507
1.2890818 -0.42495549 2.5235078 2829356
-0.53326005 -0.37486616 2.5488594 3947580
1.2890164 -0.37506711 2.5235138 2894892
-0.53328544 -0.32525164 2.548981 2039583
1.2887385 -0.32471979 2.5245559 2829615
-0.53331155 -0.27457646 2.5491059 2039583
1.2886333 -0.27491555 2.5247557 2829615
-0.53429562 -0.22518481 2.5490308 2039583
1.2884854 -0.225319 2.5251675 2829615
-0.53437573 -0.17530894 2.5491431 2039583
1.2882334 -0.17495103 2.5260882 2829358
-0.53440195 -0.12462326 2.5492675 2039583
1.2882007 -0.12502158 2.5259323 2829614
-0.53492689 -0.076724023 2.5492837 2039583
1.2881677 -0.075161152 2.5257759 2829357
-0.53546613 -0.025347309 2.5493045 2039583
1.2880906 -0.02511435 2.5258391 2829357
-0.53549236 0.025348967 2.5494299 2039583
1.2880445 0.025113141 2.5257475 2829356
-0.53567535 0.073507205 2.5495162 2039583
1.2880293 0.07515274 2.525506 6645093
-0.77217424 0.10927033 2.5119472 2039583
-0.72482306 0.10934874 2.5137501 2039583
-0.67534089 0.10943075 2.5156348 2039583
-0.62578452 0.10951284 2.5175221 2039583
-0.57511866 0.10959677 2.5194516 2039583
-0.52795529 0.10817563 2.5296292 2039583
-0.47459242 0.10976329 2.5232801 2039583
-0.42473426 0.10984591 2.5251787 5329233
-0.37480107 0.1099286 2.5270805 10132122
-0.33834645 0.10998899 2.5284688 10197915
-0.22664158 0.11017404 2.5327225 10197915
-0.061009072 0.11044844 2.5390306 10197915
-0.025255715 0.11050767 2.5403919 10197915
0.025281219 0.11059141 2.5423169 10197915
0.074839279 0.11067349 2.5442033 3956358
0.12539513 0.11080516 2.5244489 3890311
0.17471117 0.11088911 2.5253255 6845827
0.21354678 0.11095731 2.5250456 2448784
0.3315208 0.11119925 2.5085089 10066329
0.37437046 0.11127028 2.510112 10066329
0.4246037 0.1113536 2.511991 10066329
0.4749122 0.111437 2.5138726 10066329
0.52529621 0.11152056 2.5157571 10066329
0.57575566 0.11160421 2.5176446 10066329
0.62523723 0.11168627 2.5194952 5925242
0.6568566 0.11173868 2.5206778 2117254
0.83449173 0.11203322 2.5273221 10197915
0.87480253 0.11210007 2.5288305 10197915
0.92472523 0.11218283 2.5306976 10197915
0.97472125 0.11226573 2.5325675 10197915
1.0247918 0.11234877 2.5344403 10197915
1.0749359 0.11243191 2.5363162 10197915
1.1251549 0.11251517 2.5381944 1915737
1.1754479 0.11259856 2.5400763 2118273
1.224743 0.1126803 2.5419197 2052489
1.2850652 0.10726669 2.5281541 9212568
1.2788641 -0.56868702 2.5745096 3105171
1.2788061 -0.52500337 2.5745196 3236756
1.2787769 -0.47492114 2.5743449 3368341
-0.51333773 -0.41951683 2.552808 6513507
-0.47522926 -0.42017087 2.5605788 6513507
-0.42507452 -0.42027527 2.5708077 4473924
-0.37440014 -0.42012164 2.5811443 6513507
-0.34512267 -0.42014965 2.5871153 6513507
1.2787329 -0.4249039 2.5742433 3368341
-0.51383585 -0.37483314 2.5528207 5460819
-0.47550902 -0.37506226 2.5606375 6513507
-0.42490295 -0.37500343 2.57096 4473924
-0.37405059 -0.37504238 2.5813301 6513507
-0.3451378 -0.37514988 2.5872276 6513507
1.2786889 -0.37501535 2.5741448 3104915
-0.51415688 -0.32515591 2.5528822 2039583
-0.47505942 -0.32494491 2.5608568 4013373
-0.42515996 -0.32509038 2.5710351 4473924
-0.37446553 -0.3248471 2.5813742 6513507
-0.34515449 -0.32478839 2.5873542 6513507
1.2783691 -0.32518584 2.5753987 3039636
-0.5140329 -0.27499989 2.5530365 2039583
-0.4755137 -0.27510348 2.5608935 2039583
-0.42485803 -0.2749927 2.5712249 2500134
-0.37435099 -0.27490637 2.581527 6513507
-0.34517094 -0.27549377 2.5874772 6513507
1.278284 -0.27488932 2.5754986 2907794
-0.5149036 -0.22492515 2.5529871 2039583
-0.47531906 -0.2249355 2.5610604 2039583
-0.42517281 -0.22494476 2.5712886 2171169
-0.37406066 -0.2251329 2.5817134 6513507
-0.341497 -0.22281852 2.5883605 6513507
1.2782329 -0.22493108 2.5754349 2446732
-0.51522332 -0.17530406 2.5530491 2039583
-0.4753418 -0.17507601 2.5611837 2039583
-0.42489868 -0.17487824 2.5714724 2171169
-0.37460917 -0.17488693 2.5817297 6513507
-0.34102699 -0.17480385 2.5885792 6513507
1.2781835 -0.17504451 2.5753584 2314890
-0.51512271 -0.12481549 2.5531988 2039583
-0.47536483 -0.12521182 2.561307 2039583
-0.42521366 -0.12482288 2.5715375 2171169
-0.37436196 -0.12514931 2.5819073 6513507
-0.34104294 -0.12547863 2.5887043 6513507
1.2781627 -0.12516026 2.5751452 2645391
-0.51573706 -0.074717194 2.5532022 2039583
-0.47538739 -0.075342909 2.5614316 2039583
-0.42497098 -0.074702814 2.5717146 2171169
-0.37438023 -0.074879229 2.5820329 6513507
-0.34105977 -0.075076275 2.5888281 6513507
1.2780429 -0.07501021 2.5754163 2645647
-0.51618719 -0.025386408 2.5532374 2039583
-0.47541061 -0.025469117 2.5615537 2039583
-0.42522314 -0.024637928 2.5717931 2171169
-0.37439829 -0.02460422 2.5821579 6513507
-0.34107634 -0.024668979 2.5889547 6513507
1.2780836 -0.024943752 2.574899 2514319
-0.51621276 0.025388075 2.5533621 2039583
-0.47543377 0.025470775 2.5616798 2039583
-0.42524332 0.024639502 2.5719149 2171169
-0.37441629 0.02460579 2.5822821 6513507
-0.34109259 0.024670552 2.5890777 6513507
1.2780379 0.024942556 2.5748072 2381963
-0.51646894 0.07536304 2.5534387 2039583
-0.47545701 0.075354233 2.5618029 2039583
-0.4250325 0.074714094 2.5720873 2302755
-0.37443444 0.07489039 2.5824068 9079434
-0.34155348 0.074236885 2.5891111 9079434
1.2779056 0.075001843 2.5751402 2052487
-0.80510652 0.10911313 2.5570393 2039583
-0.77578658 0.10916167 2.558177 2039583
-0.72546816 0.10924495 2.5601285 2039583
-0.67507273 0.10932836 2.562083 2039583
-0.62460059 0.1094119 2.5640409 2039583
-0.57510531 0.10949381 2.5659602 2039583
-0.51858723 0.1049409 2.553967 2039583
-0.47547039 0.10507414 2.5618773 2039583
-0.42532414 0.10544971 2.5718818 4342338
-0.37461984 0.10584436 2.5807273 10132122
-0.34198901 0.10617535 2.5859461 10197915
-0.25103974 0.11003018 2.5785301 10197915
-0.22974609 0.11006541 2.5793557 10197915
-0.061063781 0.11034457 2.5858977 10197915
-0.024650479 0.11040486 2.5873103 10197915
0.024674771 0.11048648 2.5892234 10197915
0.075147964 0.11057001 2.5911806 4087430
0.12569703 0.11065367 2.5931416 3167364
0.17524496 0.11073568 2.5950634 7568517
0.22001827 0.1108254 2.5897384 2382734
0.33436948 0.11110343 2.5540874 10066329
0.37480631 0.11117041 2.5556273 10066329
0.42488489 0.11125337 2.5575345 10066329
0.4750388 0.11133646 2.5594447 10066329
0.52526712 0.11141969 2.5613575 10066329
0.57449985 0.11150121 2.5632322 10066329
0.62487739 0.11158469 2.5651507 7831431
0.663513 0.11164868 2.566622 1721204
0.84225166 0.11194479 2.5734291 10197915
0.87573838 0.11200023 2.5747046 10197915
0.92548567 0.11208267 2.5765989 10197915
0.97530621 0.11216519 2.5784957 10197915
1.0252001 0.11224786 2.5803959 10197915
1.0751679 0.11233065 2.582299 10197915
1.1252087 0.11241353 2.5842044 5465206
1.1753241 0.11249655 2.5861132 1589351
1.2255136 0.11257969 2.5880244 2184588
1.2763865 0.10706031 2.5760753 2184328
1.2683896 -0.56873107 2.6258633 7311021
1.2683589 -0.5250653 2.6257365 7114413
1.2683208 -0.47494116 2.6256044 6653865
1.2682729 -0.42488873 2.6255286 6259624
1.2682401 -0.37497714 2.6253741 5799591
1.2681936 -0.32500041 2.6252835 5011106
1.2681248 -0.27502689 2.6253068 4485535
-0.25268114 -0.22028607 2.6064823 6513507
-0.23016174 -0.21992128 2.6110764 6513507
-0.062517889 -0.21928521 2.6452701 6513507
-0.044992033 -0.21947679 2.6488447 6513507
1.2680932 -0.22498846 2.625145 3828122
-0.25269219 -0.17494059 2.6065962 6513507
-0.23059227 -0.17451274 2.6111045 6513507
-0.062465824 -0.17425686 2.6453967 6513507
-0.044993978 -0.17449157 2.6489604 6513507
1.2680615 -0.17502257 2.6249857 3302295
-0.25270453 -0.12419225 2.606724 6513507
-0.23041648 -0.12440883 2.6112697 6513507
-0.062468793 -0.12494475 2.6455228 6513507
-0.04529345 -0.12622923 2.6490223 6513507
1.2680379 -0.12506269 2.6247852 3039894
-0.25271669 -0.074518844 2.6068487 6513507
-0.23042737 -0.07464879 2.6113944 6513507
-0.062471759 -0.075627975 2.645649 6513507
-0.046092208 -0.075723462 2.6489892 6513507
1.2679439 -0.075036094 2.6249311 2776723
-0.25272885 -0.024840677 2.6069739 6513507
-0.23043868 -0.024883993 2.6115217 6513507
-0.062474798 -0.025210427 2.6457772 6513507
-0.046094455 -0.025242249 2.6491187 6513507
1.2678976 -0.025011236 2.6248367 2777750
-0.25274095 0.024842268 2.6070993 6513507
-0.23044953 0.024885586 2.6116457 6513507
-0.062477842 0.025212051 2.645906 6513507
-0.046096705 0.025243886 2.6492474 6513507
1.2678528 0.025010061 2.6247447 2514065
-0.25275302 0.074529968 2.6072237 9079434
-0.23046067 0.074659966 2.6117706 9079434
-0.062480878 0.075639457 2.646035 6710886
-0.047010448 0.074814685 2.649188 6710886
1.2678072 0.075027771 2.6246498 2316686
-0.81260115 0.10899441 2.6048365 2039583
-0.77526712 0.10905614 2.6063116 2039583
-0.72506994 0.10913914 2.6082954 2039583
-0.67479563 0.10922226 2.6102817 2039583
-0.62444532 0.10930552 2.6122715 2039583
-0.57616556 0.10938535 2.6141794 2039583
-0.25276041 0.1047768 2.6073 10197915
-0.23109183 0.10488375 2.6117196 10197915
-0.062428385 0.10623919 2.643786 10197915
-0.032684255 0.10860542 2.6405058 10197915
0.025139092 0.11037956 2.6379399 10197915
0.075467817 0.11046278 2.6399288 4153221
0.12477568 0.1105443 2.6418772 2444931
0.17415687 0.11062595 2.6438286 8291723
0.22031064 0.11070226 2.6456521 2250631
0.33732331 0.11100392 2.6013491 10066329
0.37417316 0.1110649 2.6027787 10066329
0.42409027 0.1111475 2.6047144 10066329
0.47408155 0.11123028 2.6066539 10066329
0.52414739 0.11131313 2.6085958 10066329
0.57428789 0.11139613 2.6105404 10066329
0.62450325 0.11147923 2.612488 9934744
0.66932225 0.1115534 2.6142263 1719913
0.87450665 0.11189299 2.6221845 10197915
0.9251709 0.11197684 2.6241498 10197915
0.9748072 0.11205899 2.6260748 10197915
1.0245169 0.11214126 2.6280026 10197915
1.0754067 0.1122255 2.6299767 10197915
1.1252637 0.112308 2.6319103 9277587
1.1751946 0.11239064 2.633847 1258324
1.2251987 0.11247341 2.6357865 2250632
1.2672065 0.10672845 2.6247015 2052746
1.2582029 -0.56876022 2.6758082 5207970
1.2581766 -0.52499235 2.6756623 5076642
1.2581053 -0.4748717 2.6756923 5142692
1.2580764 -0.42490128 2.6755192 4814243
1.2580492 -0.37508145 2.6753366 4354465
