# .PCD v0.7 - Point Cloud Data file format
VERSION 0.7
FIELDS x y z rgb
SIZE 4 4 4 4
TYPE F F F U
COUNT 1 1 1 1
WIDTH 1165
HEIGHT 1
VIEWPOINT 0 0 0 1 0 0 0
POINTS 1165
DATA ascii
-1.7249283 0.10310737 2.9279819 10197915
-1.6752571 0.10303664 2.9259729 10197915
-1.6256539 0.10296597 2.9239666 10197915
-1.5748816 0.10289367 2.9219136 10197915
-1.5241798 0.10282147 2.9198632 10197915
-1.4747835 0.10275112 2.9178658 10197915
-1.4254547 0.10268086 2.9158702 10197915
-1.3749632 0.10260896 2.9138286 10197915
-1.3245414 0.10253716 2.9117894 10197915
-1.2754179 0.10246719 2.909802 10197915
-1.225136 0.10239558 2.9077687 10197915
-1.1749238 0.10232408 2.9057381 10197915
-1.1247823 0.10225265 2.9037101 10197915
-1.0747101 0.10218134 2.9016852 10197915
-1.0417717 0.10213443 2.9003537 10197915
-0.77845919 0.10143188 2.9498098 10197915
-0.78704488 -1.3125579 2.963733 11711154
-0.78807914 -1.2749349 2.9676273 11711154
-0.78944016 -1.2254105 2.9727523 11711154
-0.7908048 -1.1757132 2.9778912 11382189
-0.79217422 -1.1258439 2.9830477 5592405
-0.79354829 -1.0758013 2.9882226 2894892
-0.79492724 -1.0255848 2.9934144 2894892
-0.79614592 -0.98120511 2.9980044 2894892
-0.78120995 -0.66139859 2.9509685 6513507
-2.3542643 -0.62329614 2.9674554 10000536
-2.324271 -0.62314749 2.9763882 10000536
-2.275126 -0.62318915 2.9910243 10000536
-2.2477317 -0.62250608 2.9991872 9934743
-0.78216726 -0.62548161 2.9545836 6513507
-2.354408 -0.57538527 2.9676359 6513507
-2.3246386 -0.57504064 2.9765038 6513507
-2.2752371 -0.57505286 2.9912179 6513507
-2.2481761 -0.5763579 2.99927 6513507
-0.78351104 -0.57505786 2.9596601 6513507
-2.354558 -0.52501112 2.9678254 6513507
-2.3244581 -0.52501017 2.9767911 6513507
-2.2744238 -0.52476954 2.9916935 6513507
-2.2483416 -0.52770495 2.9994476 6513507
-0.78485942 -0.52446049 2.9647536 6513507
-2.3547087 -0.47463062 2.9680152 6513507
-2.3247046 -0.4750191 2.9769506 6513507
-2.2744391 -0.47497925 2.9919221 6513507
-2.2481539 -0.47473431 2.9997504 6513507
-0.78618026 -0.47490031 2.9697433 6513507
-2.3548558 -0.42547256 2.9682009 6513507
-2.3251195 -0.4249264 2.9770596 6513507
-2.2746627 -0.42497969 2.9920871 6513507
-2.2482815 -0.43001938 2.9999206 6513507
-0.78750557 -0.42517158 2.9747496 6513507
-2.3550067 -0.37507927 2.9683907 6513507
-2.3251464 -0.37507239 2.9772842 6513507
-2.2749918 -0.3748281 2.9922237 6513507
-0.78883529 -0.37527636 2.9797726 6513507
-2.3551569 -0.32467952 2.968581 6513507
-2.3249183 -0.32520556 2.9775841 6513507
-2.2749603 -0.324864 2.9924648 6513507
-0.79016948 -0.32521099 2.9848125 6118749
-2.3553045 -0.27550286 2.9687667 6513507
-2.3254685 -0.27485204 2.9776554 6513507
-2.2750561 -0.27524126 2.992667 6513507
-0.79150832 -0.2749773 2.9898696 2894892
-2.3554554 -0.22509034 2.9689567 6513507
-2.3256655 -0.22473462 2.9778306 6513507
-2.2761199 -0.22553346 2.9925838 6513507
-0.79281884 -0.22580388 2.9948196 2894892
-2.3556058 -0.1746714 2.9691467 6513507
-2.325645 -0.17519628 2.9780674 6513507
-2.2761531 -0.17527694 2.992806 6513507
-0.79383749 -0.18758704 2.9986672 2894892
-2.3557532 -0.12547594 2.9693327 6513507
-2.3254983 -0.12534796 2.9783435 6513507
-2.2767978 -0.1245726 2.992852 6513507
-2.3558481 -0.07481239 2.9695401 6513507
-2.3261867 -0.07483498 2.9783735 6513507
-2.2775033 -0.074531421 2.9928758 6513507
-2.3550596 -0.024608526 2.9700091 6513507
-2.3244793 -0.024442589 2.9791164 6513507
-2.2772086 -0.025065741 2.9931929 6513507
-2.3552063 0.024610583 2.9701955 6513507
-2.3242326 0.024687026 2.9794185 6513507
-2.2769401 0.024803732 2.9935052 6513507
-2.3553574 0.075066581 2.9703846 6513507
-2.3246851 0.074719138 2.9795184 6513507
-2.2777286 0.074145667 2.9935002 6513507
-2.3554382 0.10214289 2.9704869 10197915
-2.3218811 0.10246853 2.9712269 9605778
-2.279711 0.10221642 2.9833622 9079434
-1.9670278 0.10313531 2.9993479 10197915
-1.9249067 0.10307549 2.9976087 10197915
-1.8751885 0.10300491 2.9955554 10197915
-1.8255389 0.10293442 2.993506 10197915
-1.7746859 0.10286222 2.991406 10197915
-1.7251731 0.10279192 2.9893615 10197915
-1.6757281 0.10272171 2.9873199 10197915
-1.6250855 0.10264982 2.9852293 10197915
-1.5745134 0.102578 2.9831409 10197915
-1.5240123 0.10250632 2.9810557 10197915
-1.4748411 0.10243649 2.9790254 10197915
-1.4257375 0.10236677 2.9769979 10197915
-1.3754443 0.10229536 2.9749212 10197915
-1.3252208 0.10222405 2.9728475 10197915
-1.2750673 0.10215285 2.9707766 10197915
-1.2249838 0.10208175 2.9687085 10197915
-1.1749698 0.10201073 2.9666438 10197915
-1.1250255 0.10193982 2.9645817 10197915
-1.0751504 0.10186901 2.9625223 10197915
-1.0253447 0.1017983 2.9604652 10197915
-0.97560805 0.10172768 2.9584117 10197915
-0.92594033 0.10165715 2.9563611 10197915
-0.87510264 0.10158498 2.954262 10197915
-0.82433641 0.10151291 2.9521661 10197915
-0.78970611 0.10146374 2.9507363 10197915
-0.8102994 -1.3559595 3.0418105 11711154
-0.81115294 -1.3258426 3.0450149 11711154
-0.81217968 -1.2896339 3.0488689 11711154
-0.79683912 -0.95595801 3.0006146 2894892
-0.79769945 -0.92462695 3.0038543 2631720
-0.79905963 -0.87509423 3.0089762 2039583
-0.80055761 -0.82053548 3.0146177 4605510
-0.7998578 -0.84602714 3.011982 2039583
-0.80179387 -0.77551919 3.0192726 6513507
-0.80316818 -0.72547489 3.0244474 6513507
-0.80454701 -0.67526019 3.0296395 6513507
-2.2223754 -0.62322879 3.0067341 10000536
-2.1750836 -0.62329346 3.0208185 9934743
-2.1252494 -0.62346733 3.035661 9934743
-2.0887833 -0.62337637 3.0465229 10000536
-0.80593073 -0.62487149 3.0348504 6513507
-2.2227538 -0.57468873 3.0068491 6513507
-2.175221 -0.57493746 3.0210035 6513507
-2.1255105 -0.57497817 3.0358105 6513507
-2.0890388 -0.57534242 3.0466704 6513507
-0.80731899 -0.57431042 3.0400786 6513507
-2.2235293 -0.52497965 3.0068495 6513507
-2.1753633 -0.52501243 3.0211926 6513507
-2.1256859 -0.52496517 3.035991 6513507
-2.0896356 -0.52568239 3.0467238 6513507
-0.80867815 -0.52481377 3.0451968 6513507
-2.2236612 -0.47501898 3.00704 6513507
-2.1755064 -0.47508165 3.0213852 6513507
-2.1259015 -0.47505182 3.0361593 6513507
-2.0902689 -0.47460261 3.0467734 6513507
-0.8096664 -0.48882988 3.0489173 6513507
-2.2240312 -0.42482796 3.0071731 6513507
-2.175648 -0.42514393 3.0215814 6513507
-2.1259909 -0.42507949 3.0363655 6513507
-2.0902894 -0.42450976 3.0470009 6513507
-2.2249944 -0.37498733 3.0071135 6513507
-2.1757767 -0.37520033 3.0217683 6513507
-2.1257665 -0.37478226 3.0366664 6513507
-2.0907528 -0.37628987 3.0470865 6513507
-2.225168 -0.32491651 3.0072978 6513507
-2.1749961 -0.32539541 3.0222347 6513507
-2.1240857 -0.32465628 3.0374022 6513507
-2.0906644 -0.32571965 3.0473495 6513507
-2.2254145 -0.27468643 3.0074563 6513507
-2.1749966 -0.27547756 3.022465 6513507
-2.1240821 -0.27449328 3.0376348 6513507
-2.0907989 -0.27523807 3.0475447 6513507
-2.2508998 -0.22496539 3.000097 6513507
-2.2255526 -0.22444786 3.0076439 6513507
-2.1751347 -0.22540489 3.0226622 6513507
-2.1241975 -0.22463989 3.0378339 6513507
-2.0910254 -0.22503589 3.0477121 6513507
-2.251045 -0.17401758 3.0002906 6513507
-2.2251418 -0.17421928 3.0080049 6513507
-2.1748712 -0.17557664 3.0229712 6513507
-2.1245766 -0.17515624 3.0379512 6513507
-2.0921161 -0.1742377 3.0476232 6513507
-0.79452884 -0.16163951 3.0012794 2894892
-2.2511873 -0.12430605 3.0004804 6513507
-2.224679 -0.1246331 3.0083728 6513507
-2.174382 -0.12525353 3.0233498 6513507
-2.1248307 -0.12561259 3.0381067 6513507
-2.0922468 -0.12500437 3.0478137 6513507
-0.79551899 -0.12448748 3.0050197 2894892
-2.2522678 -0.072868325 3.0003979 6513507
-2.2248194 -0.07478445 3.0085649 6513507
-2.17452 -0.075156815 3.0235426 6513507
-2.1247566 -0.07552515 3.0383632 6513507
-2.0923772 -0.075764827 3.0480049 6513507
-0.79684281 -0.074814029 3.01002 2894892
-2.2524874 -0.02486163 3.0005565 6513507
-2.2249596 -0.024929561 3.0087545 6513507
-2.1746576 -0.025053659 3.0237336 6513507
-2.1248922 -0.025176479 3.0385556 6513507
-2.0934391 -0.025626954 3.0479224 6513507
-0.79817104 -0.024974957 3.0150373 2894892
-2.2526298 0.024863724 3.000746 6513507
-2.2251003 0.02493166 3.0089478 6513507
-2.1747963 0.025055813 3.0239282 6513507
-2.1250277 0.02517863 3.0387506 6513507
-2.0936952 0.025255956 3.048084 6513507
-0.80007124 0.046326641 3.0222156 2894892
-0.79940349 0.0212724 3.0196931 2894892
-2.2535253 0.076724015 3.0007205 6513507
-2.2252424 0.074799247 3.0091324 6513507
-2.1749349 0.07517159 3.0241187 6513507
-2.1251647 0.075540155 3.038945 6513507
-2.0938292 0.075772181 3.0482783 6513507
-0.80084085 0.075203285 3.0251224 9868950
-2.2538662 0.10193989 3.0007372 8816262
-2.2258203 0.1021443 3.0082943 9211020
-2.1747935 0.10234427 3.0170164 9474192
-2.1248846 0.102608 3.023957 9737364
-2.0791335 0.1030497 3.0144873 10197915
-2.0245481 0.10321698 3.0017231 10197915
-1.9913009 0.10316976 3.0003502 10197915
-1.6231971 0.10231811 3.0490544 10197915
-1.5754182 0.1022505 3.047039 10197915
-1.5251238 0.10217933 3.0449181 10197915
-1.4748998 0.10210824 3.0427995 10197915
-1.4247453 0.10203726 3.0406847 10197915
-1.3746607 0.1019664 3.0385723 10197915
-1.3246454 0.10189559 3.0364633 10197915
-1.2746999 0.10182492 3.0343566 10197915
-1.2248234 0.10175432 3.0322533 10197915
-1.1750162 0.10168383 3.0301526 10197915
-1.1252775 0.10161345 3.028055 10197915
-1.0756083 0.10154315 3.0259602 10197915
-1.0247363 0.10147116 3.0238147 10197915
-0.97520536 0.10140105 3.0217254 10197915
-0.92574346 0.10133106 3.0196395 10197915
-0.87508374 0.10125935 3.017503 10197915
-0.82449579 0.10118775 3.0153692 10197915
-0.79796302 0.10115024 3.0142517 10197915
-0.81289911 -1.2642263 3.0515697 11711154
-0.81399786 -1.2254206 3.0556946 11711154
-0.8154099 -1.1755521 3.0609949 11711154
-0.81682682 -1.1255115 3.066314 9671571
-0.81824857 -1.0752954 3.0716512 3618615
-0.81967533 -1.0249056 3.0770071 2894892
-0.8210721 -0.97557449 3.0822506 2894892
-0.82250869 -0.92483449 3.0876436 2829099
-0.82395041 -0.87391824 3.0930552 2236962
-0.82522035 -0.82906568 3.0978227 6118749
-2.063736 -0.62347692 3.053982 9934743
-2.0248339 -0.62333769 3.0655684 9934743
-1.974923 -0.62385738 3.080431 10000536
-1.9294219 -0.62364602 3.0939829 9934743
-2.0636103 -0.57474357 3.0542464 6513507
-2.0245147 -0.57505953 3.0658896 6513507
-1.9742588 -0.57501674 3.0808558 6513507
-1.9298691 -0.57518339 3.0940759 6513507
-2.0644338 -0.52450413 3.0542352 6513507
-2.0248682 -0.52502739 3.0660176 6513507
-1.9747611 -0.52499479 3.0809398 6513507
-1.9307154 -0.52499652 3.0940576 6513507
-2.0652192 -0.47532672 3.0542305 6513507
-2.0249333 -0.47499061 3.0662301 6513507
-1.9746491 -0.47496653 3.0812068 6513507
-1.9303423 -0.47495401 3.0944014 6513507
-0.81034929 -0.46395761 3.0514894 6513507
-2.0651784 -0.42518526 3.0544767 6513507
-2.0247653 -0.42494333 3.066514 6513507
-1.9748151 -0.42504367 3.081389 6513507
-1.9315101 -0.42533222 3.0942855 6513507
-0.81141031 -0.42531872 3.0554845 6513507
-2.0656977 -0.37417737 3.0545588 6513507
-2.025245 -0.3751078 3.0666032 6513507
-1.9752122 -0.3750079 3.0815039 6513507
-1.9316841 -0.37500578 3.0944695 6513507
-0.81278324 -0.37531871 3.0606549 6513507
-2.0662982 -0.32470807 3.054611 6513507
-2.0254171 -0.32505274 3.0667841 6513507
-1.9747809 -0.32489547 3.0818665 6513507
-1.9322753 -0.32504648 3.0945258 6513507
-0.81416094 -0.32514915 3.0658426 6447714
-2.0668168 -0.27539188 3.0546861 6513507
-2.025126 -0.27476868 3.0671067 6513507
-1.9755366 -0.2751343 3.0818746 6513507
-1.932191 -0.27526578 3.0947828 6513507
-0.81554329 -0.27480924 3.0710478 3092271
-2.0668674 -0.22512788 3.0549066 6513507
-2.0257437 -0.22524039 3.0671527 6513507
-1.9753468 -0.22473484 3.0821652 6513507
-1.9335926 -0.2250164 3.0946009 6513507
-0.81693029 -0.22429816 3.0762708 2894892
-2.0672932 -0.17429377 3.0550163 6513507
-2.0249977 -0.17564012 3.0676074 6513507
-1.9754719 -0.17494664 3.0823603 6513507
-1.9332757 -0.17492211 3.0949271 6513507
-0.81828713 -0.1748848 3.0813804 2894892
-2.0667884 -0.12462855 3.0553975 6513507
-2.0246947 -0.12455864 3.0679352 6513507
-1.9755968 -0.12515211 3.0825555 6513507
-1.9338343 -0.1249517 3.0949945 6513507
-0.81964856 -0.12530564 3.0865073 2894892
-2.0673761 -0.075295478 3.0554528 6513507
-2.0248208 -0.074994028 3.0681295 6513507
-1.9757226 -0.075351395 3.0827494 6513507
-1.9345554 -0.075031474 3.0950119 6513507
-0.82101458 -0.075562634 3.0916507 2894892
-2.0682309 -0.025189238 3.0554316 6513507
-2.0249493 -0.025423093 3.0683212 6513507
-1.974773 -0.02554692 3.0832644 6513507
-1.934054 -0.024930354 3.0953953 6513507
-0.82238501 -0.025652137 3.0968118 2894892
-2.0684628 0.025318241 3.0555973 6513507
-2.0250793 0.025425298 3.0685186 6513507
-1.9749005 0.025549142 3.083463 6513507
-1.9341654 0.024839941 3.0955937 6513507
-0.82315999 0.0025684168 3.0997295 2894892
-2.068835 0.075269386 3.0557196 6513507
-2.0252075 0.075008757 3.0687115 6513507
-1.9750251 0.075374104 3.0836594 6513507
-1.9346204 0.074404202 3.0956888 6513507
-2.0656533 0.10167269 3.0567906 8882055
-2.025892 0.10156202 3.0670528 8553090
-1.9750892 0.10178606 3.0747302 8816262
-1.9287128 0.10216396 3.0755119 9408399
-1.8747565 0.10267415 3.0596638 10197915
-1.8253444 0.10260423 3.05758 10197915
-1.7747018 0.10253254 3.055444 10197915
-1.7241299 0.10246097 3.0533111 10197915
-1.6749227 0.10239133 3.0512359 10197915
-1.6477551 0.10235289 3.0500903 10197915
-1.2547045 0.10145511 3.0998766 10197915
-1.2259638 0.10141458 3.0986383 10197915
-1.1750664 0.10134278 3.0964448 10197915
-1.1242402 0.10127109 3.0942543 10197915
-1.0747865 0.10120133 3.092123 10197915
-1.0254011 0.10113168 3.0899944 10197915
-0.97478712 0.10106029 3.0878136 10197915
-0.92424375 0.10098899 3.0856347 10197915
-0.87506545 0.10091962 3.0835159 10197915
-0.83370292 0.10086128 3.0817332 10197915
-0.83560729 -1.374535 3.1270881 11711154
-0.8370561 -1.3250061 3.1325092 11711154
-0.83854473 -1.2740602 3.1380806 11711154
-0.84000206 -1.2241817 3.1435344 11711154
-0.8412447 -1.1816517 3.1481853 11711154
-0.82592744 -0.8040908 3.1004772 6513507
-0.82677794 -0.77405226 3.1036696 6513507
-0.82816344 -0.72511941 3.108871 6513507
-0.82955372 -0.6760208 3.1140895 6513507
-1.9041904 -0.62349117 3.1014996 9934743
-1.8748575 -0.62376326 3.1102335 9934743
-1.8247737 -0.62367964 3.1251507 9934743
-1.7783353 -0.6242637 3.1391397 10000536
-0.83098429 -0.62549245 3.1194601 6513507
-1.9053227 -0.57395005 3.1013923 6513507
-1.8748299 -0.57494712 3.1104698 6513507
-1.824386 -0.57502443 3.1254921 6513507
-1.7779185 -0.57501531 3.139452 6513507
-0.83241987 -0.5747894 3.1248491 6513507
-1.9055119 -0.52527255 3.1015627 6513507
-1.8753442 -0.52500486 3.1105478 6513507
-1.8247944 -0.52500981 3.1256042 6513507
-1.7782021 -0.52486706 3.1395514 6513507
-0.83382434 -0.52518588 3.1301215 6513507
-1.9057224 -0.47520712 3.1017337 6513507
-1.8748461 -0.47505376 3.1109309 6513507
-1.8244821 -0.47504333 3.1259301 6513507
-1.7782321 -0.47491729 3.1397278 6513507
-0.83523351 -0.47541317 3.1354117 6513507
-1.9064219 -0.42424166 3.101763 6513507
-1.8755274 -0.42487893 3.1109619 6513507
-1.8246787 -0.42501467 3.1261048 6513507
-1.7781253 -0.42523441 3.1399682 6513507
-0.83664751 -0.42547345 3.1407199 6513507
-1.9070064 -0.37523299 3.1018164 6513507
-1.8753436 -0.37502593 3.111249 6513507
-1.8251952 -0.37481734 3.1261852 6513507
-1.7781736 -0.37520728 3.140187 6513507
-0.83806646 -0.37536281 3.1460462 6513507
-1.9071276 -0.32513702 3.1020153 6513507
-1.8753681 -0.32505536 3.1114759 6513507
-1.824999 -0.32511029 3.1264749 6513507
-1.7786735 -0.32470894 3.140274 6513507
-0.83894175 -0.34444857 3.1493316 6513507
-1.907555 -0.27425614 3.102124 6513507
-1.8758833 -0.27492222 3.1115527 6513507
-1.8247901 -0.27522314 3.1267693 6513507
-1.7786239 -0.2745994 3.1405215 6513507
-1.9084562 -0.22490226 3.1020858 6513507
-1.8754748 -0.22520712 3.1119065 6513507
-1.8255568 -0.2247369 3.1267772 6513507
-1.778682 -0.22510205 3.1407351 6513507
-1.908578 -0.1747922 3.1022842 6513507
-1.8761411 -0.17495735 3.1119444 6513507
-1.8253474 -0.17489342 3.1270723 6513507
-1.7787932 -0.17566866 3.1409328 6513507
-1.9080932 -0.1238737 3.1026661 6513507
-1.8754261 -0.12534505 3.1123879 6513507
-1.8254614 -0.12567197 3.1272671 6513507
-1.7789081 -0.12492785 3.1411347 6513507
-1.9087718 -0.074417137 3.1026943 6513507
-1.8750175 -0.074794941 3.1127455 6513507
-1.8255783 -0.075148717 3.1274676 6513507
-1.7790229 -0.074180588 3.1413379 6513507
-1.9089413 -0.024423957 3.1028764 6513507
-1.8751377 -0.024503199 3.1129441 6513507
-1.8256959 -0.024619102 3.1276679 6513507
-1.7791345 -0.02472825 3.1415346 6513507
-1.9090595 0.024425976 3.1030691 6513507
-1.8741593 0.0245078 3.1134639 6513507
-1.8247076 0.024623722 3.1281919 6513507
-1.7787238 0.025049288 3.1419289 6513507
-0.82383084 0.026995067 3.1022553 2894892
-1.9099134 0.075168125 3.1030509 6513507
-1.8742784 0.074817605 3.1136625 6513507
-1.8248768 0.075114973 3.1283765 6513507
-1.7782661 0.074203856 3.1423028 6513507
-0.82513982 0.074668989 3.1071851 10000536
-1.910332 0.10155892 3.1030488 8421504
-1.8743426 0.10190979 3.1137695 9079434
-1.8248764 0.10212983 3.1244614 9211020
-1.7772092 0.1011916 3.1326222 8289918
-1.7256924 0.10211945 3.1201749 10197915
-1.6754071 0.10204851 3.1180077 10197915
-1.6251916 0.10197768 3.115844 10197915
-1.5750458 0.10190696 3.113683 10197915
-1.5249695 0.10183631 3.1115243 10197915
-1.4749626 0.10176579 3.1093693 10197915
-1.425025 0.10169536 3.1072171 10197915
-1.3751564 0.101625 3.1050677 10197915
-1.3253567 0.10155475 3.1029217 10197915
-1.2795489 0.10149016 3.1009479 10197915
-0.8419773 -1.156576 3.1509266 11711154
-0.84289509 -1.1251602 3.154361 11711154
-0.84433079 -1.0760233 3.159734 6447714
-0.84580833 -1.025453 3.1652634 4737096
-0.84729099 -0.97470552 3.1708121 4737096
-0.84874171 -0.92505568 3.1762409 4737096
-0.85045904 -0.86627823 3.1826673 5131854
-0.84971136 -0.89186662 3.1798694 4737096
-0.85165805 -0.825243 3.1871541 5592405
-0.85312355 -0.77507818 3.1926391 6513507
-0.85448092 -0.7286222 3.1977186 6513507
-1.7683011 -0.62409955 3.1782064 9276813
-1.7679026 -0.57501173 3.1773863 6513507
-1.7676272 -0.52515072 3.1769943 6513507
-1.7672861 -0.47504377 3.1763813 6513507
-1.7669147 -0.42522296 3.1756625 6513507
-1.7665739 -0.37515235 3.1750524 6513507
-1.766263 -0.3248423 3.1745427 6513507
-0.83963615 -0.31991932 3.1519392 6513507
-1.7659229 -0.27481264 3.1739302 6513507
-0.84088176 -0.27592793 3.1566145 3684408
-1.7655187 -0.22506852 3.1731045 6513507
-0.84231502 -0.22530837 3.1619945 2894892
-1.7651802 -0.17507857 3.1724987 6513507
-0.84375322 -0.17451747 3.1673934 2894892
-1.7649013 -0.12484609 3.1720943 6513507
-0.84515923 -0.12486105 3.1726716 2894892
-1.7645611 -0.074893527 3.171483 6513507
-0.84656978 -0.07503891 3.1779671 2894892
-1.7642207 -0.024960231 3.1708717 6513507
-0.84798509 -0.025050141 3.1832805 2894892
-1.7645212 0.023604922 3.1723962 6513507
-0.85004193 0.047591828 3.1910014 4737096
-0.84933043 0.022460667 3.1883302 2894892
-1.7650476 0.074968129 3.1747105 6513507
-0.85083026 0.07543052 3.1939602 10197915
-1.7616619 0.10161021 3.1852548 6710886
-1.7246168 0.10175882 3.1899137 7434609
-1.6745608 0.10168847 3.1877084 8618883
-1.6245745 0.1016182 3.1855056 10197915
-1.5746568 0.10154804 3.1833062 10197915
-1.5248084 0.10147797 3.1811097 10197915
-1.4750283 0.101408 3.1789165 10197915
-1.4253173 0.10133814 3.1767266 10197915
-1.3743337 0.10126647 3.17448 10197915
-1.3247608 0.10119681 3.1722956 10197915
-1.2752565 0.10112721 3.1701148 10197915
-1.224485 0.10105587 3.1678774 10197915
-1.175118 0.10098647 3.1657026 10197915
-1.1258193 0.10091718 3.1635301 10197915
-1.0752584 0.10084611 3.1613026 10197915
-1.0247684 0.10077514 3.1590779 10197915
-0.97434938 0.10070428 3.1568561 10197915
-0.92400151 0.10063352 3.1546381 10197915
-0.87504619 0.10056469 3.1524811 10197915
-0.84464586 0.10052197 3.1511414 10197915
-0.86164671 -1.4183167 3.2145674 11711154
-0.8629517 -1.3751136 3.2194357 11711154
-0.86445177 -1.3253959 3.2250323 11711154
-0.86595726 -1.2755064 3.230649 11711154
-0.86746788 -1.2254411 3.2362847 11711154
-0.86898381 -1.1752026 3.2419398 11711154
-0.87042677 -1.1273777 3.2473235 10592673
-0.85519886 -0.70404726 3.2004058 6513507
-0.85603219 -0.67552835 3.2035241 6513507
-1.7821403 -0.62387663 3.2246783 8355711
-0.85751295 -0.62484658 3.2090652 6513507
-1.7817205 -0.57501203 3.2237878 6513507
-0.85899878 -0.57399058 3.2146258 6513507
-1.7827095 -0.52429271 3.2276499 6513507
-0.86045164 -0.52426803 3.2200625 6513507
-1.7826562 -0.47502372 3.2279921 6513507
-0.86190915 -0.47437704 3.225518 6513507
-1.7823473 -0.42519242 3.2274823 6513507
-0.86337179 -0.4243167 3.2309911 6513507
-1.7820029 -0.37511215 3.22686 6513507
-0.86483938 -0.37408611 3.2364831 6316128
-1.7815915 -0.32505313 3.2260087 6513507
-0.86627322 -0.32501382 3.2418489 5592405
-1.7813177 -0.27528065 3.2256188 6513507
-0.86771184 -0.2757771 3.2472322 4276545
-1.7809381 -0.22498959 3.2248812 6513507
-1.780628 -0.17498955 3.2243695 6513507
-1.7803184 -0.12500358 3.2238615 6513507
-1.7798423 -0.075318739 3.2227886 6513507
-1.7796003 -0.025366724 3.2225099 6513507
-1.7792519 0.025360106 3.2218783 6513507
-1.7788074 0.075273417 3.2209153 6513507
-1.7818569 0.10040548 3.2314227 6579300
-1.418753 0.10095482 3.2491019 10197915
-1.3748422 0.10089331 3.2471228 10197915
-1.3255049 0.10082421 3.2448995 10197915
-1.2748685 0.10075332 3.2426171 10197915
-1.2243019 0.1006825 3.2403383 10197915
-1.1751707 0.1006137 3.2381241 10197915
-1.124745 0.10054308 3.235851 10197915
-1.0743895 0.10047256 3.2335815 10197915
-1.0254627 0.10040405 3.2313769 10197915
-0.97524691 0.10033374 3.2291141 10197915
-0.92510074 0.10026351 3.2268536 10197915
-0.88043427 0.10020097 3.2248406 10197915
-0.87120867 -1.1014662 3.2502406 6513507
-0.87203157 -1.0741955 3.2533104 6513507
-0.87352413 -1.0247297 3.2588787 6513507
-0.87502176 -0.97509426 3.2644665 6513507
-0.87652469 -0.92528838 3.2700729 6513507
-0.87803268 -0.87531108 3.2756989 6513507
-0.87954581 -0.82516158 3.2813444 6513507
-0.88106436 -0.77483892 3.287009 6513507
-0.88258803 -0.72434211 3.2926934 6513507
-0.8839556 -0.6790154 3.2977955 6513507
-1.8028693 -0.62506813 3.2942684 7105644
-1.7947298 -0.62431604 3.2669463 7566195
-1.8025271 -0.57582706 3.2936435 6513507
-1.7944584 -0.57514334 3.266557 6513507
-1.8021759 -0.52523756 3.2930017 6513507
-1.795238 -0.52620286 3.2696955 6513507
-1.8018246 -0.4746677 3.2923601 6513507
-1.795365 -0.47515005 3.2706633 6513507
-1.801484 -0.42548376 3.2917376 6513507
-1.7950213 -0.42538539 3.2700381 6513507
-1.801133 -0.37495291 3.2910964 6513507
-1.7946736 -0.37518749 3.2694039 6513507
-1.8007823 -0.32444149 3.2904553 6513507
-1.7943261 -0.32500902 3.2687724 6513507
-1.8004413 -0.27531427 3.2898324 6513507
-1.7939792 -0.27484995 3.2681398 6513507
-1.8009506 -0.22502239 3.2920778 6513507
-1.7941086 -0.22354808 3.2691193 6513507
-0.86919421 -0.22503991 3.2527802 3815994
-1.8030082 -0.17497045 3.2995179 6513507
-1.7949013 -0.17487949 3.2722983 6513507
-0.87064236 -0.17547177 3.2581997 3815994
-1.8026657 -0.12573637 3.2988911 6513507
-1.7944908 -0.12504143 3.2714484 6513507
-0.87209553 -0.12573668 3.2636378 3815994
-1.8023138 -0.075154215 3.2982473 6513507
-1.7942735 -0.074862719 3.2712522 6513507
-0.87359297 -0.074485086 3.2692418 3815994
-1.8019619 -0.024591614 3.2976036 6513507
-1.7937957 -0.02473804 3.2701824 6513507
-0.87505597 -0.024413552 3.2747164 3815994
-1.80162 0.024585394 3.2969773 6513507
-1.7934532 0.024731738 3.2695572 6513507
-0.8764841 0.024466652 3.2800608 4144959
-1.8012681 0.075108886 3.2963338 6513507
-1.7932365 0.074817799 3.2693622 6513507
-0.87795669 0.07487195 3.2855721 10197915
-1.7728548 0.10142213 3.264142 6579300
-1.7248738 0.10138348 3.2628984 4737096
-1.6750563 0.1013137 3.260653 9934743
-1.6253074 0.10124405 3.2584109 10197915
-1.5756267 0.1011745 3.2561715 10197915
-1.5260142 0.101105 3.2539358 10197915
-1.4750953 0.1010337 3.251641 10197915
-1.4434755 0.1009894 3.2502155 10197915
-0.88918489 -1.464618 3.3070824 11711154
-0.89040774 -1.425468 3.31163 11711154
-0.89195967 -1.3757268 3.3174021 11711154
-0.89351654 -1.3258111 3.3231924 11711154
-0.89507866 -1.2757208 3.3290026 11711154
-0.89664638 -1.2254553 3.3348334 11711154
-0.89821965 -1.1750132 3.3406844 11711154
-0.90029794 -1.1083781 3.3484139 6513507
-0.89950705 -1.1337361 3.3454726 6908265
-0.90067303 -1.0963507 3.3498092 6513507
-0.88468128 -0.65496486 3.3005035 6513507
-1.8122715 -0.62325579 3.3258579 6579300
-0.88557023 -0.62550354 3.3038197 6513507
-1.8124164 -0.57500511 3.3268578 6513507
-0.88710958 -0.57448846 3.3095624 6513507
-1.812067 -0.52501041 3.3262157 6513507
-0.88861346 -0.52464604 3.3151736 6513507
-1.811643 -0.47476196 3.3253288 6513507
-0.89012259 -0.47463271 3.3208032 6513507
-1.8113681 -0.42480639 3.3249335 6513507
-0.89163685 -0.42445084 3.3264523 6513507
-1.8110212 -0.37514544 3.3242972 6513507
-0.89311504 -0.37546039 3.3319674 6513507
-1.8106359 -0.32522854 3.3235347 6513507
-0.89463949 -0.32493868 3.3376546 6513507
-1.8102496 -0.27505481 3.3227704 6513507
-0.89616913 -0.2742458 3.3433609 6513507
-1.8104019 -0.22597907 3.323806 6513507
-0.89741307 -0.23301917 3.3480022 6513507
-1.8112779 -0.17505988 3.3272853 6513507
-1.8108366 -0.12473177 3.3263381 6513507
-1.8105749 -0.074408449 3.3259935 6513507
-1.8102281 -0.024798589 3.3253582 6513507
-1.8098812 0.024792261 3.3247199 6513507
-1.8095349 0.074364156 3.3240848 6513507
-1.0067348 0.09998861 3.3061707 10197915
-0.97479969 0.099944048 3.3046973 10197915
-0.92486709 0.0998744 3.3023942 10197915
-0.89161491 0.099828012 3.3008606 10197915
-1.8082869 0.10084539 3.3345003 6513507
-1.7747821 0.10105997 3.3415956 5066061
-1.7251457 0.10099072 3.3393064 5592405
-1.6755779 0.1009216 3.3370202 10132122
-1.6246642 0.10085056 3.334672 10197915
-1.5752329 0.10078161 3.3323917 10197915
-1.5258701 0.10071275 3.3301151 10197915
-1.4751669 0.10064203 3.3277767 10197915
-1.4245347 0.10057139 3.3254409 10197915
-1.3739737 0.10050087 3.3231087 10197915
-1.3248848 0.1004324 3.3208447 10197915
-1.2758633 0.10036401 3.3185837 10197915
-1.2255104 0.10029378 3.3162611 10197915
-1.175228 0.10022363 3.3139417 10197915
-1.1250159 0.1001536 3.3116262 10197915
-1.0748739 0.10008366 3.3093133 10197915
-1.0317507 0.10002348 3.3073244 10197915
-0.90142441 -1.0722591 3.3526034 6513507
-0.90288883 -1.0253067 3.3580503 6513507
-0.90444195 -0.97550815 3.363827 6513507
-0.90600055 -0.92553669 3.3696232 6513507
-0.90756446 -0.87539411 3.3754396 6513507
-0.90913373 -0.82507658 3.3812761 6513507
-0.91070855 -0.77458638 3.3871329 6513507
-0.91224599 -0.72529161 3.3928518 6513507
-0.91357392 -0.68271339 3.3977907 6513507
-1.8272796 -0.62558025 3.3762288 6513507
-1.8275958 -0.57514322 3.3778267 6513507
-1.8272457 -0.52536398 3.3771794 6513507
-1.8268689 -0.4752574 3.376447 6513507
-1.8265406 -0.42516372 3.3758776 6513507
-1.826116 -0.37509117 3.3749821 6513507
-1.8258357 -0.32504284 3.3745737 6513507
-1.825508 -0.27501076 3.3740039 6513507
-1.8251311 -0.22499453 3.3732717 6513507
-0.89816111 -0.20822828 3.3507926 6513507
-1.8247555 -0.17500123 3.3725417 6513507
-0.89916068 -0.17510009 3.3545218 6513507
-1.824358 -0.12538277 3.3717322 6513507
-0.90070587 -0.12389304 3.3602865 6513507
-0.89995331 -0.14883308 3.3574789 6513507
-1.8243068 -0.074830793 3.3720999 6513507
-0.90217233 -0.07529024 3.3657579 6513507
-1.8254464 -0.025179645 3.3764517 6513507
-0.90368581 -0.02513417 3.3714037 6513507
-1.8250909 0.025173126 3.3757973 6513507
-0.90520424 0.025190454 3.3770685 6776679
-1.8247367 0.075506322 3.3751404 6513507
-1.30558 0.099995881 3.3995495 10197915
-1.2754731 0.099954046 3.3981273 10197915
-1.2253453 0.099884413 3.3957596 10197915
-1.1752878 0.099814869 3.3933954 10197915
-1.1252997 0.099745415 3.3910346 10197915
-1.0753814 0.09967608 3.3886771 10197915
-1.025532 0.099606812 3.3863223 10197915
-0.97575253 0.099537663 3.3839715 10197915
-0.91675818 0.086493 3.3821564 10197915
-1.3127527 0.10000584 3.399888 10197915
-0.91844112 -1.510982 3.4053984 11711154
-0.91961163 -1.4747616 3.4097388 11711154
-0.92121857 -1.4249798 3.4156971 11711154
-0.92283046 -1.3750246 3.4216735 11711154
-0.92444819 -1.3248923 3.4276714 11711154
-0.92607147 -1.2745856 3.4336901 11711154
-0.92765641 -1.225468 3.4395666 11711154
-0.92929095 -1.1748097 3.4456272 8421504
-0.93030977 -1.1432374 3.4494047 6513507
-0.91434669 -0.65793467 3.4006648 6513507
-1.8400785 -0.62468827 3.419214 6513507
-0.91533649 -0.62620151 3.404346 6513507
-1.8396633 -0.5754723 3.4183435 6513507
-0.91693288 -0.57501769 3.4102831 6513507
-1.8393744 -0.52533263 3.4179063 6513507
-0.9185347 -0.52365667 3.4162405 6513507
-1.8390155 -0.47473606 3.4172392 6513507
-0.92005515 -0.47490647 3.4218957 6513507
-1.8404759 -0.42465732 3.4226744 6513507
-0.92158061 -0.42599308 3.4275699 6513507
-1.8400223 -0.37495989 3.42168 6513507
-0.92315513 -0.37551346 3.4334249 6513507
-1.8396931 -0.32492283 3.4211063 6513507
-0.92473477 -0.32486108 3.4393005 6513507
-1.8396043 -0.27426258 3.4213452 6513507
-0.92627603 -0.27544996 3.4450321 6513507
-1.8407379 -0.22481093 3.4256783 6513507
-0.92733556 -0.24147765 3.4489732 6513507
-1.8403834 -0.17481621 3.4250197 6513507
-1.839987 -0.12456599 3.424222 6513507
-1.8398892 -0.075700611 3.4244127 6513507
-1.8411208 -0.025572138 3.4290819 6513507
-1.8407574 0.025565408 3.4284046 6513507
-1.8404043 0.075263187 3.4277461 6513507
-1.8221214 0.1006778 3.4227324 5658198
-1.7748054 0.10064773 3.421711 2105376
-1.7239798 0.10057713 3.4193099 9211020
-1.6746746 0.10050865 3.4169815 10132122
-1.6254369 0.10044023 3.4146559 10197915
-1.5748212 0.1003699 3.4122655 10197915
-1.5242757 0.10029969 3.409878 10197915
-1.4752421 0.10023158 3.4075625 10197915
-1.4248365 0.10016157 3.4051816 10197915
-1.3745002 0.10009162 3.4028041 10197915
-1.3328454 0.10003376 3.4008372 10197915
-0.93110883 -1.1184704 3.452368 6513507
-0.93253285 -1.0743394 3.4576478 6513507
-0.93413997 -1.0245332 3.4636068 6513507
-0.93575263 -0.97455525 3.4695861 6513507
-0.93737096 -0.92440444 3.4755864 6513507
-0.93899471 -0.87407982 3.4816072 6513507
-0.94057882 -0.82498652 3.4874811 6513507
-0.94216835 -0.7757256 3.4933746 6513507
-0.94348925 -0.73478836 3.4982722 6513507
-1.85651 -0.42487907 3.4765108 6513507
-1.8492876 -0.42477909 3.4522595 6513507
-1.8561517 -0.3748771 3.4758403 6513507
-1.8489299 -0.37464869 3.4515924 6513507
-1.8575933 -0.32486933 3.4812112 6513507
-1.8485727 -0.32453752 3.4509261 6513507
-1.8571842 -0.27505872 3.4803669 6513507
-1.8482362 -0.27730757 3.4502981 6513507
-1.8569028 -0.22490302 3.4799566 6513507
-0.928132 -0.21594167 3.4519351 6513507
-1.8564655 -0.17477413 3.4790199 6513507
-0.92941791 -0.17470604 3.4567184 6513507
-1.8561906 -0.12538096 3.4786222 6513507
-0.93097472 -0.1247928 3.4625082 6513507
-1.8558295 -0.07492616 3.4779451 6513507
-0.93253678 -0.074710488 3.4683175 6513507
-1.8561049 -0.026150173 3.4793897 6513507
-1.8499192 -0.010030672 3.4587891 6513507
-0.93410403 -0.02446142 3.4741464 6513507
-1.8569318 0.024527559 3.4827046 6513507
-1.8496733 0.0243559 3.4583297 6513507
-0.93563145 0.024514724 3.4798279 6579300
-1.8565701 0.075012349 3.4820261 6513507
-1.8493154 0.074487463 3.4576607 6513507
-1.609936 0.099986993 3.497776 10197915
-1.5743856 0.099937826 3.4960563 10197915
-1.5240791 0.099868238 3.4936216 10197915
-1.4738421 0.099798746 3.4911907 10197915
-1.4236753 0.099729352 3.4887636 10197915
-1.3735783 0.099660054 3.4863393 10197915
-1.3235508 0.09959086 3.4839182 10197915
-1.2735927 0.099521764 3.4815006 10197915
-1.2237037 0.099452734 3.4790866 10197915
-1.1738842 0.099383824 3.4766762 10197915
-1.1241335 0.099314995 3.4742684 10197915
-1.0744518 0.099246293 3.4718645 10197915
-1.0248384 0.099177659 3.4694636 10197915
-0.97529399 0.099109113 3.467066 10197915
-0.93809623 0.081062399 3.4796498 10197915
-1.6529419 0.10004649 3.4998572 10197915
-1.635141 0.10002186 3.4989963 10197915
-0.94949001 -1.560187 3.5097392 11711154
-0.9507376 -1.522921 3.5143507 11711154
-0.94990557 -1.5477787 3.5112753 11711154
-0.95231068 -1.4758551 3.5201654 11711154
-0.95398152 -1.4258513 3.5263419 11711154
-0.95565861 -1.375672 3.5325403 11711154
-0.95734119 -1.325316 3.5387602 11711154
-0.95902985 -1.2747821 3.5450015 11711154
-0.9601115 -1.2424101 3.5490005 11711154
-0.94431114 -0.70932013 3.5013194 6513507
-0.94540924 -0.67528564 3.5053911 6513507
-0.94701523 -0.62551707 3.5113456 6513507
-0.94862658 -0.57558072 3.5173199 6513507
-0.95052099 -0.51686978 3.5243444 6513507
-0.9496882 -0.54267818 3.5212567 6513507
-0.95186579 -0.47519493 3.52933 6513507
-1.8693832 -0.42432559 3.519743 6579300
-0.95349365 -0.42474371 3.5353663 6513507
-1.8690255 -0.37467542 3.5190685 6579300
-0.95512706 -0.37412125 3.5414228 6513507
-1.8718075 -0.32372633 3.5289512 6579300
-0.95667231 -0.32623237 3.5471523 6513507
-1.8720406 -0.27495348 3.5302541 6579300
-1.8716809 -0.22518376 3.5295751 6579300
-1.8712916 -0.17506893 3.528801 6579300
-1.8708737 -0.12461445 3.5279336 6579300
-1.8705931 -0.074532785 3.5275249 6579300
-1.8702352 -0.024840023 3.5268488 6579300
-1.869876 0.02483367 3.5261726 6579300
-1.8695179 0.074488327 3.5254965 6579300
-1.8579588 0.10031239 3.5091591 5066061
-1.8239927 0.1002831 3.5081348 2039583
-1.7748263 0.10021508 3.5057557 4802889
-1.7257272 0.10014718 3.5033796 10066329
-1.6781785 0.1000814 3.5010788 10132122
-0.96096009 -1.2170157 3.5521379 8882055
-0.96237767 -1.1745948 3.5573776 6513507
-0.9640367 -1.1249477 3.5635092 6513507
-0.9657014 -1.0751306 3.5696635 6513507
-0.96737182 -1.0251395 3.5758383 6513507
-0.96904802 -0.97497696 3.5820343 6513507
-0.97073025 -0.92463851 3.5882521 6513507
-0.97241795 -0.87412673 3.5944915 6513507
-0.97357875 -0.83939362 3.5987816 6513507
-1.8844905 -0.42452386 3.5704687 3158064
-1.8840721 -0.3749021 3.5695901 3158064
-1.8850096 -0.32693285 3.5732484 2434341
-0.95747018 -0.3015075 3.5501106 6513507
-1.885314 -0.27497068 3.5748224 2039583
-0.9583168 -0.27526993 3.5532496 6513507
-1.8857664 -0.22332318 3.5768914 2039583
-0.95991975 -0.22559626 3.5591927 6513507
-1.8865188 -0.17500399 3.5799315 2039583
-0.96152788 -0.17575617 3.5651555 6513507
-1.8860401 -0.12530668 3.5788531 2039583
-0.9631415 -0.12574877 3.5711386 6513507
-1.8857956 -0.075611077 3.5785596 2039583
-0.96476036 -0.07557328 3.5771413 6513507
-1.8854289 -0.025199335 3.577863 2039583
-0.96638513 -0.025228804 3.5831647 6513507
-1.8850619 0.025192801 3.5771668 2039583
-0.9680149 0.025285503 3.5892086 6579300
-1.8825196 0.079469845 3.5800574 2039583
-1.8252572 0.099830233 3.59654 2039583
-1.7748518 0.099760823 3.5940392 8816262
-1.724517 0.099691495 3.591542 10066329
-1.6742519 0.099622302 3.5890481 10197915
-1.6255765 0.099555269 3.5866339 10197915
-1.5754491 0.099486232 3.584147 10197915
-1.5253909 0.099417306 3.5816636 10197915
-1.475402 0.099348485 3.5791838 10197915
-1.425482 0.099279746 3.5767076 10197915
-1.3756313 0.099211089 3.5742345 10197915
-1.3243421 0.099140465 3.5716898 10197915
-1.2746307 0.099072017 3.5692236 10197915
-1.2249885 0.09900365 3.5667613 10197915
-1.1754141 0.098935388 3.5643017 10197915
-1.1259089 0.098867238 3.561846 10197915
-1.0749744 0.098797098 3.5593197 10197915
-1.0241119 0.098727047 3.5567961 10197915
-0.97342753 0.085763678 3.5761492 10197915
-0.98260134 -1.6096648 3.6210427 11711154
-0.98378462 -1.5755501 3.6254034 11711154
-0.98551303 -1.5256562 3.6317728 11711154
-0.98724771 -1.4755888 3.638165 11711154
-0.98898804 -1.4253426 3.6445787 11711154
-0.99018496 -1.3907932 3.6489897 11711154
-0.97440261 -0.81473553 3.6018271 6513507
-0.97571427 -0.77548397 3.6066759 6513507
-0.97737086 -0.72591144 3.6127989 6513507
-0.97903305 -0.67617017 3.6189432 6513507
-0.98070091 -0.62625957 3.625108 6513507
-0.98237431 -0.57617855 3.6312938 6513507
-0.98405355 -0.52592641 3.6375017 6513507
-0.98573852 -0.47550213 3.6437299 6513507
-1.9039294 -0.42553478 3.63573 2039583
-1.8960419 -0.42542574 3.6092465 2039583
-0.98703086 -0.43683088 3.6485066 6513507
-1.9036188 -0.37500215 3.6352232 2039583
-1.8957349 -0.37526113 3.6087475 2039583
-1.903308 -0.32448074 3.6347167 2039583
-1.8954271 -0.32510766 3.6082492 2039583
-1.9028226 -0.2747511 3.6336162 2039583
-1.8950018 -0.27498293 3.6073525 2039583
-1.9025778 -0.22501032 3.6333225 2039583
-1.8950233 -0.22846197 3.6079209 2039583
-1.902158 -0.17606828 3.6324346 2039583
-1.8964365 -0.17380586 3.6132457 2039583
-1.9037687 -0.12510991 3.6383822 2039583
-1.8978258 -0.12442403 3.6184359 2039583
-1.9034029 -0.075353198 3.6376839 2039583
-1.8974634 -0.07494016 3.6177449 2039583
-1.9030375 -0.025615759 3.6369865 2039583
-1.8971013 -0.025475372 3.6170549 2039583
-1.9045925 0.026387885 3.6427605 2039583
-1.8967283 0.025468701 3.616344 2039583
-1.9042923 0.07544677 3.6422737 2039583
-1.8963661 0.074895367 3.6156538 2039583
-1.024879 0.098255105 3.6487105 10197915
-0.99268663 0.098210983 3.6470718 10197915
-0.99103475 -1.3662632 3.6521208 11711154
-0.9924376 -1.325768 3.6572902 11711154
-0.99419659 -1.2749919 3.6637726 10724259
-0.99596167 -1.2240371 3.6702781 6513507
-0.99768245 -1.1743639 3.6766188 6513507
-1.0001216 -1.1039509 3.6856079 6513507
-0.99925655 -1.1289259 3.68242 6513507
-1.0011418 -1.0745004 3.6893673 6513507
-1.0028807 -1.0243087 3.695775 6513507
-1.0039059 -0.99470967 3.6995537 6513507
-1.9182533 -0.45018673 3.6835644 2039583
-1.9159602 -0.42532516 3.6761281 2039583
-0.98787767 -0.411488 3.6516368 6513507
-1.915746 -0.3753652 3.6759415 2039583
-0.98912585 -0.37413368 3.6562514 6513507
-1.9152514 -0.32505608 3.6748147 2039583
-0.99077815 -0.32468951 3.6623583 6513507
-1.9149131 -0.27513599 3.6742082 2039583
-0.99243593 -0.27507821 3.6684861 6513507
-1.9145758 -0.22524235 3.6736085 2039583
-0.99409926 -0.22530226 3.6746347 6513507
-1.9142034 -0.1749848 3.6728923 2039583
-0.99576825 -0.17535755 3.680804 6513507
-1.913743 -0.12513599 3.6718738 2039583
-0.99744278 -0.12524654 3.6869931 6513507
-1.9135555 -0.074899614 3.6717806 2039583
-0.99912286 -0.07496497 3.6932044 6513507
-1.9130017 -0.024726298 3.6704524 2039583
-1.0004506 -0.035235833 3.6981115 6513507
-1.9145929 0.02390519 3.6763132 2039583
-1.9138991 0.07724034 3.6779981 2039583
-1.8752251 0.099420428 3.6919842 2039583
-1.8250157 0.099351622 3.689429 4671303
-1.7748754 0.099282898 3.6868775 10066329
-1.7248051 0.099214278 3.6843295 10132122
-1.6748037 0.099145763 3.6817851 10197915
-1.624871 0.099077336 3.6792438 10197915
-1.5750076 0.099009007 3.6767063 10197915
-1.5252126 0.098940767 3.6741722 10197915
-1.4754866 0.098872617 3.6716416 10197915
-1.4258287 0.098804571 3.6691148 10197915
-1.3762393 0.098736614 3.6665912 10197915
-1.3251721 0.098666638 3.6639919 10197915
-1.2741761 0.098596752 3.661397 10197915
-1.2247949 0.098529078 3.6588845 10197915
-1.1754817 0.098461486 3.6563745 10197915
-1.124698 0.098391905 3.6537902 10197915
-1.0739859 0.098322399 3.6512094 10197915
-1.0179338 -1.6609193 3.7398293 11711154
-1.0192537 -1.6242822 3.7446783 11711154
-1.0204153 -1.5919714 3.748946 11711154
-1.0047796 -0.96949208 3.7027729 6513507
-1.0063245 -0.92489028 3.7084668 6513507
-1.0080297 -0.87567008 3.7147503 6513507
-1.0097926 -0.82478464 3.7212465 6513507
-1.0115092 -0.77522624 3.7275732 6513507
-1.013232 -0.72549736 3.7339213 6513507
-1.0149604 -0.67560035 3.7402914 6513507
-1.0166949 -0.62553126 3.7466831 6513507
-1.9264704 -0.4504835 3.711153 2039583
-1.9304438 -0.4248713 3.7247684 2039583
-1.9300721 -0.37490454 3.7240508 2039583
-1.9297 -0.3249571 3.7233334 2039583
-1.9292446 -0.27503076 3.722331 2039583
-1.9300095 -0.2231638 3.7254539 2039583
-1.9307113 -0.17491578 3.7283232 2039583
-1.9302728 -0.12469673 3.7273841 2039583
-1.9298348 -0.074505843 3.7264485 2039583
-1.9295605 -0.024699345 3.7260551 2039583
-1.0012693 -0.010732106 3.7011387 6513507
-1.9291927 0.024693074 3.7253456 2039583
-1.0024489 0.024568986 3.7054989 6513507
-1.9288253 0.074066646 3.7246351 2039583
-1.1060628 0.097867906 3.749707 10197915
-1.0745239 0.097824886 3.7480593 10197915
-1.0154575 0.083572924 3.7255371 10066329
-1.021315 -1.5669452 3.7522514 11711154
-1.0228536 -1.5241528 3.7579038 11711154
-1.024663 -1.4738226 3.7645519 11711154
-1.0264254 -1.4248028 3.7710266 11711154
-1.0281938 -1.3756123 3.7775242 11711154
-1.0300224 -1.3247545 3.7842417 11579568
-1.0318031 -1.2752202 3.7907846 6513507
-1.0334817 -1.2285314 3.7969513 6513507
-1.0184354 -0.57529241 3.7530966 6513507
-1.0201815 -0.52487957 3.7595322 6513507
-1.021934 -0.47429526 3.7659898 6513507
-1.9516765 -0.42462015 3.7960646 2039583
-1.9430995 -0.42555556 3.7672551 2039583
-1.023639 -0.42507669 3.7722731 6513507
-1.9512969 -0.37422216 3.7953272 2039583
-1.9427247 -0.37553981 3.7665288 2039583
-1.0253497 -0.37569368 3.7785773 6513507
-1.9509182 -0.32384378 3.79459 2039583
-1.94235 -0.32554331 3.7658036 2039583
-1.0270661 -0.32614529 3.7849023 6513507
-1.9505508 -0.27505827 3.7938759 2039583
-1.9418849 -0.27504754 3.7647774 2039583
-1.0287883 -0.27643076 3.7912493 6513507
-1.9501835 -0.22629125 3.7931616 2039583
-1.9423394 -0.22710654 3.7668126 2039583
-1.030408 -0.22967337 3.7972178 6513507
-1.9455017 -0.17530011 3.777982 2039583
-1.9451252 -0.12519039 3.777251 2039583
-1.9447498 -0.075100027 3.7765198 2039583
-1.9443736 -0.025029048 3.7757902 2039583
-1.9439983 0.025022609 3.7750623 2039583
-1.9391155 0.080752328 3.7786527 2039583
-1.8746946 0.09891589 3.7898595 2105376
-1.8247643 0.098847792 3.7872512 8947848
-1.7749039 0.098779827 3.7846463 10066329
-1.7251112 0.098711938 3.7820456 10197915
-1.6753874 0.09864413 3.7794476 10197915
-1.6241312 0.098574236 3.7767701 10197915
-1.5745453 0.098506644 3.7741799 10197915
-1.5250282 0.098439135 3.7715931 10197915
-1.4739845 0.098369531 3.7689266 10197915
-1.4246044 0.098302215 3.7663469 10197915
-1.3752925 0.098234966 3.7637711 10197915
-1.3244603 0.098165661 3.7611156 10197915
-1.2752845 0.098098598 3.7585461 10197915
-1.2261766 0.098031677 3.7559812 10197915
-1.1755545 0.09796264 3.7533369 10197915
-1.1313174 0.09790232 3.7510254 10197915
-1.0344044 -1.2028689 3.8003411 6513507
-1.0353835 -1.1756338 3.8039386 6513507
-1.037183 -1.1255803 3.81055 6513507
-1.0389888 -1.0753542 3.817184 6513507
-1.040801 -1.0249512 3.8238418 6513507
-1.0426193 -0.97437382 3.8305225 6513507
-1.0443888 -0.92515916 3.8370228 6513507
-1.0461642 -0.87577701 3.8435459 6513507
-1.0474994 -0.83863556 3.8484519 6513507
-1.9650124 -0.45028222 3.8405724 2039583
-1.9603262 -0.42526603 3.8251035 2039583
-1.96004 -0.37499917 3.8246758 2039583
-1.9596604 -0.32475984 3.823936 2039583
-1.959191 -0.27507049 3.8228877 2039583
-1.9589052 -0.22487199 3.8224611 2039583
-1.0312738 -0.20468022 3.8004088 6513507
-1.9586191 -0.17468069 3.8220341 2039583
-1.03225 -0.17649986 3.8040063 6513507
-1.958151 -0.1250529 3.8209903 2039583
-1.0339898 -0.12628175 3.8104174 6513507
-1.9591062 -0.073838986 3.8247411 2039583
-1.0357352 -0.075894125 3.8168499 6513507
-1.9596071 -0.025368111 3.8269386 2039583
-1.0374867 -0.025336072 3.8233039 6513507
-1.9592235 0.025361497 3.8261905 2039583
-1.0392441 0.025393253 3.8297799 6513507
-1.9588523 0.074486963 3.8254645 2039583
-1.0605174 0.09728048 3.8494039 10197915
-1.0413657 0.076110706 3.8368642 10000536
-1.0557196 -1.7141397 3.8668809 11711154
-1.0571904 -1.6748133 3.8722675 11711154
-1.0590609 -1.6247422 3.8791194 11711154
-1.0609379 -1.5744953 3.8859944 11711154
-1.0627646 -1.5256002 3.8926849 11711154
-1.0641958 -1.487288 3.8979273 11711154
-1.0483917 -0.81381822 3.8517294 6513507
-1.0503488 -0.7593832 3.8589199 6513507
-1.0493972 -0.78584719 3.8554242 6513507
-1.051639 -0.72349483 3.8636599 6513507
-1.0533828 -0.67499226 3.8700669 6513507
-1.0551324 -0.62632692 3.8764949 6513507
-1.0569446 -0.57592285 3.8831522 6513507
-1.0587629 -0.52534539 3.8898327 6513507
-1.973948 -0.45059252 3.870573 2039583
-1.0605876 -0.47459349 3.8965371 6513507
-1.9737647 -0.4248949 3.87023 2039583
-1.9749897 -0.37333441 3.8748908 2039583
-1.9751972 -0.32519788 3.8761003 2039583
-1.9748518 -0.27495423 3.8754742 2039583
-1.9745038 -0.22473823 3.87484 2039583
-1.9741256 -0.17494023 3.8740995 2039583
-1.9736348 -0.12476999 3.8729868 2039583
-1.9746757 -0.076651543 3.8769903 2039583
-1.9751382 -0.025198847 3.8790917 2039583
-1.974754 0.025192311 3.8783371 2039583
-1.9730538 0.078807898 3.8814719 2039583
-1.9254955 0.098453522 3.8958211 2039583
-1.8757902 0.098386094 3.8931534 6579300
-1.8261533 0.098318785 3.8904901 10066329
-1.7749339 0.098249331 3.887742 10197915
-1.7237853 0.098179959 3.8849967 10197915
-1.6743566 0.098112941 3.8823445 10197915
-1.6249945 0.098045997 3.8796954 10197915
-1.5757004 0.097979143 3.8770497 10197915
-1.5248337 0.097910173 3.8743205 10197915
-1.4740376 0.097841293 3.8715949 10197915
-1.424949 0.097774707 3.8689606 10197915
-1.3759269 0.097708225 3.8663297 10197915
-1.3253409 0.097639635 3.8636155 10197915
-1.2748255 0.097571112 3.8609042 10197915
-1.2260072 0.097504936 3.8582847 10197915
-1.1756316 0.097436592 3.8555818 10197915
-1.1253257 0.097368367 3.8528817 10197915
-1.0864263 0.097315639 3.8507948 10197915
-1.0651714 -1.4611739 3.9015002 11711154
-1.0665518 -1.4242197 3.9065564 11711154
-1.0683979 -1.3748049 3.9133182 11711154
-1.0702502 -1.3252188 3.9201035 6974058
-1.072109 -1.2754606 3.9269114 6513507
-1.0739744 -1.2255292 3.933744 6513507
-1.075846 -1.1754237 3.9405999 6513507
-1.0776068 -1.1282927 3.9470487 6513507
-1.9830245 -0.45090777 3.9010463 2039583
-1.9828262 -0.42500755 3.9006567 2039583
-1.0623611 -0.42526132 3.9030528 6513507
-1.9825665 -0.39101973 3.9001455 2039583
-1.0641408 -0.37576222 3.9095907 6513507
-1.065984 -0.32449302 3.916363 6513507
-1.9860976 -0.25292346 3.9134707 2039583
-1.0677757 -0.27465719 3.9229453 6513507
-1.9858857 -0.22533801 3.9130538 2039583
-1.0695735 -0.22465178 3.9295506 6513507
-1.9855011 -0.17504911 3.9122949 2039583
-1.0713774 -0.17447948 3.9361775 6513507
-1.9851158 -0.12477946 3.9115365 2039583
-1.0731288 -0.12576339 3.9426122 6513507
-1.9847308 -0.074529544 3.910778 2039583
-1.0745926 -0.085048512 3.9479909 6513507
-1.9843463 -0.024298875 3.9100196 2039583
-1.9839742 0.024292804 3.9092867 2039583
-1.9836023 0.072866254 3.9085536 2039583
-1.078548 -1.1030974 3.9504962 6513507
-1.0796094 -1.0746869 3.9543839 6513507
-1.0815008 -1.0240538 3.9613118 6513507
-1.0833396 -0.97483444 3.9680464 6513507
-1.0851847 -0.9254455 3.9748049 6513507
-1.0870957 -0.87428772 3.9818044 6513507
-1.0889534 -0.8245573 3.9886093 6513507
-1.0908177 -0.77465475 3.9954376 6513507
-1.0919027 -0.74560875 3.9994121 6513507
-1.0755316 -0.058932189 3.9514399 6513507
-1.0767667 -0.024577023 3.9559779 6513507
-1.0785358 0.02463082 3.9624777 6513507
-1.8174182 0.097746201 3.998945 10197915
-1.7749609 0.097688936 3.9966028 10197915
-1.7257723 0.097622626 3.9938898 10197915
-1.674957 0.097554095 3.9910862 10197915
-1.6242136 0.097485676 3.9882874 10197915
-1.5752285 0.097419627 3.9855847 10197915
-1.5263102 0.09735366 3.9828863 10197915
-1.4757749 0.097285531 3.9800987 10197915
-1.42531 0.097217463 3.9773145 10197915
-1.3749157 0.097149529 3.9745343 10197915
-1.3245915 0.097081661 3.9717584 10197915
-1.2743381 0.097013906 3.9689863 10197915
-1.2241547 0.096946247 3.966218 10197915
-1.1740409 0.096878655 3.9634531 10197915
-1.1239971 0.09681119 3.9606926 10197915
-1.0826144 0.080488235 3.9654109 9868950
-1.0962236 -1.7695419 4.0030894 11711154
-1.097986 -1.7242123 4.0095253 11711154
-1.1004862 -1.6598848 4.0186558 11711154
-1.0995092 -1.6850243 4.0150876 11711154
-1.1018329 -1.6252382 4.0235729 11711154
-1.1037357 -1.5762802 4.0305214 11711154
-1.1057068 -1.5255663 4.0377192 11711154
-1.1076847 -1.4746709 4.0449424 11711154
-1.1088624 -1.4443728 4.0492425 11711154
-1.092809 -0.72134823 4.0027313 6513507
-1.0945045 -0.67596173 4.0089412 6513507
-1.0963879 -0.62554884 4.0158396 6513507
-1.0982774 -0.57496387 4.0227613 6513507
-1.1005414 -0.51436335 4.0310531 6513507
-1.0996224 -0.53896368 4.0276871 6513507
-1.1020151 -0.47491211 4.0364513 6513507
-1.1039243 -0.42380613 4.0434442 6513507
-1.1052829 -0.38743457 4.0484209 6513507
-2.0167849 0.098015025 4.0099435 2039583
-1.9740949 0.097957455 4.0075884 2039583
-1.9246346 0.097890757 4.0048594 7303023
-1.8752425 0.097824149 4.0021348 10066329
-1.8429155 0.097780585 4.0003519 10132122
-1.1097943 -1.4203978 4.0526452 11711154
