# .PCD v0.7 - Point Cloud Data file format
VERSION 0.7
FIELDS x y z rgb
SIZE 4 4 4 4
TYPE F F F U
COUNT 1 1 1 1
WIDTH 1156
HEIGHT 1
VIEWPOINT 0 0 0 1 0 0 0
POINTS 1156
DATA ascii
-0.27514702 0.10103793 2.1776819 10197915
-0.22503313 0.10101529 2.1768403 10197915
-0.17538022 0.10099086 2.1763136 10197915
-0.12530652 0.10096419 2.1760924 10197915
-0.075254269 0.10094158 2.1752517 10197915
-0.025231538 0.10091496 2.1750312 10197915
0.025223259 0.10089011 2.1744957 10197915
0.075197056 0.10086752 2.1736562 10197915
0.12515144 0.10084093 2.1734357 10197915
0.1750787 0.10081837 2.1725967 10197915
0.22498228 0.10079179 2.1723766 7368816
0.26371744 0.10076536 2.1730998 6447714
-1.7652031 0.10147558 2.2390413 10197915
-1.7245483 0.10152686 2.2276287 10197915
-1.6747737 0.10150027 2.2274268 10197915
-1.6245481 0.10147559 2.2268858 10197915
-1.574813 0.10145335 2.2260156 10197915
-1.5251055 0.10142676 2.2258139 10197915
-1.4749522 0.10140213 2.2252736 10197915
-1.4252945 0.10137991 2.2244043 10197915
-1.3751875 0.10135522 2.2238765 10197915
-1.3246537 0.10132831 2.223654 10197915
-1.2745978 0.10130375 2.2231143 10197915
-1.2250315 0.10128156 2.2222466 10197915
-1.1754919 0.10125505 2.2220464 10197915
-1.1250455 0.10123238 2.2211812 10197915
-1.0746315 0.10120553 2.2209594 10197915
-1.0246968 0.101181 2.2204211 10197915
-0.97478646 0.1011565 2.2198832 10197915
-0.92490727 0.10113625 2.2186916 10197915
-0.87505275 0.10110752 2.2188079 10197915
-0.82521474 0.10108304 2.2182715 10197915
-0.778642 0.10103723 2.2212985 10197915
-0.72495306 0.10091926 2.2348335 10197915
-0.67479181 0.10089464 2.2342882 10197915
-0.62465489 0.10087004 2.2337437 10197915
-0.57454252 0.10084546 2.2331991 10197915
-0.52445477 0.10082091 2.2326553 10197915
-0.47439116 0.10079635 2.2321112 10197915
-0.42435193 0.10077179 2.2315676 10197915
-0.3743372 0.10074726 2.2310247 10197915
-0.32434669 0.10072274 2.2304814 10197915
-0.27438053 0.10069823 2.2299387 10197915
-0.22443877 0.10067372 2.2293961 10197915
-0.17452125 0.10064925 2.2288539 10197915
-0.124628 0.10062476 2.2283118 10197915
-0.074759021 0.10060031 2.2277701 10197915
-0.024914296 0.10057586 2.2272291 10197915
0.024906229 0.10055142 2.2266877 10197915
0.074702539 0.10052698 2.2261467 10197915
0.12447467 0.10050258 2.225606 10197915
0.17422263 0.10047818 2.2250659 10197915
0.22486691 0.10045332 2.2245154 7763574
0.26720545 0.10043256 2.2240558 6447714
0.18665372 0.099993221 2.2986817 10197915
0.22470395 0.09997464 2.298255 8289918
0.27129725 0.099951901 2.2977319 6447714
-1.8076369 0.10121253 2.283222 10197915
-1.7742445 0.1011962 2.2828534 10197915
-1.7246515 0.10117193 2.282306 10197915
-1.675082 0.10114767 2.2817588 10197915
-1.6255364 0.10112342 2.2812116 10197915
-1.5750624 0.10109872 2.280654 10197915
-1.5246129 0.10107405 2.2800975 10197915
-1.4751395 0.10104983 2.2795513 10197915
-1.424739 0.10102514 2.2789948 10197915
-1.3743628 0.1010005 2.2784386 10197915
-1.3249613 0.10097631 2.2778933 10197915
-1.2755834 0.10095215 2.277348 10197915
-1.2252799 0.10092754 2.2767928 10197915
-1.1750013 0.10090293 2.2762377 10197915
-1.1247473 0.10087834 2.2756832 10197915
-1.0745175 0.10085376 2.2751279 10197915
-1.0252595 0.10082964 2.2745845 10197915
-0.97507828 0.10080509 2.2740304 10197915
-0.92492157 0.10078054 2.2734766 10197915
-0.87478912 0.10075603 2.2729235 10197915
-0.82468116 0.10073148 2.2723699 10197915
-0.77459764 0.10070699 2.2718172 10197915
-0.72453845 0.10068248 2.2712646 10197915
-0.67544746 0.10065845 2.2707226 10197915
-0.62543648 0.10063397 2.2701705 10197915
-0.57544982 0.10060951 2.2696185 10197915
-0.52548748 0.10058507 2.269067 10197915
-0.47460744 0.10056016 2.2685053 10197915
-0.42469394 0.10053574 2.2679541 10197915
-0.374805 0.10051133 2.2674031 10197915
-0.32494003 0.10048689 2.2668529 10197915
-0.2750994 0.10046253 2.2663026 10197915
-0.2252828 0.10043815 2.2657523 10197915
-0.17549054 0.10041378 2.2652032 10197915
-0.12478358 0.10038896 2.2646432 10197915
-0.075039938 0.10036461 2.2640941 10197915
-0.025320556 0.10034028 2.2635453 10197915
0.025312223 0.10031551 2.2629864 10197915
0.078359284 0.1001968 2.276685 10197915
0.12470993 0.10014515 2.2806327 10197915
0.17110381 0.10016929 2.2729094 10197915
0.22478683 0.10021789 2.2607839 7960953
0.26875037 0.10019638 2.2602987 6447714
-0.32229742 0.09998963 2.3432324 10197915
-0.27563798 0.099966891 2.3427 10197915
-0.22511384 0.099942319 2.3421233 10197915
-0.17461453 0.099917732 2.341547 10197915
-0.12511043 0.099893607 2.3409822 10197915
-0.075630374 0.099869527 2.3404176 10197915
-0.025204619 0.099845 2.3398423 10197915
0.025196357 0.099820442 2.339267 10197915
0.075572558 0.0997959 2.3386922 10197915
0.12495603 0.099771842 2.3381283 10197915
0.17431554 0.099747829 2.3375652 10197915
0.22461851 0.099723302 2.3369913 8553090
0.27393016 0.099699296 2.3364286 6447714
-1.8233118 0.10097448 2.3212397 10197915
-1.7748125 0.10095083 2.3206954 10197915
-1.7243971 0.1009262 2.3201296 10197915
-1.6749754 0.1009021 2.3195748 10197915
-1.6255773 0.10087795 2.3190205 10197915
-1.5752348 0.10085336 2.3184555 10197915
-1.5249168 0.1008288 2.3178906 10197915
-1.4746234 0.10080424 2.3173265 10197915
-1.4243543 0.10077972 2.3167622 10197915
-1.3750758 0.10075566 2.3162091 10197915
-1.3258208 0.1007316 2.3156562 10197915
-1.2756245 0.10070712 2.315093 10197915
-1.2254523 0.10068262 2.3145299 10197915
-1.1753045 0.10065813 2.313967 10197915
-1.1251812 0.10063367 2.3134046 10197915
-1.0750822 0.10060919 2.3128421 10197915
-1.0250075 0.10058478 2.3122804 10197915
-0.97495735 0.10056034 2.3117185 10197915
-0.92079186 0.1004744 2.3202753 10197915
-0.87500119 0.10038762 2.3296866 10197915
-0.82509267 0.1003608 2.3295035 10197915
-0.77471864 0.10033625 2.3289335 10197915
-0.72486132 0.1003144 2.3279879 10197915
-0.6750201 0.10028768 2.327805 10197915
-0.62520832 0.10026582 2.32686 10197915
-0.57541794 0.10023911 2.326678 10197915
-0.52516592 0.10021456 2.3261092 10197915
-0.47543237 0.10019278 2.3251655 10197915
-0.4252269 0.10016824 2.3246119 10197915
-0.37457341 0.10014114 2.3244047 10197915
-0.32687369 0.10021783 2.3084633 10197915
-0.27488616 0.10021854 2.3038616 10197915
-0.2251996 0.1001943 2.3033037 10197915
-0.17553709 0.10017005 2.3027463 10197915
-0.12494432 0.10014534 2.3021786 10197915
-0.074376337 0.10012067 2.3016112 10197915
-0.024786787 0.10009646 2.301055 10197915
0.024778796 0.10007226 2.300499 10197915
0.059080243 0.10005549 2.3001134 10197915
-0.86528283 0.099992581 2.3897035 10197915
-0.82452893 0.099972792 2.3892303 10197915
-0.77485049 0.099948667 2.3886538 10197915
-0.72519594 0.09992452 2.3880773 10197915
-0.67556536 0.099900424 2.387501 10197915
-0.62496686 0.099875852 2.3869133 10197915
-0.57439303 0.099851295 2.3863266 10197915
-0.52483523 0.099827223 2.3857517 10197915
-0.47530115 0.099803165 2.3851769 10197915
-0.42480117 0.099778637 2.3845904 10197915
-0.37432584 0.099754103 2.3840041 10197915
-0.32486436 0.09973006 2.3834302 10197915
-0.27542669 0.099706106 2.3828568 10197915
-0.22502488 0.099681608 2.3822711 10197915
-0.17464763 0.099657118 2.3816869 10197915
-0.12528227 0.099633172 2.381114 10197915
-0.074954167 0.099608712 2.3805299 10197915
-0.024650564 0.099584281 2.3799458 10197915
0.024642661 0.099560328 2.3793728 10197915
0.074897267 0.099535935 2.3787892 10197915
0.12512738 0.099511534 2.3782074 10197915
0.17533273 0.099487133 2.3776245 10197915
0.22551364 0.09946277 2.3770416 8816262
0.27468663 0.099438898 2.3764713 6447714
0.30123124 0.099426001 2.3761628 6447714
-1.8641886 0.1007405 2.3608289 10197915
-1.8247187 0.10072132 2.3603785 10197915
-1.7735124 0.10068624 2.3613498 10197915
-1.7249948 0.10054142 2.3794622 10197915
-1.6748111 0.10051961 2.3784873 10197915
-1.62465 0.10049265 2.3783069 10197915
-1.5750064 0.10046849 2.3777354 10197915
-1.5249013 0.10044668 2.3767624 10197915
-1.4748073 0.10041978 2.3765817 10197915
-1.4247479 0.10039795 2.3756096 10197915
-1.3747056 0.10037108 2.3754303 10197915
-1.3246919 0.10034934 2.3744581 10197915
-1.2747004 0.10032244 2.3742788 10197915
-1.2247326 0.10030069 2.3733079 10197915
-1.1747922 0.10027387 2.3731289 10197915
-1.1248703 0.10025211 2.3721588 10197915
-1.0749809 0.10022534 2.3719797 10197915
-1.0251044 0.10020363 2.3710108 10197915
-0.9752661 0.10017682 2.370832 10197915
-0.92814928 0.10013011 2.3739512 10197915
-0.8901403 0.10000463 2.3899913 10197915
-1.7566861 -0.87135965 2.4467938 2039583
-1.7249526 -0.87128216 2.4320247 2039583
-1.6676503 -0.87113243 2.4220388 2039583
-1.6492251 -0.87126958 2.4482577 2039583
-1.7560383 -0.82603407 2.4467983 2308171
-1.7252493 -0.82496667 2.4324741 2308172
-1.6679127 -0.82500321 2.4223094 2244186
-1.6494205 -0.82470953 2.4485469 2380413
-1.7558295 -0.77504522 2.4470456 2710415
-1.7241806 -0.77495563 2.432317 2578573
-1.6668953 -0.77490348 2.4232736 2644878
-1.6493813 -0.77823228 2.449337 2710669
-1.7562557 -0.72501165 2.4475815 3171477
-1.7244382 -0.72501785 2.4327726 2842257
-1.6669366 -0.72507209 2.423852 2710670
-1.6493518 -0.74195451 2.4499516 2645133
-1.7552959 -0.67555183 2.4474688 3697817
-1.7248529 -0.67500037 2.4333031 3500438
-1.66717 -0.675053 2.4242201 3434645
-1.7554163 -0.62538254 2.4478641 3500440
-1.7252393 -0.62502176 2.4338205 3302805
-1.6674416 -0.62502021 2.4245703 3039376
-1.7556891 -0.57604408 2.4483242 2644367
-1.7254963 -0.57502317 2.4342785 2644109
-1.6676794 -0.57500118 2.4249561 2644622
-1.7534227 -0.52347362 2.4476235 2908564
-1.724757 -0.52530855 2.4342699 2710673
-1.6679412 -0.5249666 2.4252925 2710928
-1.7534627 -0.47531283 2.4479678 2513551
-1.724792 -0.47506285 2.4346251 2578830
-1.6681821 -0.47494745 2.4256918 2512780
-1.7534906 -0.42705292 2.4483068 2313863
-1.7250928 -0.42503515 2.435102 2248327
-1.6689039 -0.4249883 2.4253886 2315145
-1.7527421 -0.37477484 2.4483116 2183563
-1.7246087 -0.37465262 2.4352171 2183305
-1.6687124 -0.37516165 2.4257183 2116741
-1.75304 -0.32515743 2.4487855 2315660
-1.7243571 -0.32494539 2.4354362 2315402
-1.6684526 -0.32502684 2.4261196 2249865
-1.752869 -0.27923468 2.4490161 2778002
-1.7246567 -0.2748501 2.4359128 2711697
-1.6687428 -0.27506366 2.426486 2514061
-1.7522732 -0.22524796 2.4491036 2646160
-1.7249476 -0.22491363 2.4363861 2580111
-1.6689893 -0.22514996 2.426806 2579596
-1.7526332 -0.17556688 2.4496064 2646416
-1.7255259 -0.17489597 2.4369936 2580623
-1.6693145 -0.17528199 2.4271231 2448524
-1.7512217 -0.12338104 2.4493017 2382220
-1.7253072 -0.12528987 2.437228 2315914
-1.6700251 -0.12512504 2.4268591 2315655
-1.7503189 -0.07508532 2.4492075 1986951
-1.7243916 -0.075292207 2.4371388 1986694
-1.6703274 -0.075225025 2.4271448 1986436
-1.7506784 -0.025371265 2.4497108 2053511
-1.7249907 -0.025247445 2.4377544 2184584
-1.6704769 -0.025142977 2.4276464 2184325
-1.7508764 0.0020300057 2.4499881 2117252
-1.7252866 0.025314342 2.4382348 1655420
-1.6706953 0.025116984 2.4280202 1588856
-1.7239437 0.075226136 2.4379468 5006471
-1.6701308 0.0752225 2.4282894 4809350
-1.4190537 0.099990204 2.4379225 10197915
-1.3753325 0.099969029 2.4374063 10197915
-1.325533 0.099944904 2.4368179 10197915
-1.2747418 0.09992031 2.4362183 10197915
-1.2249908 0.099896215 2.4356303 10197915
-1.1752638 0.099872105 2.4350433 10197915
-1.1245468 0.099847555 2.4344442 10197915
-1.0748681 0.099823482 2.4338574 10197915
-1.0252134 0.099799439 2.4332709 10197915
-0.9745701 0.099774905 2.432673 10197915
-0.92496353 0.099750869 2.4320872 10197915
-0.87538123 0.099726848 2.4315019 10197915
-0.8248114 0.099702358 2.4309042 10197915
-0.77426648 0.099677876 2.4303071 10197915
-0.72475654 0.099653907 2.4297225 10197915
-0.67527056 0.099629909 2.4291382 10197915
-0.62479895 0.099605471 2.4285419 10197915
-0.57435232 0.09958104 2.4279461 10197915
-0.52493834 0.099557109 2.4273629 10197915
-0.47554848 0.099533178 2.4267795 10197915
-0.42517486 0.099508785 2.4261844 10197915
-0.37482604 0.099484384 2.4255898 10197915
-0.32450187 0.099460021 2.4249957 10197915
-0.27420238 0.099435657 2.4244013 10197915
-0.22493263 0.099411786 2.4238193 10197915
-0.17568675 0.099387929 2.4232376 10197915
-0.12546012 0.099363603 2.4226449 10197915
-0.075258061 0.099339277 2.4220519 10197915
-0.025080569 0.099314995 2.4214597 10197915
0.025072386 0.099290684 2.420867 10197915
0.075200811 0.099266395 2.4202752 10197915
0.1253047 0.099242143 2.4196832 10197915
0.1753841 0.099217869 2.4190917 10197915
0.22543906 0.099193662 2.4185009 9079434
0.27546954 0.099169396 2.4179099 6447714
0.30447704 0.099155352 2.4175675 6447714
-1.9186574 0.10028257 2.4360657 10197915
-1.8750118 0.10034983 2.4219384 10197915
-1.8248903 0.10032275 2.4217789 10197915
-1.7753023 0.10029867 2.4211981 10197915
-1.737532 0.1001254 2.4412189 10197915
-1.6561064 0.10009438 2.4404621 10197915
-1.6246911 0.10008982 2.4403515 10197915
-1.5747714 0.10006564 2.4397614 10197915
-1.5248755 0.10004146 2.4391723 10197915
-1.4750037 0.1000173 2.4385831 10197915
-1.4444813 0.10000255 2.4382234 10197915
-1.8607593 -0.87178391 2.4952312 2039583
-1.8262019 -0.87165791 2.4791477 2039583
-1.7826749 -0.87140954 2.4588897 2039583
-1.6369758 -0.871454 2.474575 5594469
-1.8601154 -0.82390153 2.495255 2637911
-1.8245693 -0.82497817 2.4787025 2374481
-1.7810524 -0.82515216 2.4584467 2308430
-1.637262 -0.82503349 2.4746673 2117244
-1.8593863 -0.7756173 2.4952412 3631513
-1.8237361 -0.77503169 2.4786522 3302549
-1.7803632 -0.77500188 2.4584641 2973842
-1.637476 -0.77500957 2.4749646 2380928
-1.8587124 -0.72483581 2.4952705 3631513
-1.8241301 -0.7249949 2.4791737 3434647
-1.7807434 -0.72490418 2.4589801 3303062
-1.637988 -0.72489959 2.4746301 2512000
-1.8590742 -0.67500937 2.4957755 3104401
-1.8245243 -0.6749351 2.4796946 3434134
-1.779682 -0.67481816 2.4588239 3763354
-1.6383274 -0.67507672 2.4746542 2643842
-1.8587227 -0.62603849 2.4959428 3236758
-1.8247861 -0.62504882 2.4801524 3368599
-1.7798675 -0.62494445 2.4592471 3631769
-1.6385369 -0.62499279 2.4749696 2446208
-1.8582714 -0.57495588 2.4960775 2972818
-1.8252666 -0.57507443 2.4807153 2907281
-1.7801428 -0.57478106 2.4597144 2710160
-1.650077 -0.56864166 2.4510291 2644364
-1.6387624 -0.57528466 2.4752359 2314368
-1.8587064 -0.52521867 2.4966159 2908052
-1.8256265 -0.52501947 2.4812193 2974101
-1.7791035 -0.52506137 2.4595659 2974357
-1.6502593 -0.5250358 2.4513001 2842512
-1.638949 -0.52499861 2.4756041 2380930
-1.8581707 -0.47644964 2.4966958 3369113
-1.8260343 -0.47500497 2.4817481 3171735
-1.7795125 -0.47501177 2.4600949 2908308
-1.6504674 -0.47533402 2.4516089 2776462
-1.639134 -0.47500083 2.475966 2380417
-1.8571963 -0.42346317 2.4966002 3039380
-1.8253087 -0.42502606 2.4817481 2842258
-1.7789289 -0.42500085 2.4601617 2380939
-1.6510774 -0.4244999 2.4510705 2315657
-1.6393555 -0.42495045 2.4762528 2116733
-1.8565942 -0.37464085 2.49665 2446733
-1.8236928 -0.37501624 2.4813328 2446476
-1.7771897 -0.37499633 2.4596887 2314891
-1.6509662 -0.37317622 2.4520895 2183303
-1.639239 -0.37510893 2.4772582 1918586
-1.8559037 -0.32587713 2.4966576 2512782
-1.8240148 -0.3249701 2.4818215 2447502
-1.7775033 -0.32498571 2.4601731 2381452
-1.6510955 -0.32513845 2.4525428 2184071
-1.6393659 -0.32491288 2.4777527 2051196
-1.8558273 -0.27516618 2.4969654 3106198
-1.8244233 -0.2749041 2.4823487 2974612
-1.7771586 -0.27458796 2.4603519 2974611
-1.6513038 -0.27538621 2.4528522 2447754
-1.6399698 -0.27495423 2.4772112 2249345
-1.8562077 -0.22555827 2.4974768 2777490
-1.8246957 -0.2249434 2.4828141 2711698
-1.7765372 -0.22486876 2.4603999 2711697
-1.6515161 -0.22460574 2.4531677 2513546
-1.6402097 -0.22503822 2.4774559 2183295
-1.8552928 -0.17606281 2.4973855 2712212
-1.8250152 -0.17509401 2.4833 2580625
-1.7773553 -0.17495334 2.461117 2711953
-1.6514899 -0.17285462 2.4540117 2381704
-1.6400536 -0.17523423 2.4785502 2117502
-1.8553569 -0.1245285 2.4977632 2448527
-1.8257706 -0.1252159 2.4839871 2514063
-1.7761446 -0.12468896 2.4608927 2447756
-1.6519321 -0.12503821 2.453789 2249348
-1.6401501 -0.12507536 2.4791026 2050939
-1.8557365 -0.074855052 2.4982755 2053001
-1.8257118 -0.074818216 2.4843006 2052745
-1.7765797 -0.075002432 2.461432 1986951
-1.65214 -0.075235568 2.4540987 2051713
-1.6404064 -0.074805312 2.4793208 1919353
-1.8543992 -0.023926539 2.497997 2185099
-1.8261834 -0.024824996 2.484858 2119050
-1.7764515 -0.025058411 2.4617088 2184841
-1.6523488 -0.025420249 2.4544079 2315395
-1.640651 -0.024864355 2.4795494 2182780
-1.8533821 0.024836782 2.497853 1853570
-1.8236128 0.024760533 2.4839973 1721985
-1.7739325 0.025106955 2.4608772 1656448
-1.6522195 0.026135197 2.4554691 1654133
-1.6408854 0.024517097 2.4798005 1521774
-1.9644116 0.099972658 2.4877522 10197915
-1.9248801 0.099953562 2.4872773 10197915
-1.8591496 0.080248676 2.4952431 6057867
-1.8240844 0.075381033 2.4844158 5072264
-1.7746097 0.075007036 2.4615269 5006985
-1.6523536 0.075292639 2.4559278 4546692
-1.6403297 0.075519651 2.4803123 4348542
-1.5749511 0.099784546 2.4830713 10197915
-1.5241694 0.099760018 2.4824605 10197915
-1.4744486 0.099735998 2.481863 10197915
-1.4247516 0.099711992 2.4812653 10197915
-1.3750787 0.099687994 2.4806683 10197915
-1.3254296 0.099664003 2.4800713 10197915
-1.2758045 0.099640042 2.4794753 10197915
-1.2251703 0.099615581 2.4788671 10197915
-1.1745604 0.099591136 2.4782584 10197915
-1.1250077 0.099567205 2.4776626 10197915
-1.0754788 0.099543273 2.4770675 10197915
-1.0249429 0.099518873 2.4764597 10197915
-0.97443134 0.09949448 2.4758527 10197915
-0.92497486 0.099470586 2.4752581 10197915
-0.8755421 0.099446692 2.4746644 10197915
-0.825104 0.099422343 2.4740577 10197915
-0.77469039 0.09939798 2.4734514 10197915
-0.72532988 0.099374138 2.4728584 10197915
-0.67496526 0.099349812 2.4722531 10197915
-0.62462527 0.099325508 2.471648 10197915
-0.57533664 0.099301696 2.471056 10197915
-0.52504545 0.099277399 2.4704511 10197915
-0.4747788 0.099253118 2.4698467 10197915
-0.42556193 0.099229358 2.4692552 10197915
-0.37534401 0.099205084 2.468652 10197915
-0.32515058 0.099180855 2.4680481 10197915
-0.2749818 0.099156611 2.4674454 10197915
-0.22483732 0.099132396 2.4668427 10197915
-0.17471755 0.099108174 2.4662402 10197915
-0.12462207 0.099083997 2.4656382 10197915
-0.074551225 0.09905979 2.4650366 10197915
-0.024504639 0.099035628 2.4644351 10197915
0.024496833 0.099011965 2.463846 10197915
0.074494928 0.098987818 2.4632449 10197915
0.12548833 0.098963171 2.4626319 10197915
0.17543738 0.098939054 2.4620316 10197915
0.22536184 0.098914929 2.4614315 9408399
0.27526221 0.098890841 2.4608316 6447714
0.30682009 0.098875597 2.4604526 6447714
-1.9642457 -0.87238652 2.5433943 2039583
-1.924857 -0.87192035 2.5250628 2039583
-1.8845959 -0.87185711 2.5063243 2039583
-1.6136732 -0.87130558 2.5246491 7569033
-1.9643503 -0.82490772 2.5437629 3032155
-1.9251672 -0.82507086 2.5255244 2835032
-1.8849908 -0.8250612 2.5068243 2703445
-1.6139425 -0.82504523 2.5247743 1257290
-1.9638655 -0.77420187 2.5438793 4156828
-1.9246947 -0.77545315 2.5256381 3894170
-1.884762 -0.77442622 2.5070596 3894427
-1.6142794 -0.77525932 2.5248075 1322827
-1.9620796 -0.72515744 2.5433795 4090779
-1.9244027 -0.72495937 2.5258441 3762586
-1.884149 -0.724985 2.5071082 3697306
-1.6147949 -0.725097 2.5244601 1520462
-1.9622988 -0.67500973 2.5438197 3761558
-1.9247572 -0.67494029 2.5263469 3499157
-1.8844928 -0.67495722 2.5076065 3367829
-1.6150081 -0.67510277 2.5247622 1520975
-1.9627478 -0.62494725 2.544368 3893914
-1.9251448 -0.62504023 2.5268652 3631257
-1.8841335 -0.62435526 2.507781 3434136
-1.6152083 -0.62497485 2.5250947 1586511
-1.9614403 -0.57487941 2.5440967 3960221
-1.9255335 -0.57511967 2.5273833 3960477
-1.8836781 -0.5748499 2.5079036 3697563
-1.6158036 -0.57489365 2.5245793 1389390
-1.9619052 -0.5249992 2.5446494 3960221
-1.9246899 -0.524858 2.527329 3763099
-1.8828709 -0.52526796 2.5078623 3566234
-1.6160564 -0.52504855 2.5247939 1059400
-1.9622296 -0.47522274 2.545136 3500186
-1.9247558 -0.47509634 2.5276973 3434650
-1.8818877 -0.4744007 2.5077488 3369114
-1.6163993 -0.47523573 2.524812 1059400
-1.9610354 -0.42507282 2.54492 3236502
-1.9251467 -0.42504978 2.5282164 3039637
-1.8816997 -0.42496157 2.5079956 3039637
-1.6169188 -0.42502242 2.5244584 1125706
-1.9606086 -0.37422702 2.5450647 2643597
-1.9248095 -0.37539735 2.5283952 2512269
-1.8820769 -0.37497681 2.5085087 2512269
-1.6171134 -0.37498966 2.5248032 1125706
-1.9599974 -0.32527253 2.5451114 2710159
-1.9242631 -0.32508299 2.5284805 2644367
-1.8812431 -0.32459322 2.50846 2578574
-1.6172973 -0.3249833 2.5251675 1059913
-1.9590951 -0.27482942 2.545032 3171734
-1.9247695 -0.27513692 2.5290534 2974357
-1.8812459 -0.27499765 2.5087969 3106198
-1.617991 -0.27502435 2.524437 1059657
-1.9593102 -0.22533214 2.5454659 2711186
-1.9251601 -0.2250306 2.5295739 2645650
-1.8815165 -0.22481064 2.5092618 2711955
-1.6181784 -0.22500724 2.5247941 1059656
-1.9594457 -0.17590947 2.5458639 2711956
-1.925539 -0.17504381 2.5300882 2712212
-1.8805865 -0.17449127 2.5091689 2778004
-1.6185369 -0.17516239 2.5247834 993606
-1.9585743 -0.12445332 2.5458059 2579857
-1.9247131 -0.12493513 2.5300419 2580113
-1.8798766 -0.12521577 2.509171 2580113
-1.6190138 -0.124941 2.5245223 927299
-1.9589754 -0.074897982 2.5463264 2513550
-1.9246503 -0.075412951 2.5303466 2381964
-1.8795667 -0.074767984 2.5093675 2118538
-1.6192591 -0.075113826 2.5247524 1125960
-1.9588969 -0.026527246 2.5466168 2315915
-1.9251142 -0.025163678 2.5309014 2250122
-1.8784332 -0.024947666 2.509176 2184843
-1.6194459 -0.025002375 2.5251124 1125959
-1.9575208 0.026615445 2.5463355 1788035
-1.9249905 0.024809569 2.5311828 1788035
-1.8788196 0.024954516 2.5096927 1722242
-1.6200321 0.02510255 2.524616 927812
-2.0076754 0.099701598 2.5332389 10197915
-1.9599963 0.079180367 2.5440354 5926283
-1.924438 0.075764969 2.5311108 5269128
-1.8789283 0.075135626 2.5100822 5071752
-1.6202151 0.075195678 2.5247169 3491676
-1.5751367 0.099493295 2.5279458 10197915
-1.5244927 0.099468894 2.5273261 10197915
-1.4749277 0.099445023 2.5267196 10197915
-1.4253865 0.099421166 2.5261133 10197915
-1.3748158 0.099396795 2.5254946 10197915
-1.3242699 0.099372476 2.5248761 10197915
-1.2748008 0.099348642 2.5242705 10197915
-1.2253557 0.099324822 2.5236654 10197915
-1.1748829 0.099300511 2.5230477 10197915
-1.1244348 0.099276237 2.5224307 10197915
-1.0750616 0.099252433 2.5218263 10197915
-1.025712 0.099228658 2.5212224 10197915
-0.97533697 0.099204399 2.5206058 10197915
-0.92498636 0.09918014 2.5199902 10197915
-0.87466055 0.099155903 2.5193741 10197915
-0.82435924 0.099131696 2.5187585 10197915
-0.77512974 0.099107988 2.5181561 10197915
-0.72592378 0.099084295 2.517554 10197915
-0.67569524 0.099060096 2.5169392 10197915
-0.62549096 0.099035926 2.516325 10197915
-0.57531136 0.099011742 2.5157106 10197915
-0.52515626 0.098987587 2.5150969 10197915
-0.47502553 0.098963447 2.5144835 10197915
-0.42491928 0.098939322 2.5138705 10197915
-0.37483755 0.09891519 2.5132577 10197915
-0.3247802 0.098891087 2.512645 10197915
-0.27474716 0.098866977 2.5120327 10197915
-0.22473855 0.098842897 2.5114207 10197915
-0.17475431 0.098818831 2.5108092 10197915
-0.12479442 0.098794781 2.5101974 10197915
-0.074858814 0.09877073 2.509587 10197915
-0.024947541 0.098746687 2.5089762 10197915
0.024939455 0.098722667 2.5083659 10197915
0.074802175 0.098698653 2.5077558 10197915
0.12464064 0.098674648 2.5071456 10197915
0.17445487 0.098650657 2.5065358 10197915
0.22424488 0.098626681 2.5059266 9803157
0.27504712 0.098602198 2.5053051 6447714
0.31028396 0.098585241 2.504874 6447714
-2.0542924 -0.87291265 2.5853009 2039583
-2.0255892 -0.87237453 2.5719452 2039583
-1.9889396 -0.87203121 2.5548892 2039583
-1.6008472 -0.87179404 2.5521998 7766411
-1.5894687 -0.87170833 2.5766537 7831691
-2.0547013 -0.82487893 2.5858157 3557728
-2.0259008 -0.82508606 2.5724094 3295070
-1.9891696 -0.82497996 2.5553141 3163484
-1.6010267 -0.8248353 2.5525274 1585998
-1.5896314 -0.82506907 2.5770097 1914447
-2.0539598 -0.77228433 2.5858257 5339041
-2.0254219 -0.77545291 2.5725217 4945056
-1.9896622 -0.77493137 2.5558822 4419485
-1.6014287 -0.77234763 2.5524633 1454413
-1.5898613 -0.77503687 2.577275 1783119
-2.053901 -0.72496819 2.5861192 5142433
-2.0243125 -0.72450912 2.5723507 4945312
-1.987704 -0.72553355 2.5553029 4485535
-1.6014683 -0.72433293 2.5531075 1652047
-1.589658 -0.72496468 2.5784743 1849168
-2.0542319 -0.67476106 2.5866115 4615579
-2.0237687 -0.67496914 2.5724313 4155544
-1.9871064 -0.67496604 2.5553675 3892886
-1.6016356 -0.6749292 2.5535002 1783889
-1.5898075 -0.6748988 2.5789158 2046547
-2.0547047 -0.62487775 2.5871682 5010850
-2.0243106 -0.62500781 2.5730202 4485536
-1.9874972 -0.62503952 2.555886 4091036
-1.6018331 -0.62502295 2.5538337 1586255
-1.5904514 -0.62506539 2.5782921 1717584
-2.0551772 -0.57497215 2.5877249 4551071
-2.0247111 -0.5750286 2.5735457 4354207
-1.9862732 -0.57491404 2.5556548 4157086
-1.6020598 -0.57510698 2.5541053 1455183
-1.5906662 -0.57498723 2.5785871 1586255
-2.0555084 -0.52470571 2.5882189 4025500
-2.0250251 -0.52502477 2.574029 3959451
-1.9866126 -0.52499455 2.5561502 3828379
-1.6020371 -0.52360511 2.5549383 1256522
-1.5906676 -0.52528709 2.5793431 1585999
-2.0559785 -0.47511575 2.5887733 3828636
-2.0256059 -0.47500297 2.5746372 3697307
-1.9870095 -0.47481808 2.556674 3631514
-1.6021718 -0.47369581 2.5554082 1256779
-1.5906012 -0.47504491 2.5802512 1520462
-2.056452 -0.42514706 2.5893309 3565722
-2.0258627 -0.42503121 2.5750942 3367830
-1.985803 -0.42493808 2.5564499 3236245
-1.6026787 -0.42501023 2.5550594 1191499
-1.5908417 -0.42501763 2.5804958 1323084
-2.0556736 -0.37307888 2.5893199 3434136
-2.0254476 -0.375402 2.5752358 2906768
-1.9862143 -0.37488523 2.5569787 2643341
-1.602837 -0.37495083 2.5554793 1191499
-1.5909951 -0.37497753 2.5809221 1257292
-2.0555556 -0.32506844 2.5895889 3105687
-2.0243876 -0.32452881 2.5750864 2775952
-1.9857996 -0.32524249 2.5571206 2709903
-1.6030469 -0.32488024 2.5557907 1257291
-1.5916262 -0.32511583 2.5803249 1323341
-2.0560513 -0.27523005 2.5901566 2709905
-2.0237827 -0.27503449 2.5751379 2908308
-1.9836233 -0.27502283 2.5564477 2974357
-1.6028395 -0.27498209 2.5569947 1257548
-1.5914105 -0.27497941 2.5815501 1389133
-2.056335 -0.22485957 2.5906289 2513552
-2.0243256 -0.22508135 2.5757287 2579858
-1.9843148 -0.22493 2.5571074 2711187
-1.6029829 -0.22491066 2.5574472 1125449
-1.591617 -0.22498082 2.5818679 1323340
-2.0568316 -0.17498 2.591197 2844312
-2.0246215 -0.17489466 2.5762055 2778519
-1.9839897 -0.17466319 2.5572956 2580628
-1.6034507 -0.1743038 2.5572126 993863
-1.5918558 -0.17502519 2.582118 1454668
-2.0572512 -0.12562454 2.5917261 2712469
-2.0249979 -0.12504409 2.5767195 2777748
-1.9833391 -0.1250166 2.5573289 2711955
-1.6038669 -0.12500428 2.5570679 927557
-1.5919877 -0.12511888 2.5825915 1257547
-2.0576797 -0.075175218 2.5922656 2579343
-2.0256102 -0.074810572 2.5773418 2645392
-1.983747 -0.075237066 2.5578544 2645135
-1.6038414 -0.074518748 2.5578887 1125961
-1.5920293 -0.075103506 2.5832617 1257803
-2.058109 -0.024705037 2.5928071 2184074
-2.0258965 -0.024635946 2.5778136 2381964
-1.9835719 -0.024888961 2.5581129 2447757
-1.6038188 -0.025440242 2.5586851 1191753
-1.5923266 -0.02483568 2.5833886 1257546
-2.0574868 0.026035383 2.59286 1787778
-2.0253799 0.024222583 2.5779035 1920391
-1.9829175 0.025436334 2.5581477 1919877
-1.6040258 0.025444616 2.5590148 1059141
-1.5926095 0.024618011 2.5835302 1059141
-2.0571976 0.074344173 2.5929637 5138057
-2.0247741 0.075503834 2.577831 5400970
-1.9827787 0.074734442 2.5584166 5006473
-1.6042277 0.075282015 2.5593383 3556955
-1.5918163 0.075472489 2.5832303 3754077
-1.5248297 0.099167176 2.5738466 10197915
-1.4743525 0.099142931 2.5732164 10197915
-1.4249732 0.099119239 2.5726013 10197915
-1.3756176 0.099095523 2.5719869 10197915
-1.3252133 0.099071331 2.5713589 10197915
-1.2748336 0.099047132 2.5707312 10197915
-1.2255497 0.099023476 2.5701172 10197915
-1.1752187 0.098999314 2.5694895 10197915
-1.1249121 0.098975152 2.5688629 10197915
-1.0746303 0.098951004 2.5682356 10197915
-1.0243728 0.098926865 2.5676093 10197915
-0.97520846 0.098903283 2.5669971 10197915
-0.92499977 0.098879158 2.5663702 10197915
-0.87481534 0.098855071 2.5657461 10197915
-0.82465529 0.09883099 2.56512 10197915
-0.77451974 0.098806918 2.5644958 10197915
-0.72547448 0.098783366 2.5638845 10197915
-0.67538732 0.098759316 2.5632598 10197915
-0.62532431 0.09873528 2.5626359 10197915
-0.57528591 0.09871123 2.5620127 10197915
-0.52527171 0.098687224 2.5613894 10197915
-0.47528198 0.098663233 2.5607665 10197915
-0.4253163 0.098639242 2.5601439 10197915
-0.37537527 0.098615259 2.5595212 10197915
-0.3254582 0.098591298 2.5588994 10197915
-0.27556565 0.098567337 2.5582774 10197915
-0.22463645 0.098542869 2.5576427 10197915
-0.17479265 0.09851893 2.5570216 10197915
-0.12497321 0.098495014 2.556401 10197915
-0.075177841 0.09847112 2.5557806 10197915
-0.025406783 0.098447226 2.5551598 10197915
0.025398394 0.098422833 2.5545275 10197915
0.075120814 0.098398969 2.5539069 10197915
0.12481897 0.098375082 2.5532882 10197915
0.17554973 0.098350726 2.5526557 10197915
0.22825395 0.098197974 2.5716283 10132122
0.27471158 0.098151118 2.5748293 6579300
0.31428185 0.098111615 2.577498 6447714
-1.567009 -0.87174743 2.6249084 8094604
-1.567438 -0.82517517 2.6246953 2571090
-1.5678805 -0.77497172 2.6245091 2439505
-1.5680819 -0.72491199 2.6248369 2571604
-1.5682936 -0.6748845 2.6251445 2440276
-1.5689492 -0.62493026 2.6244946 2243155
-1.5691569 -0.57494396 2.6248105 1980241
-1.5694641 -0.52513242 2.6249051 1980498
-1.5700363 -0.47495866 2.624439 1980754
-1.5702285 -0.42499781 2.6247845 1585742
-1.5704386 -0.37497953 2.6250937 1520462
-1.5710603 -0.32488668 2.6245213 1520719
-1.5712733 -0.27498266 2.6248209 1520719
-1.5715324 -0.22507021 2.6250222 1454926
-1.5722114 -0.17500226 2.624325 1586510
-1.5724319 -0.12500682 2.6246128 1322827
-1.5725386 -0.07504154 2.6251445 1257291
-1.5731314 -0.024865212 2.6246321 1257033
-1.5734088 0.025011195 2.6247909 1125191
-1.5734987 0.074946001 2.6247933 3688284
-1.524083 0.098853514 2.6220942 10197915
-1.4748477 0.09882994 2.6214693 10197915
-1.4256362 0.098806381 2.6208444 10197915
-1.3753548 0.098782323 2.6202056 10197915
-1.3250982 0.098758265 2.6195676 10197915
-1.2748659 0.098734215 2.6189301 10197915
-1.2246581 0.098710172 2.6182928 10197915
-1.1744748 0.098686166 2.6176555 10197915
-1.124316 0.09866216 2.6170187 10197915
-1.0741814 0.098638162 2.6163824 10197915
-1.0240715 0.098614186 2.6157458 10197915
-0.97398561 0.098590195 2.6151099 10197915
-0.92501205 0.098566763 2.6144879 10197915
-0.87606215 0.098543309 2.6138668 10197915
-0.82604831 0.0985194 2.6132319 10197915
-0.77605861 0.098495476 2.612597 10197915
-0.72500759 0.098471023 2.6119487 10197915
-0.67398161 0.0984466 2.6113012 10197915
-0.62406588 0.098422714 2.6106675 10197915
-0.5741744 0.098398827 2.6100342 10197915
-0.52430719 0.09837497 2.609401 10197915
-0.47446403 0.098351106 2.608768 10197915
-0.42464513 0.098327264 2.6081355 10197915
-0.37485036 0.098303422 2.6075034 10197915
-0.32507968 0.09827961 2.6068718 10197915
-0.27533317 0.098255791 2.60624 10197915
-0.22561073 0.098232001 2.6056089 10197915
-0.1759124 0.098208219 2.6049776 10197915
-0.12515862 0.098183922 2.6043332 10197915
-0.074429758 0.098159648 2.6036897 10197915
-0.024804577 0.098135896 2.6030598 10197915
0.024796579 0.098112151 2.6024294 10197915
0.074373737 0.098088406 2.6018004 10197915
0.12500381 0.098064184 2.6011572 10197915
0.17854337 0.097990766 2.6078382 10197915
0.22102788 0.097770952 2.6380236 10197915
0.27544951 0.097669728 2.648912 7039851
0.31927812 0.097648799 2.648345 6447714
-1.552559 -0.87233847 2.6559489 8291725
-1.5412316 -0.87191415 2.6802945 8488846
-1.5530051 -0.82392037 2.6557279 3096917
-1.541428 -0.82494289 2.6805878 3820378
-1.5531435 -0.7739526 2.6561899 3096661
-1.5413525 -0.77535808 2.681504 3754586
-1.5531445 -0.72491425 2.6569328 3031125
-1.5413213 -0.72493488 2.6823378 3622745
-1.5533539 -0.67499465 2.6572421 2833747
-1.5415899 -0.67511028 2.6825173 3359574
-1.5535258 -0.6250639 2.6576326 2768725
-1.542205 -0.62499291 2.6819589 3162711
-1.5537355 -0.5749597 2.6579442 2571348
-1.542397 -0.57506776 2.6823051 2965590
-1.553772 -0.52358007 2.6586475 2374740
-1.542341 -0.5254811 2.6831779 2702676
-1.5541453 -0.47508678 2.6585824 2243411
-1.542309 -0.47495699 2.6840169 2505812
-1.5543125 -0.42508557 2.658983 1782606
-1.5424684 -0.42497334 2.6844337 2111312
-1.5545295 -0.37494919 2.6592786 1585742
-1.5426995 -0.37504941 2.6846964 1782605
-1.5547268 -0.32492444 2.6596162 1717584
-1.5433004 -0.32519796 2.6841638 1783119
-1.5546122 -0.27435821 2.6606305 1586511
-1.5433028 -0.2754685 2.6849132 1783632
-1.5546794 -0.22494122 2.6612353 1454926
-1.5433104 -0.22510116 2.6856625 1717839
-1.5553349 -0.17506319 2.6605873 1652046
-1.5434188 -0.17496642 2.6861942 1586510
-1.5554792 -0.12467088 2.6610427 1257034
-1.5437162 -0.12499699 2.6863127 1257034
-1.5557141 -0.075076289 2.661293 1125449
-1.5437896 -0.074911922 2.6869164 1125961
-1.555626 -0.024815137 2.6622481 1059399
-1.5441114 -0.025877548 2.6869736 1059143
-1.5555995 0.02537591 2.6630664 1191240
-1.5442924 0.024806535 2.687355 1257546
-1.5558143 0.074942939 2.6633542 3754847
-1.5427963 0.075873777 2.6865776 4215139
-1.4753617 0.098504961 2.6715648 10197915
-1.4252098 0.098481052 2.6709161 10197915
-1.3750821 0.098457128 2.6702676 10197915
-1.3249787 0.098433234 2.6696193 10197915
-1.2748996 0.098409317 2.6689713 10197915
-1.2248445 0.098385461 2.6683238 10197915
-1.1748141 0.098361589 2.6676762 10197915
-1.1248078 0.098337717 2.6670294 10197915
-1.074826 0.09831389 2.6663826 10197915
-1.024868 0.098290063 2.665736 10197915
-0.97493452 0.098266229 2.6650901 10197915
-0.92502517 0.09824241 2.6644442 10197915
-0.87514001 0.09821862 2.6637983 10197915
-0.82527888 0.09819483 2.6631536 10197915
-0.77544212 0.098171048 2.6625092 10197915
-0.72452277 0.098146774 2.66185 10197915
-0.67473453 0.098123007 2.661206 10197915
-0.62497067 0.098099262 2.6605618 10197915
-0.57523054 0.098075539 2.6599188 10197915
-0.52551472 0.098051831 2.6592751 10197915
-0.47471896 0.098027594 2.6586175 10197915
-0.42505151 0.098003887 2.6579752 10197915
-0.37540835 0.097980209 2.6573331 10197915
-0.32468671 0.097956017 2.6566765 10197915
-0.27509186 0.097932339 2.6560352 10197915
-0.22552107 0.097908705 2.6553938 10197915
-0.17487341 0.097884551 2.6547379 10197915
-0.12425075 0.097860396 2.6540835 10197915
-0.074752659 0.097836785 2.6534431 10197915
-0.025278602 0.097813182 2.6528032 10197915
0.025270298 0.097789072 2.652149 10197915
0.07579428 0.097764976 2.6514955 10197915
0.12519591 0.097741395 2.6508565 10197915
0.17018569 0.09771993 2.6502743 10197915
0.32883802 0.097309306 2.6998079 6447714
-1.520493 -0.8721953 2.7248535 8752015
-1.5207418 -0.82498085 2.7250333 4543325
-1.5210284 -0.7751826 2.7251801 4411996
-1.5216345 -0.72494435 2.7246389 4214876
-1.5218929 -0.67482656 2.7248454 3885657
-1.5225211 -0.62506318 2.7242551 3623002
-1.5227041 -0.57503432 2.7246201 3294296
-1.5229206 -0.52499336 2.7249165 2834004
-1.5230811 -0.47498897 2.7253349 2637396
-1.5237342 -0.42519858 2.7246845 2177104
-1.5240083 -0.37504661 2.7248576 1914447
-1.524611 -0.32485744 2.7243283 1783119
-1.5248961 -0.27501306 2.7244737 1717840
-1.5251091 -0.22498679 2.7247751 1652303
-1.5252467 -0.17499471 2.7252398 1520718
-1.5256602 -0.12518863 2.7251103 1257034
-1.5262383 -0.074762836 2.7246354 1125705
-1.5266266 -0.024561444 2.7245619 993606
-1.5270433 0.024831798 2.7244174 1257546
-1.5270644 0.074492671 2.7244556 3820639
-1.4758961 0.098167345 2.7236125 10197915
-1.4259031 0.09814357 2.7229531 10197915
-1.3759341 0.09811981 2.7222943 10197915
-1.3259892 0.098096058 2.7216356 10197915
-1.2760686 0.098072335 2.7209768 10197915
-1.2250384 0.098048083 2.720304 10197915
-1.1740334 0.098023817 2.719631 10197915
-1.1241863 0.098000124 2.7189736 10197915
-1.0743632 0.097976416 2.7183163 10197915
-1.0245644 0.097952753 2.7176592 10197915
-0.97478938 0.09792909 2.7170029 10197915
-0.9250387 0.097905427 2.7163467 10197915
-0.87531185 0.097881801 2.7156904 10197915
-0.82560903 0.097858168 2.715035 10197915
-0.77593023 0.097834542 2.7143798 10197915
-0.72514719 0.097810403 2.7137101 10197915
-0.67438912 0.097786278 2.7130404 10197915
-0.62478328 0.097762682 2.7123861 10197915
-0.57520127 0.097739108 2.7117319 10197915
-0.52564323 0.097715564 2.7110784 10197915
-0.47498366 0.097691461 2.7104101 10197915
-0.42434901 0.097667404 2.7097418 10197915
-0.37486365 0.09764386 2.7090893 10197915
-0.32540214 0.097620368 2.708437 10197915
-0.27484131 0.09759631 2.7077699 10197915
-0.22430506 0.097572275 2.7071033 10197915
-0.17491609 0.09754879 2.7064517 10197915
-0.12555085 0.097525358 2.7058008 10197915
-0.07508833 0.097501352 2.7051353 10197915
-0.024650438 0.097477384 2.7044702 10197915
0.024642538 0.097453944 2.7038202 10197915
0.075031206 0.097429991 2.7031553 10197915
0.1253953 0.09740603 2.7024908 10197915
0.17461616 0.097382635 2.7018416 10197915
0.22493114 0.097358711 2.7011781 10197915
0.27522162 0.09733481 2.7005146 7434609
0.30650175 0.097319923 2.7001016 6447714
-1.5044186 -0.8722446 2.7593913 8620431
-1.4927503 -0.87235427 2.7844615 8291725
-1.5045981 -0.82518709 2.7597206 4017243
-1.492995 -0.82525927 2.784652 3425623
-1.5045831 -0.77399445 2.7605319 3951450
-1.4932874 -0.77538955 2.7847807 3360087
-1.5049779 -0.7250458 2.7604272 3754586
-1.4932878 -0.72491318 2.7855484 3162453
-1.5051811 -0.6749267 2.760752 3491159
-1.4934846 -0.67499012 2.7858832 3096917
-1.5053531 -0.62490982 2.7611434 3360345
-1.4936779 -0.6250574 2.7862267 2965589
-1.5055683 -0.57488048 2.7614427 3031639
-1.4938654 -0.57501256 2.7865865 2702675
-1.5056834 -0.52464521 2.7619591 2637140
-1.4940045 -0.52522099 2.787046 2374226
-1.505426 -0.47498816 2.7632675 2440275
-1.4939833 -0.47557136 2.7878444 2111568
-1.5060384 -0.42474428 2.7627158 2045776
-1.4944448 -0.42511576 2.787621 1848655
-1.5063211 -0.37495768 2.7628651 1717069
-1.4946018 -0.37515655 2.788044 1651533
-1.5065161 -0.32501733 2.7632051 1651534
-1.4948238 -0.32495198 2.7883291 1585741
-1.5067149 -0.2750653 2.7635381 1454412
-1.4949908 -0.2749683 2.7887294 1322313
-1.5065855 -0.22451814 2.764585 1454925
-1.494898 -0.22573464 2.7896802 1257034
-1.5065342 -0.17502125 2.7654476 1389133
-1.4949102 -0.17533909 2.7904172 1323084
-1.5069619 -0.12472254 2.7652924 1191498
-1.4955624 -0.12482312 2.7897854 1125449
-1.5075083 -0.075361624 2.7648685 1125961
-1.4957508 -0.075134315 2.7901371 1125705
-1.5076432 -0.025203733 2.7653434 993606
-1.4959388 -0.025432907 2.7904882 993606
-1.5078351 0.025208021 2.7656968 1257803
-1.4961319 0.025437267 2.7908473 1257546
-1.5075849 0.074504331 2.7669795 3886688
-1.4930825 0.076971449 2.7902665 4609895
-1.4254651 0.097792134 2.7770431 10197915
-1.375662 0.097768545 2.7763731 10197915
-1.3247253 0.097744413 2.7756879 10197915
-1.2749704 0.097720839 2.7750187 10197915
-1.2252399 0.09769728 2.7743495 10197915
-1.1743776 0.097673178 2.773665 10197915
-1.1246951 0.097649656 2.7729971 10197915
-1.0750369 0.09762612 2.7723286 10197915
-1.0242487 0.097602077 2.7716455 10197915
-0.97463864 0.097578563 2.770978 10197915
-0.92505258 0.097555071 2.7703114 10197915
-0.87433815 0.09753105 2.769629 10197915
-0.82480037 0.097507581 2.7689624 10197915
-0.77528661 0.097484134 2.7682962 10197915
-0.72464585 0.097460143 2.7676153 10197915
-0.67517996 0.097436704 2.7669494 10197915
-0.62573808 0.097413294 2.7662847 10197915
-0.57517093 0.097389318 2.7656043 10197915
-0.52462864 0.097365372 2.764924 10197915
-0.47411117 0.097341448 2.7642448 10197915
-0.42476574 0.097318068 2.763581 10197915
-0.37544414 0.097294718 2.7629175 10197915
-0.32500002 0.097270817 2.7622387 10197915
-0.2745806 0.097246937 2.7615602 10197915
-0.22418594 0.097223043 2.7608826 10197915
-0.17496045 0.097199738 2.7602203 10197915
-0.12575875 0.097176433 2.7595587 10197915
-0.075437166 0.097152591 2.7588816 10197915
-0.025140237 0.097128771 2.7582052 10197915
0.025132023 0.097104959 2.7575288 10197915
0.075379632 0.097081155 2.7568529 10197915
0.12560262 0.097057365 2.7561772 10197915
0.17580101 0.09703359 2.7555017 10197915
0.22597475 0.097009808 2.7548265 10197915
0.2749846 0.096986592 2.7541676 7829367
0.32397076 0.096963383 2.7535093 6447714
0.35016412 0.096950971 2.7531562 6447714
-1.4736894 -0.87249011 2.8254147 8028811
-1.4739865 -0.82492191 2.8255007 2702674
-1.4749359 -0.77533454 2.8242147 2768467
-1.475359 -0.7250005 2.8240693 2505296
-1.4755268 -0.67499959 2.8244703 2505554
-1.475737 -0.62493026 2.8247826 2440018
-1.475891 -0.57501584 2.8252084 2242897
-1.4761224 -0.5250324 2.8254716 2045776
-1.4766405 -0.47470307 2.8251252 1848655
-1.4775178 -0.42521018 2.8239918 1717325
-1.477722 -0.37508118 2.8243129 1585740
-1.477962 -0.32497889 2.8245606 1454155
-1.4781219 -0.27497301 2.8249774 1256264
-1.4783432 -0.22506867 2.8252597 1257034
-1.4785944 -0.17503993 2.8254824 1323340
-1.4793037 -0.12533019 2.8247118 1257034
-1.4799742 -0.074820548 2.8240416 1257033
-1.4802109 -0.024743617 2.8242939 1059142
-1.4803958 0.02474775 2.8246479 993605
-1.4801573 0.074108742 2.8252385 3753820
-1.4250098 0.097426459 2.8333247 10197915
-1.3741976 0.097402468 2.832628 10197915
-1.3245908 0.097379059 2.8319471 10197915
-1.2750082 0.097355664 2.8312666 10197915
-1.2254494 0.097332276 2.830586 10197915
-1.1759144 0.097308889 2.829906 10197915
-1.1252247 0.097284965 2.8292103 10197915
-1.0745599 0.097261064 2.8285153 10197915
-1.0250974 0.097237714 2.8278363 10197915
-0.97565854 0.097214378 2.8271575 10197915
-0.92506731 0.097190507 2.826463 10197915
-0.87450081 0.097166643 2.8257692 10197915
-0.82513416 0.09714333 2.8250918 10197915
-0.77579129 0.097120047 2.8244145 10197915
-0.72529811 0.097096227 2.8237209 10197915
-0.6748296 0.0970724 2.823029 10197915
-0.62555873 0.097049147 2.8223522 10197915
-0.57513928 0.09702535 2.8216605 10197915
-0.52474439 0.097001567 2.8209689 10197915
-0.47554544 0.096978344 2.8202932 10197915
-0.42519942 0.096954584 2.8196025 10197915
-0.37487808 0.096930832 2.8189116 10197915
-0.3245815 0.096907109 2.8182213 10197915
-0.27430931 0.096883379 2.8175311 10197915
-0.22523013 0.096860208 2.8168578 10197915
-0.17500681 0.096836515 2.8161683 10197915
-0.12480786 0.096812814 2.8154798 10197915
-0.07463365 0.096789144 2.814791 10197915
-0.024483804 0.096765473 2.8141026 10197915
0.024476012 0.096742354 2.8134305 10197915
0.07457722 0.096718721 2.8127427 10197915
0.12465412 0.096695073 2.8120556 10197915
0.1747064 0.096671462 2.8113687 10197915
0.22473438 0.096647851 2.8106823 10197915
0.27473775 0.096624248 2.8099959 8289918
0.32471693 0.096600667 2.8093097 6447714
0.35376424 0.096586958 2.8089111 6447714
-1.4558104 -0.87269759 2.8638289 7766154
-1.4443477 -0.87262303 2.8884602 7634825
-1.4559491 -0.82501596 2.8642538 2045775
-1.4445232 -0.82485664 2.8888102 1914703
-1.4565022 -0.77457374 2.8638334 2045775
-1.4446999 -0.77482176 2.8891897 1848910
-1.456925 -0.72509116 2.8636782 1848397
-1.444908 -0.72490811 2.889502 1651276
-1.4570904 -0.67505091 2.8640847 1914190
-1.4451215 -0.67510206 2.8898017 1717325
-1.4572577 -0.62509692 2.8644853 2046032
-1.445838 -0.624924 2.8890259 1783118
-1.4570246 -0.5747118 2.8657522 1980496
-1.4455913 -0.57559186 2.8903053 1783118
-1.4570838 -0.52506226 2.8663778 1783118
-1.4456333 -0.52493548 2.8909855 1717326
-1.457274 -0.47497377 2.8667324 1717326
-1.4458238 -0.47503433 2.8913345 1651790
-1.4579747 -0.42482525 2.8659899 1453642
-1.4460146 -0.4251214 2.8916826 1322313
-1.4581854 -0.37515217 2.8662932 1256264
-1.4461738 -0.37502441 2.8921003 1256264
-1.4583741 -0.32514995 2.8666468 1454155
-1.4465041 -0.32547373 2.8921475 1454154
-1.4582828 -0.27473688 2.8676076 1454668
-1.4468423 -0.27552968 2.8921809 1520460
-1.4582003 -0.22508512 2.868542 1323083
-1.446707 -0.22437499 2.893249 1323339
-1.4583998 -0.17487921 2.8688769 1323340
-1.4469095 -0.17501892 2.8935637 1389132
-1.4586802 -0.12450813 2.8690388 1323082
-1.4471129 -0.12565288 2.8938777 1257546
-1.4592882 -0.074867412 2.8684881 1256776
-1.4472744 -0.075540937 2.8942928 1059398
-1.4594725 -0.024958616 2.8688507 1190983
-1.4474589 -0.025183162 2.8946617 1125447
-1.4595159 0.025246399 2.8695221 927300
-1.4477904 0.022623174 2.894676 861507
-1.4592668 0.073739298 2.8707943 3688027
-1.4415523 0.079599023 2.8944542 5266026
-1.3750856 0.097022533 2.891247 10197915
-1.3256583 0.096999317 2.8905544 10197915
-1.2750493 0.096975498 2.8898456 10197915
-1.2244654 0.096951723 2.8891368 10197915
-1.1751096 0.096928515 2.8884454 10197915
-1.1257777 0.096905321 2.8877542 10197915
-1.075267 0.096881591 2.8870471 10197915
-1.024781 0.096857846 2.8863392 10197915
-0.97431964 0.096834123 2.8856328 10197915
-0.92508364 0.096810982 2.8849425 10197915
-0.87587118 0.096787848 2.8842535 10197915
-0.82548296 0.096764155 2.8835475 10197915
-0.77511913 0.096740484 2.8828418 10197915
-0.7247802 0.096716821 2.8821368 10197915
-0.67446566 0.096693166 2.8814321 10197915
-0.62417579 0.096669525 2.8807271 10197915
-0.57510698 0.09664645 2.8800399 10197915
-0.52606171 0.096623398 2.8793528 10197915
-0.47584444 0.09659978 2.8786495 10197915
-0.42565164 0.096576191 2.8779457 10197915
-0.37548336 0.09655261 2.8772433 10197915
-0.32533962 0.096529029 2.8765409 10197915
-0.27522033 0.096505463 2.8758385 10197915
-0.22512549 0.096481912 2.8751369 10197915
-0.17505512 0.096458375 2.8744354 10197915
-0.12500915 0.096434869 2.8737342 10197915
-0.074987613 0.096411355 2.8730338 10197915
-0.024990454 0.096387826 2.872333 10197915
0.024982337 0.096364342 2.8716335 10197915
0.074930772 0.096340857 2.8709335 10197915
0.12485486 0.096317396 2.870234 10197915
0.17475463 0.096293941 2.869535 10197915
0.22463013 0.096270479 2.8688364 10197915
0.27448127 0.096247062 2.8681378 8684676
0.32430825 0.09622363 2.8674397 6447714
0.35751367 0.096208028 2.8669746 6447714
-1.4273816 -0.87286747 2.9249122 7503240
-1.4275936 -0.82492191 2.9251835 1454154
-1.4279269 -0.77522528 2.9252262 1585740
-1.4285612 -0.72507983 2.9246233 1717581
-1.4287424 -0.67498291 2.9249966 1717325
-1.4295222 -0.62504017 2.924082 1519947
-1.4296464 -0.57495987 2.9245732 1388106
-1.429881 -0.52492702 2.9248326 1454411
-1.4300174 -0.47500286 2.9252992 1322569
-1.4304708 -0.42528868 2.9250801 1190471
-1.4309912 -0.37498116 2.9247255 1124935
-1.4313353 -0.32476312 2.9247491 1322825
-1.4319618 -0.27506065 2.9241624 1454667
-1.4321213 -0.22499762 2.9245789 1323338
-1.432344 -0.17491665 2.9248605 1323338
-1.4324567 -0.12482778 2.9253826 1191240
-1.4329199 -0.075501673 2.9251382 993605
-1.433462 -0.025321804 2.9247348 1059654
-1.4339621 0.02564751 2.9244366 860993
-1.4343019 0.073777735 2.9244359 3688027
-1.2062252 0.096546896 2.9499104 10197915
-1.1754982 0.096532516 2.9494712 10197915
-1.1251243 0.096508935 2.9487507 10197915
-1.0747747 0.096485376 2.9480305 10197915
-1.025677 0.096462384 2.9473281 10197915
-0.97537601 0.096438818 2.9466085 10197915
-0.92509955 0.096415289 2.945889 10197915
-0.87484795 0.096391767 2.9451702 10197915
-0.82462043 0.096368238 2.9444518 10197915
-0.77564168 0.096345305 2.9437513 10197915
-0.72546285 0.096321821 2.9430332 10197915
-0.67530829 0.09629833 2.9423161 10197915
-0.62517834 0.096274868 2.9415989 10197915
-0.57507271 0.096251406 2.940882 10197915
-0.52499163 0.096227966 2.9401653 10197915
-0.47493467 0.096204527 2.9394495 10197915
-0.42490238 0.096181095 2.9387338 10197915
-0.3748942 0.096157685 2.9380183 10197915
-0.32491055 0.096134275 2.9373035 10197915
-0.2749511 0.096110895 2.9365888 10197915
-0.22501612 0.096087515 2.9358742 10197915
-0.17510521 0.096064135 2.9351606 10197915
-0.12521881 0.096040793 2.9344471 10197915
-0.075356416 0.096017443 2.9337335 10197915
-0.025518481 0.095994107 2.9330208 10197915
0.025510017 0.095970221 2.932291 10197915
0.075299151 0.095946923 2.9315784 10197915
0.12506391 0.095923617 2.9308665 10197915
0.17480469 0.095900327 2.930155 10197915
0.22452113 0.095877059 2.9294438 10197915
0.27542526 0.095853217 2.9287157 9079434
0.32509306 0.095829964 2.9280047 6447714
0.36142081 0.095812969 2.9274857 6447714
-1.4164966 -0.75774616 2.950052 1454154
-1.4166148 -0.7248075 2.9502988 1783116
