# .PCD v0.7 - Point Cloud Data file format
VERSION 0.7
FIELDS x y z rgb
SIZE 4 4 4 4
TYPE F F F U
COUNT 1 1 1 1
WIDTH 1201
HEIGHT 1
VIEWPOINT 0 0 0 1 0 0 0
POINTS 1201
DATA ascii
0.67502987 0.10663898 2.574266 10197915
0.72496116 0.10669065 2.574965 10197915
0.77107775 0.10678277 2.563993 10197915
0.82540417 0.10687897 2.5542803 10197915
0.87554914 0.10692899 2.5554752 10197915
0.92467302 0.10697799 2.5566463 10197915
0.97491145 0.1070281 2.5578437 10197915
1.0251964 0.10707826 2.5590422 10197915
1.0744578 0.10712738 2.5602167 10197915
1.1248366 0.10717762 2.5614173 10197915
1.1752625 0.10722791 2.5626194 10197915
1.2246612 0.10727716 2.5637968 10197915
1.2751812 0.10732758 2.5650012 10197915
1.3257481 0.10737801 2.5662065 10197915
1.3752854 0.10742742 2.5673869 10197915
1.4248683 0.10747687 2.5685692 10197915
1.4744971 0.10752635 2.5697515 10197915
1.5241711 0.10757587 2.5709352 10197915
1.5749727 0.10762658 2.5721464 10197915
1.6258219 0.10767727 2.5733583 10197915
1.6756362 0.10772694 2.5745456 10197915
1.7254961 0.10777669 2.5757339 10197915
1.7754017 0.10782646 2.5769236 10197915
1.825354 0.10787627 2.5781143 10197915
1.8753523 0.10792615 2.5793061 10197915
1.9253968 0.10797606 2.5804987 10197915
1.9515228 0.10800208 2.581121 10197915
-0.054452129 0.10563724 2.6287112 2960685
-0.02505297 0.10566646 2.6294384 2894892
0.025068711 0.10571627 2.6306784 2894892
0.075237677 0.10576613 2.6319191 2894892
0.12545399 0.10581607 2.6331611 2894892
0.17571773 0.10586601 2.6344042 2894892
0.22493453 0.10591492 2.6356215 2894892
0.27419719 0.10596389 2.6368401 2894892
0.3246015 0.10601399 2.6380868 2894892
0.37505352 0.10606414 2.6393347 2894892
0.42555329 0.10611434 2.6405835 4342338
0.47500131 0.10616348 2.6418066 10197915
0.52449554 0.10621269 2.6430309 10197915
0.57513696 0.10626302 2.6442835 10197915
0.62472361 0.1063123 2.64551 10197915
0.67435664 0.10636164 2.6467376 10197915
0.72514009 0.1064121 2.6479938 10197915
0.77792972 0.10654325 2.6286817 10197915
0.8219493 0.10667369 2.6070535 10197915
0.87446928 0.10674755 2.6026773 10197915
0.92450041 0.10679737 2.6038921 10197915
0.97457826 0.10684723 2.6051078 10197915
1.0247027 0.10689712 2.6063247 10197915
1.0748742 0.1069471 2.6075425 10197915
1.1250927 0.10699711 2.6087618 10197915
1.1753579 0.10704713 2.6099818 10197915
1.2256702 0.10709723 2.6112032 10197915
1.2749345 0.10714629 2.6123996 10197915
1.324244 0.1071954 2.6135962 10197915
1.3746958 0.10724563 2.6148217 10197915
1.4251951 0.10729589 2.6160471 10197915
1.4757415 0.10734622 2.617274 10197915
1.5252343 0.10739551 2.6184754 10197915
1.574774 0.10744482 2.6196783 10197915
1.6254609 0.10749529 2.620908 10197915
1.6750919 0.10754471 2.6221132 10197915
1.7247689 0.10759417 2.6233194 10197915
1.7755971 0.10764477 2.6245525 10197915
1.8253661 0.10769434 2.6257613 10197915
1.8751814 0.10774393 2.6269703 10197915
1.9250427 0.10779358 2.6281812 10197915
1.9694017 0.10783774 2.6292579 10197915
-0.055496551 0.10544355 2.6791315 2960685
-0.025533592 0.10547328 2.6798866 2894892
0.025549948 0.10552395 2.6811745 2894892
0.07557033 0.10557359 2.682435 2894892
0.12452483 0.10562214 2.6836691 2894892
0.17463875 0.10567188 2.6849327 2894892
0.22479945 0.10572162 2.6861973 2894892
0.27500781 0.10577144 2.6874628 2894892
0.32526317 0.1058213 2.68873 2894892
0.37444773 0.10587011 2.6899695 2894892
0.42479727 0.10592008 2.6912386 3092271
0.47519398 0.10597005 2.6925097 10197915
0.524517 0.106019 2.6937525 10197915
0.57500821 0.10606908 2.6950254 10197915
0.62554687 0.10611923 2.6962991 10197915
0.67500883 0.10616831 2.6975462 10197915
0.72451657 0.10621743 2.6987944 10197915
0.76054937 0.10625317 2.6997025 10197915
0.82795823 0.1065143 2.650537 10197915
0.87556499 0.10656163 2.6517136 10197915
0.92543083 0.10661118 2.6529474 10197915
0.97534347 0.10666079 2.6541817 10197915
1.0253023 0.10671044 2.6554177 10197915
1.075308 0.10676015 2.6566546 10197915
1.1253599 0.1068099 2.6578925 10197915
1.1754588 0.10685971 2.6591315 10197915
1.2256041 0.10690954 2.6603718 10197915
1.2746805 0.10695831 2.6615856 10197915
1.3249186 0.10700826 2.662828 10197915
1.3752035 0.10705824 2.6640718 10197915
1.4244167 0.10710716 2.6652892 10197915
1.4747943 0.1071572 2.6665347 10197915
1.5252194 0.10720732 2.6677818 10197915
1.5745696 0.10725637 2.6690025 10197915
1.6250882 0.10730658 2.6702521 10197915
1.6756542 0.10735684 2.6715024 10197915
1.7251419 0.10740603 2.6727266 10197915
1.7746755 0.10745528 2.6739521 10197915
1.8242538 0.10750453 2.6751778 10197915
1.8750073 0.10755499 2.6764333 10197915
1.9258072 0.10760548 2.6776896 10197915
1.9755248 0.10765488 2.6789198 10197915
2.0139725 0.10769311 2.6798706 10197915
-0.055450737 0.10524342 2.7315526 2960685
-0.024901507 0.10527366 2.7323377 2894892
0.024917061 0.10532298 2.7336183 2894892
0.074782342 0.10537238 2.7348998 2894892
0.12469439 0.10542179 2.7361827 2894892
0.17465331 0.10547128 2.7374666 2894892
0.22465907 0.1055208 2.7387519 2894892
0.27471191 0.10557035 2.7400382 2894892
0.32481173 0.10561997 2.7413256 2894892
0.37495869 0.10566964 2.7426147 2894892
0.42515281 0.10571932 2.7439048 2894892
0.47539413 0.10576907 2.7451959 9079434
0.52568287 0.10581888 2.7464886 10197915
0.5748741 0.10586759 2.7477531 10197915
0.62411112 0.10591634 2.7490182 10197915
0.65619498 0.10594813 2.7498434 10197915
0.78646445 0.1062789 2.700356 10197915
0.82592511 0.10631804 2.7013509 10197915
0.87557262 0.1063673 2.7026024 10197915
0.92526627 0.10641659 2.7038546 10197915
0.97500587 0.10646596 2.7051089 10197915
1.0247916 0.10651533 2.7063639 10197915
1.0746236 0.10656477 2.7076199 10197915
1.1245018 0.10661426 2.7088766 10197915
1.1744266 0.10666378 2.7101355 10197915
1.2243975 0.10671338 2.7113953 10197915
1.2744151 0.10676301 2.7126563 10197915
1.324479 0.10681267 2.7139182 10197915
1.3745897 0.1068624 2.7151814 10197915
1.4247468 0.10691214 2.7164452 10197915
1.4749508 0.10696194 2.7177107 10197915
1.5252017 0.10701179 2.7189775 10197915
1.5754991 0.1070617 2.7202456 10197915
1.6258439 0.10711164 2.7215147 10197915
1.6750895 0.1071605 2.7227559 10197915
1.7243805 0.1072094 2.7239988 10197915
1.7748642 0.10725948 2.7252712 10197915
1.8253949 0.10730962 2.7265451 10197915
1.8748229 0.10735865 2.7277908 10197915
1.9242965 0.10740774 2.729038 10197915
1.9749669 0.10745803 2.7303154 10197915
2.0256853 0.10750833 2.7315938 10197915
2.0591371 0.10754151 2.7324369 10197915
-0.05655675 0.10503414 2.786036 2960685
-0.025398292 0.10506492 2.7868526 2894892
0.025414472 0.10511515 2.7881849 2894892
0.075119175 0.10516427 2.7894871 2894892
0.12487072 0.10521345 2.7907915 2894892
0.17466845 0.10526267 2.7920971 2894892
0.22451314 0.10531192 2.7934039 2894892
0.27556515 0.10536239 2.7947421 2894892
0.32550398 0.10541171 2.796051 2894892
0.37548998 0.10546113 2.7973616 2894892
0.42552257 0.10551058 2.7986732 2894892
0.46278527 0.1055474 2.79965 5329233
0.68141937 0.1059731 2.7504911 10197915
0.7250163 0.10601627 2.7516119 10197915
0.77554041 0.10606629 2.7529101 10197915
0.82496214 0.10611525 2.7541804 10197915
0.87442988 0.10616422 2.7554522 10197915
0.92509502 0.1062144 2.7567542 10197915
0.97465497 0.10626347 2.7580278 10197915
1.024261 0.10631259 2.7593024 10197915
1.0750679 0.10636291 2.7606089 10197915
1.1247665 0.10641211 2.7618859 10197915
1.1745114 0.10646138 2.7631648 10197915
1.2254609 0.10651184 2.7644739 10197915
1.2752987 0.10656118 2.7657552 10197915
1.325183 0.10661058 2.7670369 10197915
1.3751132 0.10666004 2.7683203 10197915
1.4250898 0.10670948 2.769604 10197915
1.4751129 0.10675903 2.7708898 10197915
1.5251831 0.10680861 2.7721765 10197915
1.575299 0.10685824 2.7734652 10197915
1.6254619 0.10690789 2.7747538 10197915
1.6756712 0.10695763 2.7760444 10197915
1.7247581 0.10700623 2.7773061 10197915
1.7750603 0.10705605 2.778599 10197915
1.8254089 0.10710591 2.7798929 10197915
1.874632 0.10715465 2.781158 10197915
1.9250737 0.1072046 2.7824545 10197915
1.975562 0.10725461 2.783752 10197915
2.0249221 0.10730349 2.7850206 10197915
2.0743272 0.10735238 2.7862904 10197915
2.103754 0.10738152 2.7870464 10197915
-0.056530643 0.10481751 2.8427684 2960685
-0.024737705 0.10484886 2.8436184 2894892
0.024753055 0.10489768 2.8449426 2894892
0.074289903 0.10494653 2.8462672 2894892
0.12505423 0.10499661 2.8476255 2894892
0.17586668 0.10504671 2.8489842 2894892
0.20779525 0.10507819 2.8498383 2894892
0.4872539 0.10557158 2.8002915 10197915
0.5245626 0.10560846 2.8012698 10197915
0.57473522 0.10565804 2.8025846 10197915
0.62495506 0.10570767 2.8039014 10197915
0.67522186 0.10575734 2.8052189 10197915
0.72436547 0.10580592 2.8065073 10197915
0.77472615 0.1058557 2.8078272 10197915
0.82513374 0.10590551 2.8091488 10197915
0.87441528 0.10595421 2.8104405 10197915
0.92491722 0.10600412 2.8117647 10197915
0.97546631 0.10605408 2.8130898 10197915
1.0248861 0.10610293 2.8143852 10197915
1.0743514 0.1061518 2.8156819 10197915
1.125042 0.10620191 2.8170109 10197915
1.1757799 0.10625206 2.818341 10197915
1.2253846 0.10630105 2.8196414 10197915
1.2750347 0.10635015 2.8209429 10197915
1.324731 0.10639925 2.8222454 10197915
1.374473 0.10644839 2.8235493 10197915
1.4242609 0.10649759 2.8248541 10197915
1.474095 0.10654682 2.8261602 10197915
1.5239754 0.10659614 2.8274682 10197915
1.5739015 0.10664548 2.8287766 10197915
1.6238744 0.10669487 2.8300865 10197915
1.6738932 0.10674429 2.8313978 10197915
1.7239588 0.10679379 2.8327103 10197915
1.7740701 0.1068433 2.8340237 10197915
1.8242285 0.10689288 2.8353391 10197915
1.8744338 0.1069425 2.8366551 10197915
1.9246851 0.10699216 2.8379724 10197915
1.974983 0.10704187 2.8392906 10197915
2.0253279 0.10709162 2.8406107 10197915
2.0757198 0.10714141 2.8419316 10197915
2.1249566 0.10719009 2.8432221 10197915
2.1501908 0.10721499 2.843883 10197915
0.23264405 0.10510273 2.850503 2894892
0.2752685 0.10514475 2.8516431 2894892
0.32503906 0.10519384 2.8529749 2894892
0.37485611 0.10524295 2.8543069 2894892
0.42471966 0.10529214 2.8556406 2894892
0.47462985 0.10534139 2.8569756 6250335
0.5245868 0.10539065 2.8583117 10197915
0.5745905 0.10543996 2.8596492 10197915
0.62464094 0.10548932 2.8609884 10197915
0.67473823 0.10553871 2.8623285 10197915
0.7248826 0.10558818 2.8636699 10197915
0.77507389 0.10563768 2.8650122 10197915
0.82531238 0.10568723 2.8663559 10197915
0.87559801 0.10573684 2.8677013 10197915
0.92593074 0.10578645 2.8690476 10197915
0.97511071 0.10583498 2.8703625 10197915
1.0243357 0.10588352 2.8716798 10197915
1.0748082 0.10593329 2.8730297 10197915
1.1253284 0.10598312 2.8743808 10197915
1.1758959 0.106033 2.8757334 10197915
1.2253053 0.10608174 2.8770549 10197915
1.2747605 0.10613051 2.8783779 10197915
1.3254688 0.10618051 2.8797345 10197915
1.3750154 0.10622936 2.8810592 10197915
1.4246085 0.10627827 2.882385 10197915
1.4754579 0.10632843 2.8837452 10197915
1.5251431 0.10637741 2.8850746 10197915
1.5748743 0.10642646 2.8864052 10197915
1.6246513 0.10647557 2.8877361 10197915
1.6744745 0.10652468 2.8890691 10197915
1.7255599 0.10657507 2.8904352 10197915
1.7754761 0.10662429 2.8917704 10197915
1.8254387 0.10667359 2.8931069 10197915
1.8754469 0.10672289 2.8944445 10197915
1.9255018 0.10677227 2.8957829 10197915
1.9756027 0.10682168 2.8971236 10197915
2.0245264 0.10686994 2.8984318 10197915
2.0661454 0.10691098 2.8995454 10197915
-0.057705134 0.10459084 2.9018304 2960685
-0.02525178 0.1046228 2.9027164 2894892
0.025267774 0.1046725 2.9040956 2894892
0.075835362 0.10472226 2.9054766 2894892
0.12524517 0.10477088 2.9068255 2894892
0.17470129 0.10481957 2.9081759 2894892
0.22541106 0.10486947 2.9095604 2894892
0.27495995 0.10491822 2.9109135 2894892
0.32455525 0.10496703 2.9122677 2894892
0.37540784 0.10501707 2.9136558 2894892
0.42509633 0.10506598 2.9150128 2894892
0.47483152 0.10511492 2.9163709 4868682
0.52461267 0.10516392 2.9177301 10197915
0.57444054 0.10521296 2.9190905 10197915
0.62553185 0.10526323 2.9204853 10197915
0.67545348 0.10531236 2.9218483 10197915
0.7254222 0.10536153 2.9232132 10197915
0.7754373 0.10541077 2.9245787 10197915
0.82549948 0.10546003 2.9259455 10197915
0.87560815 0.10550934 2.9273138 10197915
0.92454004 0.1055575 2.9286497 10197915
0.9747417 0.1056069 2.9300206 10197915
1.0249898 0.10565636 2.9313927 10197915
1.0752858 0.10570584 2.9327657 10197915
1.1256282 0.1057554 2.9341404 10197915
1.1747886 0.10580377 2.9354825 10197915
1.2252249 0.10585341 2.9368601 10197915
1.275708 0.10590309 2.9382381 10197915
1.3250058 0.10595161 2.939584 10197915
1.3743485 0.10600015 2.9409304 10197915
1.4249722 0.10604997 2.9423127 10197915
1.4756433 0.10609982 2.943696 10197915
1.5251244 0.10614852 2.9450476 10197915
1.574651 0.10619726 2.9463997 10197915
1.6242231 0.10624605 2.9477534 10197915
1.6750821 0.10629611 2.9491422 10197915
1.7036316 0.10632421 2.9499221 10197915
2.0918672 0.10693634 2.9002335 10197915
2.1249585 0.10696898 2.9011183 10197915
2.1727905 0.10701615 2.9023981 10197915
2.1817198 -1.3194675 2.992969 2039583
2.2222724 -1.3156749 2.9755261 2039583
2.1822305 -1.2749114 2.9928977 2039583
2.2234614 -1.275031 2.9751492 2039583
2.1823573 -1.2250223 2.9930103 2039583
2.2237086 -1.224977 2.9752114 2039583
2.1833823 -1.1750901 2.9927366 2039583
2.2236717 -1.1750113 2.975394 2039583
2.1835177 -1.1251068 2.9928443 2039583
2.223835 -1.1250401 2.9754913 2039583
2.1835568 -1.0750457 2.992995 2039583
2.2231703 -1.0751331 2.9759448 2039583
2.1836283 -1.025053 2.9931331 2039583
2.2230458 -1.0250046 2.9761655 2039583
2.1837492 -0.97505581 2.9932487 2039583
2.2231843 -0.97493887 2.9762738 2039583
2.1838474 -0.92498249 2.9933739 2039583
2.2232394 -0.92496538 2.9764178 2039583
2.1845446 -0.87526298 2.9932399 2039583
2.2234085 -0.87508583 2.9765129 2039583
2.1849446 -0.82494777 2.9932368 2039583
2.2234247 -0.82500744 2.9766736 2039583
2.18506 -0.77506757 2.9933541 2039583
2.2234826 -0.77492321 2.9768157 2039583
2.1851974 -0.725106 2.9934618 2039583
2.2236693 -0.72493356 2.976903 2039583
2.1853044 -0.67514122 2.9935834 2039583
2.223809 -0.67498976 2.9770093 2039583
2.1853385 -0.62509483 2.9937363 2039583
2.2237959 -0.62508821 2.9771814 2039583
2.1855955 -0.57535052 2.9937918 2039583
2.2238872 -0.57503647 2.9773111 2039583
2.186415 -0.52510142 2.9936085 2039583
2.2240324 -0.52493417 2.9774156 2039583
2.186563 -0.47501785 2.993711 2039583
2.223671 -0.47522193 2.9777391 2039583
2.1867454 -0.42484936 2.9938011 2039583
2.2233894 -0.42503685 2.9780281 2039583
2.1868312 -0.37475795 2.9939315 2039583
2.2233446 -0.37508577 2.978214 2039583
2.1859505 -0.32511464 2.9944787 2039583
2.222419 -0.32500309 2.97878 2039583
2.1859934 -0.27542141 2.9946265 2039583
2.2226982 -0.27490976 2.9788284 2039583
2.1867886 -0.22598429 2.9944496 2039583
2.2228782 -0.22486755 2.9789181 2039583
2.1870401 -0.17520016 2.9945109 2039583
2.2227862 -0.17525843 2.9791236 2039583
2.1873472 -0.12445464 2.9945488 2039583
2.2225966 -0.12529166 2.9793723 2039583
2.1873128 -0.074440718 2.9947307 2039583
2.2232623 -0.074711829 2.9792564 2039583
2.1874049 -0.02481449 2.9948575 2039583
2.2230721 -0.02468729 2.9795048 2039583
2.1874976 0.024815904 2.9949853 2039583
2.2231643 0.024688685 2.9796309 2039583
2.1879947 0.073955916 2.9949348 9013641
2.2235444 0.074721701 2.9796345 9013641
-0.057702292 0.10435561 2.9634287 2960685
-0.024560031 0.10438816 2.9643524 2894892
0.024575159 0.1044364 2.9657226 2894892
0.074986085 0.10448588 2.9671285 2894892
0.12544441 0.10453544 2.9685357 2894892
0.17471841 0.10458381 2.9699097 2894892
0.22527178 0.10463347 2.9713192 2894892
0.2758728 0.10468315 2.9727299 2894892
0.32528615 0.10473168 2.9741075 2894892
0.37474531 0.10478024 2.9754868 2894892
0.42425045 0.10482885 2.9768674 2894892
0.47504103 0.10487872 2.9782839 3487029
0.52587956 0.10492864 2.979701 10197915
0.57552493 0.10497739 2.9810853 10197915
0.62521642 0.10502619 2.982471 10197915
0.67495435 0.10507502 2.9838579 10197915
0.72473848 0.1051239 2.9852462 10197915
0.77456886 0.10517284 2.9866354 10197915
0.82444572 0.10522181 2.9880264 10197915
0.87436897 0.10527083 2.9894183 10197915
0.92433894 0.10531989 2.9908118 10197915
0.97435534 0.10536901 2.9922066 10197915
1.0244185 0.10541817 2.9936025 10197915
1.0745283 0.10546738 2.9949999 10197915
1.1246849 0.10551661 2.9963984 10197915
1.1748885 0.10556591 2.997798 10197915
1.2251389 0.10561524 2.9991989 10197915
1.2515376 0.1056412 2.9999361 10197915
1.7284727 0.10634865 2.9505999 10197915
1.7756999 0.10639513 2.9518895 10197915
1.8254569 0.1064441 2.9532483 10197915
1.8752596 0.10649312 2.9546077 10197915
1.9251087 0.10654215 2.9559686 10197915
1.9750032 0.10659127 2.9573312 10197915
2.0249438 0.10664041 2.9586949 10197915
2.0749309 0.10668959 2.9600596 10197915
2.124964 0.10673884 2.9614255 10197915
2.1837502 0.10433883 2.9833543 10197915
2.2210584 0.10383738 2.9772298 10197915
2.0703371 -1.3552262 3.0407932 2039583
2.1080854 -1.3514489 3.0245569 2039583
2.0748682 -1.3249556 3.038944 2039583
2.1246681 -1.3243482 3.0175092 2039583
2.1574409 -1.3218719 3.0034111 2039583
2.0749505 -1.2749894 3.0390759 2039583
2.1251757 -1.2749549 3.0174563 2039583
2.1576459 -1.2749491 3.0034795 2039583
2.0749841 -1.2250664 3.0392301 2039583
2.1252692 -1.2250037 3.0175829 2039583
2.1577494 -1.224918 3.0036032 2039583
2.0751069 -1.1749938 3.0393445 2039583
2.1253796 -1.1749039 3.0177035 2039583
2.1587932 -1.1749816 3.0033205 2039583
2.0756023 -1.1252097 3.0392964 2039583
2.1254506 -1.1248945 3.0178406 2039583
2.1588955 -1.1249835 3.0034442 2039583
2.0762644 -1.0750179 3.039181 2039583
2.1254988 -1.0749782 3.0179882 2039583
2.1589031 -1.0749816 3.0036089 2039583
2.0763326 -1.0250002 3.0393183 2039583
2.1256561 -1.0250107 3.0180881 2039583
2.1590064 -1.0249741 3.0037322 2039583
2.0764141 -0.97492641 3.0394514 2039583
2.1256924 -0.97508508 3.0182395 2039583
2.1591084 -0.97496241 3.003855 2039583
2.0764937 -0.92489964 3.0395849 2039583
2.1257939 -0.92510742 3.0183625 2039583
2.1592109 -0.92494696 3.0039794 2039583
2.0766077 -0.87497067 3.0397036 2039583
2.1258605 -0.87507725 3.0185013 2039583
2.1599047 -0.87431288 3.0038497 2039583
2.0765715 -0.82519197 3.039886 2039583
2.1257534 -0.82494491 3.0187159 2039583
2.1603591 -0.82494307 3.0038195 2039583
2.0765848 -0.77512652 3.0400469 2039583
2.1248295 -0.77527285 3.01928 2039583
2.1601579 -0.77445287 3.0040748 2039583
2.0768144 -0.72501796 3.0401163 2039583
2.1242476 -0.72496909 3.0196981 2039583
2.1596477 -0.72488135 3.0044608 2039583
2.0769629 -0.67505145 3.0402188 2039583
2.1243155 -0.67495739 3.0198364 2039583
2.1597223 -0.67478234 3.0045967 2039583
2.0771141 -0.62508076 3.0403218 2039583
2.1244314 -0.62494069 3.0199547 2039583
2.1597714 -0.62490386 3.0047433 2039583
2.0771227 -0.57510632 3.0404856 2039583
2.124543 -0.57487154 3.0200741 2039583
2.1601167 -0.5747003 3.0047619 2039583
2.0771759 -0.52507097 3.0406301 2039583
2.1246209 -0.52479893 3.0202084 2039583
2.1609039 -0.52529085 3.0045884 2039583
2.0776842 -0.47530016 3.0405774 2039583
2.1246843 -0.47476876 3.0203483 2039583
2.1609528 -0.47541475 3.0047345 2039583
2.0784159 -0.42500761 3.0404315 2039583
2.1247795 -0.42483142 3.0204751 2039583
2.1610522 -0.42543229 3.0048592 2039583
2.0786326 -0.37509823 3.0405042 2039583
2.1249042 -0.37493813 3.0205884 2039583
2.1611331 -0.37534106 3.004993 2039583
2.0785322 -0.32501087 3.0407171 2039583
2.12501 -0.32508966 3.0207093 2039583
2.1612606 -0.32504091 3.0051048 2039583
2.078573 -0.27468941 3.0408678 2039583
2.1251149 -0.27523643 3.0208318 2039583
2.1614239 -0.27463615 3.0052047 2039583
2.0785675 -0.22459024 3.0410383 2039583
2.1251159 -0.22528124 3.0209985 2039583
2.1623418 -0.2240435 3.0049779 2039583
2.0787237 -0.17489196 3.0411367 2039583
2.125206 -0.17522635 3.0211265 2039583
2.1624999 -0.17429532 3.0050776 2039583
2.079999 -0.12560889 3.0407524 2039583
2.1252975 -0.12516691 3.0212543 2039583
2.1625912 -0.12450189 3.0052042 2039583
2.0799472 -0.075589366 3.0409424 2039583
2.1253879 -0.075103261 3.0213838 2039583
2.1626818 -0.074704222 3.0053322 2039583
2.0800364 -0.02519743 3.0410736 2039583
2.125479 -0.025035366 3.0215125 2039583
2.1627734 -0.024902349 3.0054595 2039583
2.0801256 0.025198856 3.041203 2039583
2.1255684 0.025036782 3.0216427 2039583
2.1628659 0.024903744 3.0055876 2039583
2.080215 0.075599469 3.0413339 9211020
2.1256597 0.075113185 3.0217705 9145227
2.1634028 0.075166732 3.0055242 9079434
-0.058953021 0.10410895 3.0276635 2960685
-0.025092518 0.10414213 3.0286279 2960685
0.025108311 0.1041913 3.0300579 2894892
0.075356565 0.10424051 3.0314891 2894892
0.1256523 0.10428979 3.0329225 2894892
0.17599563 0.1043391 3.0343566 2894892
0.22512604 0.10438722 3.0357561 2894892
0.27430218 0.1044354 3.0371575 2894892
0.32478625 0.10448486 3.0385957 2894892
0.37531808 0.10453437 3.040035 2894892
0.42589793 0.1045839 3.0414758 2894892
0.47525921 0.10463228 3.0428822 2894892
0.52466649 0.10468067 3.0442896 8947848
0.57538807 0.10473035 3.0457346 10197915
0.6248877 0.10477883 3.0471449 10197915
0.67443359 0.10482738 3.0485561 10197915
0.71257532 0.10486474 3.049643 10197915
1.2766939 0.10566587 3.0006371 10197915
1.3257805 0.10571405 3.0020051 10197915
1.3749115 0.1057623 3.0033748 10197915
1.4240879 0.10581058 3.004746 10197915
1.4745715 0.10586015 3.0061536 10197915
1.5251026 0.10590978 3.0075626 10197915
1.575681 0.10595942 3.0089734 10197915
1.6250404 0.1060079 3.0103493 10197915
1.6744455 0.10605641 3.0117269 10197915
1.7251644 0.10610621 3.0131412 10197915
1.7746602 0.10615481 3.0145211 10197915
1.8242023 0.10620345 3.015903 10197915
1.8750616 0.10625339 3.0173206 10197915
1.9246955 0.10630213 3.0187049 10197915
1.9743755 0.10635091 3.0200901 10197915
2.0253758 0.10640099 3.0215125 10197915
2.0786707 0.10429589 3.0356414 10197915
2.1260424 0.10381975 3.0211842 10197915
2.1639595 0.10334269 3.0053787 10197915
1.9407988 -1.3677837 3.0965104 2039583
1.9737905 -1.3645444 3.0823214 2039583
2.0227883 -1.3598549 3.0612445 2039583
1.9418781 -1.3253187 3.0961885 2039583
1.9751202 -1.3250892 3.0818772 2039583
2.0248883 -1.3249723 3.0604568 2039583
1.9420767 -1.275051 3.0962708 2039583
1.9752685 -1.275095 3.0819848 2039583
2.0249155 -1.2749176 3.0606163 2039583
1.9421594 -1.2250761 3.0964022 2039583
1.9753619 -1.2249404 3.0821116 2039583
2.0250738 -1.225013 3.0607123 2039583
1.9422421 -1.1750966 3.0965347 2039583
1.9753921 -1.1749892 3.0822666 2039583
2.0250556 -1.1750517 3.0608869 2039583
1.9423248 -1.1251134 3.0966668 2039583
1.9754791 -1.1250317 3.0823917 2039583
2.0251896 -1.1249846 3.0609977 2039583
2.0508044 -1.1094308 3.0500243 2039583
1.9424398 -1.0749654 3.0967848 2039583
1.9756962 -1.0749685 3.0824695 2039583
2.0253892 -1.0750161 3.0610816 2039583
2.0508661 -1.0740824 3.0501161 2039583
1.9427894 -1.0257671 3.0967991 2039583
1.9756129 -1.0250019 3.0826738 2039583
2.0253184 -1.0249912 3.0612748 2039583
2.0509522 -1.0248442 3.0502441 2039583
1.9435841 -0.97500002 3.0966263 2039583
1.97577 -0.97503442 3.0827734 2039583
2.0254371 -0.9749617 3.0613933 2039583
2.051038 -0.97560138 3.0503716 2039583
1.9436668 -0.92500693 3.0967588 2039583
1.9758347 -0.92500657 3.0829132 2039583
2.0256004 -0.92503208 3.0614893 2039583
2.0511262 -0.92509192 3.0505033 2039583
1.9437492 -0.8750087 3.0968914 2039583
1.9759593 -0.87502962 3.0830259 2039583
2.02561 -0.87504482 3.0616529 2039583
2.0512147 -0.874578 3.0506346 2039583
1.9438325 -0.82500666 3.0970235 2039583
1.9759316 -0.82504523 3.0832036 2039583
2.0257032 -0.82495344 3.06178 2039583
2.0513029 -0.82405984 3.0507658 2039583
1.9437801 -0.77544218 3.0972126 2039583
1.9750086 -0.7747649 3.0837698 2039583
2.0248637 -0.77502 3.06231 2039583
2.0523167 -0.77350682 3.0504982 2039583
1.9429878 -0.72509187 3.0977216 2039583
1.974056 -0.72496516 3.0843487 2039583
2.0248146 -0.72508496 3.0625007 2039583
2.0524554 -0.72543651 3.0506003 2039583
1.9437369 -0.67602473 3.0975635 2039583
1.9743415 -0.67505813 3.0843918 2039583
2.0249984 -0.67504668 3.062588 2039583
2.0525432 -0.67491257 3.0507312 2039583
1.9441648 -0.62495625 3.0975499 2039583
1.9743311 -0.62494177 3.0845635 2039583
2.0251739 -0.62505513 3.0626802 2039583
2.0526321 -0.62438411 3.0508626 2039583
1.9442475 -0.57493275 3.097681 2039583
1.9744399 -0.5749743 3.0846848 2039583
2.025166 -0.57495844 3.062851 2039583
2.0527182 -0.57511479 3.0509906 2039583
1.9443303 -0.5249052 3.0978136 2039583
1.9744865 -0.52505636 3.0848331 2039583
2.0251782 -0.52490664 3.0630116 2039583
2.0528042 -0.52584118 3.0511184 2039583
1.9444129 -0.47487345 3.0979455 2039583
1.9746944 -0.47502616 3.084909 2039583
2.0253539 -0.47505111 3.0631039 2039583
2.0533862 -0.47274113 3.0510457 2039583
1.944496 -0.4248372 3.0980778 2039583
1.9745203 -0.42505062 3.0851545 2039583
2.0244253 -0.42509124 3.0636718 2039583
2.0530174 -0.42444813 3.0513659 2039583
1.944703 -0.37546524 3.098155 2039583
1.9749657 -0.3750138 3.0851305 2039583
2.0246725 -0.37499994 3.0637329 2039583
2.0530679 -0.37420452 3.051513 2039583
1.9456723 -0.32470655 3.0979075 2039583
1.9746394 -0.32497376 3.0854349 2039583
2.0246227 -0.3249031 3.0639205 2039583
2.0531545 -0.32491422 3.051641 2039583
1.9457548 -0.27466458 3.0980382 2039583
1.9750924 -0.27513811 3.0854087 2039583
2.0244503 -0.27484775 3.0641642 2039583
2.0532413 -0.27561969 3.0517688 2039583
1.9458381 -0.22461843 3.0981703 2039583
1.9750845 -0.22488619 3.0855806 2039583
2.0250673 -0.22525817 3.0640643 2039583
2.053329 -0.22505692 3.0518997 2039583
1.9459212 -0.17456801 3.0983028 2039583
1.9749773 -0.17503402 3.0857944 2039583
2.0248396 -0.17519307 3.0643308 2039583
2.0534172 -0.17448974 3.052031 2039583
1.9460044 -0.12451335 3.0984352 2039583
1.9752532 -0.12518786 3.0858433 2039583
2.0248361 -0.12451584 3.0645018 2039583
2.054399 -0.12470493 3.051775 2039583
1.9460865 -0.074454367 3.0985668 2039583
1.975105 -0.075271733 3.0860717 2039583
2.0251079 -0.075012766 3.0645506 2039583
2.0545697 -0.075860903 3.0518653 2039583
1.9466267 -0.026140874 3.098496 2039583
1.9754596 -0.025423311 3.0860882 2039583
2.025099 -0.025393356 3.0647199 2039583
2.0546579 -0.025287937 3.0519972 2039583
1.9472611 0.024389077 3.0983913 2039583
1.9755459 0.02542478 3.0862195 2039583
2.0251858 0.025394822 3.064858 2039583
2.0547466 0.025289385 3.0521283 2039583
1.9473442 0.074453704 3.0985246 9013641
1.9753579 0.075281709 3.0864689 9342606
2.0253215 0.074970178 3.0649624 9276813
2.0548348 0.075871065 3.0522592 9276813
-0.058977704 0.10385261 3.0947816 2960685
-0.024366563 0.10388642 3.0957894 2960685
0.024381453 0.10393407 3.097209 2894892
0.074459031 0.10398301 3.0986667 2894892
0.11043936 0.10401816 3.0997152 2894892
0.73801935 0.10488968 3.0503678 10197915
0.7749359 0.10492583 3.0514193 10197915
0.8246209 0.10497451 3.0528352 10197915
0.8756277 0.10502447 3.0542881 10197915
0.9254058 0.10507323 3.0557067 10197915
0.97523057 0.10512204 3.0571256 10197915
1.0251013 0.10517089 3.0585463 10197915
1.0750186 0.1052198 3.0599685 10197915
1.1249821 0.10526873 3.0613918 10197915
1.1749927 0.10531773 3.0628166 10197915
1.225049 0.10536676 3.0642426 10197915
1.2751527 0.10541584 3.0656703 10197915
1.3253025 0.10546495 3.0670981 10197915
1.3754994 0.10551411 3.0685277 10197915
1.4257429 0.10556334 3.0699596 10197915
1.4747432 0.10561134 3.0713553 10197915
1.5250796 0.10566065 3.072789 10197915
1.5754631 0.10571001 3.0742247 10197915
1.6245998 0.10575814 3.0756249 10197915
1.6750762 0.10580759 3.0770626 10197915
1.7255996 0.1058571 3.0785019 10197915
1.7748734 0.10590535 3.0799055 10197915
1.824192 0.10595367 3.081311 10197915
1.8748554 0.1060033 3.0827541 10197915
1.930804 0.10524753 3.0876544 10197915
1.9760151 0.10342963 3.0853798 10197915
2.0249991 0.1028939 3.0651922 10197915
2.0548835 0.10369265 3.0523319 10197915
1.8490134 -1.4024758 3.1393528 2039583
1.8539549 -1.4008529 3.1337819 2039583
1.8488348 -1.3755746 3.1383135 2039583
1.8740244 -1.373928 3.1252334 2039583
1.9151864 -1.3701692 3.1075282 2039583
1.8486285 -1.3253639 3.1379061 2039583
1.8746879 -1.325062 3.1251116 2039583
1.9165388 -1.3249294 3.1070969 2039583
1.8484083 -1.2751685 3.1375887 2039583
1.8748075 -1.2750559 3.1252279 2039583
1.9167755 -1.2750728 3.1071622 2039583
1.8481944 -1.2256316 3.1372254 2039583
1.8748672 -1.2249904 3.1253688 2039583
1.9167837 -1.225001 3.1073275 2039583
1.8480985 -1.1748813 3.1370628 2039583
1.8749741 -1.1749746 3.1254909 2039583
1.9169254 -1.1750712 3.1074321 2039583
1.8481766 -1.1242425 3.1371953 2039583
1.8749762 -1.1250089 3.1256578 2039583
1.9169461 -1.1250633 3.1075914 2039583
1.8482542 -1.0748991 3.1373274 2039583
1.8751403 -1.0749837 3.1257534 2039583
1.9170898 -1.0749744 3.1076963 2039583
1.8483324 -1.0255512 3.137459 2039583
1.8752086 -1.0249035 3.1258922 2039583
1.9175447 -1.0246837 3.1076696 2039583
1.8484118 -0.97490084 3.137594 2039583
1.87493 -0.97479337 3.1263833 2039583
1.9181614 -0.97500098 3.1075704 2039583
1.8484917 -0.92424583 3.1377294 2039583
1.8744289 -0.9250465 3.1270633 2039583
1.91843 -0.92497617 3.1076224 2039583
1.8485692 -0.87488538 3.137862 2039583
1.8744094 -0.87496513 3.127193 2039583
1.9183095 -0.87501365 3.107841 2039583
1.8486471 -0.82552087 3.1379936 2039583
1.8745253 -0.82503134 3.1272607 2039583
1.9185727 -0.82498193 3.1078959 2039583
1.8490183 -0.77364504 3.1404345 2039583
1.8754864 -0.77519315 3.1266904 2039583
1.9185731 -0.77508289 3.1080639 2039583
1.8489851 -0.72476155 3.1407797 2039583
1.8755393 -0.72501945 3.1267548 2039583
1.9186598 -0.7250393 3.1081941 2039583
1.8488624 -0.67483884 3.1406474 2039583
1.875744 -0.67496097 3.1268339 2039583
1.9194345 -0.67464751 3.1080284 2039583
1.848502 -0.62727934 3.1407871 2039583
1.8753978 -0.62466151 3.1271513 2039583
1.9198736 -0.62503338 3.1080065 2039583
1.8479019 -0.57454795 3.1410909 2039583
1.8748939 -0.57508349 3.1275353 2039583
1.9198403 -0.57498097 3.1081884 2039583
1.8476865 -0.52437919 3.1407809 2039583
1.8749094 -0.52503926 3.1276953 2039583
1.9200985 -0.52498484 3.1082439 2039583
1.847472 -0.47487891 3.1404161 2039583
1.8750024 -0.47489163 3.1278243 2039583
1.9200028 -0.47505537 3.1084516 2039583
1.8472716 -0.42539325 3.1400752 2039583
1.8751043 -0.42499202 3.1279469 2039583
1.9201471 -0.42498523 3.1085575 2039583
1.8472788 -0.3759602 3.1400883 2039583
1.8754765 -0.37498814 3.1279545 2039583
1.9205853 -0.3749395 3.1085374 2039583
1.8473591 -0.32523915 3.1402237 2039583
1.8750354 -0.32503051 3.1283119 2039583
1.921066 -0.325091 3.1084967 2039583
1.8474386 -0.27451363 3.1403596 2039583
1.8746918 -0.27531189 3.1286256 2039583
1.9211231 -0.27460545 3.1086419 2039583
1.8475163 -0.22508459 3.140491 2039583
1.8746922 -0.22480144 3.1287947 2039583
1.9202969 -0.22515914 3.1091635 2039583
1.847594 -0.17565142 3.1406236 2039583
1.874462 -0.1750048 3.129061 2039583
1.920717 -0.17494328 3.1091509 2039583
1.847674 -0.12491299 3.140759 2039583
1.8742992 -0.12541598 3.1292973 2039583
1.9206328 -0.12495219 3.1093554 2039583
1.8477536 -0.074170224 3.1408947 2039583
1.8748558 -0.074878432 3.1292272 2039583
1.9207149 -0.074716769 3.1094868 2039583
1.8479836 -0.022608126 3.1420591 2039583
1.8747015 -0.024633292 3.1294615 2039583
1.9213436 -0.024192668 3.1093853 2039583
1.8482121 0.024746794 3.1438906 2039583
1.8747797 0.024634674 3.1295934 2039583
1.9218926 0.024475029 3.1093128 2039583
1.8480943 0.074236169 3.1436906 9211020
1.8750958 0.074888371 3.129626 9211020
1.9219738 0.074716136 3.1094458 9145227
0.13486992 0.10404202 3.100426 2894892
0.17475536 0.10408101 3.1015875 2894892
0.22497426 0.10413009 3.1030495 2894892
0.27524096 0.1041792 3.1045134 2894892
0.32555467 0.10422837 3.1059787 2894892
0.37462422 0.10427631 3.1074083 2894892
0.4250322 0.10432558 3.108876 2894892
0.47548747 0.10437489 3.1103454 2894892
0.52469504 0.10442297 3.111778 7368816
0.5752449 0.10447236 3.11325 10197915
0.62584227 0.10452182 3.1147232 10197915
0.67518854 0.10457002 3.1161604 10197915
0.72458041 0.1046183 3.1175988 10197915
0.77401787 0.10466661 3.1190379 10197915
0.82480401 0.10471623 3.1205173 10197915
0.87563795 0.10476591 3.1219976 10197915
0.92521507 0.10481435 3.1234417 10197915
0.97483808 0.10486285 3.1248865 10197915
1.0245069 0.10491139 3.126333 10197915
1.0742217 0.10495995 3.1277809 10197915
1.1239827 0.10500859 3.1292298 10197915
1.1737897 0.10505726 3.1306798 10197915
1.2249562 0.10510727 3.1321695 10197915
1.2761698 0.10515728 3.1336603 10197915
1.3261181 0.10520609 3.1351149 10197915
1.3761129 0.10525494 3.1365707 10197915
1.4261541 0.10530384 3.1380279 10197915
1.4762417 0.10535279 3.1394863 10197915
1.5250558 0.10540049 3.1409082 10197915
1.5739146 0.10544823 3.1423309 10197915
1.6241397 0.10549731 3.1437933 10197915
1.6744115 0.10554644 3.1452572 10197915
1.7247303 0.10559561 3.1467223 10197915
1.7750957 0.10564483 3.1481893 10197915
1.8302799 0.10459106 3.1471598 10197915
1.8728414 0.1033273 3.1306906 10197915
1.9220207 0.10305899 3.1095207 10197915
1.865352 -1.4106952 3.1786578 2039583
1.8630441 -1.3744572 3.1735268 2039583
1.8626673 -1.3250152 3.1729653 2039583
1.8621566 -1.2751518 3.1720943 2039583
1.8616419 -1.2248749 3.1712179 2039583
1.861002 -1.1750672 3.170048 2039583
1.8606218 -1.12529 3.1694791 2039583
1.8601075 -1.075096 3.1686044 2039583
1.8595936 -1.0249296 3.1677282 2039583
1.8601106 -0.97698247 3.1692343 2039583
1.8649396 -0.92300594 3.1807954 2039583
1.8653039 -0.87486058 3.1819458 2039583
1.864791 -0.82498008 3.181072 2039583
1.8642783 -0.77512676 3.180197 2039583
1.8637614 -0.72485989 3.1793156 2039583
1.8631191 -0.6750626 3.1781402 2039583
1.8627377 -0.62529552 3.1775694 2039583
1.8622218 -0.57511193 3.1766896 2039583
1.8617061 -0.52495611 3.1758103 2039583
1.8611907 -0.47482789 3.1749308 2039583
1.8606755 -0.42472762 3.1740527 2039583
1.8601609 -0.3746551 3.1731739 2039583
1.8595209 -0.32505172 3.1720021 2039583
1.8591404 -0.27547479 3.1714339 2039583
1.8586264 -0.22548476 3.1705568 2039583
1.8579836 -0.1750855 3.1693819 2039583
1.8575906 -0.12471634 3.1687889 2039583
1.8497928 -0.070493966 3.1510179 2039583
1.8599203 -0.076493755 3.1745076 2039583
1.8493919 -0.031324118 3.1503351 2039583
1.8601847 -0.024996605 3.1754487 2039583
1.8611466 0.027364673 3.178015 2039583
1.8628219 0.07514488 3.1822109 9211020
-0.060314029 0.10358337 3.1649041 2960685
-0.02491881 0.10361785 3.1659579 2960685
0.024934381 0.10366645 3.1674428 2894892
0.074834347 0.10371508 3.1689286 2894892
0.12478115 0.10376376 3.1704159 2894892
0.1747749 0.1038125 3.1719048 2894892
0.22481559 0.10386127 3.1733952 2894892
0.27490333 0.1039101 3.1748869 2894892
0.32503819 0.10395895 3.1763794 2894892
0.37522018 0.10400786 3.1778741 2894892
0.42544946 0.10405681 3.1793704 2894892
0.47572607 0.10410585 3.1808672 2894892
0.52604997 0.10415486 3.1823661 5855577
0.57509506 0.10420267 3.1838264 10197915
0.62418544 0.10425052 3.1852882 10197915
0.67464948 0.10429969 3.1867914 10197915
0.72516102 0.10434894 3.1882958 10197915
0.77572042 0.10439823 3.189801 10197915
0.82499498 0.10444625 3.1912687 10197915
0.87431526 0.10449432 3.1927373 10197915
0.92501551 0.10454375 3.1942475 10197915
0.97576392 0.10459322 3.1957586 10197915
1.0252225 0.10464141 3.1972315 10197915
1.0747277 0.10468966 3.1987059 10197915
1.1095401 0.10472361 3.1997428 10197915
1.8427637 0.10571095 3.1501596 10197915
1.862536 0.10281567 3.1817226 10197915
1.8934708 -1.4500035 3.2437339 2039583
1.8864936 -1.4218248 3.2277017 2039583
1.885083 -1.375254 3.2247212 2039583
1.8846964 -1.3250148 3.2241435 2039583
1.8841796 -1.2752439 3.2232583 2039583
1.883665 -1.2255002 3.2223785 2039583
1.8830117 -1.1753368 3.2211783 2039583
1.8826206 -1.1247571 3.2205913 2039583
1.8821062 -1.0750957 3.2197108 2039583
1.8815918 -1.0254614 3.2188311 2039583
1.8810639 -0.97451407 3.2179279 2039583
1.8829266 -0.92693311 3.222558 2039583
1.8837479 -0.87506998 3.2247951 2039583
1.8846908 -0.82237732 3.2273195 2039583
1.8864763 -0.77520007 3.2317679 2039583
1.8859599 -0.72546232 3.2308846 2039583
1.8853033 -0.67530525 3.229677 2039583
1.8850504 -0.62517279 3.2294064 2039583
1.8842633 -0.57552898 3.2278938 2039583
1.8838786 -0.52544796 3.2273176 2039583
1.8833486 -0.47450686 3.2264099 2039583
1.8828324 -0.42493388 3.2255259 2039583
1.8823173 -0.37538812 3.2246428 2039583
1.8816584 -0.32498035 3.2234325 2039583
1.8812739 -0.27504548 3.222856 2039583
1.8806202 -0.22513282 3.2216537 2039583
1.8803691 -0.175258 3.2213864 2039583
1.8797116 -0.1249554 3.2201791 2039583
1.8790578 -0.075140007 3.2189755 2039583
1.8786752 -0.025334757 3.2184038 2039583
1.8790481 0.023314053 3.2195797 2039583
1.8812598 0.07550472 3.2250485 9145227
-0.061712313 0.10330164 3.2382779 2960685
-0.025496665 0.10333683 3.2393811 2960685
0.025512971 0.10338642 3.2409356 2894892
0.075227097 0.10343475 3.2424505 2894892
0.12498815 0.1034831 3.2439666 2894892
0.17479533 0.10353152 3.2454839 2894892
0.22464958 0.10357998 3.2470036 2894892
0.27455008 0.1036285 3.248524 2894892
0.31099218 0.10366391 3.2496343 2894892
1.1349961 0.1047484 3.2005005 10197915
1.1752145 0.10478761 3.2016983 10197915
1.2248577 0.10483598 3.2031765 10197915
1.2745461 0.10488439 3.2046556 10197915
1.3242813 0.10493288 3.2061367 10197915
1.3754083 0.1049827 3.2076592 10197915
1.4252362 0.10503127 3.2091432 10197915
1.4751109 0.10507989 3.2106287 10197915
1.5250309 0.10512854 3.2121153 10197915
1.5749978 0.10517723 3.2136033 10197915
1.6250105 0.10522597 3.2150929 10197915
1.6750703 0.10527477 3.2165837 10197915
1.725176 0.10532361 3.2180758 10197915
1.7753284 0.10537249 3.2195687 10197915
1.8255272 0.10542141 3.2210643 10197915
1.8692163 0.10476863 3.2229192 10197915
1.9114388 -1.4604548 3.2854106 2039583
1.9083612 -1.4253471 3.2784836 2039583
1.9081089 -1.3747189 3.2782183 2039583
1.8997339 -1.3231988 3.2590892 2039583
1.9109839 -1.3252159 3.285213 2039583
1.8992225 -1.2742484 3.2582121 2039583
1.9107704 -1.2752005 3.2850337 2039583
1.8987116 -1.2253243 3.2573354 2039583
1.9101406 -1.2251918 3.2838874 2039583
1.8981866 -1.1750691 3.2564352 2039583
1.9097199 -1.1752082 3.2832279 2039583
1.897662 -1.1248412 3.2555349 2039583
1.9092989 -1.1252408 3.2825677 2039583
1.8971376 -1.0746415 3.2546353 2039583
1.9085582 -1.0746486 3.2811677 2039583
1.8966136 -1.024469 3.2537367 2039583
1.908138 -1.0247368 3.2805085 2039583
1.896104 -0.97567928 3.2528622 2039583
1.9076214 -0.97554559 3.2796202 2039583
1.8955805 -0.9255619 3.2519641 2039583
1.9070907 -0.92501599 3.2787075 2039583
1.8950572 -0.87547171 3.2510664 2039583
1.9065598 -0.87451422 3.2777948 2039583
1.8946187 -0.83352506 3.2503142 2039583
1.9059321 -0.82471842 3.2766526 2039583
1.9055135 -0.77496189 3.2759964 2039583
1.9050949 -0.72522181 3.2753398 2039583
1.9043567 -0.67483771 3.2739449 2039583
1.8999048 -0.60851055 3.2640226 2039583
1.905409 -0.62679696 3.2766941 2039583
1.8995491 -0.57459801 3.2634115 2039583
1.9110625 -0.57458633 3.2901587 2039583
1.8990231 -0.52442884 3.2625077 2039583
1.910641 -0.52467513 3.2894979 2039583
1.8985113 -0.47564235 3.2616282 2039583
1.9101222 -0.47548521 3.2886035 2039583
1.8979858 -0.42552823 3.260725 2039583
1.9095887 -0.42495677 3.2876856 2039583
1.8974603 -0.37544167 3.2598228 2039583
1.9090559 -0.37445626 3.2867682 2039583
1.8969355 -0.32538304 3.2589211 2039583
1.9085375 -0.32534787 3.2858763 2039583
1.8964106 -0.27535182 3.2580194 2039583
1.9079075 -0.27558443 3.2847278 2039583
1.8958861 -0.22534858 3.2571187 2039583
1.9075862 -0.2251679 3.2843008 2039583
1.8953623 -0.17537268 3.2562182 2039583
1.9068437 -0.17478599 3.2828963 2039583
1.8948382 -0.12542467 3.2553184 2039583
1.9064244 -0.12510198 3.2822385 2039583
1.8943149 -0.075504012 3.2544184 2039583
1.9058938 -0.07476896 3.2813234 2039583
1.8937914 -0.025611198 3.2535195 2039583
1.9053626 -0.024463722 3.2804101 2039583
1.8932542 0.025601521 3.2525971 2039583
1.9048467 0.024454899 3.2795217 2039583
1.8927318 0.075438753 3.2516992 9145227
1.9043162 0.074704625 3.2786093 8750469
0.3366527 0.10368886 3.2504165 2894892
0.37449184 0.10372565 3.2515695 2894892
0.42453325 0.10377429 3.2530942 2894892
0.47462115 0.10382298 3.2546201 2894892
0.52475655 0.10387171 3.2561483 3947580
0.57493854 0.10392047 3.2576776 10197915
0.62516814 0.10396931 3.259208 10197915
0.67544466 0.10401818 3.2607398 10197915
0.72440779 0.10406578 3.2622321 10197915
0.77477789 0.10411474 3.2637668 10197915
0.82519513 0.10416374 3.2653024 10197915
0.87429553 0.10421147 3.266799 10197915
0.92480701 0.10426058 3.268338 10197915
0.9753654 0.10430972 3.2698789 10197915
1.0246034 0.10435758 3.2713792 10197915
1.0752567 0.10440681 3.2729225 10197915
1.125957 0.1044561 3.2744677 10197915
1.1753337 0.10450409 3.2759721 10197915
1.224755 0.10455211 3.277477 10197915
1.2742224 0.1046002 3.2789843 10197915
1.3251114 0.10464964 3.280535 10197915
1.376048 0.10469916 3.2820866 10197915
1.4256545 0.10474738 3.2835989 10197915
1.475307 0.10479565 3.2851117 10197915
1.5250051 0.10484396 3.2866261 10197915
1.5747488 0.10489231 3.2881415 10197915
1.6245385 0.10494071 3.289659 10197915
1.6743742 0.10498916 3.291177 10197915
1.7242562 0.10503763 3.2926972 10197915
1.774184 0.10508618 3.2942188 10197915
1.824158 0.10513473 3.2957413 10197915
1.8760054 0.10490175 3.292661 10197915
1.9052058 0.10432518 3.2892845 10197915
1.9245058 -1.4670755 3.3157265 2039583
1.9240665 -1.4255408 3.31497 2039583
1.9235399 -1.3757234 3.3140621 2039583
1.9230132 -1.3259331 3.3131554 2039583
1.9224873 -1.2761704 3.3122492 2039583
1.9219466 -1.2250538 3.3113177 2039583
1.9214066 -1.1739655 3.3103871 2039583
1.920881 -1.1242857 3.3094819 2039583
1.9203565 -1.074633 3.3085773 2039583
1.9198316 -1.0250075 3.3076732 2039583
1.9193071 -0.97540921 3.3067698 2039583
1.9187832 -0.92583793 3.305867 2039583
1.9182446 -0.87491786 3.3049393 2039583
1.9208398 -0.82144111 3.311307 2039583
1.9211415 -0.77531654 3.3123004 2039583
1.9207151 -0.72502524 3.3116295 2039583
1.9200759 -0.67476439 3.3104634 2039583
1.9196706 -0.62585735 3.3098319 2039583
1.9229597 -0.5745523 3.3177986 2039583
1.9224325 -0.52492559 3.3168898 2039583
1.921906 -0.475326 3.3159809 2039583
1.9213797 -0.42575362 3.315073 2039583
1.920839 -0.3748326 3.3141403 2039583
1.9202989 -0.32394004 3.3132079 2039583
1.9197736 -0.27445051 3.3123016 2039583
1.9192483 -0.22498806 3.3113952 2039583
1.9187235 -0.17555265 3.3104897 2039583
1.9181842 -0.12477235 3.3095596 2039583
1.9176453 -0.074020304 3.3086295 2039583
1.9171214 -0.02466744 3.3077259 2039583
1.9205725 0.024727322 3.3160574 2039583
1.9199318 0.074861273 3.3148868 8750469
-0.061804354 0.10300803 3.3151827 2960685
-0.024728637 0.10304397 3.3163388 2960685
0.024743972 0.10309193 3.3178825 2894892
0.074262649 0.10313991 3.3194273 2894892
0.12382747 0.10318795 3.3209732 2894892
0.17481743 0.10323738 3.3225641 2894892
0.22585586 0.10328686 3.324156 2894892
0.27556202 0.10333504 3.325706 2894892
0.32531455 0.10338326 3.3272586 2894892
0.37511358 0.10343152 3.3288124 2894892
0.42495909 0.10347983 3.3303671 2894892
0.47485125 0.1035282 3.3319228 2894892
0.52479005 0.10357659 3.3334813 2894892
0.57477558 0.10362507 3.3350408 9276813
0.62480778 0.10367355 3.336601 10197915
0.67488694 0.1037221 3.3381636 10197915
0.72501302 0.10377069 3.3397272 10197915
0.77518606 0.1038193 3.3412917 10197915
0.82540607 0.10386798 3.342859 10197915
0.87567335 0.10391673 3.3444266 10197915
0.92598766 0.10396547 3.3459969 10197915
0.97494966 0.10401294 3.3475239 10197915
1.0239568 0.10406044 3.3490529 10197915
1.0519785 0.10408758 3.3499262 10197915
1.9210731 0.1021686 3.3177121 10197915
-0.063306876 0.10269862 3.3957787 2960685
-0.025329988 0.10273531 3.396992 2960685
0.025346078 0.10278429 3.3986108 2894892
0.059155185 0.10281696 3.3996916 2894892
1.0772142 0.10411206 3.350714 10197915
1.1249117 0.1041583 3.3522022 10197915
1.17546 0.10420725 3.3537779 10197915
1.226056 0.1042563 3.3553562 10197915
1.2752924 0.10430402 3.3568921 10197915
1.324574 0.10435179 3.3584294 10197915
1.3753107 0.10440096 3.3600123 10197915
1.4246836 0.10444882 3.361552 10197915
1.4741025 0.10449672 3.3630943 10197915
1.5249802 0.10454603 3.3646812 10197915
1.575906 0.10459539 3.3662698 10197915
1.6254629 0.10464343 3.3678155 10197915
1.675066 0.10469151 3.3693626 10197915
1.7247144 0.10473962 3.3709121 10197915
1.7744087 0.1047878 3.3724618 10197915
1.8255702 0.10483739 3.374058 10197915
1.8753572 0.10488564 3.3756113 10197915
1.92519 0.10493395 3.3771658 10197915
1.9522599 0.10496021 3.3780107 10197915
0.083118103 0.10284012 3.4004571 2894892
0.12402132 0.10287965 3.4017637 2894892
0.1748399 0.10292875 3.403388 2894892
0.22570705 0.10297791 3.4050138 2894892
0.27520755 0.10302575 3.4065952 2894892
0.32475454 0.10307363 3.4081788 2894892
0.37576503 0.10312292 3.4098086 2894892
0.42540509 0.10317088 3.4113944 2894892
0.47509181 0.10321892 3.4129822 2894892
0.5248245 0.10326698 3.4145718 2894892
0.57460374 0.10331509 3.416162 7237230
0.62442893 0.10336322 3.4177539 10197915
0.67430115 0.10341142 3.4193475 10197915
0.72564667 0.10346103 3.4209886 10197915
0.77561283 0.10350934 3.422585 10197915
0.82562613 0.10355766 3.4241829 10197915
0.87568575 0.10360605 3.4257829 10197915
0.92436016 0.10365308 3.4273379 10197915
0.9745124 0.10370155 3.4289405 10197915
1.0247113 0.10375005 3.4305446 10197915
1.0749574 0.10379861 3.4321504 10197915
1.1252505 0.10384721 3.4337566 10197915
1.1741514 0.10389444 3.4353192 10197915
1.2245374 0.10394314 3.4369287 10197915
1.2749708 0.10399187 3.4385405 10197915
1.3254514 0.10404065 3.4401531 10197915
1.3759793 0.10408948 3.4417679 10197915
1.425109 0.10413696 3.4433382 10197915
1.4742837 0.10418447 3.4449093 10197915
1.5249517 0.10423344 3.4465282 10197915
1.5756669 0.10428245 3.4481487 10197915
1.6162724 0.1043217 3.4494462 10197915
-0.063443132 0.10237517 3.4804378 2960685
-0.024519466 0.10241266 3.4817128 2960685
0.024534538 0.10245992 3.4833193 2894892
0.075078845 0.10250862 3.4849741 2894892
0.12567076 0.10255736 3.4866314 2894892
0.17486347 0.10260474 3.4882426 2894892
0.22410172 0.10265216 3.4898553 2894892
0.27483588 0.10270105 3.4915166 2894892
0.32561803 0.10274997 3.4931796 2894892
0.37499571 0.10279754 3.4947972 2894892
0.42441916 0.10284515 3.4964159 2894892
0.47388852 0.10289281 3.4980357 2894892
0.51611817 0.10293349 3.499419 2894892
1.6409408 0.10434553 3.4502344 10197915
1.6743363 0.10437781 3.4513018 10197915
1.7251925 0.10442695 3.4529264 10197915
1.7760963 0.10447615 3.4545534 10197915
1.8255917 0.10452397 3.4561348 10197915
1.8751326 0.10457186 3.4577177 10197915
1.924719 0.10461976 3.4593022 10197915
1.9743507 0.10466773 3.4608884 10197915
2.0006433 0.10469317 3.461729 10197915
0.89292431 -1.5691109 3.5468931 2039583
0.91707283 -1.5663821 3.5385916 2039583
0.89210546 -1.5249081 3.5473936 2039583
0.91489667 -1.5251327 3.537909 2039583
0.89211261 -1.4747072 3.5475585 2039583
0.91462904 -1.4748058 3.5380414 2039583
0.89270091 -1.4261372 3.5474672 2039583
0.91467577 -1.424931 3.5382483 2039583
0.89351535 -1.37481 3.5472891 2039583
0.91473573 -1.3750491 3.5384536 2039583
0.89361125 -1.3245398 3.5474164 2039583
0.91479486 -1.3251605 3.5386536 2039583
0.89359188 -1.2742516 3.5475929 2039583
0.9149192 -1.2751453 3.5388553 2039583
0.89362991 -1.2243333 3.5477438 2039583
0.91491538 -1.2251267 3.5390623 2039583
0.89366788 -1.1744102 3.5478952 2039583
0.91494989 -1.1752225 3.5392773 2039583
0.89370573 -1.1244832 3.5480459 2039583
0.91496378 -1.1251888 3.5394943 2039583
0.89374387 -1.0745518 3.5481968 2039583
0.91510129 -1.0750297 3.5396683 2039583
0.89490759 -1.0253083 3.5478611 2039583
0.91516775 -1.0249854 3.5398679 2039583
0.89514649 -0.97451967 3.5479271 2039583
0.91510522 -0.97493649 3.5401227 2039583
0.89518476 -0.92458367 3.548079 2039583
0.91521758 -0.92500222 3.5403075 2039583
0.89522278 -0.87464339 3.5482299 2039583
0.91530764 -0.87494087 3.5405455 2039583
0.89526075 -0.82469881 3.5483801 2039583
0.91532546 -0.82487369 3.5407233 2039583
0.89529884 -0.77475011 3.5485313 2039583
0.91534555 -0.77492267 3.5409386 2039583
0.8953371 -0.72479695 3.5486829 2039583
0.91543263 -0.72496551 3.5411351 2039583
0.8957271 -0.67696637 3.5486741 2039583
0.91546535 -0.67500281 3.5413432 2039583
0.89673966 -0.62477756 3.5484138 2039583
0.91553158 -0.62491208 3.5415447 2039583
0.89677781 -0.57481992 3.5485649 2039583
0.91559303 -0.57493752 3.5417531 2039583
0.89681602 -0.52485776 3.5487156 2039583
