# .PCD v0.7 - Point Cloud Data file format
VERSION 0.7
FIELDS x y z rgb
SIZE 4 4 4 4
TYPE F F F U
COUNT 1 1 1 1
WIDTH 1170
HEIGHT 1
VIEWPOINT 0 0 0 1 0 0 0
POINTS 1170
DATA ascii
0.77101922 -0.92501873 2.2722585 2894892
0.77100068 -0.874946 2.2724426 2894892
0.7709493 -0.82500851 2.2721732 2894892
0.77090353 -0.77507681 2.2719781 2894892
0.7708658 -0.72501576 2.2718976 2894892
0.77083308 -0.67482686 2.2718885 2894892
0.77078491 -0.62504888 2.2716563 2894892
0.77092874 -0.57455635 2.2741477 2894892
0.7709595 -0.52484882 2.275023 2894892
0.7709139 -0.47487077 2.2748358 2894892
0.77087629 -0.42513591 2.2747493 2894892
0.77083331 -0.37516874 2.2745979 2894892
0.77079415 -0.32485494 2.2744951 2894892
0.77085465 -0.2756117 2.2757914 2894892
0.77096272 -0.2249939 2.2777734 2894892
0.77091652 -0.17497061 2.2775786 2894892
0.77087039 -0.12495171 2.2773802 2894892
0.7708621 -0.074940272 2.2777169 2894892
0.77078921 -0.024938954 2.2771413 2894892
0.77074867 0.025071954 2.2770231 2894892
0.77074063 0.075062796 2.27736 2894892
-0.55862361 0.11040367 2.2776935 1853566
-0.52472544 0.11041903 2.2780099 4020859
-0.4748036 0.11044162 2.278476 9934743
-0.42486155 0.11046422 2.2789423 9934743
-0.37489885 0.11048681 2.2794087 9934743
-0.32491577 0.11050944 2.2798753 9934743
-0.27491215 0.11053208 2.2803419 9934743
-0.22488825 0.1105547 2.2808092 9934743
-0.17484362 0.11057734 2.2812765 9934743
-0.12477866 0.1106 2.2817438 9934743
-0.074693047 0.11062266 2.2822113 10132122
-0.024587026 0.11064533 2.2826788 10197915
0.024593623 0.11066759 2.283138 10197915
0.074740477 0.11069027 2.2836058 10197915
0.12490776 0.11071297 2.2840745 10197915
0.17509577 0.11073569 2.2845433 10197915
0.22530423 0.11075839 2.2850118 10197915
0.27458549 0.11078072 2.2854719 10197915
0.32483494 0.11080343 2.2859409 10197915
0.37510487 0.1108262 2.2864103 10197915
0.42565459 0.11089041 2.2692716 10197915
0.47467861 0.1109143 2.2689917 10197915
0.52507341 0.11093794 2.2691119 10197915
0.57502413 0.11096056 2.2695746 10197915
0.62498069 0.11098154 2.27073 10197915
0.67496657 0.1110058 2.2705002 10197915
0.72497857 0.11102843 2.270963 8026746
0.76701134 0.1073866 2.2751565 2894892
0.77484643 -1.0203317 2.3253477 2894892
0.77462316 -0.97519708 2.3226097 2894892
0.77459759 -0.92511106 2.3226914 2894892
0.77454829 -0.87516618 2.3224473 2894892
0.77451056 -0.82508993 2.3223679 2894892
0.77446419 -0.77488095 2.3221643 2894892
0.77442908 -0.72495341 2.3221219 2894892
0.77438557 -0.67517012 2.3219595 2894892
0.77435362 -0.62525016 2.3219604 2894892
0.77449441 -0.57593822 2.3243883 2894892
0.77453077 -0.52501845 2.3253593 2894892
0.77447313 -0.47490218 2.3250022 2894892
0.77444428 -0.42495039 2.3250442 2894892
0.77440858 -0.37500149 2.3249931 2894892
0.77435446 -0.32489756 2.3246815 2894892
0.77432561 -0.27496323 2.3247256 2894892
0.77428669 -0.2250298 2.3246267 2894892
0.77424115 -0.17510241 2.324434 2894892
0.7741884 -0.12518266 2.3241463 2894892
0.77416444 -0.075107433 2.3242593 2894892
0.77412349 -0.025034642 2.3241374 2894892
0.77433658 0.02520592 2.3275959 2894892
0.77429569 0.075076409 2.3274732 2894892
-0.56403375 0.11031276 2.3153973 1919357
-0.52574599 0.11033009 2.3157606 5203070
-0.47499683 0.11035303 2.3162425 9934743
-0.42422679 0.11037597 2.3167241 9934743
-0.37439412 0.1103985 2.3171973 9934743
-0.32454097 0.11042105 2.3176701 9934743
-0.27466762 0.1104436 2.3181434 9934743
-0.22477372 0.11046615 2.3186173 9934743
-0.17485958 0.11048873 2.3190906 9934743
-0.12492497 0.1105113 2.3195646 9934743
-0.07496997 0.11053389 2.3200388 10132122
-0.02499453 0.11055648 2.320513 10197915
0.025001343 0.1105791 2.3209872 10197915
0.075017661 0.1106017 2.3214617 10197915
0.12505442 0.11062433 2.3219366 10197915
0.1751117 0.11064696 2.322412 10197915
0.22518946 0.11066961 2.3228872 10197915
0.27528772 0.11069226 2.3233626 10197915
0.3254064 0.11071492 2.3238382 10197915
0.37554571 0.11073757 2.3243141 10197915
0.42570549 0.11076026 2.32479 10197915
0.47492063 0.11078251 2.3252575 10197915
0.52415568 0.11080478 2.3257246 10197915
0.5743764 0.11082748 2.326201 10197915
0.6246177 0.11085021 2.3266778 10197915
0.67487961 0.11087293 2.3271544 10197915
0.72516209 0.11089567 2.3276322 8487297
0.77139747 0.10675649 2.327204 2894892
0.77901906 -1.0581659 2.3838251 2894892
0.77838856 -1.024832 2.3752382 2894892
0.77834833 -0.97487432 2.3751142 2894892
0.77832031 -0.92492408 2.3751633 2894892
0.77826715 -0.87497687 2.374867 2894892
0.77823555 -0.82517529 2.3748715 2894892
0.77819467 -0.7750985 2.3747473 2894892
0.77814764 -0.72488719 2.3745368 2894892
0.77811575 -0.67481846 2.3745382 2894892
0.77805972 -0.62490463 2.3742001 2894892
0.77801597 -0.57498002 2.3740332 2894892
0.77799606 -0.52507597 2.3742082 2894892
0.77794349 -0.47516906 2.3739138 2894892
0.77790868 -0.42498896 2.3738747 2894892
0.77786744 -0.37495366 2.3737488 2894892
0.77781796 -0.32520589 2.3734949 2894892
0.77777976 -0.27518028 2.3734145 2894892
0.77774209 -0.22502118 2.373332 2894892
0.77769816 -0.17514826 2.3731642 2894892
0.77765727 -0.12513824 2.3730412 2894892
0.7776342 -0.074993789 2.3731706 2894892
0.77756602 -0.025002349 2.3726604 2894892
0.77778727 0.024790613 2.3762279 2894892
0.77777815 0.074985102 2.3765516 2894892
-0.57131803 0.11016505 2.3768785 1853307
-0.52488625 0.11019242 2.3745887 7436934
-0.4752993 0.11021391 2.3754666 9934743
-0.42519599 0.11023656 2.3759546 9934743
-0.37458995 0.11026033 2.3760509 9934743
-0.32493618 0.1102818 2.3769305 9934743
-0.27526966 0.11030517 2.3770173 9934743
-0.22508167 0.11032785 2.3775055 9934743
-0.17488441 0.11034866 2.3787868 9934743
-0.12466576 0.11037318 2.3784833 9934743
-0.074907184 0.11039472 2.3793635 10132122
-0.029362556 0.11043834 2.369983 10197915
0.025422782 0.1104875 2.3601105 10197915
0.075304098 0.11051001 2.3605917 10197915
0.1252059 0.11053257 2.3610725 10197915
0.17512794 0.11055513 2.3615546 10197915
0.22507049 0.11057767 2.3620367 10197915
0.27503332 0.11060026 2.3625188 10197915
0.32501665 0.11062283 2.3630011 10197915
0.3750203 0.11064543 2.3634839 10197915
0.42504442 0.11066803 2.3639665 10197915
0.47508889 0.11069062 2.3644493 10197915
0.52515399 0.11071325 2.3649325 10197915
0.57523936 0.11073587 2.3654156 10197915
0.62534547 0.11075851 2.3658996 10197915
0.67547172 0.11078116 2.3663828 10197915
0.72463524 0.11080337 2.3668573 9013641
0.77333647 0.10708699 2.3734267 2894892
0.7822116 -1.0683711 2.4287295 2894892
0.78200805 -1.0250822 2.4262543 2894892
0.78195077 -0.97494251 2.4258878 2894892
0.78192282 -0.92480612 2.4259474 2894892
0.78188932 -0.87484431 2.4259281 2894892
0.78183687 -0.82488674 2.4256382 2894892
0.78180367 -0.77493352 2.4256191 2894892
0.78175873 -0.72498578 2.4254384 2894892
0.78171402 -0.67504686 2.425256 2894892
0.78168219 -0.62494028 2.4252639 2894892
0.78164101 -0.57467216 2.4251363 2894892
0.78158474 -0.52474481 2.4247921 2894892
0.78155732 -0.47499412 2.4248562 2894892
0.78151798 -0.42490911 2.4247541 2894892
0.7814694 -0.37499955 2.4245188 2894892
0.78143054 -0.32526219 2.4244199 2894892
0.78138554 -0.27502558 2.4242404 2894892
0.78134429 -0.22479752 2.4241097 2894892
0.78131104 -0.1749073 2.4240913 2894892
0.78126597 -0.1250225 2.4239099 2894892
0.78122115 -0.075146243 2.4237285 2894892
0.7811895 -0.025103336 2.4237351 2894892
0.78114843 0.025101567 2.4236071 2894892
0.78109759 0.075133927 2.4233449 2894892
-0.60354465 0.11001065 2.4361601 1589882
-0.57434362 0.11002381 2.4364519 1786225
-0.52498966 0.11004608 2.4369447 9868951
-0.4756155 0.11006835 2.4374378 9934743
-0.42521328 0.1100911 2.4379413 9934743
-0.37479019 0.11011382 2.4384449 9934743
-0.32434624 0.11013657 2.4389484 9934743
-0.27489105 0.11015887 2.4394426 9934743
-0.22541566 0.11018117 2.4399366 9934743
-0.17490999 0.11020396 2.4404409 9934743
-0.12438344 0.11022674 2.4409456 9934743
-0.074847199 0.11024908 2.4414399 10132122
-0.021629732 0.11031142 2.4256344 10197915
0.025080843 0.11034326 2.4215024 10197915
0.074747078 0.11036667 2.4215667 10197915
0.12443947 0.11038808 2.4224865 10197915
0.17465566 0.11041076 2.4229834 10197915
0.2248863 0.11043538 2.4226425 10197915
0.27513254 0.11045606 2.4239783 10197915
0.32541057 0.11047878 2.4244759 10197915
0.3752073 0.11050224 2.424541 10197915
0.42501339 0.1105237 2.4254622 10197915
0.47535315 0.11054642 2.4259603 10197915
0.52520496 0.11056989 2.4260261 10197915
0.57507795 0.11059141 2.4269476 10197915
0.62497336 0.11061494 2.4270136 10197915
0.67488396 0.11063644 2.4279361 10197915
0.72532648 0.11065921 2.4284356 9408399
0.77363688 0.10796172 2.4260337 2894892
0.78628194 -1.1061555 2.4857638 2894892
0.78553033 -1.0748777 2.4754529 2894892
0.78547561 -1.0250868 2.4751246 2894892
0.78544486 -0.97496074 2.4751394 2894892
0.7853955 -0.92501128 2.4748936 2894892
0.78535438 -0.87506568 2.4747653 2894892
0.78530306 -0.82495409 2.4744923 2894892
0.78527772 -0.77502185 2.4745886 2894892
0.78522062 -0.72509187 2.4742322 2894892
0.78521168 -0.67516428 2.4745593 2894892
0.78513813 -0.62491316 2.4739747 2894892
0.7851128 -0.57499266 2.4740698 2894892
0.78505391 -0.52525467 2.4736869 2894892
0.78502846 -0.47501099 2.4737821 2894892
0.78498101 -0.42494327 2.4735658 2894892
0.78494996 -0.37488094 2.4735792 2894892
0.78490061 -0.32499355 2.4733341 2894892
0.78485954 -0.2751109 2.4732058 2894892
0.78481019 -0.22489236 2.4729626 2894892
0.78478086 -0.17502129 2.4730017 2894892
0.7847358 -0.12515457 2.4728172 2894892
0.78470606 -0.07495039 2.4728537 2894892
0.78464282 -0.024931664 2.4724131 2894892
0.78460181 0.024929915 2.4722829 2894892
0.78458244 0.074938148 2.4724634 2894892
-0.60910881 0.10990667 2.4793501 1655418
-0.5752914 0.10992189 2.4796939 3034484
-0.52506125 0.10994454 2.4802041 10000536
-0.47481063 0.10996717 2.480715 9934743
-0.42556548 0.10998935 2.4812155 9934743
-0.37527373 0.11001202 2.4817269 9934743
-0.32496142 0.11003468 2.4822385 9934743
-0.27565572 0.11005691 2.4827392 9934743
-0.22530217 0.11007959 2.4832511 9934743
-0.17492802 0.11010227 2.483763 9934743
-0.12556171 0.11012455 2.4842646 9934743
-0.075146288 0.11014724 2.484777 10066329
-0.024710188 0.11016997 2.4852898 10197915
0.024716847 0.11019225 2.4857924 10197915
0.075194299 0.11021498 2.4863055 10197915
0.12569247 0.11023774 2.4868186 10197915
0.1751803 0.11026005 2.4873216 10197915
0.22468822 0.11028235 2.4878247 10197915
0.27421615 0.11030465 2.4883282 10197915
0.32479665 0.11032745 2.4888425 10197915
0.37539789 0.11035024 2.4893568 10197915
0.42498687 0.11037257 2.4898608 10197915
0.47459581 0.11039493 2.4903648 10197915
0.52422494 0.11041731 2.490869 10197915
0.57490891 0.11044015 2.4913845 10197915
0.62561357 0.11046297 2.4918997 10197915
0.67530394 0.11048537 2.4924047 10197915
0.72501439 0.11050776 2.4929099 9934743
0.77862227 0.10723879 2.4795718 2960685
0.78939021 -1.1159163 2.5294912 2894892
0.78914076 -1.0748568 2.5263426 2894892
0.78909171 -1.0249149 2.5260909 2894892
0.78905261 -0.97515452 2.5259902 2894892
0.7890178 -0.92504764 2.525948 2894892
0.78896523 -0.87494683 2.5256627 2894892
0.78893256 -0.82502747 2.5256531 2894892
0.78888696 -0.7751103 2.5254591 2894892
0.78883052 -0.72502863 2.525116 2894892
0.78881037 -0.67477512 2.525285 2894892
0.78876853 -0.62452471 2.5251517 2894892
0.78870994 -0.5746246 2.5247743 2894892
0.78868383 -0.52491724 2.5248568 2894892
0.78864455 -0.47485748 2.524754 2894892
0.78859466 -0.42497739 2.5244999 2894892
0.788562 -0.37510431 2.5244894 2894892
0.78851396 -0.32506257 2.5242667 2894892
0.78846842 -0.27519777 2.5240724 2894892
0.78842694 -0.22499321 2.5239429 2894892
0.78839391 -0.17479138 2.5239284 2894892
0.7883482 -0.12494358 2.5237346 2894892
0.78830212 -0.075104624 2.5235403 2894892
0.78827161 -0.025091758 2.52356 2894892
0.78822982 0.025089992 2.5234272 2894892
0.78817773 0.075092345 2.5231414 2894892
-0.61487442 0.10979906 2.5241024 1655673
-0.57523054 0.10981691 2.5245125 4676986
-0.52513629 0.10983946 2.5250306 10000536
-0.4750216 0.10986201 2.5255489 10000536
-0.42488614 0.10988458 2.5260682 9934743
-0.37473023 0.10990714 2.526587 9934743
-0.32455358 0.10992972 2.5271063 9934743
-0.27435637 0.10995233 2.5276258 9934743
-0.22413854 0.10997493 2.5281453 9934743
-0.17494695 0.10999709 2.5286541 9934743
-0.1257354 0.11001924 2.5291636 9934743
-0.075456418 0.11004186 2.5296838 10066329
-0.025156736 0.11006451 2.5302041 10197915
0.025163637 0.11008713 2.530725 10197915
0.075504743 0.11010981 2.5312459 10197915
0.12481709 0.11013201 2.5317559 10197915
0.17414941 0.11015422 2.5322666 10197915
0.2245519 0.11017691 2.532788 10197915
0.27497509 0.11019961 2.5333102 10197915
0.3254191 0.11022231 2.5338318 10197915
0.37483227 0.11024454 2.5343432 10197915
0.4242655 0.11026681 2.5348547 10197915
0.47477102 0.11028954 2.5353773 10197915
0.52529746 0.11031225 2.5359004 10197915
0.57479131 0.11033458 2.5364125 10197915
0.62430525 0.11035682 2.5369246 10197915
0.67489338 0.11037963 2.5374484 10197915
0.72550231 0.11040238 2.5379717 10066329
0.78127795 0.10717563 2.5289204 3026478
-0.63856274 -1.1546015 2.5911467 1257034
0.79357731 -1.1538519 2.5881641 2894892
-0.63909727 -1.1248872 2.5838838 1852262
0.79265094 -1.1242281 2.5753729 2894892
-0.63911414 -1.0748289 2.5840988 2645135
0.79259288 -1.0750539 2.5749996 2894892
-0.6391511 -1.0249797 2.5840271 2711439
0.79254103 -1.0248662 2.5747139 2894892
-0.63915533 -0.9751302 2.5844157 2777232
0.79249376 -0.97467971 2.5745001 2894892
-0.63919663 -0.92484927 2.5842872 2842511
0.79246318 -0.92471319 2.574518 2894892
-0.63921356 -0.87477386 2.5845025 2777745
0.79241109 -0.87496483 2.57423 2894892
-0.63923812 -0.82555181 2.5846012 2777744
0.79238552 -0.82500881 2.5743253 2894892
-0.63926291 -0.77525592 2.5847023 2711952
0.79233319 -0.77484637 2.5740366 2894892
-0.63928807 -0.72495604 2.5848033 2448269
0.79229152 -0.72489905 2.5739014 2894892
-0.63932502 -0.67508119 2.5847321 2644876
0.79224467 -0.67517656 2.5736897 2894892
-0.63933367 -0.62498915 2.5850625 2578570
0.7922135 -0.62481183 2.5737078 2894892
-0.63936687 -0.57489425 2.5850487 2249351
0.79217184 -0.57466733 2.5735726 2894892
-0.63938761 -0.52479178 2.5852058 1984626
0.79211432 -0.52516717 2.5732083 2894892
-0.63942057 -0.4751167 2.5851898 1257549
0.79209453 -0.47525108 2.5733793 2894892
-0.63943696 -0.42522216 2.5854058 2052230
0.79204226 -0.42512473 2.5730927 2894892
-0.63947022 -0.37510809 2.5853918 1853825
0.79199493 -0.37500125 2.5728784 2894892
-0.63948321 -0.32499382 2.5856652 2183814
0.79196441 -0.3250986 2.572897 2894892
-0.639516 -0.27487424 2.5856519 2250120
0.79212654 -0.27392399 2.5756466 2894892
-0.63953692 -0.22496308 2.5858083 2381703
0.79218453 -0.22491686 2.576906 2894892
-0.63957393 -0.17504971 2.585737 2315397
0.79216111 -0.1750869 2.5770271 2894892
-0.63957822 -0.12513092 2.5861259 1985152
0.79211259 -0.12507957 2.5767977 2894892
-0.63961965 -0.074786037 2.5859978 1720442
0.7920841 -0.074899472 2.5768511 2894892
-0.63963628 -0.024642894 2.5862117 1456243
0.7920174 -0.024912849 2.5763633 2894892
-0.63966095 0.02464414 2.5863113 1390451
0.79197609 0.024911109 2.5762286 2894892
-0.63969404 0.074795045 2.5862992 1456757
0.79195946 0.074887253 2.5764446 2894892
-0.63072336 0.10711153 2.579221 1589368
-0.57516676 0.10970789 2.5709777 6385280
-0.52521342 0.10973037 2.5715041 10000536
-0.47523955 0.10975286 2.5720308 10000536
-0.42524537 0.10977533 2.5725577 9934743
-0.37523046 0.1097978 2.5730846 9934743
-0.32519522 0.10982031 2.5736117 9934743
-0.27513939 0.10984281 2.5741394 9934743
-0.22506313 0.10986533 2.574667 9934743
-0.17496617 0.10988785 2.5751951 9934743
-0.12484886 0.10991041 2.5757229 9934743
-0.074710824 0.10993295 2.5762517 10066329
-0.024552347 0.10995549 2.5767801 10197915
0.024558926 0.10997758 2.5772977 10197915
0.074758284 0.11000016 2.5778265 10197915
0.12497812 0.11002276 2.5783558 10197915
0.1752187 0.11004534 2.5788851 10197915
0.22547981 0.11006795 2.5794151 10197915
0.27469158 0.11009006 2.5799336 10197915
0.32499367 0.11011267 2.5804636 10197915
0.37531629 0.11013534 2.5809939 10197915
0.42458832 0.11015746 2.5815132 10197915
0.47495207 0.1101801 2.5820439 10197915
0.52533644 0.11020278 2.5825746 10197915
0.57466882 0.11022495 2.5830948 10197915
0.62509423 0.11024764 2.5836256 10197915
0.67554033 0.11027031 2.5841577 10197915
0.72493327 0.11029253 2.5846782 10197915
0.78341621 0.10724328 2.5796232 3289650
-0.6359123 -1.1631272 2.6284306 1323083
0.79654998 -1.1634805 2.6299801 2894892
-0.63618356 -1.1250873 2.6249516 2314878
0.79621464 -1.1250623 2.6256034 2894892
-0.63620228 -1.0749495 2.6251404 2645390
0.79617369 -1.0749706 2.625468 2894892
-0.63623923 -1.0249628 2.6250718 2908559
0.79611999 -1.0250663 2.6251595 2894892
-0.63625187 -0.97497255 2.6253455 2711182
0.7960903 -0.97516567 2.6251938 2894892
-0.63628256 -0.92513311 2.6253607 2645132
0.79602975 -0.92508936 2.6247857 2894892
-0.63631022 -0.8754487 2.6254182 2645902
0.79600692 -0.87502098 2.6249185 2894892
-0.63632566 -0.82559848 2.6256506 2514317
0.79595292 -0.8251372 2.6246083 2894892
-0.63635957 -0.7754336 2.6256254 2711182
0.79592359 -0.77525812 2.6246424 2894892
-0.6363818 -0.72511637 2.6257701 2513547
0.79587913 -0.72502041 2.624469 2894892
-0.6364004 -0.67494714 2.6259577 2579339
0.79583955 -0.67478794 2.6243663 2894892
-0.63643748 -0.62492895 2.6258864 2381192
0.79577845 -0.62439096 2.62396 2894892
-0.63644987 -0.57490814 2.6261628 2249093
0.79573363 -0.57452017 2.6237764 2894892
-0.63648075 -0.52503753 2.6261787 2050675
0.79571408 -0.52503943 2.6239524 2894892
-0.63650835 -0.47500828 2.6262381 1389910
0.79567248 -0.47500902 2.6238151 2894892
-0.6365242 -0.42481953 2.6264701 2117764
0.79563046 -0.42498392 2.623677 2894892
-0.63655812 -0.3749364 2.626441 1919616
0.79556471 -0.37496623 2.6231985 2894892
-0.63657379 -0.32505158 2.6266732 2250118
0.79554683 -0.32495612 2.6234009 2894892
-0.63660759 -0.27500623 2.6266468 2315910
0.79569268 -0.27607286 2.6258953 2894892
-0.63662302 -0.22495706 2.6268783 2315653
0.79578793 -0.22512837 2.6276991 2894892
-0.63666314 -0.17490399 2.626765 2315140
0.79574031 -0.17504308 2.6274812 2894892
-0.63668197 -0.12500519 2.6269515 1985408
0.79569829 -0.12496334 2.6273398 2894892
-0.63669753 -0.075100198 2.6271842 1852283
0.79566824 -0.075105794 2.6273663 2894892
-0.63672215 -0.025034266 2.6272864 1522292
0.79562658 -0.025034092 2.627228 2894892
-0.63674694 0.025035571 2.6273885 1456242
0.79558426 0.025032332 2.62709 2894892
-0.6367718 0.075109266 2.627491 1522549
0.79554272 0.075093485 2.6269515 2894892
-0.63057816 0.10653768 2.6236157 1589110
-0.5751006 0.10959482 2.6191852 8094088
-0.52421045 0.10961766 2.6197319 10000536
-0.4743824 0.10964007 2.6202669 10000536
-0.42453402 0.10966244 2.6208019 9934743
-0.37466526 0.10968486 2.6213372 9934743
-0.32477614 0.10970726 2.6218727 9934743
-0.27486658 0.10972968 2.6224086 9934743
-0.22493665 0.10975213 2.6229444 9934743
-0.1749863 0.10977456 2.6234806 9934743
-0.12501554 0.109797 2.6240177 9934743
-0.075024322 0.10981946 2.6245539 10066329
-0.025012653 0.10984191 2.6250911 10197915
0.025019474 0.1098644 2.625628 10197915
0.075072087 0.10988688 2.6261652 10197915
0.1251452 0.10990937 2.6267028 10197915
0.1752388 0.10993189 2.6272407 10197915
0.22535293 0.1099544 2.6277785 10197915
0.27548757 0.10997691 2.6283174 10197915
0.32564279 0.10999945 2.6288557 10197915
0.37581849 0.11002199 2.6293943 10197915
0.42492333 0.11004403 2.6299212 10197915
0.47404796 0.11006612 2.6304486 10197915
0.52428454 0.11008868 2.6309884 10197915
0.57454175 0.11011128 2.6315277 10197915
0.62481952 0.11013384 2.6320672 10197915
0.67511803 0.11015643 2.6326072 10197915
0.7254371 0.11017903 2.6331475 10197915
0.78500563 0.10755187 2.6294715 3487029
-0.63121498 -1.2027141 2.6942823 1125188
0.80121839 -1.2032242 2.695426 2894892
-0.63254452 -1.1729645 2.6758125 1521751
0.79933304 -1.1719841 2.6691318 2894892
0.80101967 -1.1747535 2.6928828 2894892
-0.6326679 -1.1249397 2.674509 2645133
0.79923785 -1.1249832 2.6682122 2894892
0.80097795 -1.1244918 2.6927423 2894892
-0.63269258 -1.074963 2.6746118 2842254
0.79921687 -1.0751905 2.6683609 2894892
0.80093706 -1.075352 2.6926053 2894892
-0.63272345 -1.0251411 2.6746237 2841996
0.79915476 -1.0250211 2.6679358 2894892
0.80089492 -1.0250995 2.6924636 2894892
-0.63273525 -0.97499889 2.6749129 2776461
0.79912275 -0.97486216 2.6679378 2894892
0.8008526 -0.97485256 2.6923215 2894892
-0.6327827 -0.92485386 2.6746974 2447498
0.79908091 -0.92507553 2.667798 2894892
0.80080307 -0.92517006 2.692071 2894892
-0.63276845 -0.87485236 2.6753485 2645645
0.79903948 -0.87529391 2.6676593 2894892
0.8007766 -0.87493235 2.6921482 2894892
-0.63283181 -0.82503128 2.6749043 2644876
0.79898697 -0.82515001 2.667376 2894892
0.80071867 -0.82470644 2.691787 2894892
-0.63285303 -0.77501714 2.6750562 2513033
0.79896516 -0.77500904 2.6675196 2894892
0.80068457 -0.77503592 2.6917562 2894892
-0.63286155 -0.72486156 2.6753886 2447241
0.79890323 -0.72524995 2.6670949 2894892
0.80064237 -0.72481561 2.6916142 2894892
-0.63288653 -0.6750102 2.6754892 2380935
0.79887128 -0.67511737 2.6670978 2894892
0.80060023 -0.67460042 2.6914728 2894892
-0.63291401 -0.62499893 2.6755502 2314629
0.79882962 -0.62536192 2.6669588 2894892
0.80055887 -0.62550598 2.6913338 2894892
-0.63294858 -0.57482558 2.6755168 2314628
0.79878777 -0.57561195 2.6668191 2894892
0.80051649 -0.57530135 2.6911919 2894892
-0.63296682 -0.52496266 2.6757123 1984881
0.79874516 -0.5247618 2.6666768 2894892
0.80047458 -0.52510184 2.6910498 2894892
-0.63297844 -0.47509834 2.6759989 1587807
0.79869276 -0.47465149 2.6663933 2894892
0.80043215 -0.47490758 2.690908 2894892
-0.63302225 -0.42491502 2.6758308 2117250
0.79867131 -0.42492172 2.6665397 2894892
0.80038989 -0.42471877 2.6907659 2894892
-0.63304394 -0.37488115 2.6759782 1985151
0.7988162 -0.37300938 2.6690478 2894892
0.80046862 -0.37958896 2.6922786 2894892
-0.6330651 -0.32500523 2.6761293 2381189
0.79891467 -0.32476804 2.6708705 2894892
0.80065531 -0.32495236 2.6954048 2894892
-0.63308322 -0.27496687 2.6763246 2447237
0.79888797 -0.27495828 2.6709464 2894892
0.80061287 -0.2746875 2.6952624 2894892
-0.633111 -0.22492316 2.6763835 2380675
0.79883087 -0.22515863 2.6705906 2894892
0.80057162 -0.22554478 2.6951232 2894892
-0.63313901 -0.17487822 2.6764421 2248834
0.79879248 -0.1750809 2.670505 2894892
0.80052942 -0.17529048 2.6949809 2894892
-0.63317668 -0.12482682 2.6763628 1918845
0.79874283 -0.12473813 2.6702561 2894892
0.8004868 -0.12504144 2.6948385 2894892
-0.6331622 -0.074925639 2.677016 1653876
0.79872388 -0.074943297 2.6704397 2894892
0.8004443 -0.074797682 2.6946948 2894892
-0.63322574 -0.025038131 2.6765704 1521520
0.79865903 -0.025172535 2.6699765 2894892
0.8004021 -0.024559272 2.6945527 2894892
-0.63325024 0.025039431 2.6766737 1455726
0.79861701 0.025170751 2.6698356 2894892
0.80036074 0.024557583 2.6944134 2894892
-0.63323599 0.074934706 2.6773286 1588340
0.79859805 0.074931063 2.6700196 2894892
0.80031866 0.074785464 2.6942711 2894892
-0.62764835 0.10627402 2.6734324 1785713
-0.57503206 0.10947741 2.6692362 10000536
-0.52537638 0.10949969 2.6697788 10000536
-0.47459653 0.10952248 2.6703346 10000536
-0.42490017 0.10954478 2.6708784 9934743
-0.3751834 0.10956711 2.6714222 9934743
-0.32434091 0.10958987 2.6719785 9934743
-0.27458337 0.10961223 2.6725228 9934743
-0.22480537 0.10963456 2.6730676 9934743
-0.17500721 0.10965692 2.6736124 9934743
-0.12518857 0.10967927 2.6741571 9934743
-0.075349808 0.10970163 2.6747026 10000536
-0.02549055 0.109724 2.6752481 10197915
0.02549764 0.10974688 2.675806 10197915
0.075397894 0.10976929 2.6763518 10197915
0.12531866 0.10979168 2.676898 10197915
0.17525965 0.10981409 2.6774445 10197915
0.2252212 0.1098365 2.6779912 10197915
0.27520302 0.10985894 2.6785376 10197915
0.32520539 0.10988139 2.679085 10197915
0.37522796 0.10990382 2.6796324 10197915
0.42527124 0.10992628 2.6801796 10197915
0.47533476 0.10994873 2.6807275 10197915
0.52541894 0.10997123 2.6812754 10197915
0.57552344 0.10999369 2.6818237 10197915
0.62453425 0.11001568 2.6823599 10197915
0.67467958 0.1100382 2.6829085 10197915
0.72484511 0.11006071 2.6834574 10197915
0.78565133 0.1076981 2.6772203 3750201
0.80029315 0.10491988 2.6941857 2894892
-0.62860894 -1.2108576 2.7309451 1125447
0.80385172 -1.2113825 2.73247 2894892
-0.62900245 -1.1749139 2.7257233 1852523
0.80350226 -1.1752973 2.7278748 2894892
-0.62902009 -1.1249489 2.7259252 2380675
0.8034485 -1.1252878 2.7275519 2894892
-0.62904811 -1.0749772 2.7259831 2512259
0.80341238 -1.0750612 2.7274997 2894892
-0.62907255 -1.0248438 2.72609 2445954
0.8033765 -1.0250611 2.727448 2894892
-0.62909013 -0.97486401 2.7262919 2446210
0.80333441 -0.9750663 2.7273035 2894892
-0.62911808 -0.9248811 2.7263501 2183040
0.80327916 -0.92485571 2.7269793 2894892
-0.62915653 -0.87457961 2.7262659 2249345
0.80325013 -0.87486976 2.7270169 2894892
-0.62916398 -0.8245849 2.7266121 2249089
0.80320162 -0.82489198 2.7267828 2894892
-0.62918818 -0.77491218 2.7267175 2249089
0.80313975 -0.77491975 2.7263634 2894892
-0.62922275 -0.72507489 2.7266779 2183552
0.80312383 -0.72518212 2.726589 2894892
-0.62924725 -0.67491621 2.7267845 2116990
0.80308187 -0.67544478 2.7264459 2894892
-0.62926114 -0.62490886 2.727035 2182525
0.80304003 -0.62571263 2.7263038 2894892
-0.6292963 -0.57490033 2.7269976 2248061
0.80297822 -0.57552749 2.7258897 2894892
-0.62931734 -0.52472597 2.7271497 1852524
0.80295473 -0.52513897 2.7260146 2894892
-0.62933505 -0.47486961 2.7273545 1654373
0.80291271 -0.47519624 2.7258723 2894892
-0.62959689 -0.42546433 2.7241089 1984637
0.80286419 -0.42503211 2.7256386 2894892
-0.62964511 -0.37482378 2.7238879 2050685
0.80282855 -0.37487707 2.7255855 2894892
-0.62968135 -0.32480723 2.7238247 2381444
0.80278015 -0.32495257 2.7253509 2894892
-0.62969995 -0.27497754 2.7240148 2512772
0.80274397 -0.27503058 2.7252994 2894892
-0.62973225 -0.2249579 2.7240098 2314624
0.80268914 -0.22511727 2.7249753 2894892
-0.62974876 -0.17493045 2.7242267 2314368
0.80265981 -0.17498092 2.7250116 2894892
-0.62978131 -0.12490162 2.7242205 1918074
0.80261105 -0.12485016 2.7247775 2894892
-0.62980801 -0.074684232 2.7242994 1587568
0.8025617 -0.074729592 2.7245431 2894892
-0.62982243 -0.024832265 2.7245448 1521005
0.80253255 -0.024832975 2.7245812 2894892
-0.62984681 0.024833536 2.7246501 1454698
0.80249053 0.024831243 2.7244387 2894892
-0.62988108 0.07469324 2.7246156 1521262
0.80243605 0.074717425 2.7241154 2894892
-0.62472218 0.1061862 2.7230828 2901875
-0.57496065 0.10935542 2.7212362 10000536
-0.52546275 0.10937762 2.7217882 10000536
-0.474819 0.10940032 2.722353 10000536
-0.42415437 0.10942302 2.7229178 9934743
-0.37459525 0.10944524 2.7234709 9934743
-0.32501593 0.10946745 2.7240236 9934743
-0.27541652 0.10948969 2.724577 9934743
-0.22579698 0.10951194 2.7251306 9934743
-0.17502871 0.10953469 2.7256963 9934743
-0.12423956 0.10955744 2.7262633 9934743
-0.074558564 0.10957971 2.7268174 10000536
-0.024857342 0.109602 2.7273715 10197915
0.024864079 0.10962429 2.7279265 10197915
0.074605741 0.10964659 2.7284811 10197915
0.12436762 0.10966888 2.7290366 10197915
0.17414978 0.10969121 2.7295916 10197915
0.22508432 0.10971403 2.7301598 10197915
0.27603996 0.10973687 2.7307281 10197915
0.32588384 0.10975921 2.7312837 10197915
0.37574804 0.10978156 2.7318399 10197915
0.42563251 0.10980392 2.7323968 10197915
0.47553733 0.10982628 2.7329531 10197915
0.52546257 0.10984866 2.73351 10197915
0.57540804 0.10987104 2.734067 10197915
0.6253739 0.10989346 2.7346246 10197915
0.67536014 0.10991586 2.735182 10197915
0.72536671 0.10993827 2.7357399 10197915
0.7753939 0.10996068 2.7362978 4934475
0.80238634 0.10516629 2.724719 2894892
-0.62683016 -1.2159818 2.7559741 1454670
0.80692399 -1.2209004 2.7756879 2894892
-0.62685019 -1.1749158 2.756062 1454670
0.80676943 -1.1748223 2.7739222 2894892
-0.62687403 -1.125861 2.7561672 1454670
0.80674076 -1.1250672 2.7739623 2894892
-0.62689865 -1.0756619 2.7562752 1454926
0.80669838 -1.0750192 2.7738149 2894892
-0.62692314 -1.0254588 2.7563829 1454669
0.80686677 -1.0235819 2.7766495 2894892
-0.62694758 -0.97525173 2.7564905 1454669
0.80697352 -0.97528559 2.7785962 2894892
-0.62697208 -0.92504048 2.7565982 1454669
0.80694485 -0.92504507 2.7786438 2894892
-0.62699658 -0.87482572 2.7567062 1454668
0.80690241 -0.87480861 2.7784977 2894892
-0.62702107 -0.82460684 2.7568135 1454668
0.80684656 -0.82504165 2.7781572 2894892
-0.62704563 -0.77438396 2.7569213 1454412
0.80681098 -0.77504534 2.7781103 2894892
-0.62707019 -0.72415727 2.7570288 1454412
0.80676162 -0.7248289 2.7778668 2894892
-0.62709403 -0.67506832 2.7571347 1388619
0.8067463 -0.67460889 2.7781045 2894892
-0.62711805 -0.62597561 2.7572401 1322827
0.80667657 -0.62510133 2.7775707 2894892
-0.62714255 -0.57573736 2.7573481 1257034
0.80664837 -0.57535094 2.7776234 2894892
-0.62716705 -0.52549499 2.7574556 1191498
0.80659205 -0.52491999 2.7772827 2894892
-0.6271916 -0.47524878 2.7575634 1191241
0.80655664 -0.47496143 2.7772343 2894892
-0.62746066 -0.42344427 2.7542384 1257807
0.80650747 -0.42500046 2.7769914 2894892
-0.62751126 -0.37536496 2.7539592 1125705
0.8064788 -0.37505266 2.7770391 2894892
-0.62753564 -0.3251766 2.7540669 1059911
0.80643672 -0.32487389 2.7768922 2894892
-0.62756032 -0.27498439 2.754174 1059655
0.80637974 -0.27470011 2.7765515 2894892
-0.62759078 -0.22536553 2.7541916 1059655
0.8063584 -0.22499456 2.7766974 2894892
-0.62760872 -0.17573071 2.7543869 1059398
0.80629563 -0.17506398 2.7762616 2894892
-0.62763315 -0.1255268 2.7544944 1059398
0.80627376 -0.12490679 2.7764051 2894892
-0.62765765 -0.07531894 2.754602 1059141
0.8062036 -0.075221099 2.7758687 2894892
-0.62768215 -0.025107188 2.7547095 993606
0.80618209 -0.025301773 2.776017 2894892
-0.62770671 0.025108494 2.7548175 1059142
0.80613905 0.025299974 2.7758687 2894892
-0.62773126 0.075328097 2.7549248 1256519
0.80607599 0.075208783 2.77543 2894892
-0.61987334 0.10760857 2.7672832 5792881
-0.57488728 0.10922873 2.7753065 10000536
-0.52440554 0.10925135 2.7758808 10000536
-0.47505111 0.10927343 2.7764421 10000536
-0.42567647 0.10929555 2.7770038 9934743
-0.37513301 0.10931817 2.7775786 10000536
-0.32456869 0.10934082 2.7781537 10197915
-0.27513337 0.10936293 2.7787163 10197915
-0.22567783 0.10938508 2.7792788 10197915
-0.17505153 0.10940776 2.7798548 10197915
-0.12440427 0.10943043 2.780431 10197915
-0.074887834 0.1094526 2.7809939 10197915
-0.025351178 0.10947478 2.7815573 10197915
0.025358187 0.10949747 2.7821345 10197915
0.07493531 0.10951966 2.7826984 10197915
0.12453269 0.10954189 2.7832625 10197915
0.17530425 0.10956462 2.7838399 10197915
0.22494216 0.10958684 2.784405 10197915
0.27460045 0.10960907 2.78497 10197915
0.32543424 0.10963183 2.785548 10197915
0.37513316 0.10965408 2.7861133 10197915
0.4248524 0.10967635 2.786679 10197915
0.47459158 0.1096986 2.7872448 10197915
0.52435124 0.10972089 2.7878106 10197915
0.57528883 0.10974369 2.7883904 10197915
0.62508923 0.10976597 2.7889569 10197915
0.67491001 0.10978829 2.7895234 10197915
0.72475082 0.10981063 2.7900906 10197915
0.77461201 0.10983291 2.7906578 5526612
0.80580574 0.10546269 2.7778933 2894892
0.81089985 -1.2585371 2.831392 2894892
0.81020772 -1.2250342 2.8219359 2894892
0.81017989 -1.1749266 2.82199 2894892
0.81011653 -1.1250634 2.8215427 2894892
0.81010234 -1.0749751 2.8217967 2894892
0.81021971 -1.0262775 2.8238842 2894892
0.81038749 -0.97463417 2.8267195 2894892
0.81034988 -0.92510557 2.8266377 2894892
0.81029868 -0.87529331 2.8263633 2894892
0.81026047 -0.82518888 2.8262763 2894892
0.81022245 -0.77509326 2.8261933 2894892
0.810184 -0.72499967 2.8261075 2894892
0.81011909 -0.67492288 2.8256423 2894892
0.81009465 -0.62512851 2.8257468 2894892
0.81003869 -0.57504576 2.8254104 2894892
0.81002271 -0.5246942 2.8256409 2894892
0.80995321 -0.47491515 2.8251104 2894892
0.80991983 -0.42515138 2.825089 2894892
0.80987275 -0.37509376 2.8248787 2894892
0.80984801 -0.32475483 2.8249815 2894892
0.80978292 -0.27470812 2.8245153 2894892
0.80975878 -0.22496526 2.8246224 2894892
0.80969363 -0.17492881 2.8241584 2894892
0.80968249 -0.12490035 2.8244538 2894892
0.80961233 -0.074590936 2.8239243 2894892
0.80958319 -0.024568828 2.8239627 2894892
0.80954123 0.024567133 2.823817 2894892
0.80948544 0.074578784 2.8234813 2894892
-0.6216144 0.10907584 2.8310223 8159106
-0.57481003 0.10909677 2.8315647 10000536
-0.52447563 0.10911928 2.8321495 10000536
-0.47529185 0.10914128 2.8327198 10000536
-0.42491624 0.10916381 2.8333049 9934743
-0.37452003 0.10918633 2.8338897 10000536
-0.32527569 0.10920836 2.834461 10197915
-0.27483818 0.10923091 2.8350465 10197915
-0.22437994 0.10925347 2.8356321 10197915
-0.17507499 0.10927551 2.8362045 10197915
-0.12575014 0.10929758 2.8367772 10197915
-0.075230174 0.10932016 2.8373635 10197915
-0.024689475 0.10934277 2.8379495 10197915
0.024696123 0.10936486 2.8385227 10197915
0.075278297 0.10938747 2.8391101 10197915
0.12588127 0.10941009 2.8396976 10197915
0.1753277 0.10943221 2.8402715 10197915
0.22479413 0.10945433 2.8408451 10197915
0.27428058 0.10947646 2.8414197 10197915
0.32496601 0.10949912 2.8420076 10197915
0.37567237 0.1095218 2.8425965 10197915
0.42521986 0.10954395 2.8431714 10197915
0.47478729 0.10956612 2.8437467 10197915
0.5243749 0.1095883 2.844322 10197915
0.57516408 0.109611 2.8449123 10197915
0.62597412 0.10963373 2.8455014 10197915
0.67562282 0.10965594 2.8460779 10197915
0.72529173 0.10967813 2.8466544 10197915
0.77498084 0.10970036 2.8472309 5987163
0.80867934 0.1060478 2.8297765 2894892
0.81414551 -1.2665491 2.87707 2894892
0.81413388 -1.2241715 2.8772836 2894892
0.81406879 -1.1745174 2.8768077 2894892
0.81405008 -1.1248846 2.8769865 2894892
0.81400722 -1.0750073 2.8768373 2894892
0.81396472 -1.0251344 2.8766856 2894892
0.81392169 -0.97502857 2.876534 2894892
0.81386375 -0.92517215 2.8761659 2894892
0.81382167 -0.87507522 2.8760204 2894892
0.8137933 -0.82475007 2.87608 2894892
0.81374323 -0.77490276 2.8758216 2894892
0.81370801 -0.72506458 2.8757784 2894892
0.81365013 -0.6752345 2.8754098 2894892
0.81362295 -0.6254015 2.8754776 2894892
0.81358027 -0.57533783 2.8753262 2894892
0.8135373 -0.52527916 2.8751752 2894892
0.81347924 -0.47499022 2.8748128 2894892
0.81343609 -0.424945 2.874655 2894892
0.81340915 -0.37514234 2.8747222 2894892
0.81335837 -0.32486895 2.8744645 2894892
0.81331545 -0.27483591 2.8743117 2894892
0.81328094 -0.2250492 2.874269 2894892
0.81322277 -0.17479178 2.8739057 2894892
0.81317961 -0.12477823 2.8737485 2894892
0.81315225 -0.075007185 2.8738141 2894892
0.81310928 -0.025001219 2.8736625 2894892
0.81306678 0.024999466 2.8735125 2894892
0.81302369 0.074994907 2.8733609 2894892
-0.65354484 0.10892414 2.8892183 1321798
-0.62608421 0.10893641 2.8895435 6710886
-0.57592422 0.1089588 2.8901379 10000536
-0.52574366 0.10898121 2.890732 10000536
-0.47554249 0.10900363 2.8913269 10000536
-0.42532063 0.10902607 2.8919215 9934743
-0.37507805 0.10904849 2.8925169 9934743
-0.32481486 0.10907095 2.8931127 10197915
-0.27453086 0.10909341 2.8937082 10197915
-0.22422627 0.10911588 2.8943038 10197915
-0.17509945 0.10913782 2.894886 10197915
-0.12595272 0.10915977 2.8954685 10197915
-0.075586855 0.10918225 2.896065 10197915
-0.025200233 0.10920475 2.8966618 10197915
0.025207162 0.10922727 2.8972592 10197915
0.075635344 0.10924979 2.8978562 10197915
0.12488283 0.1092718 2.8984399 10197915
0.17415032 0.10929379 2.8990231 10197915
0.22463997 0.10931635 2.8996212 10197915
0.25349966 0.10932923 2.8999634 10197915
0.81299847 0.10475183 2.8732712 2894892
0.81841582 -1.3069632 2.9368968 2894892
0.81757689 -1.2760733 2.9253492 2894892
0.81777179 -1.2251483 2.9285486 2894892
0.81775939 -1.1753589 2.9288213 2894892
0.81768614 -1.1249361 2.9282455 2894892
0.81765842 -1.0748401 2.9283037 2894892
0.81761539 -1.0250468 2.9281483 2894892
0.81756759 -0.97495794 2.9279258 2894892
0.81751943 -0.92487073 2.9276993 2894892
0.8174969 -0.87509209 2.9278309 2894892
0.81742877 -0.82502156 2.9273236 2894892
0.81740087 -0.77495015 2.9273818 2894892
0.81734282 -0.72488934 2.9270153 2894892
0.81733507 -0.67481768 2.9273567 2894892
0.81725198 -0.62508804 2.926636 2894892
0.81722897 -0.57472438 2.926765 2894892
0.81717062 -0.52467704 2.9263964 2894892
0.81715816 -0.4749476 2.9266682 2894892
0.81708026 -0.4249163 2.9260201 2894892
0.81704742 -0.37518814 2.9260089 2894892
0.81700981 -0.32516608 2.9259286 2894892
0.81697166 -0.2751528 2.9258428 2894892
0.81693381 -0.22514132 2.9257607 2894892
0.81686562 -0.17513172 2.925252 2894892
0.81685787 -0.12513043 2.9255922 2894892
0.8167848 -0.075444035 2.9250147 2894892
0.81675708 -0.025448533 2.9250755 2894892
0.81671363 0.025446713 2.9249189 2894892
0.81665522 0.075431645 2.9245501 2894892
0.27875888 0.1093405 2.9002626 10197915
0.32568175 0.10936147 2.9008183 10197915
0.37502995 0.10938351 2.9014037 10197915
0.42439824 0.10940554 2.9019878 10197915
0.47499126 0.10942815 2.9025874 10197915
0.52560502 0.10945076 2.903187 10197915
0.57503402 0.10947283 2.9037724 10197915
0.62448293 0.10949491 2.9043584 10197915
0.67515856 0.10951755 2.9049585 10197915
0.72464764 0.10953965 2.9055448 10197915
0.77415705 0.10956176 2.9061315 6710886
0.8139441 0.10610502 2.9196939 2894892
0.82138884 -1.3162416 2.9787178 2894892
0.82118922 -1.2749339 2.9762754 2894892
0.82114756 -1.2255503 2.976125 2894892
0.82108867 -1.1752388 2.9757502 2894892
0.82107627 -1.1246417 2.9760334 2894892
0.82100177 -1.0746503 2.9754312 2894892
0.82096899 -1.0246733 2.9754226 2894892
0.82093155 -0.97500527 2.9753425 2894892
0.82087803 -0.92503536 2.9750395 2894892
0.82084531 -0.87507141 2.9750297 2894892
0.8207972 -0.82541847 2.9748001 2894892
0.82075918 -0.77515739 2.974719 2894892
0.82072109 -0.72489768 2.9746344 2894892
0.82065183 -0.67465609 2.9741104 2894892
0.82062972 -0.62471068 2.9742479 2894892
0.82058728 -0.57539308 2.9740934 2894892
0.82052326 -0.52546 2.9736443 2894892
0.82050586 -0.47523728 2.9738543 2894892
0.82045758 -0.42500967 2.9736242 2894892
0.82040888 -0.37479123 2.9733925 2894892
0.82037133 -0.32519001 2.9733117 2894892
0.82031798 -0.27529007 2.9730091 2894892
0.8202799 -0.2250832 2.972924 2894892
0.82022631 -0.17519365 2.9726207 2894892
0.82021493 -0.12530638 2.9729099 2894892
0.82013994 -0.074816652 2.9723113 2894892
0.82011211 -0.024628576 2.9723716 2894892
0.82006943 0.024626873 2.9722183 2894892
0.82001072 0.074804425 2.9718435 2894892
-0.6600014 0.10877803 2.9501817 1778218
-0.62464666 0.10879382 2.9506094 8289918
-0.574646 0.1088161 2.9512146 10000536
-0.52462471 0.10883841 2.9518194 10000536
-0.474583 0.10886073 2.9524245 10000536
-0.42452067 0.10888306 2.9530301 10000536
-0.3744379 0.10890539 2.9536362 9934743
-0.3255569 0.10892719 2.9542274 10132122
-0.27543339 0.10894957 2.9548337 10197915
-0.22528943 0.10897192 2.9554403 10197915
-0.17512476 0.10899431 2.9560473 10197915
-0.12493966 0.10901668 2.9566545 10197915
-0.074733749 0.10903907 2.9572618 10197915
-0.024507379 0.10906148 2.9578691 10197915
0.024513928 0.10908332 2.9584622 10197915
0.074781254 0.10910574 2.9590697 10197915
0.12506907 0.10912819 2.9596786 10197915
0.17537776 0.10915063 2.9602871 10197915
0.22570696 0.10917307 2.960896 10197915
0.27482864 0.10919498 2.9614902 10197915
0.32519895 0.10921745 2.9620998 10197915
0.37558979 0.10923991 2.962709 10197915
0.42477164 0.10926185 2.9633038 10197915
0.4752036 0.10928434 2.9639142 10197915
0.52565628 0.10930686 2.964524 10197915
0.57489842 0.10932882 2.9651198 10197915
0.62416041 0.1093508 2.9657159 10197915
0.67467469 0.10937332 2.966327 10197915
0.72520936 0.10939585 2.966938 10197915
0.77453178 0.10941788 2.9675345 7237230
0.81617951 0.10651981 2.9703109 2894892
0.8257215 -1.3545877 3.0394444 2894892
0.82473087 -1.3245031 3.0257537 2894892
0.82464409 -1.2755296 3.0249615 2894892
0.82461798 -1.2256414 3.0250409 2894892
0.82457459 -1.1754501 3.0248816 2894892
0.82453126 -1.1252639 3.0247226 2894892
0.82448739 -1.075083 3.0245624 2894892
0.82442772 -1.0252261 3.0241673 2894892
0.82438469 -0.97505575 3.0240159 2894892
0.82435739 -0.92457962 3.0240846 2894892
0.82430863 -0.87473112 3.0238492 2894892
0.82427102 -0.82489377 3.0237679 2894892
0.824211 -0.77505875 3.0233738 2894892
0.82418472 -0.72523105 3.0234518 2894892
0.82414138 -0.6750924 3.0232928 2894892
0.82409793 -0.62495893 3.0231338 2894892
0.82405454 -0.57483065 3.022974 2894892
0.82401115 -0.52470785 3.0228152 2894892
0.82395136 -0.47490388 3.0224206 2894892
0.82392472 -0.4251081 3.0224986 2894892
0.82388151 -0.37500092 3.0223393 2894892
0.82383293 -0.32521629 3.022104 2894892
0.82377881 -0.27511713 3.0217936 2894892
0.82375145 -0.22471634 3.0218625 2894892
0.82369173 -0.1749434 3.0214674 2894892
0.82366544 -0.12517931 3.0215464 2894892
0.82362163 -0.075103663 3.0213866 2894892
0.82357818 -0.025033381 3.0212271 2894892
0.82353467 0.025031626 3.0210676 2894892
0.82349157 0.075091369 3.0209081 2894892
-0.66673613 0.10862561 3.0137734 2764338
-0.62439275 0.10864449 3.014297 10066329
-0.57455856 0.10866667 3.0149124 10000536
-0.5247041 0.10868889 3.0155289 10000536
-0.47482929 0.1087111 3.0161452 10000536
-0.42493391 0.10873332 3.0167615 10000536
-0.3750183 0.10875555 3.0173783 9934743
-0.32508224 0.1087778 3.0179954 10132122
-0.27512571 0.10880005 3.0186133 10197915
-0.22514875 0.10882231 3.0192308 10197915
-0.17515135 0.10884459 3.0198483 10197915
-0.12513348 0.10886686 3.0204666 10197915
-0.075095102 0.10888914 3.0210853 10197915
-0.02503626 0.10891144 3.0217035 10197915
0.025043095 0.10893375 3.0223227 10197915
0.075142965 0.10895605 3.0229411 10197915
0.12526336 0.10897838 3.023561 10197915
0.1754043 0.10900073 3.0241804 10197915
0.22556579 0.10902306 3.0248001 10197915
0.27574784 0.10904541 3.0254204 10197915
0.3259505 0.10906778 3.026041 10197915
0.37491783 0.10908959 3.0266461 10197915
0.4239049 0.10911141 3.0272517 10197915
0.47416836 0.10913379 3.0278728 10197915
0.52445245 0.10915621 3.0284936 10197915
0.57475716 0.10917859 3.0291159 10197915
0.62508237 0.10920101 3.0297375 10197915
0.67542851 0.10922345 3.0303597 10197915
0.72579527 0.10924586 3.030982 10197915
0.77492267 0.10926775 3.0315893 7829367
0.81861275 0.10661146 3.0245578 2894892
0.82857913 -1.3640016 3.0796397 2894892
0.82827228 -1.3249416 3.0756643 2894892
0.82827038 -1.2748446 3.0760803 2894892
0.82818037 -1.2251114 3.0752602 2894892
0.82815993 -1.1747056 3.0754266 2894892
0.82809865 -1.124635 3.0750158 2894892
0.82807326 -1.0752165 3.0751042 2894892
0.82802427 -1.0251607 3.0748637 2894892
0.82797468 -0.97510588 3.0746183 2894892
0.82795489 -0.92538148 3.0747874 2894892
0.82788229 -0.87533879 3.0742161 2894892
0.82786173 -0.82498741 3.0743799 2894892
0.82778913 -0.77495521 3.073807 2894892
0.82778621 -0.72492826 3.074218 2894892
0.82770807 -0.67523599 3.0735655 2894892
0.8276822 -0.62521535 3.0736532 2894892
0.82761502 -0.57487661 3.0731614 2894892
0.82761872 -0.52521008 3.0736592 2894892
0.82753438 -0.47520089 3.0729244 2894892
0.82750219 -0.42489287 3.0729258 2894892
0.82745284 -0.37490085 3.072681 2894892
0.82743305 -0.32524011 3.0728493 2894892
0.82736039 -0.27525926 3.0722787 2894892
0.82734007 -0.22497238 3.0724432 2894892
0.82726747 -0.17500177 3.0718703 2894892
0.82726473 -0.12503971 3.0722814 2894892
0.82718623 -0.075408481 3.0716279 2894892
0.82716024 -0.02545172 3.0717149 2894892
0.82711601 0.025449902 3.0715504 2894892
0.8270551 0.075396113 3.0711401 2894892
-0.67504007 0.10846593 3.0801513 4672077
-0.62540054 0.10848801 3.0807781 10066329
-0.5744673 0.10851066 3.0814214 10000536
-0.52478707 0.10853276 3.0820489 10000536
-0.4750863 0.10855486 3.0826769 10000536
-0.42536545 0.10857699 3.0833046 10000536
-0.37562427 0.1085991 3.0839329 9934743
-0.32458669 0.10862181 3.0845778 10132122
-0.27480444 0.10864396 3.0852063 10197915
-0.22500184 0.1086661 3.085835 10197915
-0.17517908 0.10868827 3.0864646 10197915
-0.12533584 0.10871042 3.0870938 10197915
-0.075472414 0.1087326 3.087724 10197915
-0.025588471 0.10875479 3.0883543 10197915
0.025595611 0.10877756 3.0890002 10197915
0.075520642 0.10879976 3.0896311 10197915
0.1254662 0.10882197 3.0902619 10197915
0.17543203 0.10884419 3.0908928 10197915
0.22541845 0.10886644 3.0915241 10197915
0.27542508 0.10888866 3.0921559 10197915
0.32545233 0.10891093 3.0927877 10197915
0.37549993 0.10893319 3.09342 10197915
0.42556804 0.10895547 3.0940523 10197915
0.47565657 0.10897772 3.0946848 10197915
0.52448046 0.10899943 3.0953016 10197915
0.57460964 0.10902172 3.0959344 10197915
0.62475902 0.10904405 3.0965681 10197915
0.6749292 0.10906637 3.0972018 10197915
0.72511977 0.10908868 3.0978358 10197915
0.77533096 0.10911103 3.09847 8355711
0.82211125 0.10653518 3.0837438 2894892
0.83324742 -1.4039484 3.145083 2894892
0.83210599 -1.3739297 3.1292639 2894892
0.8320176 -1.3254204 3.1284461 2894892
0.83193755 -1.2748222 3.1277692 2894892
0.83191162 -1.2245353 3.127857 2894892
0.83186847 -1.1752329 3.1276951 2894892
0.8318007 -1.1252836 3.1271911 2894892
0.83178699 -1.0750272 3.1274521 2894892
0.83173722 -1.0247664 3.1272027 2894892
0.83168721 -0.97451502 3.1269495 2894892
0.83164996 -0.92491251 3.1268737 2894892
0.83159435 -0.8749963 3.1265395 2894892
0.83155626 -0.82475579 3.1264577 2894892
0.83150059 -0.77485007 3.1261227 2894892
0.83147544 -0.72527307 3.1262183 2894892
0.83144957 -0.67504126 3.1263046 2894892
0.83136916 -0.62451798 3.1256292 2894892
0.83134443 -0.57494438 3.1257243 2894892
0.83127642 -0.5250566 3.1252201 2894892
0.83126289 -0.4748649 3.1254811 2894892
0.83121306 -0.42466721 3.125232 2894892
0.83116311 -0.374479 3.124979 2894892
0.83112592 -0.3249391 3.124903 2894892
0.83107036 -0.27508518 3.1245694 2894892
0.83103222 -0.22490826 3.1244879 2894892
0.83097684 -0.17506471 3.1241531 2894892
0.83096987 -0.12522313 3.1245065 2894892
0.83088946 -0.074748501 3.1238279 2894892
0.8308633 -0.024590021 3.1239157 2894892
0.8308202 0.024588332 3.1237538 2894892
0.83075851 0.074736282 3.1233363 2894892
-0.70713896 0.10828882 3.1492207 1712941
-0.67461103 0.10830326 3.149641 7303023
-0.64858383 0.1083148 3.1499765 10066329
0.83085942 0.10446685 3.1250269 2894892
0.83558267 -1.4109284 3.1779354 2894892
0.8353892 -1.3747716 3.1755321 2894892
0.8353464 -1.3247117 3.1753712 2894892
0.83530265 -1.2746556 3.1752043 2894892
0.83525872 -1.2246038 3.1750381 2894892
0.83521485 -1.1745577 3.1748707 2894892
0.83517098 -1.124517 3.1747046 2894892
0.83512723 -1.0744812 3.1745369 2894892
0.83506632 -1.0248911 3.1741273 2894892
0.83504015 -0.97530705 3.174207 2894892
0.8349964 -0.92528713 3.1740403 2894892
0.83495241 -0.87527251 3.1738739 2894892
0.8349086 -0.82526302 3.1737068 2894892
0.83484763 -0.77482486 3.1733031 2894892
0.83482021 -0.72438651 3.1733701 2894892
0.83477658 -0.67439288 3.1732042 2894892
0.83473259 -0.62440449 3.1730373 2894892
0.83468866 -0.57442147 3.1728711 2894892
0.83464497 -0.52444363 3.1727042 2894892
0.83460104 -0.47447091 3.1725373 2894892
0.83499926 -0.42446563 3.1786013 2894892
0.83500278 -0.37535429 3.1790969 2894892
0.83495897 -0.32528886 3.1789298 2894892
0.83491522 -0.27522865 3.1787629 2894892
0.83485192 -0.22484899 3.1783278 2894892
0.83480746 -0.17479926 3.1781521 2894892
0.83478343 -0.1250882 3.1782613 2894892
0.83473933 -0.075049035 3.1780932 2894892
0.83469516 -0.025015168 3.1779246 2894892
0.83465129 0.025013417 3.177758 2894892
0.83460742 0.075036742 3.1775908 2894892
-0.62385148 0.10832581 3.1502964 10066329
-0.57567519 0.1083472 3.1509187 10000536
-0.52487427 0.10836975 3.1515746 10000536
-0.47405237 0.10839233 3.1522312 10000536
-0.4245131 0.10841434 3.1528709 10000536
-0.37495372 0.10843635 3.153511 9934743
-0.32537425 0.10845836 3.1541512 10132122
-0.27577457 0.10848038 3.1547918 10197915
-0.22484866 0.10850301 3.1554496 10197915
-0.17390166 0.10852563 3.1561077 10197915
-0.12424046 0.10854767 3.156749 10197915
-0.074559107 0.10856975 3.1573906 10197915
-0.024857529 0.10859181 3.1580324 10197915
0.024864264 0.10861389 3.158675 10197915
0.074606277 0.10863599 3.159317 10197915
0.12436854 0.10865809 3.1599598 10197915
0.17415103 0.10868019 3.1606028 10197915
0.2239538 0.10870232 3.1612461 10197915
0.27377686 0.10872445 3.1618893 10197915
0.32493219 0.10874717 3.1625504 10197915
0.37610874 0.10876989 3.1632111 10197915
