# .PCD v0.7 - Point Cloud Data file format
VERSION 0.7
FIELDS x y z rgb
SIZE 4 4 4 4
TYPE F F F U
COUNT 1 1 1 1
WIDTH 1166
HEIGHT 1
VIEWPOINT 0 0 0 1 0 0 0
POINTS 1166
DATA ascii
-1.4248768 0.11218162 2.0208683 9934743
-1.3750374 0.11221374 2.0214474 9934743
-1.3247573 0.11224655 2.0217907 9934743
-1.2744473 0.11227865 2.0226161 9934743
-1.2249393 0.11231095 2.0229423 9934743
-1.175406 0.11234251 2.0237668 9934743
-1.1254239 0.11237475 2.0243475 9934743
-1.0750012 0.11240764 2.0246925 9934743
-1.0245445 0.11243982 2.0255198 9934743
-0.97489667 0.11247223 2.0258474 9934743
-0.92521882 0.1125039 2.0266738 9934743
-0.87509263 0.11253623 2.0272567 9934743
-0.82536387 0.11256868 2.0275846 10066329
-0.77517843 0.11260106 2.0281763 10197915
-0.72455317 0.11263332 2.0290058 10197915
-0.67472863 0.11266585 2.0293345 10197915
-0.6248852 0.11269761 2.0301638 10197915
-0.57458609 0.11273006 2.0307481 10197915
-0.52468044 0.11276264 2.0310781 10197915
-0.47474691 0.11279445 2.0319083 10197915
-0.42478216 0.11282707 2.0322387 10197915
-0.37479347 0.11285894 2.0330696 10197915
-0.32476968 0.11289157 2.0334008 10197915
-0.27472571 0.11292348 2.0342324 10197915
-0.22464271 0.11295617 2.034564 10197915
-0.17844866 0.11300047 2.0256371 10197915
-0.12560137 0.11304232 2.0211794 10197915
-0.07538195 0.11307473 2.0217588 10197915
-0.025133722 0.11310713 2.0223384 10197915
0.025143325 0.11313956 2.0229182 10197915
0.075449221 0.11317202 2.0234983 10197915
0.12494475 0.11320394 2.0240693 10197915
0.17446835 0.11323591 2.0246406 10197915
0.22485995 0.11326841 2.0252218 10197915
0.27528054 0.11330093 2.0258038 10197915
0.32488886 0.11333294 2.026376 10197915
0.3745254 0.11336496 2.0269482 10197915
0.42503208 0.11339755 2.0275309 10197915
0.48002151 0.11196986 2.0245581 3618615
0.50318867 0.1072198 2.0379105 2894892
0.51095295 -0.9156785 2.0812278 2894892
0.51027125 -0.87508613 2.0770791 2894892
0.51007992 -0.82498652 2.076139 2894892
0.5100252 -0.77490348 2.0760772 2894892
0.50990224 -0.7248435 2.075577 2894892
0.50974572 -0.6750989 2.0748587 2894892
0.50962424 -0.6250909 2.0743654 2894892
0.50953442 -0.57481855 2.0740793 2894892
0.50941175 -0.52485484 2.0735798 2894892
0.5092212 -0.47491881 2.0726442 2894892
0.50916684 -0.42500994 2.0725837 2894892
0.50904453 -0.37511829 2.0720851 2894892
0.50888789 -0.32496536 2.0713689 2894892
0.5087986 -0.27483931 2.0710847 2894892
0.50864244 -0.22531123 2.0703676 2894892
0.50852096 -0.17522691 2.0698752 2894892
0.50843084 -0.12489109 2.0695877 2894892
0.5085305 -0.076557793 2.0705082 2894892
0.50965905 -0.0249676 2.0780644 2894892
0.50953627 0.024959585 2.077564 2894892
0.50941354 0.074862719 2.0770633 2894892
-1.6579059 0.11191516 2.0940971 9934743
-1.6232371 0.11195903 2.080431 9934743
-1.5752133 0.11199261 2.0792751 9934743
-1.5252583 0.1120244 2.080137 9934743
-1.4752669 0.11205704 2.0804713 9934743
-1.4252564 0.11208885 2.0813336 9934743
-1.3752062 0.11212151 2.0816686 9934743
-1.3251395 0.11215338 2.0825317 9934743
-1.275463 0.11218541 2.0831263 9934743
-1.2253311 0.11221813 2.0834622 9934743
-1.1785622 0.11225283 2.0810373 9934743
-1.124777 0.11230636 2.0693345 9934743
-1.0745063 0.11233877 2.0699315 9934743
-1.0250592 0.11237064 2.0705187 9934743
-0.97558415 0.11240255 2.0711062 9934743
-0.92522717 0.11243499 2.0717046 9934743
-0.87484121 0.11246748 2.0723031 9934743
-0.82528079 0.11249942 2.072892 10066329
-0.77483684 0.11253195 2.0734909 10197915
-0.7243641 0.11256448 2.0740905 10197915
-0.67471814 0.11259649 2.0746801 10197915
-0.62504393 0.11262848 2.0752702 10197915
-0.57534152 0.11266054 2.0758605 10197915
-0.52561086 0.11269259 2.0764508 10197915
-0.47499359 0.11272523 2.0770524 10197915
-0.42434716 0.11275787 2.0776541 10197915
-0.37453049 0.11278997 2.0782454 10197915
-0.32468539 0.11282212 2.0788376 10197915
-0.27481189 0.11285427 2.0794301 10197915
-0.22490995 0.11288644 2.0800228 10197915
-0.1726688 0.11294121 2.0668573 10197915
-0.12495578 0.11297415 2.0659842 10197915
-0.074907273 0.1130068 2.0663164 10197915
-0.024834478 0.1130387 2.0671649 10197915
0.024843851 0.11307073 2.0677505 10197915
0.074973755 0.11310345 2.068083 10197915
0.12513644 0.1131354 2.0689328 10197915
0.17489983 0.11316747 2.0695195 10197915
0.22511132 0.11320022 2.0698531 10197915
0.27536413 0.11323224 2.0707045 10197915
0.32477534 0.11326451 2.0710189 10197915
0.37465429 0.11329667 2.0716162 10197915
0.42498225 0.11332872 2.0724683 10197915
0.47491592 0.1133609 2.0730569 4868682
0.50745016 0.10925869 2.0766354 2894892
0.51960438 -0.95334572 2.1366446 2894892
0.51803178 -0.92409807 2.1267018 2894892
0.51785272 -0.87452441 2.1258378 2894892
0.51770085 -0.82456917 2.1251502 2894892
0.5176037 -0.77463561 2.1248152 2894892
0.51748055 -0.72516716 2.1243098 2894892
0.51732916 -0.67528111 2.1236248 2894892
0.51725847 -0.62497669 2.123461 2894892
0.51707888 -0.57470661 2.122597 2894892
0.51698202 -0.52488786 2.122263 2894892
0.51683092 -0.47509903 2.1215792 2894892
0.5167343 -0.42533523 2.1212461 2894892
0.51660943 -0.37515265 2.1207335 2894892
0.51648462 -0.32499415 2.1202207 2894892
0.51731384 -0.27268627 2.1258569 2894892
0.51776755 -0.224641 2.1290526 2894892
0.51767915 -0.17461114 2.1287735 2894892
0.51751834 -0.12490208 2.1280274 2894892
0.51743001 -0.074923091 2.1277483 2894892
0.51726884 -0.0249722 2.1270018 2894892
0.51714414 0.024964176 2.1264894 2894892
0.51705599 0.074866921 2.1262109 2894892
-1.6708205 0.11185785 2.1259859 9934743
-1.6254448 0.11188706 2.1265414 9934743
-1.5748057 0.11191969 2.127161 9934743
-1.5250111 0.11195177 2.1277704 9934743
-1.4751878 0.11198385 2.1283808 9934743
-1.4253356 0.11201596 2.1289907 9934743
-1.3754551 0.11204807 2.1296012 9934743
-1.3246702 0.1120808 2.130223 9934743
-1.274732 0.11211295 2.1308343 9934743
-1.2247649 0.11214513 2.1314461 9934743
-1.1705956 0.11219296 2.1236517 9934743
-1.1249692 0.11223398 2.1165953 9934743
-1.0748639 0.1122667 2.1169217 9934743
-1.0251578 0.11229872 2.1175256 9934743
-0.97499788 0.11233057 2.1184173 9934743
-0.92479575 0.11236336 2.1187449 9934743
-0.87501454 0.11239456 2.1199141 9934743
-0.82520068 0.11242753 2.1199548 10066329
-0.77535194 0.11245964 2.1205602 10197915
-0.72504526 0.11249162 2.1214538 10197915
-0.67470169 0.11252448 2.1217823 10197915
-0.62521547 0.11255593 2.1226666 10197915
-0.57525438 0.11258811 2.1232736 10197915
-0.52482909 0.11262103 2.1236031 10197915
-0.47525325 0.11265256 2.1244884 10197915
-0.42520618 0.11268479 2.1250968 10197915
-0.37469876 0.11271775 2.125427 10197915
-0.32503322 0.1127493 2.1263134 10197915
-0.27534541 0.11278176 2.1266339 10197915
-0.22518194 0.11281406 2.1272435 10197915
-0.17499864 0.11284554 2.1284199 10197915
-0.12478618 0.11287875 2.1284628 10197915
-0.074976154 0.1129104 2.1293514 10197915
-0.025148686 0.11294293 2.129673 10197915
0.025158303 0.11297531 2.1302838 10197915
0.07504265 0.11300702 2.1311738 10197915
0.12496644 0.11303963 2.1314964 10197915
0.1749054 0.11307137 2.1323872 10197915
0.22488828 0.11310399 2.13271 10197915
0.27292576 0.11313695 2.1319892 10197915
0.32466215 0.11319262 2.1180003 10197915
0.3747845 0.11322491 2.1186044 10197915
0.42493531 0.11325723 2.1192088 10197915
0.47511485 0.11328954 2.1198142 5789784
0.51461673 0.10846066 2.1242964 2894892
0.52692533 -0.9633109 2.1836674 2894892
0.52591377 -0.92497373 2.1773837 2894892
0.52578789 -0.87514138 2.1768632 2894892
0.52570063 -0.82503718 2.1765938 2894892
0.52553457 -0.77496171 2.1758146 2894892
0.52540791 -0.72490019 2.1752906 2894892
0.52532113 -0.67487305 2.1750216 2894892
0.52515525 -0.62486541 2.1742439 2894892
0.52506745 -0.57458127 2.1739712 2894892
0.52490157 -0.52461869 2.1731935 2894892
0.52477634 -0.47498566 2.1726754 2894892
0.5246889 -0.42477831 2.1724029 2894892
0.52452308 -0.3748835 2.1716273 2894892
0.52443683 -0.32502767 2.1713593 2894892
0.52498364 -0.27756286 2.1751511 2894892
0.52580386 -0.22495589 2.1807303 2894892
0.52564681 -0.17476703 2.1800113 2894892
0.52558047 -0.12506925 2.179872 2894892
0.52539498 -0.075384125 2.1789665 2894892
0.52529764 -0.025273288 2.1786308 2894892
0.52516949 0.025265072 2.1780996 2894892
0.52501279 0.0753273 2.1773815 2894892
-1.7180058 0.11174011 2.1824899 9934743
-1.6748819 0.11177862 2.1760163 9934743
-1.6248664 0.1118108 2.1766422 9934743
-1.5748215 0.111843 2.1772699 9934743
-1.5252026 0.11187541 2.1775813 9934743
-1.475547 0.11190692 2.1785135 9934743
-1.4249738 0.11193993 2.1788478 9934743
-1.3748118 0.11197223 2.1794643 9934743
-1.3250815 0.11200377 2.1803987 9934743
-1.2748638 0.11203609 2.1810281 9934743
-1.2250673 0.11206861 2.1813421 9934743
-1.1752462 0.11210021 2.1822758 9934743
-1.1292455 0.11213853 2.1771541 9934743
-1.0752351 0.11219076 2.1664302 9934743
-1.0252675 0.11222293 2.1670513 9934743
-0.97527134 0.11225513 2.1676729 9934743
-0.92524636 0.11228733 2.1682949 9934743
-0.87519276 0.11231955 2.1689172 9934743
-0.82511032 0.11235179 2.1695399 10000536
-0.7749992 0.11238404 2.1701624 10197915
-0.72485924 0.11241633 2.1707861 10197915
-0.67469054 0.11244863 2.1714094 10197915
-0.62449306 0.11248095 2.1720335 10197915
-0.57426655 0.11251328 2.1726577 10197915
-0.52490908 0.11254504 2.1732717 10197915
-0.47552347 0.11257684 2.1738853 10197915
-0.42521128 0.11260924 2.1745112 10197915
-0.37487015 0.11264165 2.1751368 10197915
-0.32450011 0.11267406 2.1757634 10197915
-0.27500135 0.11270595 2.1763783 10197915
-0.22547445 0.11273783 2.1769941 10197915
-0.17501831 0.1127703 2.1776211 10197915
-0.12453308 0.1128028 2.1782489 10197915
-0.074921146 0.11283475 2.1788657 10197915
-0.025280932 0.11286671 2.1794829 10197915
0.025290648 0.11289925 2.1801114 10197915
0.074987471 0.11293124 2.1807292 10197915
0.12471265 0.11296327 2.1813471 10197915
0.1753708 0.11299585 2.1819768 10197915
0.22515275 0.11302791 2.182596 10197915
0.27797392 0.11306968 2.1781898 10197915
0.32453835 0.11311791 2.1668177 10197915
0.37447459 0.1131496 2.1677377 10197915
0.42488822 0.11318205 2.1683593 10197915
0.47486737 0.11321472 2.1686714 6974058
0.51644099 0.11091237 2.1733258 2894892
0.53620541 -1.0017842 2.2431226 2894892
0.53451997 -0.97322738 2.2324491 2894892
0.53429359 -0.92436969 2.2312765 2894892
0.53413373 -0.87470448 2.230536 2894892
0.53403842 -0.82507014 2.2302113 2894892
0.53390992 -0.77499008 2.2296743 2894892
0.53378141 -0.72493416 2.2291374 2894892
0.53365284 -0.6749025 2.2286012 2894892
0.53352451 -0.6248948 2.228065 2894892
0.53336513 -0.57538366 2.2273269 2894892
0.53323799 -0.52541578 2.2267985 2894892
0.53313977 -0.4750253 2.2264578 2894892
0.53301162 -0.42511374 2.2259228 2894892
0.53288352 -0.37522626 2.2253881 2894892
0.53275549 -0.32536265 2.2248538 2894892
0.53259534 -0.27506441 2.2241147 2894892
0.53249717 -0.22478956 2.2237749 2894892
0.53236943 -0.17499822 2.2232409 2894892
0.53224158 -0.1252308 2.2227075 2894892
0.53208172 -0.075030759 2.2219696 2894892
0.53198385 -0.024851663 2.2216308 2894892
0.53185624 0.024843717 2.2210982 2894892
0.5316965 0.07497441 2.2203612 2894892
-1.7604638 0.11164367 2.2271345 9934743
-1.7248327 0.11166659 2.2275915 9934743
-1.6754743 0.11169835 2.2282248 9934743
-1.6251726 0.11173069 2.2288702 9934743
-1.5748421 0.11176306 2.2295158 9934743
-1.5253981 0.11179488 2.2301505 9934743
-1.4750098 0.11182725 2.2307966 9934743
-1.4245924 0.1118597 2.2314436 9934743
-1.3750631 0.11189156 2.232079 9934743
-1.3255054 0.11192342 2.2327149 9934743
-1.2750007 0.11195592 2.2333629 9934743
-1.2244673 0.11198842 2.2340114 9934743
-1.1748238 0.11202037 2.2346478 9934743
-1.1206717 0.11207359 2.2232919 9934743
-1.0751703 0.11211142 2.218277 9934743
-1.0253747 0.11214394 2.2185907 9934743
-0.97510111 0.11217531 2.2198725 9934743
-0.92480272 0.11220866 2.219871 9934743
-0.87491935 0.11224028 2.2208271 9934743
-0.82502156 0.11227283 2.2211411 10000536
-0.77508307 0.11230449 2.2220976 10197915
-0.72512597 0.1123371 2.2224123 10197915
-0.67513251 0.11236876 2.2233706 10197915
-0.62511611 0.11240145 2.2236853 10197915
-0.57506758 0.11243314 2.2246444 10197915
-0.52499151 0.11246587 2.2249591 10197915
-0.474888 0.1124976 2.2259192 10197915
-0.42521134 0.11252955 2.2265511 10197915
-0.37505439 0.11256233 2.2268682 10197915
-0.32485968 0.1125941 2.2278287 10197915
-0.27464288 0.11262693 2.2281454 10197915
-0.22439279 0.11265874 2.2291081 10197915
-0.17503887 0.11269102 2.2294011 10197915
-0.12565728 0.11272227 2.2303646 10197915
-0.075321309 0.11275513 2.2306828 10197915
-0.024961518 0.11278705 2.2316463 10197915
0.02059168 0.1128268 2.2253947 10197915
0.074335523 0.11287807 2.2151444 10197915
0.12484546 0.11291056 2.2157824 10197915
0.17538439 0.11294311 2.2164204 10197915
0.22503279 0.11297505 2.2170475 10197915
0.27470928 0.113007 2.2176747 10197915
0.32441399 0.11303902 2.2183027 10197915
0.37506801 0.11307161 2.2189422 10197915
0.42575115 0.11310422 2.2195826 10197915
0.47554132 0.11313625 2.220211 7895160
0.52313799 0.11024091 2.2204967 2894892
0.54203832 -1.0100933 2.2805851 2894892
0.54137808 -0.97481292 2.2765434 2894892
0.54128212 -0.92506844 2.2762148 2894892
0.54111922 -0.87535089 2.2754543 2894892
0.5410558 -0.8251856 2.2753377 2894892
0.54085827 -0.77505124 2.2743576 2894892
0.54072791 -0.72492474 2.2738092 2894892
0.54066473 -0.67483914 2.2736931 2894892
0.54046732 -0.62477034 2.2727134 2894892
0.54037195 -0.57519621 2.272387 2894892
0.54024184 -0.52517438 2.2718396 2894892
0.54007703 -0.47470653 2.2710721 2894892
0.53998196 -0.42520744 2.2707467 2894892
0.5398519 -0.37525776 2.2702005 2894892
0.53968728 -0.32485932 2.2694337 2894892
0.53962457 -0.27496159 2.2693188 2894892
0.53942776 -0.22508992 2.268342 2894892
0.53933036 -0.17476343 2.2680073 2894892
0.53920078 -0.12493409 2.2674623 2894892
0.5390712 -0.075128846 2.2669175 2894892
0.53890699 -0.024886742 2.2661526 2894892
0.53880984 0.025343906 2.2658181 2894892
0.53983724 0.077586599 2.2727284 2894892
-1.7749468 0.11157889 2.2632506 9934743
-1.7248125 0.11161112 2.2639043 9934743
-1.6746491 0.11164334 2.2645581 9934743
-1.6244568 0.11167559 2.2652128 9934743
-1.5742353 0.11170793 2.2658677 9934743
-1.5249158 0.11173959 2.2665105 9934743
-1.4755679 0.11177135 2.2671537 9934743
-1.4252607 0.11180369 2.2678103 9934743
-1.3749239 0.11183604 2.2684667 9934743
-1.3245584 0.11186841 2.2691233 9934743
-1.2750969 0.1119002 2.2697682 9934743
-1.2256073 0.11193199 2.2704134 9934743
-1.175155 0.11196443 2.2710717 9934743
-1.1246736 0.11199689 2.2717295 9934743
-1.0750985 0.11202877 2.2723761 9934743
-1.0254949 0.11206064 2.2730229 9934743
-0.97492671 0.11209317 2.2736821 9934743
-0.92526633 0.11212508 2.2743299 9934743
-0.87557763 0.11215702 2.2749779 9934743
-0.82492226 0.1121896 2.2756381 9934743
-0.77517641 0.11222158 2.2762871 10132122
-0.72540218 0.11225358 2.2769361 10197915
-0.67465943 0.11228619 2.2775977 10197915
-0.62482792 0.11231823 2.2782474 10197915
-0.57496786 0.11235029 2.278898 10197915
-0.52507937 0.11238234 2.2795484 10197915
-0.47516233 0.11241443 2.2801991 10197915
-0.42521688 0.11244655 2.2808504 10197915
-0.37524274 0.11247867 2.281502 10197915
-0.32524019 0.11251082 2.2821538 10197915
-0.27520892 0.11254299 2.2828064 10197915
-0.22514918 0.11257516 2.2834592 10197915
-0.17506061 0.11260737 2.2841122 10197915
-0.1249436 0.11263958 2.2847657 10197915
-0.074797697 0.11267181 2.2854197 10197915
-0.024623271 0.11270407 2.2860737 10197915
0.028922012 0.11275901 2.2733519 10197915
0.075196199 0.11279627 2.2690306 10197915
0.12505335 0.11282832 2.2696755 10197915
0.17446446 0.11286063 2.2699683 10197915
0.22484542 0.11289249 2.2709663 10197915
0.27525759 0.11292544 2.2712717 10197915
0.32475078 0.11295673 2.2722588 10197915
0.37475008 0.11298888 2.2729053 10197915
0.42524326 0.11302189 2.2732115 10197915
0.47482631 0.11305323 2.2741997 9276813
0.52659321 0.11094074 2.2762036 2894892
0.54694265 -1.0172563 2.3120823 2894892
0.55067122 -1.0229523 2.3360262 2894892
0.54683137 -0.97491229 2.3116119 2894892
0.55054504 -0.97530735 2.3354905 2894892
0.54669994 -0.92489088 2.3110566 2894892
0.55041087 -0.92476875 2.3349218 2894892
0.54656863 -0.87489378 2.3105011 2894892
0.55027986 -0.87522638 2.3343658 2894892
0.54643726 -0.8249203 2.3099463 2894892
0.5501489 -0.82570767 2.3338101 2894892
0.54732496 -0.77073425 2.3159688 2894892
0.55004108 -0.78494477 2.333353 2894892
0.54802841 -0.72492373 2.3207574 2894892
0.54789615 -0.67476475 2.3201971 2894892
0.54772902 -0.62511748 2.3194096 2894892
0.54763454 -0.57548797 2.3190892 2894892
0.54750246 -0.52540123 2.3185301 2894892
0.54737043 -0.47533858 2.3179717 2894892
0.54720241 -0.42482579 2.3171833 2894892
0.5471043 -0.37432894 2.3168435 2894892
0.54693753 -0.32481766 2.3160579 2894892
0.54684329 -0.27533895 2.3157389 2894892
0.54671168 -0.22539674 2.3151808 2894892
0.54658008 -0.17547861 2.3146238 2894892
0.54641229 -0.12510428 2.3138371 2894892
0.55200952 -0.102224 2.3499637 2894892
0.5463146 -0.074760504 2.3134997 2894892
0.55193692 -0.074955344 2.3496542 2894892
0.54618305 -0.02491484 2.312943 2894892
0.55180466 -0.025304241 2.3490915 2894892
0.54605174 0.024906855 2.312387 2894892
0.55166984 0.025296004 2.3485179 2894892
0.54667985 0.070612408 2.3166909 2894892
0.55153775 0.074899249 2.3479552 2894892
-1.8552306 0.1114107 2.3384426 9934743
-1.8212898 0.11145507 2.3241341 9934743
-1.7752235 0.11149172 2.3201368 9934743
-1.7252523 0.11152438 2.3204389 9934743
-1.6752695 0.11155594 2.3214724 9934743
-1.6252381 0.11158863 2.321775 9934743
-1.5751997 0.1116202 2.3228099 9934743
-1.5255953 0.11165207 2.3234732 9934743
-1.4754827 0.11168483 2.3237765 9934743
-1.4253529 0.11171646 2.3248134 9934743
-1.3751808 0.11174927 2.3251171 9934743
-1.324995 0.11178092 2.3261547 9934743
-1.2752473 0.11181288 2.3268197 9934743
-1.2249942 0.11184575 2.3271246 9934743
-1.1747159 0.11187747 2.3281639 9934743
-1.1248826 0.11190948 2.32883 9934743
-1.074548 0.11194237 2.3291354 9934743
-1.0246546 0.11197443 2.3297877 9934743
-0.97652453 0.11203028 2.314121 9934743
-0.9252739 0.11206748 2.3120184 9934743
-0.87571484 0.11209932 2.3126757 9934743
-0.82517368 0.11213179 2.3133457 10000536
-0.77460325 0.11216427 2.3140156 10197915
-0.72495866 0.11219618 2.3146739 10197915
-0.67528576 0.11222809 2.3153322 10197915
-0.62558466 0.11226003 2.3159909 10197915
-0.5748983 0.11229261 2.3166628 10197915
-0.52418298 0.11232518 2.3173354 10197915
-0.47439572 0.11235717 2.3179951 10197915
-0.42458013 0.11238918 2.3186555 10197915
-0.37473613 0.1124212 2.3193159 10197915
-0.32486373 0.11245326 2.3199773 10197915
-0.27496287 0.1124853 2.3206389 10197915
-0.22503355 0.11251739 2.3213005 10197915
-0.1750758 0.11254949 2.3219628 10197915
-0.1250895 0.11258161 2.3226254 10197915
-0.075074628 0.11261375 2.3232882 10197915
-0.025031235 0.11264589 2.323952 10197915
0.025040757 0.11267806 2.3246152 10197915
0.075141348 0.11271024 2.3252795 10197915
0.12527059 0.11274245 2.3259435 10197915
0.17542847 0.11277469 2.3266087 10197915
0.22561504 0.11280692 2.3272738 10197915
0.27583033 0.11283919 2.3279397 10197915
0.32510772 0.11287084 2.328593 10197915
0.37441304 0.11290255 2.3292463 10197915
0.42471343 0.11293484 2.3299131 10197915
0.47504276 0.11296719 2.33058 10197915
0.52951795 0.11165193 2.3295093 2960685
0.5514549 0.10601155 2.3476026 2894892
0.55745679 -1.0572414 2.3794649 2894892
0.55636418 -1.0248049 2.3726258 2894892
0.55626851 -0.97492844 2.3723004 2894892
0.55609739 -0.92506874 2.3714886 2894892
0.5560388 -0.87475729 2.3714027 2894892
0.55582857 -0.82445705 2.370342 2894892
0.55573332 -0.77467591 2.370018 2894892
0.5555625 -0.72491336 2.3692069 2894892
0.55550402 -0.67469633 2.3691223 2894892
0.5552941 -0.62449521 2.3680627 2894892
0.55519915 -0.57480836 2.3677397 2894892
0.55502868 -0.52514261 2.3669302 2894892
0.55497038 -0.47501957 2.3668463 2894892
0.55476081 -0.42491734 2.3657887 2894892
0.55466616 -0.37532476 2.3654666 2894892
0.55453241 -0.32526714 2.3648961 2894892
0.5543595 -0.27474627 2.3640769 2894892
0.55426496 -0.22522919 2.3637557 2894892
0.55413139 -0.17524399 2.3631859 2894892
0.55408055 -0.1262029 2.3631432 2894892
0.55767673 -0.074189872 2.3865705 2894892
0.55762225 -0.024718516 2.3865073 2894892
0.55748934 0.02471065 2.385937 2894892
0.55731636 0.074609458 2.3851154 2894892
-1.8710881 0.11133914 2.3783023 9934743
-1.8252603 0.11136854 2.3789308 9934743
-1.7745296 0.11140111 2.3796258 9934743
-1.724746 0.11143307 2.3803086 9934743
-1.6749336 0.11146503 2.3809912 9934743
-1.6250927 0.11149704 2.3816743 9934743
-1.5752228 0.11152903 2.3823581 9934743
-1.5253251 0.11156105 2.3830423 9934743
-1.4753978 0.1115931 2.3837266 9934743
-1.4254423 0.11162516 2.3844118 9934743
-1.3754578 0.11165725 2.385097 9934743
-1.3254449 0.11168935 2.3857827 9934743
-1.2754028 0.11172146 2.3864684 9934743
-1.2253324 0.11175359 2.3871553 9934743
-1.1752331 0.11178574 2.3878419 9934743
-1.1251049 0.11181793 2.3885293 9934743
-1.0749477 0.11185013 2.3892171 9934743
-1.0247618 0.11188232 2.389905 9934743
-0.97463959 0.11194473 2.3708632 9934743
-0.9252848 0.11197703 2.3711231 9934743
-0.87495041 0.11200996 2.371412 9934743
-0.82458931 0.11204167 2.3724921 10066329
-0.77468318 0.11207372 2.3731706 10132122
-0.72524679 0.11210609 2.3734474 10197915
-0.67528117 0.11213816 2.3741264 10197915
-0.6248098 0.11216994 2.3752079 10197915
-0.5747894 0.11220206 2.3758881 10197915
-0.52523458 0.11223448 2.3761654 10197915
-0.47515434 0.11226662 2.3768463 10197915
-0.42506289 0.11229759 2.3783193 10197915
-0.37492985 0.11233098 2.3782086 10197915
-0.32476366 0.11236318 2.37889 10197915
-0.27850053 0.11241127 2.3675218 10197915
-0.22491407 0.11245767 2.3604174 10197915
-0.17509146 0.11248964 2.3610892 10197915
-0.1252403 0.11252169 2.3617611 10197915
-0.075360909 0.1125537 2.3624334 10197915
-0.025452942 0.11258575 2.363106 10197915
0.025462788 0.11261842 2.3637919 10197915
0.075428016 0.11265052 2.3644657 10197915
0.1254219 0.11268263 2.3651395 10197915
0.17544411 0.11271477 2.3658135 10197915
0.22451325 0.11274627 2.3664751 10197915
0.27459222 0.11277843 2.3671498 10197915
0.32469949 0.1128106 2.3678255 10197915
0.37483555 0.11284281 2.3685012 10197915
0.4250001 0.11287501 2.3691773 10197915
0.4751935 0.11290725 2.3698545 10197915
0.52541536 0.1129395 2.3705311 3881787
0.55659199 0.1074839 2.3831458 2894892
0.56478369 -1.0680635 2.4265203 2894892
0.56431097 -1.0251766 2.423728 2894892
0.56413424 -0.9752472 2.4228811 2894892
0.56404012 -0.92532998 2.422565 2894892
0.56390351 -0.87493616 2.4219787 2894892
0.56372726 -0.82507455 2.4211333 2894892
0.5636332 -0.77523339 2.4208176 2894892
0.56349683 -0.72491211 2.4202316 2894892
0.5633207 -0.67511845 2.4193871 2894892
0.563227 -0.62535334 2.4190726 2894892
0.56309074 -0.57510453 2.4184873 2894892
0.56295472 -0.52488005 2.4179029 2894892
0.56281871 -0.47467995 2.4173188 2894892
0.56264299 -0.42501295 2.4164762 2894892
0.56254941 -0.37536052 2.4161625 2894892
0.56241357 -0.32523254 2.4155791 2894892
0.56227773 -0.27512881 2.414995 2894892
0.56214207 -0.22504929 2.4144125 2894892
0.56192595 -0.17500176 2.4133124 2894892
0.56187075 -0.12497341 2.4132481 2894892
0.56359392 -0.076255336 2.4246113 2894892
0.56360942 -0.025117293 2.4250071 2894892
0.56347281 0.025109183 2.4244192 2894892
0.56363583 0.076950423 2.4257674 2894892
-1.912285 0.11124931 2.4192007 9934743
-1.8755978 0.11127285 2.4197125 9934743
-1.8250045 0.11130528 2.4204183 9934743
-1.7743818 0.11133776 2.4211242 9934743
-1.7247229 0.11136962 2.4218171 9934743
-1.6750357 0.11140149 2.4225101 9934743
-1.62532 0.11143338 2.4232039 9934743
-1.5755757 0.11146528 2.4238975 9934743
-1.5258027 0.11149721 2.424592 9934743
-1.4750055 0.1115298 2.4253004 9934743
-1.4241784 0.1115624 2.4260094 9934743
-1.374319 0.11159437 2.4267046 9934743
-1.3244307 0.11162639 2.4274011 9934743
-1.274514 0.11165841 2.428097 9934743
-1.2245688 0.11169045 2.4287939 9934743
-1.1745949 0.1117225 2.429491 9934743
-1.1245922 0.11175457 2.4301884 9934743
-1.0745608 0.11178667 2.4308863 10000536
-1.0245004 0.11181878 2.4315846 10132122
-0.97441161 0.11185091 2.4322829 10197915
-0.92429405 0.11188306 2.4329824 10197915
-0.87414759 0.11191524 2.4336817 10197915
-0.82497597 0.11194677 2.4343679 10197915
-0.77577651 0.11197833 2.4350541 10197915
-0.72554457 0.11201055 2.4357545 10197915
-0.67528373 0.11204278 2.4364557 10197915
-0.62499386 0.11207505 2.4371574 10197915
-0.57467514 0.11210734 2.4378591 10197915
-0.52432728 0.11213961 2.4385614 10197915
-0.47495842 0.11217128 2.4392502 10197915
-0.4255614 0.11220297 2.439939 10197915
-0.37512764 0.11223532 2.4406426 10197915
-0.32466483 0.11226771 2.4413466 10197915
-0.27266374 0.11232933 2.4235773 10197915
-0.22572844 0.11236317 2.421793 10197915
-0.17511551 0.11239626 2.4220827 10197915
-0.12447374 0.11242814 2.4231935 10197915
-0.07480333 0.11246067 2.4234529 10197915
-0.025110537 0.11249188 2.4245679 10197915
0.025120124 0.11252411 2.4252622 10197915
0.074869491 0.11255666 2.4255221 10197915
0.12465308 0.11258797 2.4266388 10197915
0.17496967 0.11262026 2.4273345 10197915
0.2247981 0.11265287 2.4275954 10197915
0.27368352 0.11268494 2.4278247 10197915
0.32427683 0.11274817 2.4084001 10197915
0.37427193 0.11278024 2.4090855 10197915
0.42429546 0.11281236 2.4097714 10197915
0.47434747 0.11284447 2.4104576 10197915
0.52442795 0.11287663 2.411144 4802889
0.5623129 0.10852196 2.4294336 2894892
0.57437205 -1.1067394 2.4879558 2894892
0.57265961 -1.0750763 2.4771278 2894892
0.57256466 -1.0250586 2.4768083 2894892
0.57242852 -0.97557336 2.4762194 2894892
0.57228971 -0.92508149 2.4756184 2894892
0.57215124 -0.87461382 2.4750178 2894892
0.57197082 -0.82469028 2.4741473 2894892
0.57187659 -0.77478641 2.4738302 2894892
0.57174069 -0.72542018 2.4732425 2894892
0.57156056 -0.67556381 2.4723737 2894892
0.57150799 -0.62521625 2.4723268 2894892
0.57128388 -0.57490623 2.4711761 2894892
0.57118982 -0.52511543 2.47086 2894892
0.57100999 -0.47535664 2.4699924 2894892
0.57095778 -0.42510313 2.4699459 2894892
0.57073373 -0.37489283 2.468797 2894892
0.57064015 -0.32519642 2.4684815 2894892
0.57046056 -0.27553466 2.4676154 2894892
0.57036406 -0.2248724 2.467288 2894892
0.57022625 -0.17474382 2.4666913 2894892
0.57004696 -0.12515002 2.4658263 2894892
0.56999487 -0.075071253 2.465781 2894892
0.56977177 -0.02502482 2.4646349 2894892
0.56963402 0.02501676 2.4640398 2894892
0.56967574 0.074060634 2.4645927 2894892
-1.9539154 0.11115698 2.4615455 9934743
-1.9246646 0.11117575 2.4619603 9934743
-1.8752214 0.11120743 2.4626627 9934743
-1.8257494 0.11123914 2.4633648 9934743
-1.775239 0.11127152 2.4640818 9934743
-1.7246991 0.11130393 2.4647992 9934743
-1.6751415 0.11133569 2.4655027 9934743
-1.6255553 0.11136749 2.4662066 9934743
-1.5749282 0.11139996 2.4669256 9934743
-1.5252851 0.11143176 2.4676304 9934743
-1.4756134 0.11146358 2.4683356 9934743
-1.4248985 0.11149611 2.4690554 9934743
-1.3751696 0.11152799 2.4697616 9934743
-1.3254122 0.11155989 2.470468 9934743
-1.27461 0.11159244 2.4711893 10066329
-1.224795 0.11162442 2.4718964 10197915
-1.1749514 0.11165635 2.4726038 10197915
-1.1250795 0.11168834 2.4733119 10197915
-1.0751786 0.11172032 2.4740202 10197915
-1.0252495 0.11175233 2.4747295 10197915
-0.97529161 0.11178435 2.4754388 10197915
-0.92530507 0.11181641 2.4761479 10197915
-0.87528992 0.11184846 2.4768581 10197915
-0.82524627 0.11188053 2.4775684 10197915
-0.77517349 0.11191265 2.4782794 10197915
-0.72507221 0.11194476 2.4789906 10197915
-0.6749422 0.1119769 2.4797025 10197915
-0.62478334 0.11200905 2.4804142 10197915
-0.57459557 0.11204124 2.481127 10197915
-0.52437907 0.11207341 2.4818399 10197915
-0.47515932 0.11210497 2.4825385 10197915
-0.4248856 0.11213719 2.4832523 10197915
-0.37458304 0.11216945 2.4839664 10197915
-0.32527897 0.11220104 2.4846666 10197915
-0.27491897 0.11223336 2.4853814 10197915
-0.22453015 0.11226565 2.4860966 10197915
-0.17514147 0.11229732 2.4867976 10197915
-0.12572487 0.112329 2.4874995 10197915
-0.075249925 0.11236134 2.4882159 10197915
-0.024746081 0.11239371 2.4889326 10197915
0.024755388 0.11242545 2.4896352 10197915
0.074284829 0.11245722 2.4903386 10197915
0.12487509 0.11248963 2.4910564 10197915
0.17549431 0.1125221 2.4917753 10197915
0.22510897 0.11255389 2.4924796 10197915
0.27657202 0.11259199 2.4898655 10197915
0.32463959 0.11265095 2.4721479 10197915
0.37441993 0.11268356 2.4724047 10197915
0.42473778 0.11271444 2.4740007 10197915
0.47507209 0.11274809 2.4738209 10197915
0.52545345 0.11278039 2.4745297 6118749
0.56368577 0.11139308 2.4791403 2894892
0.58186018 -1.1172893 2.5360494 2894892
0.58128148 -1.0750118 2.532573 2894892
0.58118844 -1.0249299 2.5322647 2894892
0.58104712 -0.97433662 2.5316494 2894892
0.58090878 -0.92482138 2.5310471 2894892
0.58077085 -0.87532997 2.5304453 2894892
0.58058435 -0.82534069 2.5295358 2894892
0.58049172 -0.77537149 2.5292299 2894892
0.5803507 -0.72489959 2.5286157 2894892
0.58016467 -0.67497808 2.5277073 2894892
-0.46647134 -0.61870003 2.5473866 9276813
-0.42423388 -0.61896366 2.5408881 9342606
-0.37473568 -0.61906785 2.5332706 9408399
-0.32794189 -0.61906403 2.5286164 10066329
0.58007216 -0.62508553 2.5274012 2894892
-0.46657592 -0.57491469 2.547466 6513507
-0.42439431 -0.57494849 2.540976 6513507
-0.37461105 -0.57505012 2.5333147 6513507
-0.32781696 -0.57513493 2.5287042 3684408
0.57993144 -0.57468659 2.5267882 2894892
-0.46530628 -0.5252769 2.5473409 6513507
-0.42436796 -0.52493745 2.5410419 6513507
-0.37478596 -0.52486885 2.5334127 6513507
-0.32782719 -0.52521986 2.5287476 3618615
0.57974553 -0.52483296 2.5258813 2894892
-0.46542346 -0.47491655 2.547431 6513507
-0.42415798 -0.47511005 2.5410812 6513507
-0.37485218 -0.47482198 2.5334942 6513507
-0.32794955 -0.47519803 2.5288556 3618615
0.57965326 -0.4750168 2.5255761 2894892
-0.46560925 -0.4247565 2.5475323 6513507
-0.42413127 -0.42514101 2.5411484 6513507
-0.37476137 -0.42495689 2.5335531 6513507
-0.32795861 -0.42502344 2.5289598 3618615
0.57951272 -0.4246906 2.5249646 2894892
-0.46527737 -0.37517741 2.5475516 6513507
-0.42429358 -0.37479919 2.541245 6513507
-0.37452251 -0.37527564 2.5335858 6513507
-0.32797492 -0.37484649 2.5290201 3618615
0.57937235 -0.3743889 2.5243526 2894892
-0.46507341 -0.32548058 2.5475907 6513507
-0.4245652 -0.32472551 2.5413585 6513507
-0.37470415 -0.32535514 2.5336847 6513507
-0.32794973 -0.32461607 2.52915 3618615
0.57918674 -0.32463273 2.5234466 2894892
-0.46449816 -0.27463022 2.5475743 6513507
-0.42405728 -0.27526242 2.5413508 6513507
-0.37475812 -0.27502349 2.5337658 6513507
-0.32802182 -0.27442929 2.5292251 3552822
0.57909465 -0.27491111 2.5231421 2894892
-0.46429354 -0.22504361 2.5476153 6513507
-0.4243302 -0.22532013 2.5414641 6513507
-0.37476897 -0.22464414 2.5338395 6513507
-0.32809812 -0.22473668 2.5293462 3552822
0.57895452 -0.22468187 2.5225313 2894892
-0.46441722 -0.17521013 2.547704 6513507
-0.4243423 -0.17478614 2.5415387 6513507
-0.3749564 -0.17448391 2.5339391 6513507
-0.32776552 -0.17535473 2.5294285 3487029
0.57881421 -0.17447706 2.5219209 2894892
-0.46443075 -0.12455048 2.5477796 6513507
-0.42460534 -0.124652 2.541651 6513507
-0.37460923 -0.12516029 2.5339563 6513507
-0.32825112 -0.12574318 2.5292499 3552822
0.57862896 -0.12481818 2.5210161 2894892
-0.4635084 -0.075149216 2.5477064 6513507
-0.42411375 -0.075183369 2.5416455 6513507
-0.37480134 -0.0755876 2.5340567 6513507
-0.3289682 -0.075372592 2.5285437 3618615
0.57853711 -0.075190701 2.5207133 2894892
-0.46337083 -0.025332011 2.5477579 6513507
-0.42437932 -0.025272354 2.5417571 6513507
-0.37481177 -0.025196517 2.5341303 6513507
-0.32894108 -0.025142098 2.5286591 3618615
0.57839715 -0.025058175 2.5201032 2894892
-0.46338424 0.025332997 2.5478323 6513507
-0.42439157 0.025273325 2.5418313 6513507
-0.3748228 0.025197491 2.5342035 6513507
-0.32895249 0.025143236 2.5287459 3552822
0.57825714 0.025050102 2.5194941 2894892
-0.46339783 0.074945338 2.5479054 7171437
-0.42416215 0.075143874 2.541867 7171437
-0.37483355 0.07559447 2.5342777 7237230
-0.32900155 0.075380594 2.5288024 5066061
0.57811743 0.075134136 2.5188844 2894892
-1.9713705 0.1110778 2.5057695 9934743
-1.9251682 0.11110739 2.5064371 9934743
-1.874831 0.11113965 2.5071647 9934743
-1.8244648 0.11117193 2.5078924 9934743
-1.7750987 0.11120355 2.5086057 9934743
-1.7257038 0.11123519 2.50932 9934743
-1.675251 0.11126752 2.5100491 9934743
-1.6247686 0.11129985 2.5107791 9934743
-1.5752883 0.11133156 2.5114939 9934743
-1.5257797 0.11136329 2.5122097 10000536
-1.4752107 0.11139569 2.5129402 10132122
-1.4246122 0.1114281 2.5136716 10197915
-1.3750178 0.11145988 2.5143888 10197915
-1.3253952 0.11149167 2.5151055 10197915
-1.2757441 0.11152347 2.5158231 10197915
-1.2250293 0.11155598 2.5165563 10197915
-1.1742851 0.11158847 2.5172899 10197915
-1.1245476 0.11162037 2.5180085 10197915
-1.074782 0.11165223 2.518728 10197915
-1.0249878 0.11168414 2.5194476 10197915
-0.97516513 0.11171605 2.5201671 10197915
-0.92531395 0.111748 2.5208881 10197915
-0.87543434 0.11177996 2.5216091 10197915
-0.825526 0.11181193 2.5223305 10197915
-0.77558941 0.11184394 2.523052 10197915
-0.72562402 0.11187594 2.5237744 10197915
-0.67563003 0.11190796 2.5244968 10197915
-0.62560743 0.11194002 2.5252199 10197915
-0.57555622 0.11197209 2.5259435 10197915
-0.5254764 0.11200416 2.5266669 10197915
-0.46622032 0.10708269 2.5431118 10197915
-0.42538071 0.10664182 2.5399241 10197915
-0.37487906 0.10708963 2.5333745 10197915
-0.32800323 0.10697135 2.5288603 10197915
-0.27464551 0.11216488 2.5302918 10197915
-0.22439291 0.11219705 2.5310185 10197915
-0.1741115 0.11222928 2.531745 10197915
-0.12484974 0.11226086 2.5324571 10197915
-0.075560048 0.11229243 2.53317 10197915
-0.025193118 0.11232468 2.5338974 10197915
0.025202768 0.11235697 2.5346253 10197915
0.075627632 0.11238927 2.5353549 10197915
0.12502998 0.11242092 2.536068 10197915
0.1744604 0.1124526 2.536783 10197915
0.22497113 0.11248494 2.537513 10197915
0.275511 0.11251733 2.5382431 10197915
0.32502598 0.11254907 2.5389595 10197915
0.37456915 0.1125808 2.5396755 10197915
0.42519519 0.11261325 2.5404069 10197915
0.4747946 0.11264502 2.5411232 10197915
0.52442223 0.1126768 2.5418408 7566195
0.57113731 0.10991303 2.5317993 2894892
0.58826005 -1.1519648 2.5770056 2894892
0.5881843 -1.1251303 2.576674 2894892
0.5880419 -1.0746982 2.5760498 2894892
0.58790255 -1.0253627 2.5754397 2894892
0.58776027 -0.97497916 2.574816 2894892
0.58761811 -0.92461962 2.5741932 2894892
0.587479 -0.87535518 2.5735834 2894892
0.58733696 -0.82504421 2.5729609 2894892
0.5871948 -0.77475721 2.5723395 2894892
0.58705586 -0.7255637 2.5717309 2894892
0.58691412 -0.6753251 2.5711093 2894892
-0.80444241 -0.61921585 2.5993924 9013641
-0.77499259 -0.61912256 2.5948606 9013641
-0.72430694 -0.61926037 2.5870614 9079434
-0.6753211 -0.61914909 2.579524 9145227
-0.62545329 -0.61904705 2.5718498 9145227
-0.57470578 -0.61901402 2.5640421 9211020
-0.52423435 -0.6189357 2.5562758 9276813
-0.4914811 -0.61937034 2.551235 9342606
-0.30514821 -0.61885601 2.5755491 11711154
0.58794886 -0.62111872 2.5780776 2894892
-0.80446273 -0.57507753 2.5994585 6513507
-0.77525425 -0.57501227 2.5949643 6513507
-0.72482395 -0.57513231 2.5872045 6513507
-0.67545348 -0.57500762 2.5796068 6513507
-0.62520331 -0.57491589 2.5718746 6513507
-0.57449228 -0.57506251 2.5640712 6513507
-0.52429241 -0.57497692 2.5563478 6513507
-0.49149349 -0.57499325 2.5513012 6513507
-0.30516559 -0.57514048 2.5756905 2500134
0.58893198 -0.57500041 2.5846665 2894892
-0.80448639 -0.52447754 2.5995343 6513507
-0.77529579 -0.52510661 2.5950418 6513507
-0.72442353 -0.52487296 2.5872138 6513507
-0.67523921 -0.52503997 2.5796444 6513507
-0.62573463 -0.52493978 2.5720286 6513507
-0.57488269 -0.5250091 2.5642025 6513507
-0.52403766 -0.52498883 2.5563798 6513507
-0.49054772 -0.52476585 2.5512276 6513507
-0.30518493 -0.52502131 2.5758584 2039583
0.58878881 -0.52454531 2.584039 2894892
-0.80450928 -0.47495103 2.5996084 6513507
-0.77505875 -0.4749217 2.5950758 6513507
-0.72452343 -0.47494736 2.5872991 6513507
-0.67572695 -0.47510779 2.5797911 6513507
-0.62526077 -0.47487876 2.5720267 6513507
-0.57457352 -0.4750981 2.5642262 6513507
-0.52453154 -0.47489724 2.5565245 6513507
-0.49034652 -0.47524565 2.5512669 6513507
-0.30523044 -0.474897 2.5758543 2039583
0.58859849 -0.47465357 2.5831037 2894892
-0.80246741 -0.42537013 2.5993645 6513507
-0.77400911 -0.424943 2.5949862 6513507
-0.72487634 -0.42515904 2.5874259 6513507
-0.67522931 -0.4248974 2.5797868 6513507
-0.62568098 -0.42498863 2.5721626 6513507
-0.57479483 -0.42499301 2.5643325 6513507
-0.52403647 -0.42513856 2.5565224 6513507
-0.49044728 -0.42491207 2.5513527 6513507
-0.30523273 -0.42512432 2.5761299 2039583
0.58850616 -0.42478752 2.5827975 2894892
-0.8023262 -0.37547088 2.5994146 6513507
-0.77408826 -0.37521204 2.5950708 6513507
-0.72441202 -0.37479913 2.5874267 6513507
-0.67550641 -0.37515631 2.5798991 6513507
-0.62538743 -0.37492138 2.5721879 6513507
-0.57472962 -0.37507385 2.5643935 6513507
-0.52430809 -0.37495062 2.5566339 6513507
-0.49050239 -0.37510771 2.5514326 6513507
-0.30525637 -0.37516356 2.5762675 2039583
0.58836627 -0.37547725 2.5821841 2894892
-0.80228543 -0.32488492 2.5994804 6513507
-0.7743721 -0.32527092 2.5951846 6513507
-0.72467399 -0.32481167 2.5875382 6513507
-0.6756109 -0.32502615 2.5799878 6513507
-0.62555897 -0.32502857 2.5722864 6513507
-0.57474315 -0.32505828 2.5644674 6513507
-0.52450746 -0.32494354 2.5567369 6513507
-0.4899964 -0.32472906 2.5514266 6513507
-0.30525029 -0.32501873 2.5765996 2039583
0.58822352 -0.32511938 2.5815575 2894892
-0.80234039 -0.2746264 2.5995605 6513507
-0.77387232 -0.27476108 2.59518 6513507
-0.72485304 -0.27530882 2.5876365 6513507
-0.67545849 -0.27480251 2.5800362 6513507
-0.62557733 -0.27495006 2.5723605 6513507
-0.57489097 -0.27508262 2.5645616 6513507
-0.52415806 -0.27517733 2.5567539 6513507
-0.4894008 -0.27482432 2.5514071 6513507
-0.30530852 -0.2750496 2.5765126 2039583
0.5880807 -0.27478576 2.5809312 2894892
-0.80214727 -0.2268333 2.5995996 6513507
-0.77415526 -0.22471669 2.5952957 6513507
-0.72456157 -0.2249396 2.5876637 6513507
-0.67579311 -0.22519347 2.5801585 6513507
-0.62559539 -0.2248687 2.5724349 6513507
-0.57473642 -0.22515802 2.5646088 6513507
-0.52450496 -0.22474584 2.556879 6513507
-0.4894149 -0.22515108 2.5514798 6513507
-0.30532357 -0.22506976 2.5767069 2039583
0.5878908 -0.22502144 2.5799975 2894892
-0.80125558 -0.17554379 2.5995355 6513507
-0.77417725 -0.17526247 2.5953693 6513507
-0.72473699 -0.17474867 2.5877624 6513507
-0.67511946 -0.17478177 2.5801277 6513507
-0.62539077 -0.17496763 2.5724745 6513507
-0.57492447 -0.17522089 2.5647082 6513507
-0.52421266 -0.17497417 2.5569069 6513507
-0.48942888 -0.17547481 2.5515521 6513507
-0.3053219 -0.17508578 2.5770092 2039583
0.58779871 -0.17526758 2.5796931 2894892
-0.80127907 -0.12493044 2.599611 6513507
-0.77446383 -0.12525791 2.5954843 6513507
-0.72475743 -0.12543671 2.5878346 6513507
-0.67449147 -0.12506175 2.5801003 6513507
-0.62452346 -0.12468911 2.5724137 6513507
-0.57476944 -0.12529154 2.5647564 6513507
-0.52438354 -0.12500145 2.5570035 6513507
-0.48944309 -0.12473874 2.5516286 6513507
-0.30552471 -0.12430006 2.5759883 2039583
0.58760881 -0.12554041 2.5787601 2894892
-0.80130237 -0.074314229 2.5996871 6513507
-0.77395916 -0.074742563 2.5954783 6513507
-0.72477859 -0.075049676 2.5879111 6513507
-0.67451096 -0.074825414 2.5801766 6513507
-0.62454128 -0.07460241 2.5724876 6513507
-0.57499468 -0.075299896 2.5648627 6513507
-0.52439862 -0.075214922 2.5570762 6513507
-0.48849803 -0.0747732 2.5515535 6513507
-0.30593735 -0.074929327 2.5735939 2039583
0.58756405 -0.075305328 2.5787635 2894892
-0.80132526 -0.024772037 2.599761 6513507
-0.77424467 -0.024732333 2.5955939 6513507
-0.72479957 -0.024659824 2.5879858 6513507
-0.6745317 -0.024586128 2.5802512 6513507
-0.62455922 -0.024512863 2.572562 6513507
-0.57476628 -0.025368707 2.5648985 6513507
-0.52441353 -0.025425393 2.5571501 6513507
-0.4883824 -0.025370277 2.5516057 6513507
-0.3060227 -0.024985291 2.5733302 2039583
0.58732402 -0.025103366 2.5775106 2894892
-0.80079907 0.0206025 2.5997448 6513507
-0.77426696 0.024733266 2.5956688 6513507
-0.72482008 0.024660762 2.5880589 6513507
-0.67454952 0.024587059 2.5803246 6513507
-0.62457699 0.024513792 2.5726347 6513507
-0.57478356 0.025369709 2.5649731 6513507
-0.5244289 0.02542639 2.5572245 6513507
-0.48839673 0.02537127 2.5516827 6513507
-0.30604231 0.024987422 2.5734956 2039583
0.58718181 0.025095254 2.5768862 2894892
-0.80024034 0.074315846 2.599736 7237230
-0.77402627 0.074700348 2.5957029 7237230
-0.72484082 0.075056456 2.5881348 7303023
-0.67457002 0.074832112 2.5803995 7237230
-0.62459522 0.074609131 2.5727081 7237230
-0.57504404 0.075306699 2.5650854 7237230
-0.52444381 0.075221665 2.5572996 7171437
-0.48841086 0.075058542 2.5517557 7171437
-0.30599606 0.074944243 2.5740867 4079166
0.58713722 0.075248599 2.5768898 2894892
-2.0582483 0.11087845 2.5984089 9934743
-2.0212054 0.11092981 2.580868 9934743
-1.9755452 0.11096872 2.5752225 9934743
-1.9246416 0.1110371 2.5525622 9934743
-1.8744246 0.11106923 2.5533013 9934743
-1.8241782 0.11110143 2.5540411 9934743
-1.7749506 0.11113292 2.5547657 9934743
-1.725695 0.11116448 2.5554907 10066329
-1.6753622 0.1111967 2.5562315 10132122
-1.6250005 0.11122894 2.5569727 10197915
-1.5746098 0.11126121 2.5577147 10197915
-1.5241896 0.11129349 2.5584567 10197915
-1.4747915 0.11132513 2.5591838 10197915
-1.4253653 0.11135677 2.559911 10197915
-1.3748585 0.11138909 2.5606546 10197915
-1.3243225 0.11142147 2.5613985 10197915
-1.2748109 0.11145316 2.5621274 10197915
-1.2252707 0.11148489 2.5628564 10197915
-1.1746477 0.1115173 2.5636015 10197915
-1.1250509 0.11154906 2.5643318 10197915
-1.0754255 0.11158084 2.565062 10197915
-1.0247151 0.1116133 2.5658085 10197915
-0.97503287 0.11164512 2.5665398 10197915
-0.925322 0.11167694 2.5672712 10197915
-0.87452412 0.11170945 2.5680192 10197915
-0.81968701 0.11046073 2.5751719 10197915
-0.77533716 0.10681279 2.5916078 10197915
-0.72490269 0.10713042 2.5850747 10197915
-0.67470223 0.1068719 2.5788062 10197915
-0.62472141 0.10661415 2.5724771 10197915
-0.57493049 0.10626952 2.5651121 10197915
-0.52445346 0.10594773 2.5573435 10197915
-0.48841938 0.10571799 2.5517998 10197915
-0.305978 0.10631298 2.5736041 10197915
-0.27542737 0.11209304 2.5768373 10197915
-0.22531696 0.11212511 2.577575 10197915
-0.17517768 0.11215723 2.5783126 10197915
-0.12500986 0.11218937 2.5790515 10197915
-0.074813075 0.1122215 2.5797901 10197915
-0.02458775 0.11225366 2.5805295 10197915
0.024596937 0.11228514 2.5812531 10197915
0.074879475 0.11231735 2.5819933 10197915
0.12519066 0.11234955 2.5827336 10197915
0.17445941 0.11238109 2.5834589 10197915
0.22482795 0.11241335 2.5842001 10197915
0.27522516 0.1124456 2.5849421 10197915
0.32457826 0.11247721 2.5856681 10197915
0.37503302 0.11250953 2.5864112 10197915
0.42551646 0.11254183 2.5871542 10197915
0.47495404 0.1125735 2.5878816 10197915
0.52441949 0.11260515 2.5886097 8750469
0.5759086 0.11026943 2.5839858 2894892
0.59591013 -1.1621424 2.6261427 2894892
0.59510612 -1.124577 2.6211896 2894892
0.59501648 -1.0749193 2.6209011 2894892
0.59487307 -1.0247251 2.6202695 2894892
0.59472978 -0.97455519 2.619638 2894892
0.59458649 -0.92440927 2.6190064 2894892
0.59439242 -0.87483132 2.6180458 2894892
0.59430319 -0.82528532 2.617759 2894892
0.59416002 -0.77521116 2.6171293 2894892
0.59401709 -0.72516125 2.6164989 2894892
0.5938741 -0.67513561 2.615869 2894892
-1.1167709 -0.61921048 2.6474519 6513507
-1.0755423 -0.61925519 2.6411078 5592405
-1.0252094 -0.61928856 2.633363 5658198
-0.97444499 -0.61927444 2.6255517 6513507
-0.92521185 -0.61919838 2.617976 6513507
-0.87620372 -0.6190837 2.6104348 6118749
-0.8294242 -0.61910671 2.603236 6447714
-0.3008939 -0.61904311 2.6031954 11711154
-0.29719988 -0.61892343 2.6272023 11711154
0.59423655 -0.62839526 2.6184697 2894892
-1.1164392 -0.57528645 2.6474636 6513507
-1.0757221 -0.57482326 2.6411998 6513507
-1.0255703 -0.5749675 2.6334813 6513507
-0.97461867 -0.5751853 2.6256411 6513507
-0.92520177 -0.57505482 2.6180365 6513507
-0.87592614 -0.57485896 2.6104546 6513507
-0.82933915 -0.57490522 2.6032858 6513507
-0.30091092 -0.57485819 2.6033425 2565927
-0.29717332 -0.57498699 2.6276319 2565927
0.59594071 -0.57415223 2.6297431 2894892
-1.1165533 -0.52531534 2.6475525 6513507
-1.0753492 -0.52462769 2.641211 6513507
-1.0252578 -0.52503061 2.6335053 6513507
-0.97464198 -0.52526194 2.6257167 6513507
-0.92417794 -0.52494335 2.6179514 6513507
-0.8748433 -0.52480382 2.610359 6513507
-0.82940918 -0.52525079 2.6033685 6513507
-0.30093002 -0.5252791 2.603508 2039583
-0.29719231 -0.52494508 2.6278002 2039583
0.59579968 -0.52500176 2.6291208 2894892
-1.1162937 -0.47533152 2.6475837 6513507
-1.07446 -0.47508144 2.6411467 6513507
-1.0245171 -0.4746398 2.6334629 6513507
-0.97466552 -0.47533581 2.6257894 6513507
-0.9240905 -0.47495991 2.6180084 6513507
-0.87492436 -0.4747676 2.6104438 6513507
-0.82963276 -0.47530624 2.6034744 6513507
-0.3009491 -0.47569349 2.603673 2039583
-0.29721141 -0.47489673 2.6279678 2039583
0.59565878 -0.47587466 2.6284995 2894892
-1.1154916 -0.42447737 2.6475332 6513507
-1.0743222 -0.42536098 2.6411965 6513507
-1.0245792 -0.42462045 2.6335433 6513507
-0.97474176 -0.42535621 2.625874 6513507
-0.92409873 -0.42488331 2.6180823 6513507
-0.87494963 -0.42503202 2.6105182 6513507
-0.82843351 -0.42489606 2.6033599 6513507
-0.30096865 -0.42502356 2.603842 2039583
-0.29725239 -0.42506093 2.6279929 2039583
0.59551477 -0.42567974 2.6278634 2894892
-1.1156847 -0.37470025 2.647634 6513507
-1.0745775 -0.37533167 2.6413085 6513507
-1.0245905 -0.37465122 2.6336174 6513507
-0.97477013 -0.37532526 2.6259484 6513507
-0.92404568 -0.37470683 2.6181445 6513507
-0.87497455 -0.37529352 2.610594 6513507
-0.82812691 -0.37464499 2.6033857 6513507
-0.30098814 -0.37434697 2.6040108 2039583
-0.29724923 -0.37521926 2.6283026 2039583
0.59537089 -0.37550914 2.6272285 2894892
-1.1153964 -0.32536668 2.6476591 6447714
-1.0746088 -0.32500508 2.6413832 6447714
-1.0246247 -0.32478204 2.6336937 6513507
-0.97479826 -0.32529122 2.6260259 6513507
-0.92405176 -0.32447743 2.6182175 6513507
-0.87504697 -0.3254995 2.6106753 6513507
-0.82837212 -0.32465753 2.6034944 6513507
-0.30100721 -0.32474232 2.604176 2039583
-0.29726833 -0.3251518 2.6284726 2039583
0.59522706 -0.32536277 2.6265938 2894892
-1.1155876 -0.27533063 2.6477609 6447714
-1.0746396 -0.27467564 2.6414607 6447714
-1.0245616 -0.27506968 2.6337543 6513507
-0.97482598 -0.27525413 2.626101 6513507
-0.92420727 -0.27443811 2.6183124 6513507
-0.87518853 -0.27544212 2.6107678 6513507
-0.82839572 -0.27504998 2.6035693 6513507
-0.30102634 -0.27513131 2.6043415 2039583
-0.29730901 -0.27486196 2.6285014 2039583
0.59508324 -0.2752406 2.6259594 2894892
-1.11498 -0.22536884 2.6477387 6513507
-1.0747188 -0.22439136 2.6415434 6513507
-1.0243765 -0.22551468 2.6337986 6513507
-0.97485459 -0.22521453 2.6261768 6513507
-0.92423356 -0.22454667 2.6183882 6513507
-0.87506908 -0.22502948 2.6108234 6513507
-0.82811296 -0.22519983 2.6035976 6513507
-0.30104548 -0.2255141 2.6045067 2039583
-0.29731753 -0.22478116 2.6287379 2039583
0.59493947 -0.22514263 2.6253252 2894892
-1.1144794 -0.17441097 2.6477342 6513507
-1.0749176 -0.17474651 2.6416459 6513507
-1.024645 -0.17568263 2.6339078 6513507
-0.97488236 -0.17517191 2.6262531 6513507
-0.92426044 -0.1746524 2.6184647 6513507
-0.87378061 -0.17444247 2.6106966 6513507
-0.82648075 -0.17557056 2.6034162 6513507
-0.30106458 -0.17589054 2.6046722 2039583
-0.29732546 -0.17491513 2.6289771 2039583
0.59479582 -0.1750689 2.6246912 2894892
-1.1145113 -0.12505284 2.6478105 6513507
-1.0744698 -0.12546904 2.6416507 6513507
-1.0246754 -0.12549114 2.633986 6513507
-0.97491056 -0.12512638 2.6263287 6513507
-0.92428637 -0.12475526 2.6185398 6513507
-0.87396216 -0.12438639 2.6107955 6513507
-0.82599789 -0.12479892 2.6034157 6513507
-0.30108413 -0.12518163 2.604841 2039583
-0.29736656 -0.12504207 2.6290009 2039583
0.59465224 -0.12501931 2.6240575 2894892
-1.1145427 -0.075691953 2.6478848 6513507
-1.0747634 -0.075517036 2.6417637 6513507
-1.024704 -0.075296849 2.6340621 6513507
-0.97493911 -0.075077929 2.6264045 6513507
