# .PCD v0.7 - Point Cloud Data file format
VERSION 0.7
FIELDS x y z rgb
SIZE 4 4 4 4
TYPE F F F U
COUNT 1 1 1 1
WIDTH 1165
HEIGHT 1
VIEWPOINT 0 0 0 1 0 0 0
POINTS 1165
DATA ascii
0.32361367 0.10689165 1.9840184 10197915
0.37451154 0.10711841 1.9737419 10197915
0.42883986 0.10732025 1.9707611 10197915
0.47522032 0.10750511 1.9657197 10197915
0.52526909 0.10766163 1.9688264 10197915
0.57504249 0.10782071 1.9712378 10197915
0.62495476 0.10797567 1.974569 10197915
0.67305684 0.10615196 1.9754298 7434609
0.69037813 -0.57102323 2.0248055 2894892
0.69015527 -0.52552038 2.0245261 2894892
0.69028676 -0.47500989 2.0271187 2894892
0.6899175 -0.42512897 2.0258551 2894892
0.68959802 -0.37514162 2.0249724 2894892
0.68926913 -0.32507133 2.0240209 2894892
0.68893456 -0.27504525 2.0230248 2894892
0.68868965 -0.22460289 2.0227292 2894892
0.68878525 -0.17498653 2.0250225 2894892
0.68849373 -0.12505919 2.0243528 2894892
0.68865198 -0.075025178 2.0271416 2894892
0.6883173 -0.02504685 2.0261407 2894892
0.687998 0.025169328 2.0252714 2894892
0.68764222 0.075193472 2.0241129 2894892
-0.27551329 0.10461457 2.0270884 2039583
-0.22469731 0.10480577 2.0238242 9211020
-0.17465161 0.10496271 2.026854 10000536
-0.1216061 0.10519102 2.0177174 10132122
-0.074824437 0.10535033 2.0180385 10197915
-0.025115443 0.10550504 2.0212739 10197915
0.025165524 0.10566281 2.0242968 10197915
0.07517083 0.10582095 2.0270541 10197915
0.12491023 0.10597704 2.0300436 10197915
0.17478837 0.10613102 2.0335402 10197915
0.22202624 0.10633712 2.0248554 10197915
0.27511624 0.10652123 2.0245569 10197915
0.327153 0.10669814 2.0249665 10197915
0.37501949 0.10690717 2.0161307 10197915
0.42534062 0.1070665 2.018868 10197915
0.47496477 0.10722116 2.022053 10197915
0.52473277 0.10737878 2.0247564 10197915
0.57464468 0.10753436 2.0279589 10197915
0.62470645 0.10769289 2.030679 10197915
0.67647421 0.10636462 2.0302505 8092539
0.69692892 -0.57030821 2.0751112 2894892
0.70010215 -0.57747632 2.0992448 2894892
0.69698894 -0.52504086 2.0769956 2894892
0.69665372 -0.47490591 2.0759978 2894892
0.69633329 -0.42467138 2.0751157 2894892
0.69598335 -0.37477279 2.0739985 2894892
0.69564092 -0.32492626 2.0729356 2894892
0.69533169 -0.27498236 2.0721307 2894892
0.69505394 -0.22543643 2.0715556 2894892
0.69564152 -0.17422499 2.0776753 2894892
0.69539577 -0.12508266 2.0773337 2894892
0.69506973 -0.074988 2.0764053 2894892
0.69474989 -0.024938062 2.0755217 2894892
0.69441527 0.024922058 2.074523 2894892
0.69405484 0.075017601 2.0733294 2894892
-0.30072433 0.10426258 2.0798917 2039583
-0.27196807 0.10441747 2.0687418 2236962
-0.22500275 0.1045781 2.0689242 9868950
-0.17512518 0.10473284 2.0722737 10000536
-0.12551685 0.10488804 2.0753448 10132122
-0.075332448 0.10504636 2.0781884 10197915
-0.025002491 0.10520251 2.0815668 10197915
0.020642459 0.1053777 2.0779459 10197915
0.074693576 0.1055926 2.0721731 10197915
0.1246697 0.10574907 2.0752435 10197915
0.17479415 0.10590601 2.0783231 10197915
0.22670534 0.10613918 2.0674579 10197915
0.27518117 0.10629672 2.0692906 10197915
0.32494327 0.10645398 2.0720589 10197915
0.37486064 0.10660902 2.0753706 10197915
0.424918 0.1067672 2.078156 10197915
0.47512734 0.10692319 2.0814865 10197915
0.52157503 0.10709321 2.0794451 10197915
0.57520777 0.10731383 2.0722556 10197915
0.62505227 0.1074701 2.0752733 10197915
0.68335599 0.10572768 2.0754867 7434609
0.70345598 -0.57121104 2.1251845 2894892
0.70311868 -0.52484423 2.1240544 2894892
0.70323324 -0.47416693 2.1265242 2894892
0.70301974 -0.42522377 2.1264234 2894892
0.69984627 -0.37302062 2.1037047 2894892
0.70322472 -0.37550718 2.1295598 2894892
0.69952273 -0.32493609 2.1027319 2894892
0.70294762 -0.32509589 2.1290162 2894892
0.69918782 -0.27514926 2.1017251 2894892
0.70257676 -0.2750448 2.1277421 2894892
0.69924051 -0.22122239 2.1038249 2894892
0.70256829 -0.22654164 2.1292012 2894892
0.69946164 -0.17825693 2.1068728 2894892
0.70250762 -0.17518142 2.1303487 2894892
0.69930023 -0.12484591 2.1073115 2894892
0.70214313 -0.12504123 2.1291254 2894892
0.69914192 -0.071697548 2.1077662 2894892
0.70194608 -0.075760543 2.1291625 2894892
0.69919538 -0.02534797 2.1096354 2894892
0.70263523 -0.024780363 2.1360557 2894892
0.69885337 0.025331441 2.1086035 2894892
0.70229906 0.024764558 2.1350343 2894892
0.69851792 0.075088955 2.1075907 2894892
0.70194042 0.074704245 2.1338487 2894892
-0.3043997 0.10399314 2.1310029 2039583
-0.27480447 0.10410046 2.1299093 3355443
-0.2275297 0.10426255 2.1300154 10000536
-0.17473984 0.1044965 2.1195927 10000536
-0.12487304 0.10465216 2.12275 10132122
-0.074856594 0.10480831 2.125917 10197915
-0.024691584 0.10496487 2.1290932 10197915
0.028875588 0.10519289 2.1203794 10197915
0.074630857 0.10535549 2.1193411 10197915
0.12486399 0.10551241 2.122498 10197915
0.17524619 0.10566981 2.1256645 10197915
0.22532547 0.10582767 2.1285286 10197915
0.27511984 0.10598326 2.1316466 10197915
0.32259083 0.10619554 2.1218901 10197915
0.37451127 0.10637356 2.1220024 10197915
0.42436287 0.10652942 2.1251116 10197915
0.47436076 0.10668571 2.1282299 10197915
0.52900916 0.10690683 2.1216309 10197915
0.57490176 0.10707938 2.1187034 10197915
0.62496889 0.10723604 2.1218028 10197915
0.67803657 0.10684058 2.1220548 9408399
0.70173246 0.10402399 2.1345854 5526612
0.70991051 -0.5714488 2.1747243 2894892
0.70954835 -0.52497059 2.173403 2894892
0.70966601 -0.47597829 2.1758451 2894892
0.70946532 -0.42515525 2.1759019 2894892
0.70913213 -0.3750236 2.1749218 2894892
0.70879966 -0.32495102 2.1739414 2894892
0.70844978 -0.27492249 2.1728284 2894892
0.70855963 -0.22407898 2.1752689 2894892
0.70837945 -0.17499252 2.1754289 2894892
0.70803404 -0.12491423 2.174351 2894892
0.70771283 -0.075179376 2.1734478 2894892
0.70794636 -0.025076546 2.176815 2894892
0.70761991 0.025238445 2.1758919 2894892
0.70725173 0.075321063 2.1746392 2894892
-0.30763447 0.10374793 2.1776054 2039583
-0.27452141 0.10385095 2.1797681 4342338
-0.22058932 0.10405274 2.1765234 10000536
-0.17478719 0.10424788 2.1690416 10000536
-0.12509638 0.10440104 2.1725702 10132122
-0.07480453 0.10455767 2.1758282 10197915
-0.024821011 0.10471486 2.1787589 10197915
0.021965265 0.10487542 2.1788368 10197915
0.075470798 0.10511132 2.168509 10197915
0.1250653 0.10526589 2.1716976 10197915
0.17480676 0.10542089 2.1748958 10197915
0.22469406 0.10557638 2.1781034 10197915
0.27472964 0.10573232 2.1813207 10197915
0.32596734 0.1059725 2.1685958 10197915
0.37460503 0.10612898 2.1707554 10197915
0.42514673 0.10628509 2.174284 10197915
0.47538894 0.1064418 2.1774898 10197915
0.52531856 0.10659907 2.1803703 10197915
0.57142311 0.10678713 2.1745048 10197915
0.62487817 0.10699251 2.1702216 10197915
0.6744023 0.10714713 2.1733572 10197915
0.7063849 0.10434207 2.1743963 6184542
0.71662802 -0.57163578 2.2262814 2894892
0.71629882 -0.52510136 2.2252164 2894892
0.71594328 -0.4747251 2.2240703 2894892
0.71561682 -0.42457649 2.2231402 2894892
0.71525627 -0.37484562 2.2219334 2894892
0.71516728 -0.32391787 2.222852 2894892
0.71521962 -0.2749626 2.2247918 2894892
0.71528029 -0.22587241 2.2268014 2894892
0.71513635 -0.17495839 2.2272947 2894892
0.71480185 -0.1250685 2.2262971 2894892
0.7144472 -0.074860297 2.2251501 2894892
0.71412069 -0.024881592 2.2242177 2894892
0.71377784 0.024865672 2.2231503 2894892
0.71340537 0.074931689 2.2218647 2894892
-0.31193906 0.10345862 2.2322483 2039583
-0.27923569 0.10361736 2.2230422 4276545
-0.22511084 0.10382944 2.2178884 10197915
-0.17483652 0.10398561 2.2212243 10197915
-0.12441159 0.10414224 2.2245696 10197915
-0.074755058 0.10429648 2.2278645 10197915
-0.024951203 0.10445121 2.2311695 10197915
0.028871285 0.10465877 2.2267015 10197915
0.074963994 0.10485157 2.2198763 10197915
0.12527834 0.10500642 2.2235081 10197915
0.17481315 0.10516206 2.2264361 10197915
0.22449405 0.10531482 2.2300396 10197915
0.27133229 0.1055216 2.2209473 10197915
0.3245047 0.10571484 2.2188895 10197915
0.37469745 0.10587101 2.2221675 10197915
0.42503867 0.10602764 2.2254553 10197915
0.4755291 0.10618476 2.2287526 10197915
0.52522987 0.10633939 2.2319987 10197915
0.57822794 0.10657613 2.2211564 10197915
0.62525547 0.10673932 2.2208676 10197915
0.67546839 0.10689405 2.2244487 10197915
0.71088046 0.1050512 2.2249579 7631988
0.72303593 -0.57144588 2.2754753 2894892
0.7227124 -0.52483064 2.2744572 2894892
0.72233748 -0.47504562 2.2731428 2894892
0.72199094 -0.4251059 2.2720523 2894892
0.72170287 -0.37504426 2.2714133 2894892
0.72157437 -0.32588723 2.2719727 2894892
0.72228122 -0.2749407 2.2789962 2894892
0.72191393 -0.22498044 2.2777498 2894892
0.72158718 -0.17506981 2.276808 2894892
0.7212404 -0.12520474 2.2757142 2894892
0.72091287 -0.075199284 2.2747705 2894892
0.72052413 -0.025060652 2.2733648 2894892
0.72017592 0.025044484 2.2722654 2894892
0.71986771 0.075086281 2.2714736 2894892
-0.31522486 0.10318253 2.2849531 2039583
-0.27152455 0.1033942 2.2727425 6908265
-0.22499233 0.1035553 2.2725296 10197915
-0.17488854 0.10371227 2.2755845 10197915
-0.12463455 0.1038662 2.2793531 10197915
-0.076613672 0.10409544 2.2665946 10197915
-0.025356071 0.10426778 2.2673824 10197915
0.025407109 0.10442521 2.2708058 10197915
0.075379029 0.10458017 2.2741754 10197915
0.12455291 0.10473264 2.2774911 10197915
0.17482063 0.10488852 2.2808809 10197915
0.22523731 0.10504484 2.2842803 10197915
0.27712834 0.10529002 2.2710185 10197915
0.32481682 0.10544564 2.2726867 10197915
0.37480038 0.10560253 2.2756836 10197915
0.42492005 0.10575632 2.2793822 10197915
0.47141501 0.10596325 2.2700338 10197915
0.52516961 0.10616001 2.2676713 10197915
0.57581306 0.10631733 2.2710316 10197915
0.62564749 0.10647213 2.2743382 10197915
0.67562717 0.10662736 2.2776549 10197915
0.71631873 0.10464221 2.2740438 7434609
0.72973633 -0.57163537 2.3269019 2894892
0.72941083 -0.5251292 2.3258648 2894892
0.72903043 -0.47538045 2.3245068 2894892
0.7287131 -0.42547855 2.3236392 2894892
0.72836131 -0.37523928 2.3225174 2894892
-0.33588895 -0.31356063 2.3432527 2039583
0.72801244 -0.32542521 2.321404 2894892
-0.3360742 -0.29855344 2.3422875 2039583
0.72833973 -0.2750527 2.3254991 2894892
0.72798276 -0.22508971 2.3243315 2894892
0.7280947 -0.17375033 2.3268027 2894892
0.72796714 -0.12476782 2.327363 2894892
0.72760653 -0.074982181 2.3261611 2894892
0.7272777 -0.02504793 2.3252048 2894892
0.72692615 0.025031811 2.3240821 2894892
0.72655529 0.074869856 2.3227997 2894892
-0.31855962 0.10297956 2.3230839 2039583
-0.27560228 0.10311227 2.3260775 7105644
-0.22582795 0.10326605 2.3295465 10197915
-0.17590488 0.10342029 2.3330257 10197915
-0.12583251 0.10357498 2.3365157 10197915
-0.074099243 0.10382798 2.3215728 10197915
-0.025028815 0.10398359 2.3241923 10197915
0.025078539 0.10413856 2.3276563 10197915
0.070764214 0.10432719 2.3213861 10197915
0.1246919 0.10454421 2.3151071 10197915
0.1748253 0.10469937 2.318543 10197915
0.2251078 0.10485502 2.3219898 10197915
0.27553996 0.10501111 2.3254466 10197915
0.32514787 0.10516467 2.3288467 10197915
0.37490198 0.10531867 2.3322573 10197915
0.42480111 0.10547312 2.3356774 10197915
0.47696754 0.10571986 2.322274 10197915
0.52507401 0.10588092 2.3231514 10197915
0.57500917 0.10603561 2.3265452 10197915
0.62150013 0.10619605 2.3264432 10197915
0.67508352 0.10643976 2.3146136 10197915
0.72083724 0.10456728 2.3198385 7829367
0.7360034 -0.5719406 2.3749959 2894892
0.7357167 -0.52496624 2.3742728 2894892
0.73534125 -0.47482064 2.3729649 2894892
0.73568368 -0.42467958 2.3771715 2894892
0.73533165 -0.37485567 2.3760338 2894892
-0.33169249 -0.31356463 2.3759389 2039583
0.73498982 -0.32489303 2.3749778 2894892
-0.3351073 -0.2978276 2.3740706 2039583
0.73462546 -0.27497318 2.3737519 2894892
0.73429555 -0.22510384 2.3727856 2894892
0.73436499 -0.1764171 2.3748491 2894892
0.73429888 -0.12500845 2.375957 2894892
0.73394239 -0.074771442 2.3748026 2894892
0.73356789 -0.024836151 2.3734963 2894892
0.73343366 0.026202846 2.3740706 2894892
0.73361576 0.07502944 2.3770046 2894892
-0.32103729 0.10277255 2.3625743 2039583
-0.27443692 0.10291626 2.3658776 8026746
-0.22478341 0.10306935 2.3693974 10197915
-0.17498098 0.10322294 2.3729272 10197915
-0.12503088 0.10337694 2.3764682 10197915
-0.074930534 0.10353141 2.3800192 10197915
-0.024681203 0.10368637 2.3835816 10197915
0.024729555 0.10383873 2.387084 10197915
0.077986948 0.1040817 2.3751929 10197915
0.1249098 0.10424864 2.3740883 10197915
0.17533207 0.10440427 2.3776326 10197915
0.22278464 0.10463109 2.3649802 10197915
0.2752656 0.10481416 2.36447 10197915
0.32471684 0.10496695 2.3679163 10197915
0.3743124 0.10512017 2.3713732 10197915
0.42504978 0.10527693 2.3749094 10197915
0.47593769 0.10543414 2.3784559 10197915
0.52497345 0.10558563 2.3818734 10197915
0.57415116 0.10573755 2.3853006 10197915
0.6290468 0.10595965 2.37868 10197915
0.67523497 0.10614908 2.3725944 10197915
0.72233081 0.10526055 2.3765049 9013641
0.74259144 -0.5717566 2.4255726 2894892
0.74222112 -0.52489543 2.4242013 2894892
0.74190086 -0.47485194 2.4233155 2894892
0.74228144 -0.42444506 2.4278214 2894892
0.74190366 -0.37472707 2.4264848 2894892
-0.32545117 -0.31372637 2.4245479 2039583
0.74157244 -0.32506493 2.425503 2894892
-0.35018015 -0.29770359 2.4359012 2039583
-0.3349151 -0.29780906 2.4212396 2039583
0.74119222 -0.27494046 2.42416 2894892
0.74085784 -0.22486824 2.4231658 2894892
0.7404936 -0.17483954 2.421941 2894892
0.74072504 -0.12408649 2.425313 2894892
0.7405163 -0.07516212 2.425252 2894892
0.74018317 -0.025110647 2.4242671 2894892
0.74000853 0.024046971 2.4244714 2894892
0.74018753 0.075177267 2.4274516 2894892
-0.35233063 0.10225689 2.4438176 2039583
-0.32492685 0.10244555 2.4250166 2039583
-0.27858227 0.10261565 2.4228871 8882055
-0.22469433 0.10286289 2.4105666 10197915
-0.17502056 0.10301576 2.4141486 10197915
-0.12519898 0.10316905 2.4177415 10197915
-0.075228862 0.10332283 2.4213452 10197915
-0.025109557 0.10347708 2.4249592 10197915
0.025159599 0.10363176 2.4285848 10197915
0.075579278 0.10378694 2.4322212 10197915
0.12513678 0.10393944 2.4357951 10197915
0.17484112 0.10409238 2.4393795 10197915
0.22667509 0.10435213 2.4231639 10197915
0.27483222 0.10450289 2.4261279 10197915
0.32037178 0.10468616 2.4208198 10197915
0.37471297 0.1049179 2.4118922 10197915
0.42530534 0.10507391 2.4154787 10197915
0.47503152 0.10522724 2.4190032 10197915
0.52490401 0.10538103 2.4225385 10197915
0.57492155 0.10553525 2.4260836 10197915
0.62508672 0.10568994 2.4296403 10197915
0.67539811 0.10584507 2.4332063 10197915
0.72794187 0.10488671 2.4328759 8947848
0.74787915 -0.57214898 2.4661493 2894892
0.7509675 -0.57201123 2.4898603 2894892
0.74821967 -0.52390206 2.4702802 2894892
0.75127441 -0.5274331 2.4936159 2894892
0.74795395 -0.47476101 2.4697835 2894892
0.75107199 -0.47523323 2.4937031 2894892
0.74759972 -0.42544571 2.4686141 2894892
0.75071269 -0.42544031 2.4925101 2894892
0.74723852 -0.37515134 2.4674206 2894892
0.75035399 -0.37569499 2.4913194 2894892
-0.31891769 -0.31380263 2.4754341 2039583
0.74733961 -0.32301471 2.469835 2894892
0.75008506 -0.33841577 2.4904263 2894892
-0.35351247 -0.29791126 2.4749622 2039583
-0.33252361 -0.29799011 2.4718447 2039583
0.74726343 -0.27486232 2.4707646 2894892
0.74691141 -0.2248446 2.4696343 2894892
0.75078356 -0.21643355 2.4996219 2894892
0.74658579 -0.17514125 2.4686968 2894892
0.75048357 -0.17494248 2.4986234 2894892
0.74690223 -0.1256568 2.4726808 2894892
0.75014639 -0.12830228 2.4975009 2894892
0.74741042 -0.074945994 2.4781783 2894892
0.74702573 -0.024891155 2.4767985 2894892
0.74666721 0.024875224 2.4756095 2894892
0.7463311 0.074833684 2.4745991 2894892
-0.35554489 0.10202599 2.4875581 2039583
-0.32492012 0.10211983 2.489846 2434341
-0.27045497 0.10234717 2.4818869 10132122
-0.22505875 0.10253906 2.4747818 10197915
-0.17898567 0.10274479 2.4653773 10197915
-0.12537301 0.10295384 2.460474 10197915
-0.074518621 0.10311 2.4642065 10197915
-0.02453191 0.10326352 2.4678752 10197915
0.024579676 0.10341433 2.4714792 10197915
0.074863128 0.10356876 2.4751699 10197915
0.12529594 0.10372364 2.4788711 10197915
0.17484647 0.10387579 2.4825077 10197915
0.2245426 0.1040284 2.4861548 10197915
0.27438495 0.10418147 2.4898126 10197915
0.32849658 0.10442411 2.478559 10197915
0.37482589 0.10460109 2.4750502 10197915
0.4216395 0.10480823 2.465862 10197915
0.47512892 0.10501647 2.461035 10197915
0.52483195 0.10516942 2.4646194 10197915
0.57467997 0.10532282 2.4682143 10197915
0.62467366 0.10547666 2.4718194 10197915
0.67481345 0.10563099 2.4754355 10197915
0.73116362 0.10479852 2.4771514 9145227
0.75576192 -0.57231706 2.5266528 2894892
0.75543696 -0.52497417 2.5256448 2894892
0.75503379 -0.47531712 2.5241117 2894892
0.7547062 -0.42543343 2.5231657 2894892
0.75434119 -0.37507662 2.5219448 2894892
-0.31214422 -0.3137055 2.5281956 1974306
0.75395274 -0.32503173 2.520535 2894892
-0.35726944 -0.29819191 2.5282502 2039583
-0.32984206 -0.29813904 2.5254519 1974047
0.75361556 -0.27503616 2.5195191 2894892
0.7544542 -0.22591148 2.5274992 2894892
0.75450748 -0.17500366 2.5295079 2894892
0.75413442 -0.124904 2.5282211 2894892
0.75375497 -0.075120136 2.526875 2894892
0.75341749 -0.025116369 2.5258534 2894892
0.75305265 0.025100151 2.5246298 2894892
0.75266409 0.075007401 2.5232167 2894892
-0.35887659 0.10178681 2.532896 2039583
-0.32561675 0.10188851 2.5354264 3092271
-0.27561066 0.10204139 2.5392313 10066329
-0.22545426 0.10219473 2.5430472 10197915
-0.17239544 0.10245871 2.5268259 10197915
-0.12877235 0.10266326 2.5159719 10197915
-0.074820183 0.1028862 2.5085313 10197915
-0.02497297 0.10303896 2.5122559 10197915
0.025022468 0.10319217 2.515991 10197915
0.075166799 0.10334581 2.5197375 10197915
0.12546067 0.10349993 2.5234952 10197915
0.17485183 0.10365129 2.5271852 10197915
0.22438866 0.10380306 2.5308864 10197915
0.2751289 0.10395857 2.534677 10197915
0.32495904 0.10411124 2.5384002 10197915
0.37493685 0.10426439 2.542134 10197915
0.42770743 0.10452542 2.5263135 10197915
0.47132125 0.1047028 2.5208671 10197915
0.52475733 0.10495035 2.5081878 10197915
0.57442981 0.10510287 2.5118332 10197915
0.62530786 0.10525911 2.5155673 10197915
0.67527205 0.10541256 2.5192344 10197915
0.72538352 0.10556644 2.5229123 10197915
0.75238854 0.10292843 2.5224044 7566195
0.7623626 -0.5723002 2.5773201 2894892
0.76199228 -0.5253523 2.575954 2894892
0.76168847 -0.47522086 2.5751956 2894892
0.76124883 -0.4248955 2.5734026 2894892
0.76089156 -0.37485698 2.572232 2894892
-0.3061443 -0.3142584 2.5749109 1979983
0.76054555 -0.32515204 2.5711403 2894892
-0.3608233 -0.29842982 2.5731742 2039583
-0.32622185 -0.29842585 2.5722594 1777959
0.76017177 -0.2752195 2.5698383 2894892
0.760571 -0.22570975 2.5744567 2894892
0.76077455 -0.17324263 2.5776694 2894892
0.76077229 -0.12501468 2.5791709 2894892
0.76040339 -0.074758135 2.5779188 2894892
0.76001024 -0.024825606 2.5764704 2894892
0.75964642 0.024809755 2.5752363 2894892
0.75933266 0.074912325 2.574403 2894892
-0.36233169 0.10153877 2.5799179 2039583
-0.32527915 0.10165178 2.5827894 4079166
-0.2754004 0.10180391 2.5866549 10000536
-0.22537102 0.10195654 2.5905328 10197915
-0.17519252 0.10210959 2.5944211 10197915
-0.12248526 0.1023711 2.5784497 10197915
-0.075132877 0.10265433 2.5544839 10197915
-0.02543021 0.1028063 2.558265 10197915
0.025481537 0.10296195 2.5621386 10197915
0.075481705 0.10311484 2.5659428 10197915
0.12456255 0.10326488 2.5696769 10197915
0.17485864 0.10341866 2.5735037 10197915
0.22530369 0.1035729 2.5773413 10197915
0.27482185 0.10372427 2.5811083 10197915
0.32448503 0.10387612 2.584887 10197915
0.37429377 0.10402841 2.5886767 10197915
0.42424878 0.10418116 2.5924773 10197915
0.47919354 0.10442028 2.5824912 10197915
0.52113366 0.10463636 2.5681903 10197915
0.57524681 0.10487818 2.5570991 10197915
0.62488306 0.10503029 2.5608077 10197915
0.67466348 0.10518281 2.564527 10197915
0.72458863 0.10533582 2.5682566 10197915
0.75738961 0.10361164 2.5707819 8882055
0.76862079 -0.57106715 2.6253955 2894892
0.76887387 -0.52492279 2.6287894 2894892
0.7685023 -0.47459593 2.6275201 2894892
0.76813102 -0.42431757 2.6262512 2894892
0.76772553 -0.37462997 2.6246991 2894892
-0.30165902 -0.31391504 2.6098573 1979983
-0.2982094 -0.31423277 2.6367171 2111311
0.76739824 -0.32500249 2.6237447 2894892
-0.36394724 -0.29868975 2.6227887 2039583
-0.32462046 -0.2985622 2.6206896 1647405
-0.29834095 -0.29907176 2.6378803 1125191
0.76702821 -0.27486858 2.6224799 2894892
0.76665854 -0.2247829 2.6212151 2894892
0.76666641 -0.17673799 2.622786 2894892
0.76679021 -0.12508246 2.6253622 2894892
0.76642013 -0.075014085 2.6240952 2894892
0.76659763 -0.023293979 2.6270821 2894892
0.76656264 0.02504239 2.6283338 2894892
0.76619232 0.075094938 2.6270638 2894892
-0.36591688 0.10128119 2.628715 2039583
-0.32492831 0.10140593 2.631952 5066061
-0.27409813 0.10156059 2.6359663 10000536
-0.22419855 0.10171244 2.6399071 10132122
-0.17414953 0.10186472 2.6438596 10197915
-0.12306168 0.10204089 2.6437721 10197915
-0.076334618 0.10239122 2.6060402 10197915
-0.024826214 0.10256823 2.606075 10197915
0.024875129 0.10271984 2.6099269 10197915
0.074723616 0.1028719 2.6137903 10197915
0.12471989 0.10302439 2.6176653 10197915
0.17486465 0.10317737 2.6215515 10197915
0.22515844 0.10333075 2.6254489 10197915
0.2756021 0.10348461 2.6293588 10197915
0.32509419 0.10363559 2.6331942 10197915
0.37473193 0.103787 2.6370416 10197915
0.42451385 0.10393885 2.6408994 10197915
0.47444281 0.10409115 2.644769 10197915
0.5271576 0.10434636 2.6300566 10197915
0.57499796 0.10464203 2.6039464 10197915
0.62554443 0.10479657 2.6077917 10197915
0.67513633 0.10494819 2.6115649 10197915
0.72487295 0.10510026 2.6153491 10197915
0.76237571 0.10371104 2.6213932 9276813
0.7747733 -0.5741064 2.6725271 2894892
0.77513206 -0.52523232 2.6768198 2894892
0.77470535 -0.47511432 2.6751189 2894892
0.77436227 -0.42539921 2.674047 2894892
0.77399015 -0.37536666 2.6727612 2894892
-0.29349366 -0.3138805 2.6734581 2242896
0.77442908 -0.32433763 2.6777341 2894892
-0.36762354 -0.29895619 2.6733029 2039583
-0.32481495 -0.29879758 2.6710463 1516595
-0.29596114 -0.29881144 2.6728017 1388105
0.77415603 -0.27505526 2.677186 2894892
0.77374309 -0.22503774 2.6755891 2894892
0.77341133 -0.17507105 2.6746128 2894892
0.77303815 -0.12514813 2.6733222 2894892
0.77266717 -0.075273171 2.6720402 2894892
0.77272421 -0.026996762 2.6739948 2894892
0.77279562 0.025137685 2.6761808 2894892
0.77247792 0.074983284 2.6753092 2894892
-0.36964053 0.10101383 2.6793966 2039583
-0.32566559 0.10114731 2.6829371 5921370
-0.27495393 0.1013012 2.6870196 10000536
-0.22519575 0.10145223 2.6910257 10132122
-0.17528781 0.10160372 2.6950436 10197915
-0.1319174 0.10173536 2.698535 10197915
-0.073601566 0.10217066 2.6518006 10197915
-0.025298035 0.10231765 2.6556153 10197915
0.025348824 0.10247175 2.6596153 10197915
0.07504198 0.10262298 2.6635401 10197915
0.12488309 0.10277462 2.6674762 10197915
0.17487063 0.10292674 2.6714242 10197915
0.22500744 0.10307929 2.6753838 10197915
0.27529204 0.10323231 2.6793554 10197915
0.32460424 0.10338236 2.6832495 10197915
0.37518629 0.10353626 2.6872442 10197915
0.42591807 0.10369062 2.6912508 10197915
0.47566935 0.10384201 2.6951799 10197915
0.52300555 0.10402606 2.6909578 10197915
0.57473963 0.10439707 2.6525421 10197915
0.62510896 0.10455072 2.656446 10197915
0.67450309 0.10470138 2.6602743 10197915
0.72516781 0.10485591 2.6642005 10197915
0.76596498 0.10381258 2.6693618 9474192
0.78192967 -0.57231599 2.7275171 2894892
0.78154141 -0.52490377 2.7260273 2894892
0.78120172 -0.47526482 2.7249777 2894892
0.78082728 -0.42538798 2.7236719 2894892
0.78041995 -0.37527356 2.7221184 2894892
-0.28699365 -0.31498399 2.7240517 2571346
0.78087962 -0.32576162 2.7272041 2894892
-0.37157491 -0.2992368 2.7264597 2039583
-0.32502544 -0.2990652 2.7241757 1386040
-0.29261351 -0.2990531 2.7250855 1256776
0.78063309 -0.2748982 2.7269118 2894892
0.78025919 -0.22508229 2.725605 2894892
0.77988189 -0.17493719 2.7242861 2894892
0.77950519 -0.12484043 2.7229714 2894892
0.77910119 -0.074799486 2.7214432 2894892
0.77959728 -0.024091417 2.7268448 2894892
0.77932966 0.024846695 2.7263286 2894892
0.77892226 0.074790828 2.7247705 2894892
-0.3735103 0.10073595 2.7320714 2039583
-0.32530898 0.10088186 2.7360289 6908265
-0.27471823 0.10103501 2.7401824 10000536
-0.22510247 0.1011852 2.744256 10132122
-0.17760521 0.10132897 2.7481554 10197915
-0.10740327 0.10180977 2.7005091 10197915
-0.075024627 0.10190802 2.7031155 10197915
-0.02466804 0.10206086 2.7071695 10197915
0.024716329 0.10221076 2.7111456 10197915
0.074245974 0.10236109 2.7151334 10197915
0.12505275 0.1025153 2.7192233 10197915
0.17601174 0.10266998 2.723326 10197915
0.22598773 0.10282166 2.727349 10197915
0.27497029 0.1029703 2.7312932 10197915
0.32409579 0.10311943 2.7352481 10197915
0.37451065 0.10327244 2.7393069 10197915
0.42507535 0.10342591 2.7433777 10197915
0.47463572 0.10357634 2.7473674 10197915
0.52764904 0.10389507 2.7202103 10197915
0.57560927 0.10414612 2.703073 10197915
0.62579906 0.10429884 2.7070367 10197915
0.67499 0.10444851 2.7109215 10197915
0.72432351 0.10459864 2.7148173 10197915
0.76994693 0.10373293 2.7202916 9803157
0.78860849 -0.57296127 2.7787626 2894892
0.78827667 -0.52474988 2.7777319 2894892
0.78790057 -0.47503936 2.7764058 2894892
0.78752458 -0.42537665 2.7750821 2894892
0.78711349 -0.37498647 2.7735083 2894892
-0.28039247 -0.31460223 2.7754807 2440017
0.78676575 -0.32504463 2.7724075 2894892
-0.40149271 -0.29967323 2.7928383 2039583
-0.37497368 -0.29952246 2.7809889 2039583
-0.32525656 -0.29934046 2.7788017 1387071
-0.28913978 -0.29926452 2.7772903 1124935
0.786385 -0.27475718 2.7710655 2894892
0.78661436 -0.22308728 2.7744498 2894892
0.78657806 -0.17508882 2.7756836 2894892
0.78624403 -0.12500371 2.7746921 2894892
0.78581017 -0.075257942 2.7729256 2894892
0.78628862 -0.026264045 2.7781386 2894892
0.78606665 0.025318071 2.7780554 2894892
0.78565782 0.075158536 2.7764838 2894892
-0.40149781 0.10037446 2.7848487 2039583
-0.37410986 0.10045712 2.787142 2039583
-0.32493863 0.10060557 2.7912602 8158332
-0.27562073 0.10075445 2.7953911 10000536
-0.23537494 0.10087594 2.7987621 10066329
-0.1526763 0.10140443 2.7502017 10197915
-0.12542707 0.10148693 2.752439 10197915
-0.07536611 0.10163847 2.7565491 10197915
-0.025155431 0.10179047 2.7606714 10197915
0.025205653 0.1019429 2.7648058 10197915
0.075717814 0.10209584 2.7689536 10197915
0.12522802 0.10224572 2.7730179 10197915
0.17488497 0.10239603 2.7770948 10197915
0.22468697 0.10254678 2.7811832 10197915
0.27463698 0.10269799 2.7852845 10197915
0.32473332 0.10284964 2.789397 10197915
0.37497899 0.10300174 2.7935224 10197915
0.42537239 0.10315429 2.7976596 10197915
0.45238271 0.10323605 2.7998772 10197915
0.52897048 0.10374125 2.7517421 10197915
0.57535279 0.10388203 2.7554758 10197915
0.62535161 0.10403379 2.7595012 10197915
0.6743294 0.10418244 2.7634444 10197915
0.72461897 0.10433508 2.7674928 10197915
0.77299988 0.10375287 2.7724185 10000536
0.79456323 -0.5726378 2.8244841 2894892
0.79423636 -0.52520096 2.8234632 2894892
0.79388505 -0.475054 2.8223422 2894892
0.79343784 -0.42459404 2.8204963 2894892
0.7931512 -0.37455511 2.8198688 2894892
-0.27431718 -0.31347769 2.8228369 2045775
0.79369193 -0.32515326 2.8255699 2894892
-0.40367123 -0.29986224 2.8289721 2039583
-0.3746902 -0.29974931 2.8263295 2039583
-0.32531828 -0.29957101 2.8246486 1256260
-0.28712472 -0.29943562 2.8238516 1059399
0.79333448 -0.27527106 2.8243949 2894892
0.79344118 -0.22704042 2.8267293 2894892
0.79355633 -0.17504926 2.8292499 2894892
0.79323691 -0.12497545 2.828373 2894892
0.79278851 -0.074565053 2.8265135 2894892
0.79243773 -0.024582993 2.825392 2894892
0.79206181 0.024567461 2.8240523 2894892
0.79167759 0.074839696 2.8226819 2960685
-0.40617561 0.10007234 2.8417947 2039583
-0.37473565 0.10016697 2.8444824 2039583
-0.329229 0.10030395 2.8483722 9145227
-0.21002647 0.10095248 2.8008852 10197915
-0.17539194 0.10105702 2.803786 10197915
-0.12563013 0.10120725 2.8079538 10197915
-0.074558221 0.10136142 2.8122318 10197915
-0.024497097 0.10151254 2.8164246 10197915
0.024544716 0.10166059 2.8205318 10197915
0.074903205 0.10181262 2.8247499 10197915
0.12541135 0.10196511 2.82898 10197915
0.17489174 0.10211448 2.8331246 10197915
0.22451727 0.10226429 2.8372808 10197915
0.27428865 0.10241454 2.8414495 10197915
0.32420653 0.10256523 2.8456311 10197915
0.36233342 0.10268033 2.8488238 10197915
0.477092 0.10331085 2.8019059 10197915
0.52424824 0.10345361 2.8057773 10197915
0.5750863 0.10360751 2.8099513 10197915
0.62607461 0.10376185 2.814137 10197915
0.6760245 0.10391305 2.818238 10197915
0.72492534 0.10406108 2.8222532 10197915
0.77486926 0.10383616 2.824424 10197915
0.79867327 -0.57268012 2.8560317 2894892
0.80179846 -0.57271403 2.8800197 2894892
0.79829961 -0.52392304 2.8546956 2894892
0.80142939 -0.5247463 2.8786936 2894892
0.79859936 -0.47001123 2.8586891 2894892
0.80144715 -0.47871286 2.8802767 2894892
0.79857165 -0.42416745 2.859916 2894892
0.8022005 -0.41992709 2.887907 2894892
0.79821795 -0.37479958 2.8587532 2894892
0.80238277 -0.37484452 2.8907211 2894892
-0.40737066 -0.30011415 2.8765891 2039583
-0.38219464 -0.30005991 2.883038 2039583
-0.26784649 -0.31449354 2.8732042 1914189
0.79883868 -0.32404798 2.8651121 2894892
0.80200279 -0.32558921 2.8893521 2894892
-0.36957359 -0.29993239 2.8662956 1974047
-0.32539755 -0.29980648 2.8714626 1190985
-0.28411967 -0.29967293 2.8712757 1125449
0.79845464 -0.2740629 2.8637342 2894892
0.80161393 -0.27518076 2.8879516 2894892
0.79815763 -0.22309676 2.8630583 2894892
0.80125511 -0.22539006 2.8867636 2894892
0.79873568 -0.17472616 2.8690174 2894892
0.80189764 -0.17500491 2.8932796 2894892
0.79835099 -0.12474487 2.8676362 2894892
0.80151749 -0.12580074 2.8919082 2894892
0.7979669 -0.074811704 2.8662565 2894892
0.80112857 -0.075444631 2.8905048 2894892
0.79758298 -0.024926569 2.8648772 2894892
0.80073994 -0.025137359 2.8891025 2894892
0.79719943 0.024910595 2.8634999 2894892
0.80035162 0.025121121 2.8877017 2894892
0.79749745 0.077229924 2.8674304 3026478
0.80007464 0.060991865 2.8867018 2894892
-0.30467612 0.10037787 2.850471 10000536
-0.27538896 0.10046603 2.8529742 10000536
-0.22490408 0.10061798 2.8572898 10066329
-0.1742674 0.10077041 2.8616183 10197915
-0.12465941 0.10091975 2.8658593 10197915
-0.074904174 0.10106952 2.8701122 10197915
-0.025001045 0.10121974 2.8743777 10197915
0.025050649 0.1013704 2.8786564 10197915
0.075251594 0.10152151 2.8829477 10197915
0.12560239 0.10167308 2.8872519 10197915
0.17489901 0.10182147 2.8914657 10197915
0.22434095 0.10197031 2.8956916 10197915
0.26181453 0.10208311 2.898895 10197915
0.38740334 0.10275601 2.8509238 10197915
0.42448416 0.10286795 2.8540292 10197915
0.47484529 0.10301998 2.8582473 10197915
0.52535564 0.10317246 2.862478 10197915
0.57480705 0.10332175 2.8666198 10197915
0.62440294 0.10347147 2.870774 10197915
0.67535734 0.10362528 2.8750412 10197915
0.72524416 0.1037759 2.8792198 10197915
0.77950042 0.10353338 2.8801026 10197915
0.80712867 -0.57317287 2.920918 2894892
0.80672288 -0.52534074 2.9193065 2894892
0.80636925 -0.4751153 2.9181697 2894892
0.80669343 -0.42517355 2.9222276 2894892
0.8077631 -0.37533376 2.9320076 2894892
-0.41063514 -0.3003678 2.9248338 2039583
-0.37469 -0.30022934 2.9218895 1974307
-0.32866937 -0.3000893 2.925523 1190729
-0.26290786 -0.31420031 2.9228926 1716812
0.80733657 -0.32496732 2.9303138 2894892
-0.31440684 -0.29995066 2.9076898 1058887
-0.2794843 -0.29988328 2.9180233 1059400
0.80701971 -0.27505991 2.92945 2894892
0.80655837 -0.22479808 2.9274914 2894892
0.8061707 -0.17497975 2.9260831 2894892
0.8058551 -0.1252148 2.9252234 2894892
0.80539852 -0.075503483 2.9232795 2894892
0.80504501 -0.02542484 2.9221404 2894892
0.80465019 0.025408223 2.9207075 2894892
-0.40986103 0.099761173 2.9012222 2039583
-0.37419859 0.099868193 2.904335 2500134
-0.33966246 0.099971846 2.9073491 10000536
0.80422664 0.075389728 2.9190264 3092271
-0.31460333 0.10004704 2.9095361 10000536
-0.27514753 0.10016546 2.9129798 10000536
-0.22599995 0.10031296 2.917269 10066329
-0.17550389 0.10046449 2.9216762 10197915
-0.12485506 0.10061651 2.9260972 10197915
-0.07526467 0.10076533 2.9304252 10197915
-0.02552617 0.1009146 2.9347661 10197915
0.02557788 0.10106798 2.9392269 10197915
0.075614616 0.10121815 2.943594 10197915
0.12457504 0.10136507 2.9478669 10197915
0.28725067 0.10215967 2.9010696 10197915
0.32487264 0.10227291 2.9042854 10197915
0.37475425 0.10242308 2.9085491 10197915
0.42478138 0.10257366 2.9128261 10197915
0.47495696 0.10272468 2.9171147 10197915
0.52527946 0.10287619 2.9214163 10197915
0.57451826 0.10302439 2.9256253 10197915
0.6251362 0.10317677 2.9299521 10197915
0.67590278 0.10332958 2.9342916 10197915
0.725577 0.1034791 2.9385381 10197915
0.7753951 0.10362907 2.9427962 10197915
0.80434316 0.10259471 2.9306402 10197915
0.81371766 -0.5732488 2.9714952 2894892
0.81330132 -0.52458906 2.9698267 2894892
0.81294835 -0.47473043 2.9686861 2894892
0.81287324 -0.42743948 2.9695947 2894892
0.81354707 -0.37345305 2.9764624 2894892
-0.41465312 -0.30063161 2.9745924 2039583
-0.37561315 -0.30048746 2.9726365 1909544
-0.32492223 -0.300304 2.9708209 1388877
-0.26327306 -0.30953076 2.9721572 1454155
0.8140201 -0.32486808 2.9816213 2894892
-0.2655538 -0.27618763 2.9980178 3362409
0.81362915 -0.27491409 2.9801888 2894892
-0.26470014 -0.22538689 2.9983912 4941183
0.81324083 -0.22542018 2.9787664 2894892
-0.26346797 -0.17484753 2.9985404 4547714
0.81284738 -0.17515004 2.9773254 2894892
-0.26368701 -0.12551567 2.9986625 4218750
0.81245399 -0.12492833 2.975884 2894892
-0.26337969 -0.074540727 2.9987607 4021631
0.81202483 -0.07476411 2.9741666 2894892
-0.26214299 -0.024847265 2.9988289 3627904
0.81166852 -0.024635581 2.9730082 2894892
-0.26145583 0.02391687 2.9989648 3365762
0.81128317 0.02461998 2.9715943 2894892
-0.41491556 0.099432938 2.9630766 2039583
-0.37485272 0.099552788 2.9666483 3618615
-0.32494903 0.09970209 2.9710975 10000536
-0.26288381 0.077847548 2.9954896 4810376
-0.23695341 0.099965356 2.9789422 10000536
0.81085485 0.074652255 2.9698813 3158064
-0.21242642 0.10003874 2.9811289 10066329
-0.17556383 0.10014901 2.9844153 10197915
-0.12505887 0.10030012 2.9889181 10197915
-0.074402556 0.10045166 2.9934342 10197915
-0.0248334 0.10059997 2.9978528 10197915
0.17490785 0.10151614 2.9522603 10197915
0.22538963 0.10166766 2.956666 10197915
0.27478617 0.10181588 2.9609771 10197915
0.32432702 0.10196457 2.965301 10197915
0.37401274 0.10211368 2.9696376 10197915
0.42384401 0.10226323 2.9739871 10197915
0.47382146 0.10241322 2.9783485 10197915
0.52394563 0.10256364 2.9827237 10197915
0.57421744 0.10271452 2.9871113 10197915
0.62463719 0.10286583 2.9915116 10197915
0.67520583 0.10301761 2.9959254 10197915
0.71068746 0.10312409 2.9990218 10197915
0.8112424 0.10163483 2.9737039 10197915
0.8205815 -0.5733304 3.0241783 2894892
0.82012349 -0.52548867 3.0221648 2894892
0.81976986 -0.47558957 3.021019 2894892
0.81937385 -0.42532122 3.0195603 2894892
0.81915426 -0.37650576 3.0194075 2894892
-0.41817883 -0.30090612 3.0268278 2039583
-0.3746835 -0.30074626 3.0247848 1910320
-0.3312501 -0.30058664 3.0227451 1586512
-0.2505056 -0.3140662 3.0082846 1519690
-0.24745202 -0.31528598 3.0320311 1454154
0.81973296 -0.32463416 3.0254798 2894892
-0.30608383 -0.27497712 3.0033257 4345434
-0.28645965 -0.27513996 3.0021884 4214622
-0.24751629 -0.2747415 3.0328209 5469073
0.81931168 -0.27498963 3.0238054 2894892
-0.30610794 -0.22398083 3.003562 6513507
-0.28586861 -0.22476739 3.0022721 6382697
-0.24759521 -0.22497372 3.0337899 6916524
0.81998515 -0.22411379 3.0305781 2894892
-0.30613148 -0.17422068 3.0037937 6513507
-0.2851699 -0.1738489 3.0024216 6317160
-0.24767429 -0.17517407 3.0347562 5865127
0.81971967 -0.17490622 3.0300863 2894892
-0.30615506 -0.12445284 3.0040245 6513507
-0.28281522 -0.12345154 3.0024529 6055019
-0.24777949 -0.12535016 3.0355227 4551072
0.81928658 -0.12505551 3.0283275 2894892
-0.30617866 -0.074677311 3.0042558 6513507
-0.28179714 -0.07463678 3.0026288 5923691
-0.2478326 -0.075482652 3.0366967 3500186
0.81893289 -0.075249434 3.0271773 2894892
-0.30736095 -0.024438029 3.0046384 6513507
-0.28114018 -0.024879765 3.0027683 5989226
-0.24799174 -0.026293214 3.0370219 3106457
0.81853652 -0.025072355 3.0257134 2894892
-0.30748734 0.024898034 3.00488 6513507
-0.28069955 0.025291035 3.002979 5923433
-0.24876289 0.02512916 3.0326505 2316430
0.81814069 0.025056202 3.0242498 2894892
-0.41895145 0.099094249 3.0277429 2039583
-0.37429467 0.099227414 3.031812 4868682
-0.3104732 0.077535108 3.0086136 8289918
-0.2802619 0.074913122 3.0031846 7436157
-0.24062456 0.083224349 3.0374715 5600146
-0.18693945 0.09978608 3.0488811 10132122
0.81774539 0.075136289 3.0227885 3223857
0.024882335 0.1007487 3.0022855 10197915
0.074745305 0.10089787 3.006731 10197915
0.12475614 0.10104749 3.0111899 10197915
0.17491552 0.10119756 3.0156615 10197915
0.22522409 0.10134806 3.0201466 10197915
0.27568254 0.10149902 3.0246453 10197915
0.32502389 0.10164664 3.0290439 10197915
0.37451014 0.10179468 3.0334558 10197915
0.42541465 0.10194697 3.0379944 10197915
0.47519273 0.10209589 3.0424316 10197915
0.5251177 0.10224523 3.0468831 10197915
0.55590695 0.10233737 3.0496278 10197915
0.73481059 0.10319649 3.001127 10197915
0.7742449 0.10331484 3.0045695 10197915
0.81120908 0.10280188 3.0114977 10197915
0.82764912 -0.57341188 3.0784268 2894892
0.82717806 -0.52471262 3.0763414 2894892
0.82682574 -0.47519928 3.0751908 2894892
0.82642925 -0.42530906 3.0737176 2894892
0.82598877 -0.37503356 3.0719161 2894892
-0.42054629 -0.30111486 3.066772 2039583
-0.37460044 -0.30094832 3.0650756 2042422
-0.33380067 -0.30080044 3.0635693 1849169
0.82567525 -0.32525265 3.0710726 2894892
0.82519519 -0.27507722 3.0689671 2894892
0.8258152 -0.22652288 3.0752528 2894892
0.82560307 -0.1751961 3.075238 2894892
0.8252331 -0.12480644 3.0739813 2894892
0.82524145 -0.072791286 3.0756791 2894892
-0.24640532 -0.0037908244 3.0500929 2843029
0.82560855 -0.025108689 3.0799949 2894892
-0.24645121 0.025278404 3.0506606 2316174
0.82520854 0.025092483 3.0785034 2894892
-0.42443371 0.098736688 3.0951767 2039583
-0.38641042 0.098849684 3.0987189 2894892
-0.24652898 0.074592046 3.0516236 3301776
-0.16179863 0.099861048 3.0511715 10197915
-0.13283883 0.099947415 3.0538106 10197915
0.82489538 0.074783035 3.0776615 3158064
-0.1076185 0.10002261 3.056108 10197915
-0.074767865 0.10012057 3.0591013 10197915
-0.025377896 0.10026785 3.0636008 10197915
0.025429005 0.10041936 3.0682302 10197915
0.075113162 0.1005675 3.072757 10197915
0.12494538 0.1007161 3.077297 10197915
0.17492384 0.10086511 3.0818501 10197915
0.22505164 0.1010146 3.0864174 10197915
0.27532703 0.10116452 3.0909977 10197915
0.32445765 0.10131102 3.0954745 10197915
0.36204356 0.1014231 3.0988986 10197915
0.5803293 0.10241044 3.0518053 10197915
0.62540609 0.1025453 3.0558236 10197915
0.67577058 0.10269597 3.0603139 10197915
0.72498691 0.10284321 3.0647018 10197915
0.7743445 0.10299089 3.0691023 10197915
0.81551445 0.10255253 3.0723176 10197915
0.83368444 -0.5734821 3.1247511 2960685
0.83329922 -0.52534121 3.1233072 2894892
0.83325899 -0.47331238 3.1246328 2894892
0.83369291 -0.42444077 3.1295004 2894892
0.83333588 -0.37454382 3.1283278 2894892
0.83294016 -0.32514009 3.1268418 2894892
0.83249766 -0.27535397 3.1250129 2894892
0.83213782 -0.22518161 3.1238296 2894892
0.83169389 -0.17505515 3.1219966 2894892
0.83137816 -0.12497965 3.1211457 2894892
0.83112788 -0.076316103 3.1207552 2894892
0.83176482 -0.024618153 3.1272686 2894892
0.83136988 0.024602579 3.1257839 2894892
-0.3610113 0.098925151 3.1010847 10000536
-0.33684525 0.09899696 3.1033359 10000536
-0.22445557 0.099330954 3.1138051 10000536
-0.17440647 0.099479675 3.1184676 10132122
-0.12549567 0.099625014 3.1230237 10197915
-0.075148284 0.099774629 3.1277134 10197915
-0.024650736 0.099924691 3.1324177 10197915
0.83096492 0.075069807 3.1242614 3421236
0.024698954 0.10007133 3.1370149 10197915
0.074193701 0.10021844 3.1416254 10197915
0.12383417 0.10036594 3.14625 10197915
0.15656662 0.1004632 3.1492989 10197915
0.38801634 0.10150053 3.101265 10197915
0.42575184 0.10161307 3.1047029 10197915
0.47531936 0.10176089 3.1092191 10197915
0.52503133 0.1019091 3.1137483 10197915
0.57488841 0.10205778 3.1182907 10197915
0.6248911 0.10220688 3.1228464 10197915
0.67504007 0.10235642 3.1274157 10197915
0.72533602 0.10250641 3.1319978 10197915
0.7757796 0.10265682 3.1365938 10197915
0.81899554 0.10270077 3.1379368 10197915
0.83996665 -0.57399219 3.1729586 3092271
0.83952558 -0.52467597 3.1711211 2894892
0.83936524 -0.47558418 3.1714337 2894892
0.84002674 -0.42396334 3.1781332 2894892
0.83959204 -0.37439853 3.1763544 2894892
0.83922708 -0.32490811 3.1751075 2894892
0.83882141 -0.27478957 3.1735733 2894892
0.83841711 -0.22471993 3.1720443 2894892
0.83859599 -0.17247395 3.1750586 2894892
0.83889973 -0.12511428 3.1788785 2894892
0.8384949 -0.075033128 3.1773434 2894892
0.8380903 -0.02500031 3.1758103 2894892
0.83768612 0.024984252 3.1742792 2894892
-0.45475444 0.098289885 3.1633351 2039583
-0.42498621 0.09837801 3.1661713 2039583
-0.37439948 0.098527811 3.1709921 7566195
-0.34059414 0.098627888 3.1742134 10000536
-0.25315014 0.098886788 3.1825454 7702940
-0.22564143 0.098968253 3.1851673 7701137
-0.17575936 0.09911593 3.1899209 10066329
-0.12572826 0.099264085 3.1946883 10197915
-0.084806263 0.099385254 3.1985881 10197915
0.8372823 0.074920632 3.1727488 3355443
0.18280543 0.10054117 3.1517432 10197915
0.22618698 0.1006701 3.1557846 10197915
0.27495548 0.10081501 3.1603272 10197915
0.32386595 0.10096037 3.1648836 10197915
0.37424469 0.10111006 3.1695766 10197915
0.42477301 0.10126021 3.1742837 10197915
0.47545162 0.10141081 3.1790042 10197915
0.52494115 0.10155787 3.183614 10197915
0.57457548 0.10170537 3.1882381 10197915
0.62570101 0.10185729 3.1930006 10197915
0.67562747 0.10200566 3.1976514 10197915
0.83706999 0.10118559 3.1719444 10197915
0.84646088 -0.57339758 3.222827 3026478
0.84599555 -0.52510774 3.2207725 2894892
0.84643012 -0.47238958 3.2257645 2894892
0.84654325 -0.42527393 3.2281134 2894892
0.84613931 -0.3756122 3.226573 2894892
0.84568071 -0.32510194 3.224642 2894892
0.8453207 -0.27509648 3.2234521 2894892
0.84491044 -0.22468594 3.2218864 2894892
0.84490436 -0.1768655 3.2233436 2894892
0.84544933 -0.1250661 3.2291543 2894892
0.84497434 -0.075554721 3.2270648 2894892
0.84460139 -0.025393689 3.2257781 2894892
0.84418756 0.025377121 3.2241976 2894892
-0.46000019 0.097901091 3.2371461 2039583
-0.42556676 0.09800265 3.2405043 2039583
-0.37512037 0.098151468 3.2454245 8816262
-0.34451866 0.098241732 3.2484093 10000536
-0.05967496 0.099459663 3.2009823 10197915
-0.025216011 0.099561691 3.2042658 10197915
0.025266467 0.099711165 3.2090769 10197915
0.075900756 0.099861085 3.2139018 10197915
0.11196513 0.099967875 3.2173388 10197915
0.8437441 0.075440772 3.2223661 3421236
0.13605505 0.1000392 3.2196343 10197915
0.1749426 0.10015434 3.22334 10197915
0.22468135 0.10030161 3.2280793 10197915
0.27456784 0.10044931 3.2328331 10197915
0.32460025 0.10059745 3.2376015 10197915
0.3747817 0.10074604 3.2423828 10197915
0.42511025 0.10089506 3.2471788 10197915
0.4523716 0.10097579 3.2497773 10197915
0.72434503 0.10215044 3.2021894 10197915
0.77456075 0.10229965 3.2068675 10197915
0.8235063 0.10231958 3.2124312 10197915
0.85305852 -0.57415998 3.2734449 3158064
0.8499065 -0.51317698 3.2511678 2894892
0.85330272 -0.52736086 3.2767916 2894892
0.84970766 -0.48881802 3.2504072 2894892
0.85364556 -0.47439855 3.2810867 2894892
0.85324264 -0.42526236 3.2795386 2894892
0.85282898 -0.37480992 3.2779486 2894892
0.85241485 -0.32440555 3.2763569 2894892
0.85197049 -0.27472749 3.2745073 2894892
0.85160035 -0.2251076 3.273226 2894892
0.84981292 -0.17293641 3.2611468 2894892
0.85231048 -0.17749265 3.2801723 2894892
0.84942538 -0.12559283 3.2596593 2894892
0.85213858 -0.12503663 3.2805018 2894892
0.84901601 -0.07558997 3.2580881 2894892
0.85257447 -0.070472047 3.2855628 2894892
0.84860712 -0.025635708 3.2565191 2894892
0.85268766 -0.024520231 3.2878764 2894892
0.84818739 0.025618818 3.2549088 2894892
0.85228443 0.024504783 3.2863214 2894892
-0.25637406 0.098501712 3.2570057 4353432
-0.22554109 0.098592661 3.2600126 4677758
-0.17448501 0.09874326 3.2649925 10066329
-0.12462303 0.098890334 3.2698555 10197915
-0.074610993 0.099037848 3.2747333 10197915
-0.024450865 0.099185795 3.2796257 10197915
0.024498299 0.099330187 3.2843995 10197915
0.074956581 0.09947902 3.2893212 10197915
0.12556492 0.099628299 3.2942567 10197915
0.16670756 0.099749655 3.29827 10197915
0.84777933 0.07547608 3.2533426 3487029
0.8518703 0.074843094 3.2847247 3552822
0.4769538 0.10104855 3.2521188 10197915
0.52484721 0.10119036 3.2566831 10197915
0.57562095 0.10134068 3.2615213 10197915
0.62516826 0.1014874 3.2662427 10197915
0.67485917 0.10163452 3.2709782 10197915
0.72469443 0.10178209 3.2757273 10197915
0.77467442 0.10193008 3.2804894 10197915
0.82599849 0.10202497 3.2835433 10197915
0.85079205 0.10193232 3.2805619 10197915
0.85995096 -0.57402068 3.3263588 3223857
0.85958505 -0.5248431 3.3250966 2894892
0.85917413 -0.4750241 3.3235061 2894892
0.8587634 -0.42525271 3.3219175 2894892
0.8583529 -0.37552893 3.3203299 2894892
0.85789889 -0.32515523 3.3184288 2894892
0.85869098 -0.27326667 3.3261411 2894892
0.85851789 -0.22507876 3.3263276 2894892
0.85810328 -0.17492488 3.3247192 2894892
0.8576892 -0.12481929 3.3231156 2894892
0.8577835 -0.077366985 3.3253319 2894892
0.85826153 -0.02483926 3.330651 2894892
0.85785031 0.024823403 3.3290551 2894892
-0.46549603 0.097493738 3.3144844 2039583
-0.42481714 0.097613253 3.318547 2500134
-0.37451506 0.09776102 3.3235712 10000536
-0.34863073 0.097837076 3.3261569 10000536
-0.25838095 0.098102205 3.33517 3235215
-0.22406276 0.098203026 3.338598 5399933
-0.17452791 0.098348543 3.343545 10000536
-0.13037595 0.098478258 3.3479552 10197915
0.19144125 0.099822611 3.3006818 10197915
0.224484 0.099920079 3.3039045 10197915
0.2506783 0.099997357 3.3064599 10197915
0.85743952 0.074438512 3.3274608 3421236
0.27554244 0.10007069 3.3088846 10197915
0.32398415 0.10021356 3.3136091 10197915
0.37395373 0.10036096 3.3184824 10197915
0.42407051 0.10050878 3.32337 10197915
0.47433519 0.10065705 3.3282728 10197915
0.52474838 0.10080574 3.3331895 10197915
0.57531065 0.10095488 3.3381207 10197915
0.62461138 0.1011003 3.3429294 10197915
0.67264032 0.10124195 3.3476131 10197915
0.8572228 0.10060707 3.3266201 10197915
0.86566329 -0.57384676 3.3702118 3158064
0.86522013 -0.52544534 3.3683319 2894892
0.86535943 -0.47348279 3.3710332 2894892
0.86587644 -0.42524049 3.3765173 2894892
0.86545593 -0.37469962 3.374877 2894892
0.86498421 -0.32467291 3.3728316 2894892
0.86567813 -0.27731717 3.3796473 2894892
0.86565214 -0.22551639 3.3810756 2894892
0.8652311 -0.17500468 3.379431 2894892
0.86477506 -0.12525293 3.3774934 2894892
0.86440206 -0.075532712 3.3761923 2894892
0.8639822 -0.025166698 3.3745534 2894892
0.86356282 0.025150416 3.3729153 2894892
-0.47125942 0.097066283 3.3956029 2039583
-0.43932953 0.097159684 3.3988702 2039583
-0.10549133 0.098551378 3.350441 10197915
-0.075016469 0.098640896 3.3534844 10197915
-0.025038581 0.098787725 3.3584757 10197915
0.025088323 0.098934993 3.3634825 10197915
0.075364903 0.099082701 3.3685043 10197915
0.12579185 0.099230856 3.3735406 10197915
0.1749621 0.099375308 3.3784518 10197915
0.22427712 0.099520184 3.3833773 10197915
0.27515066 0.099669643 3.3884583 10197915
0.32475707 0.099815384 3.3934126 10197915
0.3688142 0.099944815 3.3978133 10197915
0.8631438 0.075418703 3.3712788 3618615
0.39017043 0.10000758 3.3999472 10197915
0.69811672 0.10131714 3.3500991 10197915
0.72506136 0.10139661 3.3527265 10197915
0.7747947 0.10154328 3.3575764 10197915
0.82467347 0.1016904 3.3624413 10197915
0.85717076 0.10174569 3.3642697 10197915
0.87297672 -0.57393211 3.4263473 3223857
0.87250644 -0.52448279 3.4242911 2894892
0.87248617 -0.4769502 3.4256301 2894892
0.87321103 -0.42522785 3.4328179 2894892
0.87279135 -0.37527105 3.4311693 2894892
0.87237203 -0.32536265 3.4295199 2894892
0.87190515 -0.27478647 3.4275246 2894892
0.8715722 -0.22498158 3.4265354 2894892
0.87106949 -0.17521967 3.4242404 2894892
