# .PCD v0.7 - Point Cloud Data file format
VERSION 0.7
FIELDS x y z rgb
SIZE 4 4 4 4
TYPE F F F U
COUNT 1 1 1 1
WIDTH 1154
HEIGHT 1
VIEWPOINT 0 0 0 1 0 0 0
POINTS 1154
DATA ascii
-0.42466933 0.11027943 0.8246659 10197915
-0.3749575 0.11045382 0.82291412 10197915
-0.32501009 0.11061489 0.82402796 10197915
-0.27505192 0.11077548 0.82524747 10197915
-0.22455017 0.11094679 0.82466483 10197915
-0.17529005 0.11111862 0.82311809 10197915
-0.12499852 0.11128211 0.8239795 10197915
-0.074995972 0.11144318 0.82513475 10197915
-0.024576856 0.11161465 0.82446134 10197915
0.024454605 0.11178259 0.8235575 10197915
0.074991874 0.11194964 0.82385403 10197915
0.12496812 0.11211056 0.82501966 10197915
0.17538463 0.11228224 0.82430267 10197915
0.22442028 0.11244725 0.82399231 10197915
0.27499661 0.11261716 0.82373774 10197915
0.32494271 0.11277792 0.8249113 10197915
0.37531963 0.11294974 0.8241396 10197915
0.42462867 0.11311278 0.82442188 10197915
0.47318158 0.10929399 0.82451147 3552822
0.4914566 -0.40113112 0.89846247 2894892
0.48825893 -0.37107122 0.87660676 2894892
0.48769635 -0.32500976 0.87392724 2894892
0.48753363 -0.27510479 0.874201 2894892
0.48740014 -0.22495568 0.87468308 2894892
0.48713264 -0.17498574 0.87421542 2894892
0.48690963 -0.1251944 0.87405407 2894892
0.48674983 -0.074828379 0.87436342 2894892
0.48656976 -0.02498902 0.87450945 2894892
0.48630106 0.025008045 0.87402815 2894892
0.48613688 0.074901178 0.87428832 2894892
-0.70530432 0.10900491 0.89345264 9934743
-0.67215419 0.10919087 0.8781417 10132122
-0.62507379 0.1093642 0.87482023 10197915
-0.57501811 0.10954193 0.87262058 10197915
-0.5250119 0.10970217 0.8739512 10197915
-0.47497913 0.10986282 0.87520343 10197915
-0.42467076 0.11002593 0.87615591 10197915
-0.37503132 0.11021081 0.87222606 10197915
-0.32503608 0.11037118 0.87351155 10197915
-0.27497506 0.11053199 0.87474865 10197915
-0.22496767 0.11069239 0.87604368 10197915
-0.17537183 0.11087024 0.87351072 10197915
-0.12505995 0.11104025 0.87306029 10197915
-0.075053528 0.11120088 0.87430596 10197915
-0.025023539 0.11136143 0.87557614 10197915
0.025459573 0.11153311 0.87489069 10197915
0.074960992 0.11170939 0.8726269 10197915
0.12498983 0.11186998 0.87388778 10197915
0.17496057 0.11203045 0.87515008 10197915
0.22563002 0.11219928 0.87517291 10197915
0.27438134 0.11237039 0.8734383 10197915
0.3249166 0.1125389 0.873438 10197915
0.37490591 0.11269935 0.87471211 10197915
0.4254474 0.11286468 0.87536395 10197915
0.47717148 0.10972758 0.87467414 4276545
0.49602672 -0.40821466 0.93072391 2894892
0.4950422 -0.37480894 0.92468643 2894892
0.49480751 -0.32498574 0.92444146 2894892
0.49452913 -0.27497369 0.92389607 2894892
0.49438766 -0.22503909 0.92432207 2894892
0.49423644 -0.17487161 0.92468119 2894892
0.49398383 -0.124986 0.92431408 2894892
0.49374577 -0.075190477 0.92404896 2894892
0.49357378 -0.025014618 0.92426246 2894892
0.49343047 0.025073187 0.92467856 2894892
0.49316126 0.075014971 0.92419499 2894892
-0.7515111 0.1085908 0.94626087 9868950
-0.71910793 0.10878317 0.92913944 9868950
-0.6750077 0.1089459 0.92595893 10132122
-0.62492818 0.10911836 0.92484641 10197915
-0.57499576 0.10929685 0.92240947 10197915
-0.52498442 0.10945673 0.92381251 10197915
-0.47506282 0.10961691 0.9250899 10197915
-0.42499605 0.10977668 0.92654842 10197915
-0.37557769 0.10995899 0.92299426 10197915
-0.32502353 0.11012782 0.92294604 10197915
-0.2750428 0.11028776 0.92430943 10197915
-0.22501224 0.11044759 0.92573583 10197915
-0.17422514 0.11061882 0.92535019 10197915
-0.1252739 0.11079574 0.92256755 10197915
-0.075034484 0.11095851 0.9235462 10197915
-0.025044 0.11111857 0.92488998 10197915
0.025132878 0.11128014 0.92606252 10197915
0.074565843 0.11145528 0.92396963 10197915
0.12501574 0.11162946 0.9227587 10197915
0.17501207 0.11178965 0.92408711 10197915
0.22495957 0.11194964 0.92541498 10197915
0.27569115 0.11212119 0.92493886 10197915
0.32414857 0.11228895 0.92367882 10197915
0.37487301 0.11245982 0.92334419 10197915
0.42501464 0.11262078 0.92460388 10197915
0.48224804 0.10962313 0.92519557 4671303
0.49935451 -0.41285399 0.95423216 2894892
0.5031122 -0.41918546 0.98074478 2894892
0.49932778 -0.37484616 0.95513046 2894892
0.50279558 -0.37528235 0.97975361 2894892
0.49922171 -0.32412252 0.95582688 2894892
0.50267202 -0.32527328 0.98030668 2894892
0.49908021 -0.2743808 0.95624536 2894892
0.50253385 -0.27523172 0.98075509 2894892
0.49894288 -0.22458723 0.95669568 2894892
0.50245768 -0.22480665 0.98165637 2894892
0.49892291 -0.17529641 0.95796341 2894892
0.50241727 -0.17506985 0.98279124 2894892
0.49881294 -0.12500332 0.95862019 2894892
0.50228655 -0.12498344 0.98329753 2894892
0.49867499 -0.074886575 0.95907378 2894892
0.50215667 -0.075055644 0.98380411 2894892
0.4985379 -0.024691479 0.95953566 2894892
0.50206262 -0.024858236 0.9845708 2894892
0.49853319 0.02525384 0.96093094 2894892
0.50203979 0.024677487 0.98582703 2894892
0.49839815 0.075481318 0.96140844 2894892
0.50190103 0.074553862 0.98626846 2894892
-0.76425099 0.10838623 0.97917968 10132122
-0.7249772 0.10854287 0.97396666 10132122
-0.67501104 0.10870253 0.97538006 10132122
-0.62423235 0.1088707 0.97561145 10197915
-0.5755645 0.10904074 0.9740476 10197915
-0.52499998 0.10921568 0.97275186 10197915
-0.47497302 0.10937528 0.97422272 10197915
-0.42491201 0.10953543 0.97559923 10197915
-0.37413365 0.10970876 0.97478628 10197915
-0.32564661 0.10987362 0.97414565 10197915
-0.27502754 0.1100481 0.97299939 10197915
-0.22502325 0.1102076 0.97447312 10197915
-0.17498811 0.11036779 0.97582442 10197915
-0.12468959 0.1105439 0.97411174 10197915
-0.075683303 0.11070662 0.97425735 10197915
-0.024993075 0.11088055 0.97327489 10197915
0.024983408 0.11104035 0.97466087 10197915
0.07553453 0.11120542 0.97536165 10197915
0.12495162 0.11137692 0.97400475 10197915
0.17424054 0.11153928 0.97441018 10197915
0.22498766 0.11171321 0.9734515 10197915
0.27498621 0.11187299 0.97486061 10197915
0.32568672 0.11204333 0.97460943 10197915
0.37482679 0.11220883 0.97427636 10197915
0.42422685 0.1123725 0.97449428 10197915
0.48156011 0.11072655 0.97029549 5855577
0.50175589 0.106503 0.9863959 2894892
0.51081264 -0.45642021 1.0343833 2894892
0.50928545 -0.42492586 1.0244349 2894892
0.50916767 -0.3749786 1.0250289 2894892
0.50888765 -0.3249718 1.024469 2894892
0.5086084 -0.27502078 1.0239128 2894892
0.50840592 -0.22521318 1.0238997 2894892
0.50838077 -0.17500432 1.0251596 2894892
0.50810176 -0.12500098 1.0246055 2894892
0.50781554 -0.074992359 1.0240004 2894892
0.50758564 -0.025239695 1.0237942 2894892
0.50755501 0.025204318 1.0250227 2894892
0.50731212 0.07499779 1.0247182 2894892
-0.81137943 0.1079564 1.0345565 10197915
-0.77475554 0.10813101 1.0238987 10197915
-0.72502887 0.10829113 1.0250556 10197915
-0.6759249 0.10845874 1.0242736 10197915
-0.62503225 0.10862862 1.0242369 10197915
-0.57431519 0.10879501 1.0247891 10197915
-0.52501804 0.10896628 1.0233988 10197915
-0.47501394 0.10912593 1.0248376 10197915
-0.42583826 0.10928885 1.0250562 10197915
-0.37505323 0.1094629 1.0240978 10197915
-0.32428983 0.10963035 1.0244724 10197915
-0.27494976 0.10980061 1.0233052 10197915
-0.22500831 0.10995989 1.0247869 10197915
-0.17560482 0.11012057 1.0256031 10197915
-0.12499749 0.11029727 1.0239882 10197915
-0.074089602 0.11046627 1.0241485 10197915
-0.025004003 0.11063456 1.0232105 10197915
0.024991378 0.11079411 1.0246669 10197915
0.075007565 0.11095367 1.0261407 10197915
0.12485763 0.11113085 1.0239182 10197915
0.17589693 0.11130077 1.0239769 10197915
0.2250026 0.11146919 1.0230284 10197915
0.27498436 0.11162855 1.0245106 10197915
0.32480216 0.11178739 1.0259857 10197915
0.37409058 0.11195763 1.0247954 10197915
0.42595282 0.11213596 1.0237015 10197915
0.47500965 0.1123033 1.0229399 8026746
0.50661659 0.10716418 1.0248696 2894892
0.51679093 -0.4658958 1.0765809 2894892
0.51634836 -0.42508069 1.0746051 2894892
0.51622117 -0.37497965 1.0751359 2894892
0.51592308 -0.3249855 1.0744445 2894892
0.51564246 -0.27500072 1.0738848 2894892
0.51542109 -0.22489312 1.0737467 2894892
0.51544207 -0.17501409 1.0753219 2894892
0.51516348 -0.12502517 1.0747725 2894892
0.51487136 -0.074997917 1.0741283 2894892
0.51459163 -0.024979828 1.073573 2894892
0.51457608 0.025038486 1.0748948 2894892
0.51438701 0.075005613 1.0749811 2894892
-0.85787874 0.1075354 1.0885674 10197915
-0.82370299 0.1077127 1.0757042 10197915
-0.77502114 0.10787412 1.075889 10197915
-0.72504741 0.10803241 1.0775832 10197915
-0.67398727 0.10822989 1.0720617 10197915
-0.62502593 0.10839202 1.0722932 10197915
-0.5750035 0.10855103 1.0738788 10197915
-0.52505445 0.10871009 1.0754007 10197915
-0.47510576 0.10886867 1.0770208 10197915
-0.42514765 0.10904692 1.0746592 10197915
-0.37496772 0.10922869 1.0717216 10197915
-0.32489586 0.10938767 1.0733403 10197915
-0.27504739 0.10954617 1.0749232 10197915
-0.22497943 0.10970582 1.076399 10197915
-0.17453547 0.1098716 1.0769019 10197915
-0.1249265 0.11006442 1.0713345 10197915
-0.074957795 0.11022417 1.0727228 10197915
-0.024993964 0.11038268 1.0743799 10197915
0.024967501 0.11054184 1.0758898 10197915
0.074997284 0.11070067 1.0775133 10197915
0.12426481 0.11088939 1.0725596 10197915
0.17503671 0.11105999 1.0722847 10197915
0.22503926 0.11121922 1.073832 10197915
0.27503577 0.11137825 1.075382 10197915
0.32480001 0.11153682 1.0768839 10197915
0.37505007 0.11171453 1.0748144 10197915
0.42494354 0.11189567 1.071803 10197915
0.47490507 0.11205497 1.0732998 9145227
0.51231581 0.10771821 1.0750087 2894892
0.52585506 -0.50500906 1.1398522 2894892
0.5236237 -0.47431034 1.1248801 2894892
0.52340972 -0.42528731 1.1247625 2894892
0.52317274 -0.37508222 1.1245149 2894892
0.52288342 -0.32505444 1.1238915 2894892
0.52279007 -0.27499041 1.1246604 2894892
0.52255726 -0.22524971 1.1244315 2894892
0.52241719 -0.17501061 1.1248701 2894892
0.52213657 -0.12499388 1.1243083 2894892
0.52189624 -0.074720703 1.1240393 2894892
0.52175468 -0.025003927 1.1244562 2894892
0.52160925 0.024719734 1.1248465 2894892
0.52137643 0.075040571 1.1246356 2894892
-0.90540147 0.10709567 1.1456907 10197915
-0.87278616 0.10729419 1.1274667 10197915
-0.82499522 0.1074754 1.1230221 10197915
-0.77495795 0.1076341 1.1246793 10197915
-0.72504872 0.107792 1.1264342 10197915
-0.67498559 0.10797389 1.1233805 10197915
-0.62494123 0.10813282 1.1249884 10197915
-0.57596648 0.10830168 1.1238642 10197915
-0.52494484 0.1084729 1.1236414 10197915
-0.47489494 0.10863104 1.1254227 10197915
-0.42385644 0.10880624 1.1244098 10197915
-0.37510431 0.10897071 1.1240146 10197915
-0.32497263 0.10912944 1.1257381 10197915
-0.27525222 0.10930837 1.1230857 10197915
-0.22508132 0.1094694 1.1243469 10197915
-0.17476989 0.10963023 1.125761 10197915
-0.12508035 0.10980878 1.1231446 10197915
-0.075091548 0.10996806 1.1246535 10197915
-0.02578555 0.1101285 1.1254568 10197915
0.025046973 0.11030801 1.123433 10197915
0.074954979 0.11046646 1.1250451 10197915
0.12596488 0.11064247 1.1238497 10197915
0.17490532 0.11080618 1.1237446 10197915
0.22496653 0.11096455 1.1254826 10197915
0.27386582 0.11113089 1.1248186 10197915
0.32497999 0.11130442 1.1241974 10197915
0.3756927 0.11146997 1.1249186 10197915
0.42503074 0.1116446 1.1228675 10197915
0.47501516 0.11180356 1.124437 10000536
0.51723582 0.10825673 1.1253381 3026478
0.53141862 -0.51363546 1.1791276 2894892
0.53071827 -0.47497171 1.175259 2894892
0.53042603 -0.42495155 1.1746147 2894892
0.53012544 -0.37495595 1.173911 2894892
0.5298534 -0.32495564 1.1734076 2894892
0.52992064 -0.27464953 1.1753246 2894892
0.52970117 -0.2249898 1.1751872 2894892
0.52940398 -0.17496 1.1745051 2894892
0.52911204 -0.12498552 1.1738608 2894892
0.52887195 -0.075330406 1.1735793 2894892
0.52892131 -0.024734935 1.1753768 2894892
0.52867609 0.024977935 1.1750563 2894892
0.52838248 0.074985638 1.1744008 2894892
-0.95124573 0.10668641 1.1977555 10197915
-0.91930062 0.1068694 1.1822251 10197915
-0.87449485 0.10706003 1.1738554 10197915
-0.82518798 0.10723772 1.1711587 10197915
-0.77508962 0.10739569 1.1730061 10197915
-0.72494012 0.10755424 1.1747772 10197915
-0.67502475 0.10771276 1.1763841 10197915
-0.62505716 0.10787068 1.1781507 10197915
-0.57468295 0.10806587 1.1726272 10197915
-0.52496684 0.10823734 1.1714729 10197915
-0.474987 0.10839541 1.1732212 10197915
-0.42515215 0.10855243 1.175082 10197915
-0.37526608 0.10871092 1.1766769 10197915
-0.32513711 0.10886943 1.1784334 10197915
-0.2754018 0.10906982 1.1714196 10197915
-0.22497115 0.10923589 1.1718477 10197915
-0.17502415 0.1093943 1.1735039 10197915
-0.12502953 0.10955244 1.1752434 10197915
-0.074987844 0.10971036 1.1770579 10197915
-0.024132794 0.10987844 1.1773666 10197915
0.024459423 0.11007031 1.1713096 10197915
0.075081699 0.11023539 1.1720676 10197915
0.12508653 0.11039288 1.1739438 10197915
0.1750378 0.11055194 1.1754715 10197915
0.22493635 0.1107093 1.1773063 10197915
0.27608326 0.1108856 1.1761408 10197915
0.3248302 0.11107206 1.1712873 10197915
0.37519118 0.11123398 1.1725125 10197915
0.42494926 0.11139209 1.1740998 10197915
0.4749476 0.11155038 1.1758064 10197915
0.52225691 0.10836281 1.1756791 3684408
0.54057294 -0.55305684 1.2430313 2894892
0.53802848 -0.52345163 1.2258034 2894892
0.53763741 -0.47485349 1.2244163 2894892
0.5375526 -0.42503676 1.2252389 2894892
0.53726584 -0.37498376 1.2246315 2894892
0.53695482 -0.32498387 1.2238532 2894892
0.5368281 -0.27535984 1.2243743 2894892
0.53660977 -0.2249773 1.2242657 2894892
0.53654468 -0.17496145 1.2252332 2894892
0.53625548 -0.12500972 1.2246081 2894892
0.53595686 -0.074978903 1.2239172 2894892
0.53584486 -0.025281345 1.2245426 2894892
0.53560454 0.025032496 1.2242748 2894892
0.53551304 0.075256802 1.2250627 2894892
-0.96364659 0.10648943 1.2293627 10197915
-0.92518693 0.10663596 1.2256503 10197915
-0.8741973 0.10681821 1.2231671 10197915
-0.8249011 0.1069791 1.2238803 10197915
-0.77493566 0.1071375 1.2255538 10197915
-0.72637361 0.10730044 1.2253481 10197915
-0.67503607 0.10747949 1.2237494 10197915
-0.62500226 0.10763774 1.2254925 10197915
-0.57423538 0.10781939 1.222993 10197915
-0.52509046 0.10798007 1.2236376 10197915
-0.47509062 0.10813799 1.2254258 10197915
-0.42598405 0.10829765 1.2262521 10197915
-0.37498686 0.10848036 1.2236851 10197915
-0.32489657 0.10863929 1.2253345 10197915
-0.27426088 0.10882191 1.2225395 10197915
-0.22505276 0.10898111 1.2235335 10197915
-0.1750232 0.10913941 1.2252675 10197915
-0.12494866 0.10929764 1.2270408 10197915
-0.07513576 0.10948101 1.2235378 10197915
-0.025120193 0.1096395 1.225221 10197915
0.025534444 0.10982323 1.2222222 10197915
0.07491596 0.10998169 1.2234771 10197915
0.12496655 0.11014076 1.2250617 10197915
0.17495868 0.1102984 1.2269073 10197915
0.22399266 0.11047317 1.224623 10197915
0.27495858 0.11064079 1.2250925 10197915
0.32557362 0.11082522 1.2219162 10197915
0.37522471 0.11098398 1.2233012 10197915
0.42498258 0.11114222 1.224861 10197915
0.47498667 0.11129954 1.2267791 10197915
0.52643156 0.10848302 1.2257439 4473924
0.54576832 -0.56122321 1.2797058 2894892
0.54488456 -0.52489483 1.2744662 2894892
0.54460996 -0.47517028 1.2739373 2894892
0.54453838 -0.42493302 1.2748712 2894892
0.54423052 -0.3749966 1.2741076 2894892
0.54415554 -0.32474849 1.2750148 2894892
0.54389793 -0.27496922 1.2746078 2894892
0.54359341 -0.22498111 1.2738752 2894892
0.54355079 -0.17505132 1.2749995 2894892
0.54326111 -0.12496334 1.274377 2894892
0.54306787 -0.074546933 1.2744441 2894892
0.54291707 -0.025013888 1.2747902 2894892
0.54261637 0.024995398 1.274085 2894892
0.54253507 0.07470604 1.2749279 2894892
-1.0121677 0.10603819 1.2881453 10197915
-0.97604179 0.10623195 1.2732583 10197915
-0.9252848 0.10640962 1.2715491 10197915
-0.87521702 0.10656761 1.2733737 10197915
-0.82500362 0.10672545 1.275323 10197915
-0.77502668 0.1068827 1.2772348 10197915
-0.72357905 0.10705945 1.2761849 10197915
-0.67533785 0.10722763 1.2746952 10197915
-0.62499553 0.10741388 1.2709638 10197915
-0.57502615 0.10757163 1.272764 10197915
-0.52504003 0.10772838 1.2747815 10197915
-0.47490886 0.10788715 1.276497 10197915
-0.4240202 0.1080543 1.2770063 10197915
-0.37494859 0.10823108 1.2743412 10197915
-0.32618016 0.1084007 1.2729284 10197915
-0.27498928 0.10857528 1.2721336 10197915
-0.22498004 0.10873232 1.274102 10197915
-0.17495842 0.10889021 1.2759193 10197915
-0.12505524 0.10904739 1.2777936 10197915
-0.074927904 0.10923409 1.2738231 10197915
-0.025585366 0.10939379 1.2748104 10197915
0.025030466 0.10957823 1.2716331 10197915
0.074921273 0.10973593 1.273397 10197915
0.12482499 0.10989284 1.2753172 10197915
0.17487048 0.11005087 1.2771163 10197915
0.22596425 0.11023483 1.2743568 10197915
0.27509731 0.11039583 1.2749422 10197915
0.32399049 0.1105683 1.2730252 10197915
0.3752034 0.11073983 1.2728709 10197915
0.42511231 0.11089765 1.2746215 10197915
0.47516447 0.11105532 1.2764972 10197915
0.5311988 0.10873897 1.2754241 4737096
-0.46228823 -0.60166669 1.348502 6447714
-0.43612996 -0.60082382 1.3448656 6447714
-0.33518595 -0.60151678 1.3481257 6513507
0.55533314 -0.60107636 1.3465126 2894892
-0.46100655 -0.57533097 1.3484418 6447714
-0.42465752 -0.57496488 1.3433843 6447714
-0.37510553 -0.57398981 1.3364916 6447714
-0.3409847 -0.57391477 1.3354208 6447714
0.54938489 -0.56696481 1.3052329 2894892
0.55289388 -0.57229102 1.3300087 2894892
-0.46018067 -0.52534592 1.3485485 6447714
-0.42473498 -0.52497911 1.3436193 6447714
-0.37489572 -0.52500188 1.3366824 6447714
-0.34128791 -0.52508932 1.3352449 6447714
0.5493201 -0.52292174 1.3060336 2894892
0.55263764 -0.52549618 1.3295262 2894892
-0.45947444 -0.47536293 1.3486741 6447714
-0.42479491 -0.4749895 1.3438509 6447714
-0.37498417 -0.4749735 1.3369176 6447714
-0.34140211 -0.47509512 1.3355836 6447714
0.54909629 -0.47498393 1.3058159 2894892
0.55264503 -0.47454426 1.3310356 2894892
-0.45862269 -0.42546916 1.3487782 6447714
-0.42487228 -0.42499527 1.3440828 6447714
-0.37505162 -0.42499283 1.3371494 6447714
-0.341463 -0.42494884 1.3358892 6447714
0.54903567 -0.42432269 1.3068322 2894892
0.55264789 -0.42528334 1.3324661 2894892
-0.45794749 -0.37544045 1.3489068 6447714
-0.42492238 -0.37502289 1.3443111 6447714
-0.37508634 -0.37498218 1.3373771 6447714
-0.34154502 -0.37500244 1.3362457 6447714
0.54877806 -0.37478614 1.3064195 2894892
0.55238783 -0.37499398 1.3320568 2894892
-0.45717934 -0.32535547 1.3490238 6447714
-0.4250049 -0.32505915 1.344545 6447714
-0.3751539 -0.32495424 1.33761 6447714
-0.34167257 -0.32509851 1.3365601 6447714
0.548944 -0.32597524 1.3089966 2894892
0.55235577 -0.3249248 1.3332626 2894892
-0.4563857 -0.27567691 1.3491346 6447714
-0.42511699 -0.2750513 1.3447855 6447714
-0.37525606 -0.27497283 1.3378465 6447714
-0.342069 -0.27493006 1.3360776 6447714
0.54876667 -0.27402422 1.3092214 2894892
0.55211091 -0.27561545 1.3329353 2894892
-0.45568752 -0.22594611 1.3492599 6447714
-0.4251903 -0.22501382 1.3450187 6447714
-0.37521583 -0.22492491 1.3380641 6447714
-0.34207955 -0.22513069 1.3364596 6447714
0.54867303 -0.22500768 1.3099593 2894892
0.55210143 -0.22439444 1.3343321 2894892
-0.45485446 -0.17575076 1.3493674 6447714
-0.42525488 -0.17501056 1.3452524 6447714
-0.37475497 -0.17495397 1.3382242 6447714
-0.34172416 -0.17512907 1.3368989 6447714
0.54848754 -0.17377807 1.3101059 2894892
0.55211693 -0.17579314 1.3358319 2894892
-0.45416614 -0.12552878 1.3494955 6447714
-0.42524195 -0.1251334 1.3454711 6447714
-0.37478662 -0.12486521 1.3384513 6447714
-0.34183964 -0.12494475 1.3372129 6447714
0.54834402 -0.12496237 1.3104858 2894892
0.55198824 -0.12504885 1.3363681 2894892
-0.45333689 -0.076064497 1.3496007 6447714
-0.42535725 -0.075212508 1.3457129 6447714
-0.37493595 -0.074870981 1.3386952 6447714
-0.34190515 -0.074772015 1.3375841 6447714
0.5483008 -0.075053923 1.3116058 2894892
0.55183929 -0.075950965 1.3367157 2894892
-0.45219728 -0.025396245 1.349668 6447714
-0.42506516 -0.02521289 1.3458937 6447714
-0.37499952 -0.024960844 1.3389262 6447714
-0.34212914 -0.025362216 1.3375738 6447714
0.54829216 -0.025024025 1.3129756 2894892
0.55167168 -0.024927672 1.3369857 2894892
-0.45127279 0.022927007 1.3497547 6447714
-0.4249678 0.025096076 1.3461031 6447714
-0.37506506 0.024966601 1.3391581 6447714
-0.34240857 0.024934452 1.3374171 6447714
0.54818594 0.025831897 1.3136753 2894892
0.55155826 0.023936391 1.337577 2894892
-0.45056832 0.070906341 1.3498704 6842472
-0.42466089 0.075328574 1.3462862 7039851
-0.37484995 0.074765362 1.3393503 7039851
-0.34249312 0.074819885 1.3377491 6974058
0.54794931 0.075012371 1.3134007 2894892
0.55153656 0.075927623 1.3389106 2894892
-1.0589504 0.10561487 1.3424351 10197915
-1.0256933 0.10579383 1.3286217 10197915
-0.97302979 0.10600371 1.3216578 10197915
-0.92512423 0.10616688 1.3209645 10197915
-0.87524486 0.10632391 1.3228474 10197915
-0.82522082 0.10648077 1.32487 10197915
-0.77518034 0.10663784 1.326861 10197915
-0.72499388 0.10679575 1.3287888 10197915
-0.67588902 0.10697426 1.3257804 10197915
-0.6249882 0.10717306 1.3198755 10197915
-0.57497776 0.10733065 1.3217418 10197915
-0.52495652 0.10748742 1.3237828 10197915
-0.47389621 0.10749372 1.3265716 10197915
-0.42506415 0.10530143 1.3386766 10197915
-0.3747575 0.10510227 1.3342937 10197915
-0.3303909 0.10649693 1.3271443 10197915
-0.2749382 0.10833622 1.3207184 10197915
-0.22492652 0.10849386 1.3225689 10197915
-0.17504209 0.10865047 1.324549 10197915
-0.12501265 0.1088082 1.326401 10197915
-0.074977219 0.1089651 1.3284216 10197915
-0.025538199 0.10913387 1.3276259 10197915
0.024881719 0.10934135 1.31964 10197915
0.075012699 0.10949946 1.3214781 10197915
0.1251526 0.10965677 1.3234836 10197915
0.17502223 0.10981442 1.3252383 10197915
0.22489552 0.10997022 1.3273758 10197915
0.27477548 0.11012828 1.3290621 10197915
0.32495281 0.1103246 1.3231703 10197915
0.37515038 0.1105051 1.3205125 10197915
0.42484853 0.11066176 1.3223511 10197915
0.47496641 0.11082009 1.324133 10197915
0.53153855 0.10938891 1.3225979 5921370
0.55150497 0.1055712 1.3398867 2894892
-0.81671745 -0.61270308 1.3977772 11711154
-0.77559793 -0.61138606 1.3920603 11711154
-0.72565377 -0.60983801 1.3851172 9803157
-0.67596221 -0.60836577 1.3782084 9013641
-0.62576026 -0.60673821 1.3712289 8355711
-0.57589734 -0.6052354 1.3642966 7434609
-0.52704024 -0.60367966 1.3575047 6447714
-0.48744693 -0.60243654 1.3519999 6447714
-0.33067825 -0.60875398 1.380311 6513507
0.56027442 -0.60908765 1.3813853 2894892
-0.81575918 -0.5751754 1.3978118 10724259
-0.77517563 -0.57499641 1.3921647 10724259
-0.72478777 -0.57501203 1.3851521 7237230
-0.674887 -0.57501394 1.3782078 6381921
-0.62492132 -0.57497716 1.3712541 6447714
-0.57483935 -0.57503319 1.3642844 6447714
-0.52521944 -0.5749988 1.3573794 6447714
-0.48629382 -0.57472384 1.3519626 6447714
-0.33167607 -0.57458001 1.3741271 6447714
0.5591554 -0.57495987 1.3744116 2894892
-0.81514436 -0.52520913 1.3979484 6447714
-0.77527815 -0.52501041 1.3924012 6447714
-0.7248854 -0.5249961 1.3853884 6447714
-0.67499459 -0.52501726 1.3784453 6447714
-0.62501383 -0.52500761 1.3714896 6447714
-0.57491344 -0.52498686 1.3645176 6447714
-0.52531266 -0.52500069 1.3576145 6447714
-0.48542252 -0.52479696 1.3520643 6447714
-0.33186841 -0.52492905 1.3741788 6447714
0.55885208 -0.5249421 1.3736862 2894892
-0.81440413 -0.47526616 1.3980685 6447714
-0.77547324 -0.47499198 1.392652 6447714
-0.72506893 -0.47501937 1.3856373 6447714
-0.67453378 -0.47501862 1.3786045 6447714
-0.62451178 -0.47499099 1.3716432 6447714
-0.57502002 -0.47497764 1.3647557 6447714
-0.52544165 -0.47499937 1.3578569 6447714
-0.48476553 -0.47480863 1.3521954 6447714
-0.332021 -0.47494808 1.3745259 6447714
0.55877197 -0.47539708 1.3745384 2894892
-0.81320369 -0.4249965 1.3981255 6447714
-0.77489316 -0.42497793 1.3927937 6447714
-0.72489327 -0.425172 1.3858346 6447714
-0.67462951 -0.42501354 1.378841 6447714
-0.62462366 -0.42498955 1.3718814 6447714
-0.57507968 -0.4249793 1.364987 6447714
-0.5251348 -0.42486784 1.358037 6447714
-0.48359939 -0.42497811 1.3522562 6447714
-0.33213505 -0.42499661 1.3751498 6447714
0.55853784 -0.42499754 1.3743165 2894892
-0.81227911 -0.37519652 1.3982192 6447714
-0.77446616 -0.37501743 1.3929576 6447714
-0.72465789 -0.37497547 1.3860252 6447714
-0.6747089 -0.37506095 1.3790739 6447714
-0.62471783 -0.37496993 1.3721184 6447714
-0.57464999 -0.37496975 1.3651506 6447714
-0.52450204 -0.3750557 1.3581699 6447714
-0.4826555 -0.37477311 1.3523481 6447714
-0.33238235 -0.37535757 1.3748059 6447714
0.55848044 -0.3748579 1.3753425 2894892
-0.81155306 -0.3253001 1.3983399 6447714
-0.77456349 -0.32499748 1.3931935 6447714
-0.72477376 -0.32498887 1.3862652 6447714
-0.67489624 -0.32506245 1.379324 6447714
-0.62481481 -0.32493371 1.372354 6447714
-0.57471025 -0.32505184 1.3653815 6447714
-0.52448589 -0.32501072 1.3583914 6447714
-0.48183504 -0.32479438 1.352457 6447714
-0.33260596 -0.32494608 1.3746558 6447714
0.55822057 -0.325109 1.3749202 2894892
-0.8108421 -0.27555421 1.3984628 6447714
-0.77478111 -0.27494571 1.3934466 6447714
-0.72496951 -0.27502835 1.3865149 6447714
-0.67498493 -0.27500486 1.3795586 6447714
-0.62495196 -0.27494848 1.3725964 6447714
-0.57477647 -0.27501234 1.3656137 6447714
-0.5245294 -0.27503797 1.3586206 6447714
-0.48100683 -0.27477345 1.3525652 6447714
-0.33293632 -0.27501723 1.3737224 6447714
0.55791205 -0.27502057 1.3741592 2894892
-0.81018275 -0.2255896 1.3985943 6447714
-0.77479047 -0.22496329 1.3936725 6447714
-0.72491682 -0.22496435 1.3867309 6447714
-0.6750102 -0.22502793 1.3797857 6447714
-0.6250484 -0.22501571 1.3728331 6447714
-0.57498366 -0.2249956 1.3658657 6447714
-0.52477545 -0.2250365 1.3588774 6447714
-0.48046875 -0.22476378 1.352713 6447714
-0.33305955 -0.22505431 1.3742795 6447714
0.55767566 -0.22540787 1.3739011 2894892
-0.80932033 -0.17530003 1.3986987 6447714
-0.77494216 -0.17505009 1.3939167 6447714
-0.72532374 -0.17498238 1.3870111 6447714
-0.67522466 -0.17493621 1.3800385 6447714
-0.62511349 -0.17512147 1.373064 6447714
-0.5750649 -0.17501393 1.3660995 6447714
-0.5246861 -0.17492345 1.3590889 6447714
-0.47943348 -0.17492101 1.3527915 6447714
-0.33319044 -0.17505322 1.3747838 6447714
0.55759788 -0.17501202 1.374788 2894892
-0.80864632 -0.12512736 1.3988289 6447714
-0.77527076 -0.12513165 1.3941842 6447714
-0.72516537 -0.12501495 1.3872116 6447714
-0.6754846 -0.1248524 1.3802985 6447714
-0.62529248 -0.12516764 1.373312 6447714
-0.57505006 -0.12488221 1.3663216 6447714
-0.52485782 -0.12504736 1.3593352 6447714
-0.47885612 -0.12484075 1.352935 6447714
-0.33331999 -0.12501371 1.3752989 6447714
0.55731845 -0.12478902 1.3742412 2894892
-0.80790502 -0.075262219 1.3989481 6447714
-0.77514416 -0.07489799 1.3943901 6447714
-0.72495961 -0.074984081 1.3874062 6447714
-0.67472875 -0.075119652 1.3804145 6447714
-0.62539971 -0.075113207 1.3735496 6447714
-0.57517242 -0.074799694 1.3665612 6447714
-0.52497429 -0.074912317 1.3595755 6447714
-0.47803289 -0.074951939 1.3530431 6447714
-0.33360755 -0.075204372 1.3746707 6447714
0.55728602 -0.07498084 1.375435 2894892
-0.80716473 -0.025505356 1.3990667 6447714
-0.77540916 -0.024844134 1.3946503 6447714
-0.72479451 -0.024987971 1.3876064 6447714
-0.67497426 -0.025167076 1.380672 6447714
-0.62501073 -0.024951488 1.3737198 6447714
-0.57484078 -0.025003286 1.3667376 6447714
-0.52506644 -0.024786847 1.3598112 6447714
-0.47730818 -0.025052773 1.3531634 6447714
-0.33388183 -0.0246082 1.3741629 6447714
0.55697089 -0.025014281 1.3746259 2894892
-0.80614555 0.025015231 1.3991506 6447714
-0.77519649 0.02469321 1.3948419 6447714
-0.72492611 0.024951534 1.3878472 6447714
-0.67496443 0.025274251 1.3808953 6447714
-0.62488997 0.02494779 1.3739256 6447714
-0.57482874 0.024918571 1.3669585 6447714
-0.52515638 0.02479253 1.3600451 6447714
-0.47646657 0.025337579 1.3532711 6447714
-0.3341175 0.024980394 1.3738976 6447714
0.55666244 0.024995806 1.3738645 2894892
-0.80505532 0.074173167 1.3992172 6974058
-0.77440739 0.074961394 1.3949562 7039851
-0.72483629 0.074879691 1.3880576 7039851
-0.67449492 0.075080432 1.3810529 7039851
-0.62451136 0.075144581 1.3740964 7039851
-0.57492775 0.074767202 1.3671943 7039851
-0.5252344 0.074939422 1.3602804 7039851
-0.47582844 0.075226858 1.3534045 7039851
-0.33424434 0.074962594 1.3744309 6842472
0.55656487 0.074526347 1.3745918 2894892
-1.101922 0.1052462 1.3882029 10197915
-1.0714304 0.10540167 1.3772786 10197915
-1.0232278 0.10557905 1.3739032 10197915
-0.97517031 0.10574646 1.3724495 10197915
-0.9252283 0.10590395 1.374288 10197915
-0.87513536 0.10606036 1.3764436 10197915
-0.82151169 0.10553891 1.3816012 10197915
-0.77540392 0.10439799 1.386959 10197915
-0.7249074 0.10436531 1.382816 10197915
-0.67462611 0.10436969 1.375842 10197915
-0.62468231 0.10451824 1.3701839 10197915
-0.57510263 0.10414813 1.3654779 10197915
-0.52539426 0.10423779 1.3598113 10197915
-0.47552279 0.10373592 1.3534902 10197915
-0.3257412 0.10597857 1.3724997 10197915
-0.27516532 0.10807762 1.3730862 10197915
-0.22515117 0.10823534 1.3749253 10197915
-0.17499039 0.10839202 1.3770798 10197915
-0.12665874 0.10855541 1.3766245 10197915
-0.074953496 0.1087398 1.3741971 10197915
-0.023300346 0.10891379 1.3738408 10197915
0.025006164 0.10908714 1.3713498 10197915
0.074969038 0.10924309 1.3735149 10197915
0.12493345 0.10940038 1.3754082 10197915
0.17504154 0.10955849 1.3772336 10197915
0.22352014 0.10972304 1.3766487 10197915
0.27524564 0.10990593 1.3745357 10197915
0.32698435 0.11008993 1.3722053 10197915
0.3752363 0.11025266 1.3718321 10197915
0.42499539 0.1104098 1.3736211 10197915
0.47489908 0.11056581 1.3757273 10197915
0.52494341 0.11072382 1.3775281 8158332
0.55597645 0.10646223 1.3765713 2894892
-1.1245832 -0.62223786 1.4405794 11711154
-1.0753973 -0.62071526 1.4337412 11711154
-1.0252638 -0.61917466 1.4267694 11711154
-0.97553647 -0.61756402 1.419858 11711154
-0.92575508 -0.61612999 1.4129367 11711154
-0.87553883 -0.61443037 1.4059556 11711154
-0.84145707 -0.613711 1.4012158 11711154
-0.32421398 -0.61860883 1.4264809 6316128
0.56694931 -0.61949933 1.428504 2894892
-1.1245661 -0.57504684 1.4407878 11711154
-1.0752549 -0.57499999 1.4339254 11184810
-1.0250852 -0.57500094 1.4269444 10658466
-0.97475171 -0.574974 1.4199389 10658466
-0.92490977 -0.5750221 1.4130018 10658466
-0.87494886 -0.57499331 1.4060491 10658466
-0.84042698 -0.57468283 1.4012465 10658466
-0.32463291 -0.5749703 1.424733 5197647
0.566347 -0.57493514 1.4255002 2894892
-1.1243222 -0.52486861 1.4409775 11645361
-1.0749811 -0.52516145 1.4341098 9211020
-1.025264 -0.52499837 1.4271898 6447714
-0.97494054 -0.52498794 1.4201878 6447714
-0.92471147 -0.52486074 1.4131986 6447714
-0.87470478 -0.52513945 1.4062377 6447714
-0.83977044 -0.52465063 1.4013784 6447714
-0.32479343 -0.52525818 1.4250143 5263440
0.56603235 -0.52498531 1.4246949 2894892
-1.1242813 -0.47499084 1.4411936 5263440
-1.0749115 -0.47497773 1.434325 6776679
-1.0253881 -0.47502565 1.4274303 6447714
-0.97506899 -0.47501341 1.420429 6447714
-0.92458385 -0.47500518 1.4134032 6447714
-0.87459582 -0.474998 1.4064466 6447714
-0.83902723 -0.47466579 1.401498 6447714
-0.32511181 -0.47509176 1.424176 5460819
0.56571811 -0.47503722 1.4238935 2894892
-1.1244792 -0.42496046 1.4414451 4671303
-1.074859 -0.42480648 1.4345397 6447714
-1.024863 -0.42508778 1.4275829 6447714
-0.97476727 -0.42510322 1.4206082 6447714
-0.92472148 -0.42502186 1.4136441 6447714
-0.87473273 -0.42503622 1.4066881 6447714
-0.83825076 -0.42464587 1.4016129 6447714
-0.32522929 -0.42498457 1.4247788 5460819
0.565413 -0.42503649 1.4231563 2894892
-1.1246686 -0.37497595 1.4416935 4671303
-1.0746804 -0.37501416 1.4347367 6447714
-1.0244509 -0.37497917 1.4277524 6447714
-0.97476172 -0.37502179 1.4208325 6447714
-0.92491937 -0.37497541 1.413896 6447714
-0.87487894 -0.37507245 1.4069313 6447714
-0.8375777 -0.37465447 1.4017425 6447714
-0.3254956 -0.37461275 1.4243199 5592405
0.56537336 -0.37526697 1.4242975 2894892
-1.124826 -0.32502276 1.4419379 6381921
-1.0748589 -0.32504782 1.4349858 6447714
-1.0246936 -0.32496077 1.4280009 6447714
-0.97495699 -0.3250128 1.4210814 6447714
-0.92507339 -0.32495683 1.4141399 6447714
-0.87505901 -0.32507655 1.407179 6447714
-0.83678663 -0.32463536 1.4018548 6447714
-0.32570753 -0.32500336 1.4242284 5592405
0.56540817 -0.32480603 1.425987 2894892
-1.1250875 -0.27501971 1.442198 6447714
-1.0750213 -0.27503285 1.4352299 6447714
-1.0248132 -0.27500197 1.4282458 6447714
-0.97513002 -0.27497146 1.4213299 6447714
-0.92527288 -0.27499658 1.4143902 6447714
-0.87522584 -0.27503261 1.4074261 6447714
-0.8360436 -0.27455729 1.4019744 6447714
-0.32583407 -0.27495503 1.4247653 5592405
0.5651195 -0.27491221 1.4253653 2894892
-1.1253037 -0.22496668 1.4424524 6447714
-1.0751741 -0.22495364 1.4354742 6447714
-1.024925 -0.22502691 1.4284837 6447714
-0.97511536 -0.22491707 1.4215505 6447714
-0.92527819 -0.22513486 1.4146138 6447714
-0.8753826 -0.22500187 1.4076706 6447714
-0.83538109 -0.22455715 1.4021056 6447714
-0.3259899 -0.22522603 1.4250814 5658198
0.56481022 -0.22491643 1.4245971 2894892
-1.1250319 -0.17482433 1.4426373 6447714
-1.0749441 -0.17504019 1.4356661 6447714
-1.0252981 -0.17509533 1.4287555 6447714
-0.97485387 -0.17497896 1.4217372 6447714
-0.92480189 -0.17505229 1.4147704 6447714
-0.87508249 -0.17489091 1.4078529 6447714
-0.83417702 -0.1748503 1.4021598 6447714
-0.32629955 -0.17504989 1.424306 5921370
0.56449151 -0.1749761 1.4237618 2894892
-1.1249273 -0.12511957 1.4428438 6447714
-1.074952 -0.12492243 1.4358904 6447714
-1.025435 -0.12502237 1.4289993 6447714
-0.97488755 -0.12502728 1.421964 6447714
-0.92483413 -0.12470705 1.4149996 6447714
-0.87465924 -0.12534553 1.4080147 6447714
-0.83330053 -0.12466858 1.4022617 6447714
-0.32643095 -0.12502106 1.424806 5921370
0.56421667 -0.12518159 1.4232333 2894892
-1.1500716 -0.068320721 1.4465969 6513507
-1.1246308 -0.07536944 1.4430258 6513507
-1.0750086 -0.074861966 1.4361221 6447714
-1.0251483 -0.074806698 1.4291817 6447714
-0.9750917 -0.075035088 1.4222161 6447714
-0.92460787 -0.075045228 1.4151895 6447714
-0.87455034 -0.075259238 1.4082233 6447714
-0.83253253 -0.074726336 1.4023778 6447714
-0.32673743 -0.074779838 1.4240557 5921370
0.56419438 -0.075012349 1.4245107 2894892
-1.1502436 -0.025173957 1.446813 6447714
-1.1247188 -0.025112165 1.4432606 6447714
-1.0746613 -0.024990961 1.436295 6447714
-1.0244268 -0.024869338 1.4293067 6447714
-0.97460252 -0.024843385 1.4223715 6447714
-0.92476785 -0.025214348 1.4154347 6447714
-0.87470353 -0.025090255 1.4084675 6447714
-0.8317948 -0.024767667 1.4024974 6447714
-0.32690096 -0.025040597 1.4243164 5921370
0.56420368 -0.024978137 1.4260104 2894892
-1.1504443 0.025179818 1.4470658 6447714
-1.1249137 0.02511799 1.443512 6447714
-1.0748465 0.024996733 1.4365447 6447714
-1.0246043 0.024875041 1.4295512 6447714
-0.97480518 0.024801897 1.4226214 6447714
-0.9249295 0.02522024 1.4156811 6447714
-0.87485451 0.025096064 1.4087126 6447714
-0.83114529 0.025164844 1.4026303 6447714
-0.32702544 0.025016587 1.4248692 5987163
0.5638985 0.025013018 1.4252704 2894892
-1.1506428 0.07495138 1.4473152 9868950
-1.1249832 0.075189486 1.4437461 9868950
-1.0750334 0.075001732 1.4367931 8618883
-1.0246669 0.074794225 1.4297837 7039851
-0.97505909 0.074910365 1.4228797 7039851
-0.9250887 0.075085647 1.4159261 7039851
-0.87493038 0.075211048 1.4089462 7039851
-0.83031744 0.075137563 1.4027377 7039851
-0.32720205 0.074775837 1.4250368 6184542
0.56358016 0.074999347 1.4244399 2894892
-1.1507504 0.10194245 1.4474505 10197915
-1.1229986 0.10341541 1.4369889 10197915
-1.0751454 0.10368508 1.4283487 10197915
-1.0256407 0.10353135 1.4245259 10197915
-0.97528338 0.10362843 1.4199817 10197915
-0.92519313 0.10322899 1.4149399 10197915
-0.87582368 0.10323997 1.4091663 10197915
-0.82931352 0.10298494 1.4027076 10197915
-0.32170635 0.10551398 1.4223434 10132122
-0.27498507 0.10783567 1.4223425 10197915
-0.22502552 0.10799211 1.4244064 10197915
-0.17511989 0.1081484 1.4264666 10197915
-0.12323749 0.10832829 1.4250684 10197915
-0.075029269 0.1084974 1.4233698 10197915
-0.025091404 0.10865408 1.425379 10197915
0.02345084 0.10881571 1.4254156 10197915
0.075031228 0.10900355 1.4222028 10197915
0.12509838 0.10915988 1.424363 10197915
0.1749122 0.10931709 1.4261698 10197915
0.22664948 0.10949649 1.4247737 10197915
0.27490732 0.109666 1.4230442 10197915
0.32519281 0.10982271 1.4252616 10197915
0.37449801 0.10998086 1.4265381 10197915
0.42498064 0.11017064 1.422175 10197915
0.47494578 0.11032844 1.423969 10197915
0.52485484 0.11048439 1.4261026 9211020
0.56171894 0.10666198 1.4253409 2894892
0.57507139 -0.65726858 1.4851241 2894892
-0.3175759 -0.62127209 1.4741102 5987163
0.57368517 -0.6250698 1.4761966 2894892
-0.31767261 -0.57501751 1.4747508 2039583
0.57339072 -0.57497907 1.4755387 2894892
-0.31787229 -0.52474034 1.4747685 2039583
0.57306409 -0.52499139 1.4746478 2894892
-0.31815478 -0.47499371 1.4741759 2039583
0.57276022 -0.47499883 1.4739197 2894892
-0.31829226 -0.42503867 1.4746294 2039583
0.57244527 -0.42499912 1.4731134 2894892
-0.31841752 -0.37504584 1.4751735 2039583
0.57234317 -0.37450856 1.4738331 2894892
-0.31876931 -0.3250545 1.4740895 2039583
0.57249993 -0.3251476 1.4763571 2894892
-0.31889173 -0.2749539 1.4746583 2039583
0.5721938 -0.27503121 1.4756162 2894892
-0.31907171 -0.22466007 1.474818 2039583
0.57186902 -0.22502388 1.4747409 2894892
-0.31937984 -0.17501687 1.4740354 2039583
0.57155252 -0.17494927 1.4739237 2894892
-0.31950372 -0.12503031 1.4745898 2039583
0.57123381 -0.12499137 1.4730916 2894892
-0.31962937 -0.074964546 1.4751328 2039583
0.57110739 -0.074428968 1.4736403 2894892
-0.31993377 -0.025265425 1.4743804 2039583
0.57130009 -0.025020922 1.4764216 2894892
-0.3201108 0.024962561 1.4745597 2039583
0.57098514 0.025002833 1.4756142 2894892
-0.32028237 0.075293876 1.4747795 2039583
0.57067299 0.07502763 1.4748286 2894892
-0.31630027 0.10533196 1.4727401 10000536
-0.2759597 0.10757678 1.4742744 10197915
-0.22487056 0.10776976 1.4696592 10197915
-0.17499179 0.10792632 1.4716567 10197915
-0.1251736 0.10808073 1.4740331 10197915
-0.075005613 0.10823809 1.4760458 10197915
-0.024899168 0.10839468 1.4781775 10197915
0.026708586 0.10857154 1.4772176 10197915
0.074843362 0.10874464 1.4746521 10197915
0.12317754 0.10891969 1.4718436 10197915
0.17492479 0.10909642 1.4709916 10197915
0.22522536 0.1092525 1.4733634 10197915
0.27526203 0.10940959 1.475346 10197915
0.3252337 0.10956582 1.4774537 10197915
0.37602434 0.10973011 1.4785031 10197915
0.42485803 0.10991594 1.4738171 10197915
0.47361526 0.11007536 1.4744649 10197915
0.52493715 0.11026615 1.4704669 10000536
0.56666678 0.10711597 1.473825 3026478
0.58114511 -0.6668852 1.5279952 2894892
-0.31063798 -0.62144804 1.5239645 5987163
0.5805285 -0.62495041 1.5248127 2894892
-0.31074721 -0.57511175 1.5245197 2039583
0.58019227 -0.57501227 1.5238551 2894892
-0.31085074 -0.52501208 1.5252222 2039583
0.58014226 -0.5244754 1.5249447 2894892
-0.31113821 -0.475375 1.5245895 2039583
0.57993138 -0.47500345 1.5248625 2894892
-0.31136367 -0.4249908 1.5244256 2039583
0.57961571 -0.42498806 1.5240494 2894892
-0.31147686 -0.37504718 1.5250527 2039583
0.57954049 -0.37560692 1.5249295 2894892
-0.31184953 -0.3250199 1.5238204 2039583
0.57934034 -0.3250185 1.5249565 2894892
-0.31197095 -0.27507377 1.5243906 2039583
0.57902461 -0.27495617 1.5241432 2894892
-0.31209868 -0.22508834 1.5249166 2039583
0.57882905 -0.22446346 1.5241994 2894892
-0.31225267 -0.17532542 1.525247 2039583
0.57875496 -0.17508271 1.5250847 2894892
-0.31259143 -0.12503409 1.5242652 2039583
0.5784297 -0.12503543 1.5242068 2894892
-0.31270561 -0.074980564 1.5248922 2039583
0.57831186 -0.075665608 1.5247819 2894892
-0.3130385 -0.02468802 1.5239488 2039583
0.57816517 -0.024997676 1.5251888 2894892
-0.31320542 0.024990357 1.5241852 2039583
0.57784516 0.024979236 1.5243447 2894892
-0.31332007 0.074948356 1.5248048 2039583
0.57753098 0.074967936 1.5235445 2894892
-0.31148657 0.10455862 1.5260335 10066329
-0.2756058 0.10731076 1.5285217 10197915
-0.22511812 0.10753097 1.5180014 10197915
-0.17506474 0.10768839 1.5199271 10197915
-0.12486684 0.10784356 1.5224136 10197915
-0.0749406 0.10799991 1.5244706 10197915
-0.025083546 0.10815535 1.5266651 10197915
0.024920585 0.10831129 1.5288655 10197915
0.07506571 0.10846763 1.5310723 10197915
0.1249582 0.10867735 1.5222663 10197915
0.17514846 0.10886146 1.5188662 10197915
0.22497055 0.10901625 1.5211741 10197915
0.27493697 0.10917284 1.5232105 10197915
0.32525572 0.10932986 1.525401 10197915
0.37508327 0.10948534 1.5275668 10197915
0.42504957 0.10964124 1.5297457 10197915
0.47661784 0.10981485 1.529413 10197915
0.52426815 0.11002693 1.5186085 10197915
0.57131404 0.10739832 1.5229546 3618615
0.58974802 -0.70533627 1.5880089 2894892
0.58778262 -0.67451388 1.5749294 2894892
-0.30349278 -0.62147838 1.5753142 5921370
0.58740669 -0.62500185 1.5736738 2894892
-0.30368564 -0.57532209 1.5752604 2039583
0.58707923 -0.57506555 1.5727777 2894892
-0.30397955 -0.52501112 1.5746022 2039583
0.58701736 -0.52573669 1.5737504 2894892
-0.30426461 -0.47461677 1.5740098 2039583
0.58721894 -0.47502235 1.5766301 2894892
-0.30448583 -0.42501113 1.573853 2039583
0.58692026 -0.4249998 1.5759414 2894892
-0.30460787 -0.37505037 1.5744174 2039583
0.58657253 -0.37481534 1.5749067 2894892
-0.30472389 -0.32505077 1.5750296 2039583
0.58624625 -0.32482743 1.5740192 2894892
-0.30485085 -0.27501306 1.5755628 2039583
0.58593816 -0.27504456 1.5732535 2894892
-0.30515003 -0.22535686 1.5748459 2039583
0.58572358 -0.22563602 1.573145 2894892
-0.30539459 -0.17466149 1.5745534 2039583
0.58584434 -0.17423223 1.5754702 2894892
-0.30574581 -0.1250113 1.573463 2039583
0.58576006 -0.12494531 1.5762819 2894892
-0.3058486 -0.075045191 1.5741678 2039583
0.58542663 -0.074985102 1.5753431 2894892
-0.3059743 -0.025041377 1.5747077 2039583
0.58510274 -0.025008019 1.5744746 2894892
-0.30608931 0.025004076 1.5753269 2039583
0.58477867 0.024989551 1.5736014 2894892
-0.30624217 0.074820258 1.5756682 2105376
0.58445662 0.075000517 1.5727452 2894892
-0.30613425 0.10401368 1.5739937 10132122
-0.27265209 0.10710347 1.5726323 10197915
-0.22495432 0.10727939 1.5692035 10197915
-0.17492762 0.10743427 1.5716313 10197915
-0.12497034 0.10758966 1.5739039 10197915
-0.075090237 0.10774407 1.5763266 10197915
-0.025062723 0.10790043 1.5784496 10197915
0.025111059 0.10805651 1.5807323 10197915
0.075000785 0.10825517 1.5741742 10197915
0.12718384 0.10844851 1.5702472 10197915
0.17495249 0.10860926 1.5699522 10197915
0.22513536 0.10876621 1.5720593 10197915
0.27502775 0.10892157 1.5743003 10197915
0.32505947 0.10907728 1.5765548 10197915
0.37523788 0.10923354 1.5788097 10197915
0.42467821 0.10938824 1.5808727 10197915
0.47488284 0.10958669 1.5745647 10197915
0.52572685 0.10978604 1.5685146 10197915
0.57488447 0.10763969 1.5723636 4473924
0.59536391 -0.71404469 1.6276541 2894892
0.59463477 -0.67486894 1.6235963 2894892
-0.29804811 -0.62237722 1.6144167 5921370
0.59449106 -0.62430656 1.6240212 2894892
-0.30029529 -0.55882746 1.6001028 2039583
-0.29826638 -0.5752396 1.6142091 2039583
0.59442312 -0.57512277 1.624946 2894892
-0.30037302 -0.52515376 1.6005168 2039583
-0.2983748 -0.52517229 1.6148765 2039583
0.59408844 -0.52509201 1.623998 2894892
-0.30048886 -0.47494331 1.6011344 2039583
-0.29850015 -0.47495517 1.6154268 2039583
0.59417981 -0.47494528 1.6260824 2894892
-0.30035394 -0.4230921 1.6036011 2039583
-0.29702714 -0.4238852 1.6274868 2039583
0.59387112 -0.42494193 1.6253186 2894892
-0.30043188 -0.37521321 1.6044244 2039583
-0.29698429 -0.37507492 1.6292037 2039583
0.59351462 -0.37516457 1.6242113 2894892
-0.30055106 -0.32515216 1.6050133 2039583
-0.2970984 -0.32511726 1.6298292 2039583
0.59320742 -0.32518765 1.6234589 2894892
-0.30067039 -0.27505529 1.6056032 2039583
-0.29720986 -0.27505443 1.6304723 2039583
0.59313047 -0.27433461 1.6243672 2894892
-0.30101436 -0.22326557 1.6046265 2039583
-0.29757538 -0.22535126 1.6292819 2039583
0.59297639 -0.22502941 1.6246833 2894892
-0.30092514 -0.17415246 1.6066877 2039583
-0.29747686 -0.17536375 1.631433 2039583
0.59280795 -0.17578909 1.6248964 2894892
-0.30101907 -0.12486602 1.6074356 2039583
-0.2975536 -0.12493671 1.6323382 2039583
0.59273344 -0.1250324 1.6258178 2894892
-0.30111894 -0.074945256 1.6081591 2039583
-0.29767832 -0.075008146 1.6328835 2039583
0.5924018 -0.074978657 1.6248962 2894892
-0.30124938 -0.024993913 1.6086653 2039583
-0.29777342 -0.025039976 1.6336445 2039583
0.59208542 -0.024982233 1.6240789 2894892
-0.30136454 0.025006665 1.6092809 2039583
-0.29788738 0.025052778 1.6342713 2039583
0.59175026 0.025047665 1.6231284 2894892
-0.30126211 0.076082855 1.6114938 2105376
-0.29777837 0.074481256 1.6364833 2105376
0.59176457 0.075457402 1.6246735 2894892
-0.30152357 0.10360801 1.6098387 10066329
-0.27953577 0.10611486 1.6245286 10132122
-0.22499907 0.1070072 1.6244541 10197915
-0.17500341 0.10716148 1.6269783 10197915
-0.12508593 0.10731719 1.6291609 10197915
-0.076261692 0.10750681 1.6237224 10197915
-0.024894685 0.10767449 1.6244497 10197915
0.024942374 0.10782918 1.6267836 10197915
0.074935816 0.10803033 1.6197906 10197915
0.12499063 0.10818745 1.621786 10197915
0.17496763 0.10834096 1.6244503 10197915
0.22486231 0.10849758 1.6264333 10197915
0.27512312 0.10865202 1.6291127 10197915
0.32294762 0.10882764 1.6258301 10197915
0.37514836 0.10900993 1.6241548 10197915
0.42552355 0.10916764 1.6262457 10197915
0.47504175 0.10936677 1.619346 10197915
0.5249896 0.10952122 1.6218106 10197915
0.57955772 0.10763942 1.6247269 5066061
0.60469973 -0.75370318 1.6928405 2894892
0.59924579 -0.72060984 1.6550428 2894892
0.6028527 -0.7245416 1.6805531 2894892
0.59892637 -0.67533964 1.6540693 2894892
0.60246301 -0.67505491 1.6791992 2894892
0.59909332 -0.62563699 1.6566765 2894892
0.60247171 -0.62580305 1.6806717 2894892
0.59914613 -0.57510012 1.6584977 2894892
0.60248512 -0.57388687 1.6822535 2894892
0.5988673 -0.52408457 1.6579771 2894892
0.60241377 -0.52543396 1.6831321 2894892
0.59892535 -0.47492281 1.6597959 2894892
0.60249841 -0.47501814 1.6851736 2894892
-0.29057431 -0.42170441 1.6739235 2039583
0.59858745 -0.42495263 1.6588244 2894892
0.60215718 -0.42521718 1.684175 2894892
-0.29067123 -0.37512249 1.6745714 2039583
0.59845734 -0.37328771 1.6593776 2894892
0.60200089 -0.37648565 1.6844598 2894892
-0.2907888 -0.32510823 1.6751716 2039583
0.59836918 -0.32515168 1.6601295 2894892
0.60194749 -0.32489422 1.6855557 2894892
-0.29091012 -0.27499279 1.6757467 2039583
0.59829193 -0.27691752 1.6609594 2894892
0.60162085 -0.2748147 1.6846685 2894892
-0.29127508 -0.22470877 1.6745777 2039583
0.59847832 -0.22358926 1.6638097 2894892
0.60182828 -0.22478536 1.6875727 2894892
-0.29142749 -0.17491519 1.6749197 2039583
0.59825963 -0.17489754 1.663651 2894892
0.60186255 -0.17513812 1.6892375 2894892
-0.29183185 -0.12508462 1.6734549 2039583
0.59794098 -0.12485927 1.662816 2894892
0.60154188 -0.12503086 1.688392 2894892
-0.29197201 -0.075022347 1.6738924 2039583
0.59803778 -0.074776702 1.6649377 2894892
0.60163808 -0.0754086 1.6904954 2894892
-0.29206651 -0.025038684 1.6746573 2039583
0.59771305 -0.024960494 1.6640555 2894892
0.60132915 -0.025203714 1.6897379 2894892
-0.29217064 0.024988435 1.6753545 2039583
0.59750414 0.025840061 1.664026 2894892
0.60108781 0.02348369 1.6894162 2894892
-0.29233822 0.075103164 1.6755974 2171169
0.59784442 0.074206971 1.6678262 2894892
0.60110992 0.07531479 1.6910565 2894892
-0.28168452 0.1050342 1.6724892 10132122
-0.22496817 0.10676648 1.6733632 10197915
-0.17495352 0.1069206 1.6759284 10197915
-0.12480238 0.10707659 1.6782231 10197915
-0.073924877 0.10727867 1.671638 10197915
-0.02517854 0.10743434 1.6730261 10197915
0.024996959 0.10758888 1.67563 10197915
0.075077645 0.10774582 1.6776732 10197915
0.12329248 0.10792818 1.6732924 10197915
0.17498106 0.10810389 1.6725992 10197915
0.22484933 0.10825776 1.6751304 10197915
0.27486143 0.10841341 1.6773876 10197915
0.3271977 0.10861132 1.6726481 10197915
0.37505272 0.10877267 1.672282 10197915
0.42484301 0.10892701 1.6746547 10197915
0.47501379 0.10908256 1.6770458 10197915
0.52316195 0.10924331 1.6770051 10197915
0.58222604 0.10789502 1.670827 5723991
0.6009559 0.10469394 1.6908022 2894892
0.60955375 -0.76124394 1.7271048 2894892
0.60902983 -0.72401249 1.7244511 2894892
