# .PCD v0.7 - Point Cloud Data file format
VERSION 0.7
FIELDS x y z rgb
SIZE 4 4 4 4
TYPE F F F U
COUNT 1 1 1 1
WIDTH 1158
HEIGHT 1
VIEWPOINT 0 0 0 1 0 0 0
POINTS 1158
DATA ascii
-0.72555077 -0.12573668 2.248162 1986440
-0.67523658 -0.12573299 2.2480979 2249609
-0.62492496 -0.12572956 2.2480347 2250378
-0.57461637 -0.12572569 2.2479696 2314365
-0.53455818 -0.12572291 2.2479177 4144959
0.55486232 -0.12519728 2.2248247 2894892
-0.86670715 -0.075003207 2.2370577 2250378
-0.82444984 -0.075457409 2.248637 2315917
-0.7750544 -0.075455278 2.2485707 2382478
-0.72566164 -0.075453229 2.2485096 2514319
-0.67533976 -0.07545121 2.2484422 2184331
-0.62502074 -0.07544896 2.2483768 1986438
-0.57470441 -0.075446725 2.248311 1984120
-0.53464001 -0.075445049 2.2482629 3881787
0.5547784 -0.074955873 2.2243319 2894892
-0.86703616 -0.025012696 2.2361636 2118793
-0.82457662 -0.025155909 2.2489772 2249866
-0.77464747 -0.024921359 2.2489142 2514834
-0.72526324 -0.025389362 2.2488492 2646418
-0.67544311 -0.025153745 2.2487855 1986440
-0.62511677 -0.025153026 2.2487245 1787777
-0.57479262 -0.025152348 2.2486587 1653102
-0.53472173 -0.025151787 2.2486084 3750201
0.55469561 -0.024879796 2.2241802 2894892
-0.86714262 0.025016792 2.236438 1854340
-0.82470274 0.025161056 2.2493234 2117254
-0.77435988 0.025160374 2.2492609 2382478
-0.72495192 0.025159668 2.2491961 2382734
-0.675547 0.025158873 2.2491333 1655423
-0.62521231 0.025158193 2.2490697 1523323
-0.57488066 0.025157481 2.2490036 1587309
-0.53480375 0.025156923 2.2489505 5395026
0.55461323 0.02487486 2.2238493 2894892
-0.86722779 0.064848103 2.2360709 1722497
-0.82484865 0.065209866 2.2487733 1919106
-0.77450472 0.06524387 2.2488108 2183816
-0.72502863 0.065247744 2.2488739 2250378
-0.67560923 0.065217443 2.2489536 1588859
-0.62521964 0.06602072 2.2462797 1589115
-0.57495368 0.066113159 2.2462499 1851508
-0.53069371 0.072317399 2.2413523 9868951
-0.4745903 0.09943036 2.2220407 9934743
-0.42471051 0.099498555 2.2239387 9934743
-0.37476981 0.099571288 2.2251899 9934743
-0.32475048 0.099639654 2.2270923 9934743
-0.27466583 0.099712588 2.228348 10000536
-0.2245066 0.099781185 2.2302561 10066329
-0.18051705 0.099858403 2.2294612 10000536
0.55453759 0.075002536 2.2270806 2894892
-0.15413561 0.1000047 2.2145805 9934743
-0.12482511 0.10004614 2.2154987 9934743
-0.074396312 0.10011744 2.217077 9934743
-0.024814192 0.10018749 2.2186286 9934743
0.02483736 0.10025766 2.2201827 9934743
0.074558556 0.10032798 2.2217393 9934743
0.12434945 0.10039833 2.2232976 9934743
0.17421027 0.10046877 2.2248576 9934743
0.22414118 0.10053939 2.2264211 9934743
0.27414221 0.10061003 2.2279861 9934743
0.32421353 0.10068081 2.2295525 9934743
0.37435555 0.10075169 2.2311227 9934743
0.42456806 0.10082266 2.2326944 9934743
0.47569802 0.10090358 2.2330449 5658198
0.52519786 0.10108864 2.2180262 2894892
0.55336326 0.10088569 2.2225478 2894892
-0.51853216 -1.0043641 2.2551754 11711154
0.55644107 -1.0102249 2.2808115 2894892
-0.51858014 -0.97455639 2.2553842 11711154
0.55637276 -0.97491074 2.276211 2894892
-0.51866114 -0.92424405 2.2557364 11711154
0.55628949 -0.92479324 2.2758203 2894892
-0.51874065 -0.87484837 2.2560821 11711154
0.55620694 -0.87500554 2.2755301 2894892
-0.51882011 -0.82543749 2.2564275 11711154
0.55612433 -0.82523245 2.275193 2894892
-0.51890111 -0.77507883 2.2567804 11711154
0.55604082 -0.77515852 2.274755 2894892
-0.87287563 -0.71230382 2.2534003 2050939
-0.51898229 -0.72470421 2.2571328 11711154
0.55595839 -0.72510171 2.2746108 2894892
-0.87293655 -0.67500824 2.2535577 2448020
-0.51906329 -0.67431396 2.2574854 11711154
0.55587488 -0.67505968 2.2742224 2894892
-0.87301892 -0.62465167 2.2537706 2448019
-0.51914293 -0.62484169 2.2578318 11711154
0.55579168 -0.62503284 2.2736871 2894892
-0.87310147 -0.57428563 2.2539833 2249357
-0.51923072 -0.57318008 2.2545724 6842472
0.55570823 -0.57454717 2.2735641 2894892
-0.87316102 -0.53790444 2.2541368 2183821
-0.51930881 -0.5249123 2.2544985 6513507
0.55562532 -0.52454728 2.2732241 2894892
-0.51938999 -0.47454968 2.2548501 6710886
0.55554283 -0.47503537 2.2726681 2894892
-0.51947033 -0.42463318 2.2551227 11711154
0.55546319 -0.42412388 2.2745945 2894892
-0.51954967 -0.37518206 2.2556207 11711154
0.55538595 -0.37515202 2.276089 2894892
-0.8735531 -0.30145085 2.2527425 1717325
-0.51963019 -0.32523483 2.2558937 11711154
0.55530274 -0.32512781 2.2757082 2894892
-0.87359583 -0.275332 2.2528532 2183809
-0.5197112 -0.27480996 2.2562456 10329501
0.55521959 -0.27511996 2.2753241 2894892
-0.87367821 -0.22495337 2.2530651 2316942
-0.51979184 -0.22483853 2.2565191 6513507
0.5551362 -0.22499073 2.2749429 2894892
-0.87376058 -0.17456524 2.2532785 2382734
-0.51987225 -0.17484905 2.2569444 6513507
0.55505306 -0.17487618 2.2746005 2894892
-0.87384236 -0.12462753 2.2535343 2383246
-0.51995265 -0.12483909 2.25737 6513507
0.55497044 -0.12504646 2.2743027 2894892
-0.8739236 -0.075167656 2.2536521 2051461
-0.52003258 -0.075297534 2.2575636 6513507
0.55488795 -0.075097337 2.2742164 2894892
-0.87400514 -0.025211319 2.2539082 2052743
-0.52011299 -0.025256708 2.2579899 6513507
0.55480427 -0.025033733 2.2734971 2894892
-0.87408775 0.025214495 2.2541211 1787779
-0.52019435 0.025261972 2.258342 6974058
0.55472088 0.02502872 2.2731569 2894892
-0.87415195 0.064440876 2.2542868 1656193
-0.5185383 0.079386182 2.2618971 10000536
-0.47448975 0.099049196 2.2769802 10000536
-0.42479339 0.099119112 2.2785876 10000536
-0.37502614 0.099189073 2.280196 10000536
-0.32518911 0.099259153 2.2818065 10000536
-0.27528113 0.09932936 2.2834203 10132122
-0.22530299 0.099399634 2.2850358 10197915
-0.17082796 0.099540368 2.2775557 10197915
-0.12505546 0.099668942 2.2697864 10197915
-0.075269841 0.099739067 2.271383 10197915
-0.024952685 0.099812329 2.2726469 10197915
0.020436995 0.099816635 2.2826879 10197915
0.075107343 0.099822126 2.2947483 10197915
0.12558272 0.099893078 2.2963796 10197915
0.17517577 0.099962793 2.2979825 10197915
0.20095043 0.099999025 2.2988153 10197915
0.55464745 0.074988395 2.2771614 2894892
0.034588359 0.10002237 2.2563734 10197915
0.074828297 0.10007913 2.257654 10197915
0.12448744 0.10014914 2.2592328 10197915
0.17515479 0.10022054 2.2608435 10197915
0.22288714 0.10017899 2.278053 10197915
0.27482352 0.10036107 2.2640142 10132122
0.32476249 0.10043147 2.2656024 10132122
0.37477219 0.10050201 2.2671933 10132122
0.42485163 0.10057262 2.2687862 10066329
0.47500178 0.10064329 2.2703807 5592405
0.52522224 0.10071412 2.2719786 2894892
0.55345935 0.10054471 2.2681568 2894892
0.55655783 -1.0205064 2.3263268 2894892
0.55647802 -0.97512108 2.3239572 2894892
0.55639482 -0.92507756 2.3236363 2894892
0.55631089 -0.87489212 2.3230283 2894892
0.55622852 -0.82488 2.3228629 2894892
0.55614525 -0.7748841 2.3225951 2894892
0.55606216 -0.72490168 2.3221171 2894892
0.55597943 -0.67493498 2.321902 2894892
0.55589622 -0.62482095 2.3215542 2894892
0.55582011 -0.57455152 2.324523 2894892
0.55573928 -0.52492332 2.3249531 2894892
0.55565631 -0.47490352 2.3246055 2894892
0.55557871 -0.42585191 2.3259945 2894892
0.55549908 -0.37499523 2.3278735 2894892
0.55541617 -0.32495847 2.3276038 2894892
0.55533278 -0.27493379 2.3271232 2894892
0.55525023 -0.22509006 2.3268828 2894892
0.55516708 -0.17509571 2.3265603 2894892
0.55508363 -0.12495922 2.3260036 2894892
0.55500072 -0.07499864 2.3257322 2894892
0.55491799 -0.025049895 2.3255167 2894892
0.5548349 0.025044892 2.3251677 2894892
-0.51568168 0.09872736 2.3136516 10000536
-0.47569212 0.098783456 2.3149657 10000536
-0.42516652 0.098854348 2.316627 10000536
-0.37456852 0.098925285 2.3182898 10000536
-0.3248544 0.098994985 2.3199232 10000536
-0.27507031 0.099064842 2.3215599 10132122
-0.22521584 0.099134766 2.3231988 10197915
-0.17529093 0.099204771 2.3248391 10197915
-0.12529546 0.099274889 2.3264828 10197915
-0.075229287 0.099345125 2.3281286 10197915
-0.025092205 0.099415429 2.3297763 10197915
0.025115894 0.099485844 2.3314261 10197915
0.075395182 0.099556394 2.3330793 10197915
0.12574579 0.099626988 2.3347342 10197915
0.17519727 0.099696338 2.336359 10197915
0.2247182 0.099765815 2.3379872 10197915
0.27528092 0.099836715 2.3396487 10197915
0.32494092 0.099906348 2.3412807 10197915
0.37076703 0.099970646 2.342787 10197915
0.55475163 0.074963756 2.3246884 2894892
0.24395485 0.10005955 2.3002067 10197915
0.27456996 0.10010258 2.3011961 10197915
0.32437134 0.1001726 2.3028057 10197915
0.3771624 0.10021122 2.3096454 10197915
0.42481533 0.10018016 2.3253088 10197915
0.47474462 0.10025289 2.3265579 5329233
0.52476639 0.10032053 2.3285666 2894892
0.5530749 0.1003202 2.325362 2894892
0.55674297 -1.0581697 2.3825464 2894892
0.55666989 -1.0253145 2.3738306 2894892
0.55658674 -0.97500998 2.3736956 2894892
0.55650359 -0.9250493 2.3732851 2894892
0.55642086 -0.87510073 2.372987 2894892
0.55633754 -0.82500565 2.3726041 2894892
0.55625463 -0.77508837 2.3721387 2894892
0.556171 -0.72502148 2.3718145 2894892
0.55608839 -0.67496997 2.3715968 2894892
0.5560053 -0.62509948 2.3710225 2894892
0.55593252 -0.57596189 2.374707 2894892
0.55584925 -0.52535117 2.3747456 2894892
0.55576706 -0.47380361 2.3759654 2894892
0.5556916 -0.42498091 2.3781979 2894892
0.55560857 -0.37500325 2.3778439 2894892
0.55552584 -0.32504138 2.3776004 2894892
0.55544233 -0.27509707 2.3770773 2894892
0.55535924 -0.22499874 2.3766935 2894892
0.55527675 -0.17508392 2.3765051 2894892
0.55519372 -0.12518139 2.376097 2894892
0.55511075 -0.074965194 2.375905 2894892
0.55502683 -0.024935769 2.3752434 2894892
0.5549441 0.024930799 2.3748894 2894892
-0.52223891 0.09829203 2.3748188 10000536
-0.47513172 0.098370075 2.3746405 10000536
-0.42525941 0.098439783 2.3763225 10000536
-0.37483549 0.098512955 2.3776231 10000536
-0.32881621 0.098631829 2.3713098 10000536
-0.27485263 0.098791465 2.3609982 10132122
-0.225126 0.098860994 2.3626599 10197915
-0.1753297 0.098930635 2.3643241 10197915
-0.1254628 0.099000402 2.3659914 10197915
-0.074545883 0.099071607 2.3676934 10197915
-0.024537163 0.099141553 2.3693647 10197915
0.024559814 0.099210218 2.3710058 10197915
0.074709103 0.099280395 2.3726828 10197915
0.12492885 0.099350594 2.3743613 10197915
0.17522016 0.099420935 2.3760417 10197915
0.22558235 0.099491395 2.3777256 10197915
0.2750265 0.099560559 2.3793783 10197915
0.32453945 0.099629782 2.3810327 10197915
0.37511393 0.099700503 2.3827236 10197915
0.42575988 0.099771373 2.3844168 10197915
0.47548282 0.099840902 2.3860784 4934475
0.52527511 0.099910535 2.3877425 2894892
0.55482721 0.075253114 2.3750174 2894892
0.5568614 -1.0682738 2.4289999 2894892
0.55678308 -1.0247902 2.4258807 2894892
0.55670047 -0.97489583 2.425669 2894892
0.55661696 -0.92484921 2.4251266 2894892
0.55653399 -0.87481761 2.4248252 2894892
0.55645084 -0.82496643 2.4243736 2894892
0.55636823 -0.7749663 2.4241908 2894892
0.55628443 -0.72480977 2.423739 2894892
0.55620211 -0.67500705 2.4234078 2894892
0.5561192 -0.62504697 2.4231062 2894892
0.55603659 -0.57544696 2.4225066 2894892
0.55595392 -0.5256781 2.4222417 2894892
0.55587476 -0.47616056 2.4233274 2894892
0.55579621 -0.42493728 2.4259067 2894892
0.55571347 -0.37503248 2.4256167 2894892
0.55563027 -0.32494006 2.4253244 2894892
0.5555467 -0.27485892 2.4248188 2894892
0.55546451 -0.2250004 2.4245999 2894892
0.55538118 -0.17495093 2.4242368 2894892
0.55529797 -0.12491678 2.4238031 2894892
0.55521506 -0.075102836 2.4233692 2894892
0.55513763 -0.024158701 2.426348 2894892
0.55505848 0.025138866 2.4272482 2894892
-0.55468333 0.097825974 2.4343333 10000536
-0.52565026 0.097866334 2.4353378 10000536
-0.47554207 0.097936019 2.4370718 10000536
-0.42536244 0.098005801 2.4388082 10000536
-0.37511116 0.098075673 2.4405468 10000536
-0.32100663 0.098256059 2.4272683 10000536
-0.27500585 0.098361447 2.4228976 10132122
-0.22498681 0.098436929 2.423768 10197915
-0.17489302 0.098500825 2.4263308 10197915
-0.12521604 0.098573014 2.4276035 10197915
-0.074835829 0.098787136 2.4085901 10197915
-0.024960885 0.098856695 2.4102855 10197915
0.024984332 0.09892635 2.4119837 10197915
0.075000003 0.098996133 2.4136851 10197915
0.12508622 0.099065952 2.4153879 10197915
0.17524315 0.099135898 2.4170928 10197915
0.22547108 0.099205971 2.4188013 10197915
0.27576995 0.099276103 2.4205117 10197915
0.32513162 0.099344946 2.4221895 10197915
0.37456229 0.099413879 2.4238706 10197915
0.42507249 0.099484347 2.4255888 10197915
0.47565407 0.099554874 2.4273086 4671303
0.52529353 0.09962409 2.4289956 2894892
0.5549292 0.075398192 2.4266815 2894892
0.55704689 -1.105864 2.4854102 2894892
0.55697554 -1.0749723 2.475971 2894892
0.55689216 -1.0251724 2.4753768 2894892
0.5568096 -0.97518712 2.4752343 2894892
0.55672622 -0.92521137 2.4747906 2894892
0.55664325 -0.87525368 2.4744196 2894892
0.55655998 -0.82510322 2.4741271 2894892
0.55647665 -0.77496785 2.4736798 2894892
0.55639386 -0.72505546 2.4733124 2894892
0.55631053 -0.67494917 2.47294 2894892
0.55622756 -0.62506807 2.4724967 2894892
0.55614686 -0.57482952 2.4733913 2894892
0.55607235 -0.52529281 2.4765496 2894892
0.55598801 -0.47477645 2.4760175 2894892
0.55590546 -0.42496496 2.4756799 2894892
0.55582207 -0.37499225 2.4753113 2894892
0.55573964 -0.32503548 2.4750674 2894892
0.55565608 -0.2750963 2.4745085 2894892
0.55557269 -0.22499613 2.4741077 2894892
0.55549014 -0.17508653 2.4739258 2894892
0.55540711 -0.1251889 2.4734955 2894892
0.55532414 -0.07496421 2.4733098 2894892
0.5552485 -0.025945641 2.4755888 2894892
0.55516779 0.024837535 2.4769101 2894892
-0.55943847 0.097516865 2.4777286 10000536
-0.52479339 0.097564891 2.4789486 10000536
-0.47480771 0.097634189 2.4807096 10000536
-0.42475036 0.097703591 2.4824727 10000536
-0.37462232 0.097773068 2.4842379 10000536
-0.32544789 0.097841211 2.4859695 10000536
-0.27517813 0.097910918 2.4877408 10132122
-0.22483708 0.097980708 2.4895144 10197915
-0.17545347 0.098049134 2.4912527 10197915
-0.12402806 0.098132171 2.4913785 10197915
-0.074775137 0.098341018 2.4728694 10197915
-0.025115766 0.098413058 2.4741547 10197915
0.025139499 0.09848281 2.4759085 10197915
0.070837334 0.098599881 2.4697888 10197915
0.12524928 0.098771408 2.4578602 10197915
0.17526717 0.098840952 2.4595907 10197915
0.22535609 0.098910607 2.4613242 10197915
0.27551517 0.09898039 2.4630599 10197915
0.32471943 0.099048771 2.464762 10197915
0.37501922 0.09911871 2.4665022 10197915
0.42538977 0.099188797 2.4682457 10197915
0.47480145 0.099257469 2.4699552 4605510
0.52428168 0.099326253 2.4716671 2894892
0.55501425 0.075090811 2.4765201 2894892
0.55715066 -1.1149145 2.5259266 2894892
0.55707741 -1.0746435 2.5227301 2894892
0.55699468 -1.0247459 2.5224359 2894892
0.55691195 -0.97485828 2.5221415 2894892
0.55682856 -0.92498261 2.5216038 2894892
0.55674577 -0.87491763 2.5213866 2894892
0.5566684 -0.8240068 2.5243609 2894892
0.55659062 -0.77507716 2.525557 2894892
0.55650711 -0.72509801 2.5249786 2894892
0.55642408 -0.67513674 2.5245342 2894892
0.55634093 -0.62501043 2.5243247 2894892
0.55626124 -0.57614738 2.5245557 2894892
0.55618668 -0.52581084 2.5283432 2894892
0.55610222 -0.47525081 2.5278027 2894892
0.55601847 -0.42491901 2.5274191 2894892
0.55593592 -0.37502244 2.5271242 2894892
0.55585289 -0.32492977 2.5268254 2894892
0.55576926 -0.27484807 2.5262856 2894892
0.55568659 -0.22499782 2.5260713 2894892
0.55560344 -0.17494792 2.5256925 2894892
0.55552012 -0.12491333 2.5252345 2894892
0.55543715 -0.075107798 2.5247757 2894892
0.55535442 -0.025102105 2.5245605 2894892
0.55527097 0.025097083 2.5241809 2894892
-0.56436676 0.097196661 2.5227025 10000536
-0.52494395 0.097251117 2.5241158 10000536
-0.4750863 0.097320028 2.5259044 10000536
-0.4251577 0.097389035 2.5276949 10000536
-0.37515831 0.097458087 2.5294878 10000536
-0.32508796 0.097527273 2.5312834 10000536
-0.27494654 0.097596586 2.5330822 10132122
-0.22473373 0.097665958 2.5348825 10197915
-0.17444949 0.097735412 2.5366855 10197915
-0.12514375 0.09780357 2.5384543 10197915
-0.075768717 0.097871803 2.5402253 10197915
-0.025272245 0.097941548 2.5420358 10197915
0.025296269 0.098011404 2.543849 10197915
0.078889526 0.098199725 2.5293179 10197915
0.12445752 0.098306686 2.5246108 10197915
0.17374919 0.098381765 2.5253708 10197915
0.22419532 0.098603152 2.5053289 10197915
0.27420855 0.098672487 2.5070906 10197915
0.32429203 0.098741889 2.5088544 10197915
0.37444612 0.098811395 2.5106204 10197915
0.42467105 0.098881058 2.5123901 10197915
0.47496662 0.098950773 2.5141613 4276545
0.52533311 0.099020563 2.5159347 2894892
0.55514532 0.075065225 2.5234487 2894892
0.55735403 -1.1540934 2.5893149 2894892
0.55726784 -1.1238145 2.5727036 2894892
0.55718511 -1.0749511 2.5716288 2894892
0.55710179 -1.0251505 2.5709929 2894892
0.5570187 -0.97494191 2.5707762 2894892
0.55693597 -0.92496234 2.5705631 2894892
0.5568527 -0.87462592 2.57043 2894892
0.55678928 -0.82598501 2.5780189 2894892
0.5567081 -0.77490342 2.5792048 2894892
0.55662513 -0.72500312 2.5788219 2894892
0.55654162 -0.67490029 2.5784352 2894892
0.55645871 -0.62503189 2.5779657 2894892
0.55637693 -0.57560027 2.5777559 2894892
0.55629337 -0.52532852 2.5773695 2894892
0.55620903 -0.47485739 2.5768092 2894892
0.55612642 -0.42504859 2.5765107 2894892
0.55604339 -0.37503538 2.5761268 2894892
0.55596054 -0.32503879 2.5759127 2894892
0.55587691 -0.27506045 2.5752707 2894892
0.55579346 -0.22487827 2.5748866 2894892
0.55571067 -0.17492712 2.5746703 2894892
0.5556277 -0.12520333 2.5740321 2894892
0.55554551 -0.075064816 2.5741549 2894892
0.55546093 -0.024955116 2.5732594 2894892
0.5553779 0.02495015 2.5728753 2894892
-0.5694769 0.096864618 2.5693388 10000536
-0.52510023 0.096925713 2.5709593 10000536
-0.47537526 0.096994229 2.5727766 10000536
-0.42451969 0.097064257 2.5746341 10000536
-0.37465262 0.097132899 2.5764554 10000536
-0.3247146 0.097201683 2.5782795 10000536
-0.27470636 0.097270586 2.5801067 10132122
-0.22462659 0.097339518 2.5819356 10197915
-0.17447624 0.097408563 2.5837674 10197915
-0.12532379 0.097476289 2.5855634 10197915
-0.075031929 0.097545534 2.5874004 10197915
-0.02466904 0.097614892 2.5892396 10197915
0.024691934 0.097682856 2.5910423 10197915
0.075197309 0.097752452 2.5928884 10197915
0.1257741 0.097822078 2.5947354 10197915
0.17720647 0.097919181 2.5928271 10197915
0.22504891 0.098123096 2.5746875 10197915
0.27077192 0.098260947 2.5655725 10197915
0.32491249 0.098425411 2.5545945 10197915
0.37491754 0.0984945 2.5563874 10197915
0.42499253 0.098563716 2.5581839 10197915
0.47513834 0.098632991 2.5599816 4079166
0.52535403 0.098702356 2.5617824 2894892
0.55524158 0.074807659 2.5725794 2894892
0.55744982 -1.1625007 2.626725 2894892
0.55737847 -1.1245365 2.6226707 2894892
0.55729502 -1.0743949 2.6222785 2894892
0.55721182 -1.0247031 2.6216145 2894892
0.55712992 -0.9750331 2.6215007 2894892
0.55704635 -0.92493618 2.6211097 2894892
0.55696476 -0.87523919 2.621084 2894892
0.55689174 -0.82500565 2.6253536 2894892
0.55680931 -0.775401 2.6250799 2894892
0.55672598 -0.72526568 2.6246874 2894892
0.55664277 -0.67514533 2.624294 2894892
0.55656368 -0.62360299 2.6269011 2894892
0.55648774 -0.57544512 2.6284535 2894892
0.55640525 -0.5256955 2.6281621 2894892
0.5563218 -0.47532475 2.6279447 2894892
0.55623811 -0.42496297 2.627459 2894892
0.55615443 -0.37483191 2.6269729 2894892
0.556072 -0.3249397 2.6267643 2894892
0.55598861 -0.27483952 2.6263695 2894892
0.55590546 -0.22497283 2.6258881 2894892
0.55582279 -0.17512141 2.6255875 2894892
0.55573869 -0.12507135 2.6248331 2894892
0.55565649 -0.075032882 2.6248014 2894892
0.55557323 -0.02500763 2.624409 2894892
0.55549014 0.025002638 2.6240158 2894892
-0.5747785 0.096519925 2.6177285 10000536
-0.52418435 0.096589372 2.619611 10000536
-0.47459602 0.096657455 2.6214581 10000536
-0.42493755 0.096725591 2.6233058 10000536
-0.37520897 0.096793815 2.6251562 10000536
-0.32541037 0.096862175 2.6270101 10000536
-0.27554139 0.096930631 2.6288667 10132122
-0.22560179 0.096999146 2.6307251 10197915
-0.17559151 0.097067736 2.6325858 10197915
-0.12551048 0.097136505 2.6344504 10197915
-0.075358465 0.097205326 2.6363173 10197915
-0.025135325 0.097274244 2.638186 10197915
0.025159087 0.097343229 2.6400576 10197915
0.075524941 0.097412407 2.6419334 10197915
0.12486486 0.097480103 2.6437693 10197915
0.17427391 0.097547881 2.6456077 10197915
0.22485182 0.097617291 2.64749 10197915
0.27674994 0.097833417 2.6285594 10197915
0.32447326 0.098095678 2.6019931 10197915
0.37432176 0.09816432 2.6038136 10197915
0.42424035 0.098233111 2.6056378 10197915
0.47422865 0.09830194 2.6074638 3881787
0.52428716 0.098370865 2.6092918 2894892
0.55533433 0.074768387 2.6230986 2894892
0.55766582 -1.2029748 2.6948676 2894892
0.55757815 -1.1732694 2.67714 2894892
0.55749476 -1.1249651 2.6753731 2894892
0.55741179 -1.074928 2.6749728 2894892
0.55732805 -1.0251273 2.6743867 2894892
0.55724519 -0.97490174 2.6741757 2894892
0.55716211 -0.92513436 2.6736808 2894892
0.55707884 -0.87515765 2.6731894 2894892
0.55699605 -0.82497424 2.6729798 2894892
0.55691206 -0.7748062 2.6723881 2894892
0.55682915 -0.72487372 2.6720831 2894892
0.55674672 -0.67495865 2.6718774 2894892
0.55667049 -0.62629509 2.6736147 2894892
0.5565927 -0.57544243 2.676333 2894892
0.55650961 -0.52546936 2.6759331 2894892
0.55642509 -0.47495258 2.6752901 2894892
0.55634302 -0.42501599 2.675369 2894892
0.55625921 -0.37508994 2.6744912 2894892
0.55617607 -0.32517424 2.674212 2894892
0.55609375 -0.27527794 2.6740525 2894892
0.55600983 -0.22511806 2.6733534 2894892
0.55592668 -0.17497373 2.673131 2894892
0.55585241 -0.12433989 2.6772633 2894892
0.55577308 -0.074986972 2.6780446 2894892
0.55568862 -0.025074884 2.6770673 2894892
0.55560535 0.025069872 2.6766655 2894892
-0.60549378 0.096127689 2.6670234 10000536
-0.57480431 0.096169643 2.6681871 10000536
-0.52542973 0.09623716 2.6700606 10000536
-0.4748866 0.096306294 2.671979 10000536
-0.42427063 0.096375488 2.6738987 10000536
-0.37468484 0.096443273 2.6757791 10000536
-0.3250289 0.096511185 2.677664 10000536
-0.27530339 0.096579194 2.6795502 10132122
-0.22550724 0.096647263 2.6814389 10197915
-0.17453213 0.09671694 2.6833723 10197915
-0.12459432 0.096785277 2.6852679 10197915
-0.074585363 0.096853636 2.687165 10197915
-0.024506219 0.096922107 2.6890643 10197915
0.024528807 0.096989132 2.6909239 10197915
0.074748792 0.097057842 2.6928303 10197915
0.12503935 0.097126596 2.6947379 10197915
0.17428158 0.097193927 2.6966054 10197915
0.22471382 0.097262867 2.6985183 10197915
0.272926 0.097470649 2.679914 10197915
0.32512018 0.097754903 2.651222 10197915
0.37480822 0.097823068 2.6530712 10197915
0.42456532 0.097891361 2.6549234 10197915
0.47439238 0.097959779 2.6567783 3750201
0.52539843 0.09802974 2.6586764 2894892
0.55548114 0.074502267 2.676353 2894892
0.55775362 -1.2105604 2.729243 2894892
0.55768567 -1.1749215 2.7249534 2894892
0.55760163 -1.1245233 2.7244203 2894892
0.55751836 -1.0744077 2.7242 2894892
0.55743575 -1.0245973 2.7237952 2894892
0.55735284 -0.97480142 2.7233896 2894892
0.55726928 -0.92474145 2.722796 2894892
0.55718672 -0.87497604 2.7223866 2894892
0.55710381 -0.82522362 2.7221115 2894892
0.55703056 -0.77450496 2.7267489 2894892
0.55694926 -0.7250517 2.7267756 2894892
0.55686671 -0.67501813 2.7265687 2894892
0.55678374 -0.62522352 2.726162 2894892
0.556701 -0.57567811 2.7255533 2894892
0.55661726 -0.52544934 2.7250524 2894892
0.55653405 -0.47503287 2.7249386 2894892
0.55645108 -0.42507008 2.724633 2894892
0.55636728 -0.37490007 2.7239237 2894892
0.55628353 -0.32474491 2.7236142 2894892
0.55620092 -0.27482918 2.7233083 2894892
0.55611765 -0.22492917 2.7227023 2894892
0.55603522 -0.17504478 2.7224958 2894892
0.55596322 -0.12584533 2.7266862 2894892
0.55588007 -0.074856572 2.7270498 2894892
0.5557974 -0.024853861 2.7268298 2894892
0.55571461 0.024848932 2.7264242 2894892
-0.61170626 0.095755227 2.7192001 10000536
-0.57482988 0.095805451 2.7206266 10000536
-0.52560419 0.095872521 2.7225311 10000536
-0.47518805 0.095941208 2.7244816 10000536
-0.42470005 0.09600997 2.726434 10000536
-0.37526372 0.096077301 2.7283461 10000536
-0.32575819 0.096144766 2.730262 10000536
-0.27505517 0.096213825 2.7322233 10132122
-0.22427982 0.096282981 2.7341869 10197915
-0.17456186 0.096350692 2.7361097 10197915
-0.12477402 0.09641853 2.7380369 10197915
-0.074915975 0.096486442 2.7399652 10197915
-0.024987638 0.096554443 2.7418959 10197915
0.025011122 0.096622556 2.7438297 10197915
0.075080492 0.096690781 2.7457678 10197915
0.12522055 0.096759073 2.7477064 10197915
0.16743706 0.096816562 2.7493393 10197915
0.28195518 0.09734115 2.7006905 10197915
0.32466802 0.097399563 2.7023108 10197915
0.37418738 0.097467251 2.7041891 10197915
0.42490396 0.097536594 2.7061131 10066329
0.47569218 0.097606063 2.7080407 3289650
0.52542198 0.097674035 2.7099264 2894892
0.55556273 0.07424517 2.725486 2894892
0.55787808 -1.2205415 2.7785277 2894892
0.55779743 -1.1749452 2.7758589 2894892
0.5577144 -1.1246288 2.7757635 2894892
0.55763084 -1.0747861 2.7751336 2894892
0.55754942 -1.0252022 2.7751513 2894892
0.55746472 -0.97516322 2.7742045 2894892
0.55738235 -0.92513931 2.7741125 2894892
0.55729848 -0.87490237 2.773484 2894892
0.55721539 -0.82490921 2.7732837 2894892
0.55714363 -0.77570885 2.7774782 2894892
0.55706191 -0.7248143 2.7782769 2894892
0.5569784 -0.67493606 2.7775261 2894892
0.55689555 -0.62478346 2.7773798 2894892
0.55681288 -0.57522094 2.7769687 2894892
0.55673039 -0.52567315 2.7765577 2894892
0.55664611 -0.47498834 2.7761371 2894892
0.55656224 -0.42489561 2.7754514 2894892
0.55648023 -0.37510663 2.7753756 2894892
0.55639631 -0.32504445 2.7746923 2894892
0.55631322 -0.27499497 2.774411 2894892
0.55623072 -0.2249627 2.7742617 2894892
0.55614632 -0.17494792 2.7734468 2894892
0.55606377 -0.12494082 2.7732995 2894892
0.55598038 -0.075247139 2.7725508 2894892
0.55589789 -0.025269272 2.7724054 2894892
0.55581385 0.025264179 2.7719862 2894892
-0.61816716 0.095368057 2.7734632 10000536
-0.57485718 0.095426798 2.7751715 10000536
-0.52464396 0.095494963 2.777154 10000536
-0.47435877 0.095563173 2.7791378 10000536
-0.42514721 0.095629953 2.7810793 10000536
-0.37586623 0.095696799 2.7830236 10000536
-0.32536837 0.095765345 2.785017 10000536
-0.27479789 0.095833942 2.7870121 10132122
-0.22530699 0.095901079 2.7889645 10197915
-0.17574616 0.095968299 2.7909195 10197915
-0.12496109 0.096037246 2.7929246 10197915
-0.075259931 0.096104681 2.7948856 10197915
-0.025488375 0.096172184 2.7968485 10197915
0.025512815 0.096241362 2.7988615 10197915
0.052198716 0.096277632 2.7999153 10197915
0.19256243 0.096850775 2.7503111 10197915
0.22571345 0.096895933 2.7515929 10197915
0.27492133 0.096962988 2.7534976 10197915
0.32419765 0.097030111 2.7554033 10197915
0.37469035 0.097098872 2.7573562 10197915
0.42525473 0.097167738 2.7593114 10000536
0.47473916 0.097235188 2.7612271 3158064
0.52429259 0.097302668 2.7631433 2894892
0.55563974 0.074618205 2.7711155 2894892
0.55806273 -1.259115 2.8338096 2894892
0.55799645 -1.2260524 2.8284376 2894892
0.55791539 -1.1753081 2.8294425 2894892
0.55783004 -1.1247513 2.8285952 2894892
0.55774707 -1.0744829 2.8283794 2894892
0.55766475 -1.0251178 2.8279624 2894892
0.55758125 -0.97518152 2.8272624 2894892
0.55749851 -0.92496687 2.827188 2894892
0.55741489 -0.87506068 2.8264852 2894892
0.55733216 -0.8248747 2.8264132 2894892
0.55724788 -0.77470446 2.825639 2894892
0.55716562 -0.72484273 2.8254995 2894892
0.55708134 -0.6747033 2.8247278 2894892
0.55699903 -0.62487096 2.8245859 2894892
0.55691719 -0.57563806 2.8241704 2894892
0.55683315 -0.52524823 2.8237455 2894892
0.55674952 -0.4748733 2.8233202 2894892
0.55666602 -0.42510045 2.8226213 2894892
0.55658352 -0.37505063 2.8225477 2894892
0.55650008 -0.325014 2.8220575 2894892
0.55641663 -0.27499604 2.8215625 2894892
0.55633342 -0.22498979 2.8210723 2894892
0.55625033 -0.17499612 2.8207188 2894892
0.55616707 -0.12531546 2.8201594 2894892
0.55608559 -0.074324802 2.8211462 2894892
0.55601358 -0.02482209 2.8253384 2894892
0.55593055 0.024817167 2.8249183 2894892
-0.62489003 0.094964959 2.829932 10000536
-0.57488495 0.095032506 2.8319445 10000536
-0.52480942 0.095100224 2.8339624 10000536
-0.47466171 0.095167965 2.8359816 10000536
-0.4244431 0.095235802 2.8380024 10000536
-0.37532291 0.095302165 2.8399801 10000536
-0.32496214 0.095370248 2.8420095 10000536
-0.27452976 0.095438376 2.8440397 10132122
-0.2252003 0.095505014 2.846025 10197915
-0.17580193 0.095571756 2.8480139 10197915
-0.13929926 0.095621124 2.8494852 10197915
0.076586954 0.09631072 2.8008773 10197915
0.1254092 0.096376926 2.8028035 10197915
0.17546266 0.09644483 2.8047779 10197915
0.22442046 0.09651123 2.8067088 10197915
0.27461433 0.09657938 2.8086908 10197915
0.32487836 0.096647568 2.8106737 10197915
0.37521401 0.096715838 2.8126593 10197915
0.42562014 0.096784219 2.8146479 9934743
0.47492355 0.09685117 2.8165946 2960685
0.52429491 0.096918143 2.8185425 2894892
0.55575454 0.073937647 2.824472 2894892
0.55818307 -1.2695233 2.8809013 2894892
0.55810434 -1.224732 2.8785725 2894892
0.55802059 -1.1744688 2.8781409 2894892
0.55793691 -1.1242201 2.8777096 2894892
0.55785364 -1.0745753 2.8769801 2894892
0.55777204 -1.0249689 2.8768575 2894892
0.55768907 -0.97506362 2.8765047 2894892
0.5576058 -0.92517292 2.8760011 2894892
0.5575223 -0.87499917 2.8755703 2894892
0.55743897 -0.82514459 2.8749175 2894892
0.55735654 -0.77529764 2.8747144 2894892
0.55727309 -0.7251687 2.8742855 2894892
0.55718958 -0.67505467 2.8738549 2894892
0.55710632 -0.62495601 2.8734241 2894892
0.55702329 -0.57548273 2.8726966 2894892
0.5569405 -0.52569562 2.872354 2894892
0.55685735 -0.47535405 2.8721402 2894892
0.55677342 -0.42501736 2.8716345 2894892
0.55668974 -0.37469655 2.8712761 2894892
0.55660653 -0.32468754 2.8708465 2894892
0.5565232 -0.27469337 2.8704181 2894892
0.55644006 -0.22501399 2.8697667 2894892
0.5563578 -0.17534871 2.869565 2894892
0.55627388 -0.12510478 2.8689151 2894892
0.55619979 -0.074285358 2.8733304 2894892
0.556135 -0.025063088 2.8807271 2894892
0.55605173 0.025058085 2.8802948 2894892
-0.65679669 0.094511747 2.8877282 10000536
-0.62596327 0.094553217 2.8889956 10000536
-0.57610291 0.094620295 2.8910451 10000536
-0.52617198 0.094687514 2.8930986 10000536
-0.47616974 0.094754763 2.895153 10000536
-0.42609632 0.094822109 2.8972111 10000536
-0.37953675 0.094884723 2.8991246 10000536
-0.11336932 0.095656149 2.850529 10197915
-0.074437246 0.095708735 2.8520961 10197915
-0.02482786 0.095775753 2.8540933 10197915
0.024851047 0.095842876 2.8560936 10197915
0.074599668 0.095910132 2.8580976 10197915
0.1244181 0.095977418 2.8601034 10197915
0.17430647 0.096044838 2.8621118 10197915
0.22426493 0.096112289 2.8641224 10197915
0.27429387 0.096179947 2.866138 10197915
0.32439306 0.096247628 2.8681548 10197915
0.3745628 0.096315406 2.8701746 10197915
0.42480332 0.096383266 2.8721972 9737364
0.47511488 0.096451283 2.8742239 2894892
0.52549732 0.096519358 2.8762524 2894892
0.5558989 0.073959023 2.879503 2894892
0.55837166 -1.3073409 2.9385326 2894892
0.55829823 -1.2749828 2.9293435 2894892
0.55821663 -1.2250398 2.9295356 2894892
0.55813205 -1.1751182 2.9284723 2894892
0.55804843 -1.12459 2.9283447 2894892
0.5579654 -1.0746897 2.9279084 2894892
0.55788249 -1.0251055 2.9272423 2894892
0.55779958 -0.97493774 2.9270394 2894892
0.55771649 -0.92508215 2.9266012 2894892
0.55763292 -0.87494045 2.9260876 2894892
0.55754936 -0.82481021 2.9255698 2894892
0.55746704 -0.77499634 2.9254484 2894892
0.55738354 -0.7252084 2.9246993 2894892
0.55730045 -0.67542678 2.9241076 2894892
0.55721712 -0.62505448 2.9239817 2894892
0.55713451 -0.57530296 2.9235473 2894892
0.5570516 -0.52556598 2.9231126 2894892
0.55696684 -0.47493133 2.9224374 2894892
0.55688405 -0.42492825 2.9222355 2894892
0.55680126 -0.37523592 2.9217975 2894892
0.55671805 -0.32525855 2.9212859 2894892
0.55663466 -0.27529278 2.9207695 2894892
0.55655128 -0.22504099 2.9204869 2894892
0.556467 -0.17480156 2.9197352 2894892
0.5563851 -0.12488481 2.9198444 2894892
0.55631179 -0.077098489 2.9222565 2894892
0.55623305 -0.02544954 2.9251444 2894892
0.55614829 0.025444383 2.9246984 2894892
-0.66341227 0.094075151 2.9490478 10000536
-0.64525342 0.094099477 2.94981 10000536
-0.35444269 0.094918557 2.9001579 10000536
-0.32573614 0.094957143 2.9013376 10000536
-0.27544868 0.095024809 2.903404 10132122
-0.22508946 0.09509255 2.9054739 10197915
-0.17465846 0.09516038 2.9075465 10197915
-0.1241555 0.095228359 2.9096236 10197915
-0.074785575 0.095294774 2.9116526 10197915
-0.025346182 0.09536127 2.9136846 10197915
0.025370348 0.095429488 2.9157686 10197915
0.074949145 0.095496237 2.9178083 10197915
0.12459783 0.095563017 2.9198487 10197915
0.17552923 0.09563151 2.921942 10197915
0.22531815 0.095698483 2.9239879 10197915
0.2751776 0.095765591 2.926038 10197915
0.32510632 0.095832765 2.9280906 10197915
0.37510562 0.095900014 2.9301457 10197915
0.42517462 0.09596736 2.9322031 9408399
0.47531474 0.096034847 2.9342647 2894892
0.52552474 0.096102402 2.9363291 2894892
0.55594647 0.074654318 2.9247212 2894892
0.55847186 -1.3162018 2.977546 2894892
0.55839896 -1.2749933 2.9752145 2894892
0.55831629 -1.2250935 2.9749897 2894892
0.55823386 -1.1756197 2.9745505 2894892
0.55814952 -1.1249245 2.9741008 2894892
0.55806518 -1.0742447 2.9736509 2894892
0.55798888 -1.0229683 2.9773431 2894892
0.55791378 -0.97480577 2.9792128 2894892
0.55783069 -0.92468035 2.97893 2894892
0.55774796 -0.87487495 2.9785702 2894892
0.55766445 -0.82508254 2.9778819 2894892
0.55758184 -0.7750051 2.9777637 2894892
0.5574981 -0.72493172 2.9771538 2894892
0.55741453 -0.67488158 2.9765465 2894892
0.5573321 -0.62515128 2.9763496 2894892
0.55724996 -0.57574362 2.9759104 2894892
0.55716562 -0.52511609 2.9754605 2894892
0.55708134 -0.4745037 2.9750102 2894892
0.55699795 -0.42483318 2.9743233 2894892
0.55691528 -0.37487257 2.9740417 2894892
0.55683231 -0.32491872 2.9737616 2894892
0.55674851 -0.27499092 2.972991 2894892
0.5566656 -0.2250669 2.9727097 2894892
0.55658251 -0.17516334 2.9721031 2894892
0.55650038 -0.12527467 2.9721525 2894892
0.55641526 -0.074789286 2.971215 2894892
0.55633223 -0.024617681 2.97101 2894892
0.55625021 0.02461285 2.9705727 2894892
-0.61981231 0.094133541 2.9508777 10000536
-0.57494539 0.094193645 2.9527621 10000536
-0.52516156 0.094260328 2.9548528 10132122
-0.47530764 0.094327092 2.9569454 10197915
-0.42538247 0.094393931 2.9590409 10197915
-0.37538722 0.09446089 2.9611402 10197915
-0.32532039 0.094527975 2.963243 10197915
-0.2751829 0.094595097 2.9653473 10197915
-0.2249736 0.094662338 2.9674542 10197915
-0.17469342 0.094729669 2.9695649 10197915
-0.12557042 0.094795495 2.9716291 10197915
-0.075148076 0.094863012 2.9737451 10197915
-0.024654454 0.094930612 2.9758646 10197915
0.024677312 0.094996676 2.9779353 10197915
0.074077822 0.095062867 2.9800105 10197915
0.12478508 0.095130771 2.9821391 10197915
0.17556423 0.095198765 2.9842706 10197915
0.22517514 0.09526518 2.9863527 10197915
0.27485543 0.095331751 2.9884396 10197915
0.32460511 0.095398381 2.9905279 10197915
0.3744244 0.095465079 2.992619 10197915
0.42431337 0.095531896 2.9947131 9145227
0.47427231 0.095598809 2.9968112 2894892
0.52430129 0.095665827 2.9989116 2894892
0.55617028 0.072598718 2.9701459 2894892
0.55867296 -1.3550314 3.0401394 2894892
0.55858678 -1.3242084 3.0239732 2894892
0.55850273 -1.275106 3.0224698 2894892
0.55841988 -1.2251422 3.0222797 2894892
0.55833513 -1.1745765 3.0215709 2894892
0.55825144 -1.1240141 3.021369 2894892
0.55816835 -1.0744023 3.0205705 2894892
0.5580979 -1.0271282 3.0239136 2894892
0.55801946 -0.97559226 3.0268638 2894892
0.55793571 -0.92529362 3.0264091 2894892
0.55785215 -0.87543428 3.0257254 2894892
0.55776972 -0.8255834 3.0255089 2894892
0.55768603 -0.77532947 3.0250552 2894892
0.55760247 -0.72509092 3.024601 2894892
0.55751872 -0.67486763 3.0241475 2894892
0.55743581 -0.62507749 3.0236988 2894892
0.55735314 -0.57573467 3.0230186 2894892
0.55727077 -0.5259636 3.0228031 2894892
0.55719137 -0.47393271 3.0255916 2894892
0.55711734 -0.42505181 3.0285614 2894892
0.55703366 -0.37480393 3.0280983 2894892
0.55695093 -0.32489136 3.0279088 2894892
0.55686736 -0.27467301 3.0274549 2894892
0.55678415 -0.22478177 3.0269163 2894892
0.5567013 -0.17491037 3.026551 2894892
0.55661774 -0.12505385 3.0258374 2894892
0.5565353 -0.07521002 3.0256488 2894892
0.5564518 -0.025066659 3.0251939 2894892
0.55636847 0.025061656 3.0247407 2894892
-0.67031533 0.093619756 3.0130327 10000536
-0.62453544 0.093680754 3.0149961 10000536
-0.57497776 0.093746848 3.017123 10000536
-0.52534992 0.093813002 3.0192518 10132122
-0.4756518 0.09387923 3.0213833 10197915
-0.42588359 0.093945548 3.0235178 10197915
-0.37604499 0.094012 3.025656 10197915
-0.32613593 0.094078541 3.0277977 10197915
-0.27615613 0.094145134 3.0299416 10197915
-0.22610545 0.094211824 3.032088 10197915
-0.17598382 0.094278634 3.0342383 10197915
-0.12579115 0.094345585 3.0363925 10197915
-0.075527065 0.094412565 3.0385482 10197915
-0.025191594 0.094479635 3.0407071 10197915
0.025215466 0.09454681 3.0428691 10197915
0.0756943 0.094614141 3.0450358 10197915
0.12498007 0.09467984 3.0471499 10197915
0.1705351 0.09474054 3.0491033 10197915
0.55616128 0.073591128 3.0233424 2894892
0.55876154 -1.3628494 3.0747268 2894892
0.55869287 -1.3248271 3.071938 2894892
0.55861348 -1.2729754 3.0746584 2894892
0.55854291 -1.224838 3.0785222 2894892
0.55845815 -1.1749381 3.0773335 2894892
0.55837458 -1.1243987 3.0772347 2894892
0.55829161 -1.0745198 3.0767772 2894892
0.55820864 -1.0249716 3.0760515 2894892
0.5581255 -0.97480977 3.0758641 2894892
0.55804247 -0.9249748 3.0754037 2894892
0.55795884 -0.87483871 3.074856 2894892
0.55787522 -0.82471377 3.0743024 2894892
0.55779308 -0.77492034 3.0742099 2894892
0.55770952 -0.72515392 3.0733886 2894892
0.55762613 -0.6753931 3.0727508 2894892
0.55754316 -0.62501061 3.0726521 2894892
0.55746007 -0.57527971 3.0721953 2894892
0.55737746 -0.52556348 3.071739 2894892
0.55730027 -0.47659013 3.07338 2894892
0.55722606 -0.42504385 3.0781381 2894892
0.55714208 -0.37525252 3.0771914 2894892
0.55705893 -0.32505861 3.076972 2894892
0.55697614 -0.27530223 3.0765126 2894892
0.55689251 -0.22513562 3.076052 2894892
0.55680841 -0.17498678 3.0753458 2894892
0.55672544 -0.12485157 3.0751295 2894892
0.55664265 -0.075154774 3.0746725 2894892
0.55655986 -0.025472851 3.0742147 2894892
0.55647504 0.025467681 3.0737464 2894892
-0.70279402 0.093110651 3.0787477 10066329
-0.67499757 0.093147501 3.0799665 10000536
-0.62567264 0.09321291 3.082129 10000536
-0.57501149 0.093280144 3.0843518 10000536
-0.52427697 0.093347415 3.0865767 10132122
-0.47474059 0.0934131 3.0887485 10197915
-0.42513376 0.093478873 3.0909231 10197915
-0.37545782 0.093544796 3.0931027 10197915
-0.32571113 0.093610778 3.0952849 10197915
-0.27461612 0.093678519 3.0975249 10197915
-0.23368889 0.093732797 3.0993192 10197915
0.19586694 0.094774298 3.05019 10197915
0.22502618 0.094813138 3.0514402 10197915
0.27578995 0.094880834 3.0536189 10197915
0.3253541 0.094946913 3.0557456 10197915
0.37498784 0.095013037 3.0578742 10197915
0.42469019 0.09507928 3.0600057 8947848
0.47446245 0.095145613 3.0621407 2894892
0.52558315 0.095213793 3.0643349 2894892
0.55629653 0.073830046 3.0727584 2894892
0.55898237 -1.4033194 3.145129 2894892
0.55888665 -1.3729148 3.1242816 2894892
0.55880374 -1.324898 3.1224678 2894892
0.55872828 -1.2764987 3.124352 2894892
0.55865294 -1.2248906 3.1287344 2894892
0.55857044 -1.1754619 3.1282728 2894892
0.55848604 -1.1247478 3.1278007 2894892
0.5584017 -1.0740488 3.1273267 2894892
0.55831951 -1.0246645 3.1268673 2894892
0.55823588 -0.97485918 3.1261497 2894892
0.55815351 -0.92507768 3.1259377 2894892
0.55807072 -0.87530446 3.1254728 2894892
0.5579865 -0.82510835 3.124753 2894892
0.55790401 -0.77494293 3.1247907 2894892
0.55782002 -0.72477645 3.1240685 2894892
0.5577358 -0.6746375 3.1233485 2894892
0.55765349 -0.62493587 3.1231368 2894892
0.55757153 -0.57568365 3.1226778 2894892
0.55748731 -0.52515072 3.1222067 2894892
0.55740321 -0.47463277 3.1217346 2894892
0.55731982 -0.42499056 3.1210196 2894892
0.55723703 -0.37494111 3.1208041 2894892
0.55716449 -0.3236326 3.1262758 2894892
0.55708611 -0.27498457 3.1269734 2894892
0.55700326 -0.22506706 3.1266954 2894892
0.55691999 -0.1751706 3.1260402 2894892
0.55683804 -0.12528902 3.126147 2894892
0.55675256 -0.074779309 3.125107 2894892
0.55666965 -0.0245983 3.1249168 2894892
0.5565877 0.024593478 3.1244571 2894892
-0.71090007 0.092612758 3.148546 10066329
-0.6889407 0.092641719 3.1495306 10066329
-0.2093654 0.093765058 3.1003857 10197915
-0.17476797 0.093810938 3.1019034 10197915
-0.12473831 0.09387733 3.1040981 10197915
-0.074637145 0.09394376 3.1062951 10197915
-0.024465624 0.094010279 3.1084945 10197915
0.024488132 0.094075203 3.1106408 10197915
0.074800849 0.09414196 3.112849 10197915
0.12518436 0.094208784 3.1150579 10197915
0.17434511 0.094273977 3.1172135 10197915
0.22487064 0.094340965 3.1194286 10197915
0.27546749 0.094408087 3.1216476 10197915
0.32483664 0.094473578 3.1238134 10197915
0.37427416 0.094539136 3.1259811 10197915
0.42508441 0.094606481 3.1282086 8224125
0.47596651 0.094673984 3.1304398 2894892
0.5256145 0.094739862 3.1326189 2894892
0.55641365 0.072777353 3.1239779 2894892
0.5590688 -1.4113367 3.1785161 2894892
0.55900168 -1.3753637 3.1748867 2894892
0.558918 -1.3251833 3.1744118 2894892
0.55883449 -1.275018 3.1739371 2894892
0.55875093 -1.2248677 3.1734624 2894892
0.55866736 -1.1747323 3.1729879 2894892
0.55858266 -1.1246129 3.1719837 2894892
0.55850112 -1.0749549 3.1720452 2894892
0.55841839 -1.0253035 3.1715744 2894892
0.55833501 -0.97522795 3.1711004 2894892
0.55825168 -0.9251672 3.1706274 2894892
0.55816835 -0.87512159 3.1701543 2894892
0.55808723 -0.82384062 3.1716654 2894892
0.55801845 -0.77517211 3.1768196 2894892
0.55793494 -0.72505111 3.1763439 2894892
0.55785143 -0.67494512 3.1758685 2894892
0.55776829 -0.62518638 3.1752968 2894892
0.55768561 -0.57578105 3.174624 2894892
0.55760199 -0.52570331 3.1741576 2894892
0.55751878 -0.47534046 3.173975 2894892
0.55743545 -0.42530903 3.1735008 2894892
0.55735123 -0.37496567 3.1729226 2894892
0.5572812 -0.32604191 3.177675 2894892
0.55720049 -0.27442956 3.1796203 2894892
0.55711722 -0.22477721 3.1788769 2894892
0.55703521 -0.17514668 3.1786773 2894892
0.55695164 -0.12508626 3.1782007 2894892
0.55686831 -0.075040758 3.1777244 2894892
0.55678499 -0.025010249 3.1772492 2894892
0.5567016 0.025005266 3.1767731 2894892
-0.66438103 0.092674106 3.1506319 10000536
-0.62556654 0.092725329 3.1523731 10000536
-0.57504588 0.092792004 3.1546402 10000536
-0.52445281 0.092858747 3.1569088 10132122
-0.47508678 0.092923865 3.1591227 10197915
-0.42565131 0.092989065 3.1613398 10197915
-0.37484264 0.093056142 3.1636198 10197915
-0.32396114 0.093123265 3.1659019 10197915
-0.2743133 0.093188763 3.1681285 10197915
-0.22459555 0.093254343 3.1703577 10197915
-0.17480785 0.093320034 3.1725912 10197915
-0.12494997 0.093385838 3.1748288 10197915
-0.075021669 0.093451686 3.1770675 10197915
-0.025022911 0.093517646 3.1793094 10197915
0.025046462 0.093583688 3.181555 10197915
0.075186655 0.093649887 3.1838057 10197915
0.12539777 0.093716122 3.1860569 10197915
0.17567994 0.093782455 3.1883123 10197915
0.22603333 0.093848869 3.1905699 10197915
0.27512994 0.093913637 3.1927722 10197915
0.32429513 0.093978539 3.1949785 10197915
0.37485933 0.094045244 3.1972458 10197915
0.41882721 0.094103232 3.1992173 9539985
0.55662268 0.072374701 3.1763227 2894892
0.5591827 -1.4212478 3.2230673 2894892
0.5591017 -1.3748475 3.220928 2894892
0.55901831 -1.324833 3.2204473 2894892
0.55893582 -1.2752792 3.2199726 2894892
0.55885196 -1.2253016 3.2192135 2894892
0.55876851 -1.1748823 3.2190089 2894892
0.55869627 -1.1239386 3.2242248 2894892
0.55862075 -1.0758121 3.2259009 2894892
0.5585357 -1.0252028 3.2251003 2894892
0.55845255 -0.97495604 3.2248268 2894892
0.5583691 -0.92471457 3.2245512 2894892
0.55828583 -0.87482411 3.2239642 2894892
0.55820704 -0.82602012 3.2247033 2894892
0.55813652 -0.77496618 3.2307889 2894892
0.55805373 -0.72533482 3.2303119 2894892
0.55796969 -0.67527896 3.229547 2894892
0.557886 -0.62478054 3.2293406 2894892
0.55780345 -0.57519388 3.228863 2894892
0.55772078 -0.52562189 3.2283833 2894892
0.55763608 -0.47472548 3.2278929 2894892
0.5575521 -0.42473406 3.2271259 2894892
0.55747068 -0.37521243 3.2272112 2894892
0.55738628 -0.32525641 3.2261713 2894892
0.55730361 -0.27531126 3.2259698 2894892
0.55721974 -0.22493663 3.2254832 2894892
0.55713516 -0.17458005 3.2247167 2894892
0.55705321 -0.12467537 3.2247949 2894892
0.55696958 -0.075251296 3.2237544 2894892
0.55688703 -0.025374787 3.2235575 2894892
0.55680239 0.025369652 3.223068 2894892
-0.7193827 0.092091903 3.2215874 10066329
-0.67443442 0.092150867 3.22365 10000536
-0.62413162 0.092216894 3.2259598 10000536
-0.57508337 0.092281252 3.2282114 10000536
-0.52596587 0.092345692 3.2304654 10132122
-0.47544971 0.09241195 3.232784 10197915
-0.4248611 0.092478313 3.2351055 10197915
-0.37420002 0.092544846 3.2374325 10197915
-0.32480207 0.092609636 3.2396991 10197915
-0.2753343 0.092674531 3.2419693 10197915
-0.2244577 0.092741266 3.2443037 10197915
-0.17484982 0.092806369 3.2465811 10197915
-0.12517168 0.092871569 3.2488625 10197915
0.44416609 0.094136655 3.2003536 3223857
0.4748677 0.094177157 3.2017305 2894892
0.52430934 0.094242416 3.2039497 2894892
0.55654883 0.073399611 3.2215967 2894892
0.55935639 -1.4577087 3.2748637 2894892
0.55928868 -1.4246296 3.268816 2894892
0.55920553 -1.3747703 3.2683299 2894892
0.55912489 -1.3242148 3.2695076 2894892
0.55905616 -1.274843 3.275219 2894892
0.5589729 -1.2247876 3.2748365 2894892
0.55888981 -1.175101 3.2741325 2894892
0.55882156 -1.1274097 3.2788117 2894892
0.55874181 -1.0753399 3.2815111 2894892
0.55865771 -1.0248846 3.2810168 2894892
0.55857456 -0.9753502 3.2802384 2894892
0.55849189 -0.92538613 3.2800417 2894892
0.55840784 -0.87497604 3.2795503 2894892
0.5583238 -0.82458079 3.2790551 2894892
0.55823994 -0.77465326 3.2782745 2894892
0.55815798 -0.72474468 3.278373 2894892
0.55807418 -0.67484695 3.2775898 2894892
0.55799049 -0.62497723 3.2768092 2894892
0.55790859 -0.57555634 3.2766178 2894892
0.55782479 -0.52525121 3.2761257 2894892
0.55774105 -0.47496113 3.2756331 2894892
0.55765724 -0.42513627 3.2748566 2894892
0.55757475 -0.37488222 3.2749479 2894892
0.55749047 -0.325093 3.2738731 2894892
0.55740815 -0.27531409 3.2736778 2894892
0.55732441 -0.22509919 3.2731881 2894892
0.55724084 -0.17489935 3.2726946 2894892
0.55715722 -0.12517405 3.2719162 2894892
0.55707484 -0.074989565 3.2720051 2894892
0.55699009 -0.024858443 3.2709339 2894892
0.55690712 0.024853509 3.2704465 2894892
-0.75395507 0.091512665 3.2968864 10066329
-0.72556233 0.091549687 3.2982206 10066329
-0.69444549 0.091590278 3.2996826 10066329
-0.075424239 0.092936829 3.2511454 10197915
-0.025606222 0.093002185 3.2534313 10197915
0.025630884 0.093069389 3.2557824 10197915
0.075590581 0.093134984 3.2580774 10197915
0.12562135 0.093200631 3.2603731 10197915
0.17572199 0.093266353 3.2626724 10197915
0.22453673 0.093330383 3.2649126 10197915
0.27477771 0.093396284 3.2672181 10197915
0.32508925 0.093462355 3.2695291 10197915
0.37410939 0.093526639 3.2717786 10197915
0.42456189 0.093592845 3.2740934 7566195
0.47508514 0.093659095 3.276412 2894892
0.52431226 0.093723707 3.2786722 2894892
0.5566119 0.073068462 3.2708397 2894892
0.5594722 -1.4676861 3.32024 2894892
0.55939597 -1.4248343 3.3176427 2894892
0.55931318 -1.3751502 3.317152 2894892
0.55924207 -1.324194 3.3229856 2894892
0.55918223 -1.2748423 3.3327529 2894892
0.55909932 -1.2249544 3.3322582 2894892
0.55901623 -1.1755557 3.3314519 2894892
0.55893451 -1.1261503 3.3312769 2894892
0.55884922 -1.0753719 3.3304737 2894892
0.55876529 -1.0246366 3.3302672 2894892
0.55868226 -0.97482294 3.3297725 2894892
0.55859923 -0.92502373 3.329278 2894892
0.5585162 -0.87523979 3.328783 2894892
0.55843312 -0.82547039 3.3282886 2894892
0.55834883 -0.77525377 3.327487 2894892
0.55826575 -0.72505981 3.3272903 2894892
0.55818284 -0.67533487 3.3267963 2894892
0.55810004 -0.62562495 3.3263025 2894892
0.55801719 -0.57592982 3.3258088 2894892
0.55793208 -0.52531755 3.3250084 2894892
0.55784839 -0.47474897 3.3248029 2894892
0.55776566 -0.42509848 3.3243093 2894892
