# .PCD v0.7 - Point Cloud Data file format
VERSION 0.7
FIELDS x y z rgb
SIZE 4 4 4 4
TYPE F F F U
COUNT 1 1 1 1
WIDTH 1212
HEIGHT 1
VIEWPOINT 0 0 0 1 0 0 0
POINTS 1212
DATA ascii
0.57495439 0.10745045 2.2752664 2894892
0.62502229 0.10738987 2.2736073 2894892
0.67503047 0.10732704 2.2726529 2894892
0.72498554 0.10726659 2.270997 2894892
0.77487648 0.10720389 2.2700453 2894892
0.82165682 0.10713215 2.2730482 2894892
0.87508714 0.10701852 2.28601 2894892
0.92475241 0.10695731 2.2847025 3289650
0.97529626 0.10689501 2.2833712 10197915
1.0248471 0.10683394 2.2820671 10197915
1.0743411 0.10677293 2.2807641 10197915
1.1247109 0.10671086 2.2794378 10197915
1.1750224 0.10664883 2.2781129 10197915
1.2252749 0.10658689 2.2767897 10197915
1.2754698 0.10652503 2.2754681 10197915
1.325606 0.10646324 2.2741487 10197915
1.3756843 0.1064015 2.2728298 10197915
1.4257044 0.10633985 2.271513 10197915
1.4756665 0.10627826 2.2701976 10197915
1.525571 0.10621677 2.2688837 10197915
1.5754176 0.10615531 2.2675714 10197915
1.6252065 0.10609395 2.2662601 10197915
1.674938 0.10603265 2.2649508 10197915
1.7246118 0.10597142 2.2636425 10197915
1.7783196 0.1058792 2.2700539 10197915
1.8146259 0.10573414 2.2992694 10197915
0.39506802 0.10748177 2.3372729 2960685
0.42590097 0.10744381 2.3364475 2960685
0.47499987 0.10738336 2.3351331 2960685
0.52500409 0.1073218 2.3337946 2894892
0.57591152 0.10725914 2.3324316 2894892
0.62580043 0.10719772 2.3310959 2894892
0.67563236 0.10713635 2.3297617 2894892
0.72540724 0.10707509 2.3284295 2894892
0.77512527 0.10701387 2.3270984 2894892
0.82478642 0.10695274 2.3257689 2894892
0.87439066 0.10689167 2.324441 2894892
0.92489082 0.10682951 2.3230886 2894892
0.97533232 0.10676742 2.3217387 8355711
1.024765 0.10670655 2.3204153 10197915
1.0750902 0.1066446 2.3190677 10197915
1.1253574 0.10658272 2.3177221 10197915
1.1746194 0.10652207 2.3164036 10197915
1.2247707 0.10646033 2.3150609 10197915
1.2748643 0.10639866 2.3137197 10197915
1.3248996 0.10633706 2.3123801 10197915
1.3771703 0.10625913 2.3150656 10197915
1.4248064 0.10614967 2.3290699 10197915
1.4746163 0.10608716 2.3280973 10197915
1.5243706 0.10602717 2.3263822 10197915
1.5750095 0.10596365 2.325387 10197915
1.6251228 0.10590197 2.324034 10197915
1.6746969 0.10584222 2.322324 10197915
1.7246959 0.10578071 2.3209746 10197915
1.7722661 0.10571121 2.322988 10197915
1.8250692 0.10559065 2.3382807 10197915
1.8544668 0.10555451 2.3374801 10197915
0.39786774 0.10734551 2.3771412 2960685
0.42530665 0.10731179 2.3763943 2960685
0.47524476 0.10725038 2.375035 2960685
0.52512556 0.10718905 2.3736763 2894892
0.57494956 0.10712778 2.3723197 2894892
0.6247164 0.10706659 2.3709648 2894892
0.67540067 0.10700428 2.3695848 2894892
0.72505319 0.10694326 2.368233 2894892
0.77464867 0.10688224 2.3668826 2894892
0.82515872 0.10682012 2.3655069 2894892
0.87560993 0.10675812 2.3641329 2894892
0.92503411 0.10669733 2.3627875 2894892
0.97440201 0.10663661 2.3614433 5789784
1.0246801 0.10657481 2.3600743 10197915
1.0776317 0.1064539 2.3754086 10197915
1.1249088 0.10638345 2.3778391 10197915
1.1749623 0.10632329 2.3760631 10197915
1.2249496 0.10626051 2.3750916 10197915
1.2753718 0.10619856 2.3737068 10197915
1.3252451 0.10613859 2.3719361 10197915
1.3737197 0.10607356 2.3722565 10132122
1.4248362 0.10594698 2.3900249 10197915
1.4744849 0.10588602 2.3886497 10197915
1.5250487 0.10582393 2.3872488 10197915
1.5755537 0.1057619 2.38585 10197915
1.6250293 0.10570118 2.384479 10197915
1.6744485 0.10564046 2.38311 10197915
1.7247778 0.10557868 2.381716 10197915
1.7750485 0.10551693 2.3803232 10197915
1.8252606 0.10545527 2.3789325 10197915
1.8705947 0.10539959 2.3776767 10197915
0.42668542 0.10717271 2.4176757 2960685
0.47549832 0.10711278 2.4163237 2960685
0.52525115 0.10705168 2.4149454 2894892
0.57494742 0.10699067 2.4135687 2894892
0.624587 0.1069297 2.4121933 2894892
0.67516094 0.10686758 2.4107924 2894892
0.7256766 0.10680556 2.4093933 2894892
0.77605432 0.10673824 2.409636 2894892
0.82474691 0.10661311 2.4279416 2894892
0.87502939 0.10655279 2.4261191 2894892
0.92525917 0.10648975 2.4251328 2894892
0.97493589 0.10642879 2.4237444 3092271
1.0250382 0.10636871 2.4219275 9211020
1.0714575 0.10627064 2.4329886 10197915
1.1254373 0.10617355 2.440758 10197915
1.1753185 0.10611238 2.4393513 10197915
1.2251425 0.10605127 2.4379466 10197915
1.274909 0.10599025 2.4365437 10197915
1.3246181 0.10592929 2.4351423 10132122
1.3742703 0.1058684 2.4337425 10197915
1.4248563 0.10580635 2.4323163 10197915
1.4753838 0.10574439 2.4308918 10197915
1.5248625 0.10568371 2.429497 10197915
1.5752723 0.10562189 2.428076 10197915
1.6256238 0.10556015 2.4266562 10197915
1.6749302 0.10549968 2.4252665 10197915
1.7251649 0.10543807 2.4238501 10197915
1.7753414 0.10537653 2.422435 10197915
1.8244765 0.10531627 2.4210501 10197915
1.8745365 0.10525487 2.4196389 10197915
1.9118004 0.10520918 2.4185882 10197915
0.43014202 0.10702623 2.4603596 2960685
0.47474766 0.10697153 2.4591024 2960685
0.52436906 0.1069107 2.4577034 2960685
0.57792538 0.10682474 2.4622951 2894892
0.6254034 0.10671478 2.4765141 2894892
0.67478448 0.10665276 2.4755609 2894892
0.72462332 0.10659168 2.4741433 2894892
0.77440542 0.10653067 2.4727271 2894892
0.8253327 0.1063949 2.4933386 2894892
0.8754428 0.10633355 2.4919007 2894892
0.92549467 0.10627225 2.490464 2894892
0.9754892 0.10621101 2.4890289 2894892
1.0254259 0.10614985 2.4875958 5658198
1.0753053 0.10608876 2.4861639 10197915
1.1251271 0.10602775 2.4847343 10197915
1.1748921 0.10596681 2.4833062 10197915
1.2245991 0.10590594 2.4818792 10197915
1.2752622 0.10584389 2.4804254 10197915
1.3248547 0.10578316 2.479002 10197915
1.3743901 0.10572249 2.4775805 10197915
1.4248775 0.10566067 2.4761314 10197915
1.4753064 0.1055989 2.474684 10197915
1.5256761 0.10553721 2.4732385 10197915
1.5749818 0.10547682 2.4718235 10197915
1.6242306 0.10541651 2.4704099 10197915
1.6744267 0.10535505 2.4689693 10197915
1.724564 0.10529364 2.4675303 10197915
1.7746433 0.10523231 2.4660931 10197915
1.824664 0.10517105 2.4646575 10197915
1.8746269 0.10510986 2.4632232 10197915
1.9245317 0.10504875 2.461792 10197915
1.9534526 0.10501338 2.4609628 10197915
0.43372273 0.10687451 2.5045779 2960685
0.47564405 0.10674845 2.5258477 2960685
0.52507049 0.10668635 2.5249045 2960685
0.5729773 0.10662425 2.5245588 2894892
0.62416989 0.10648885 2.5449564 2894892
0.6743893 0.10642744 2.5434887 2894892
0.7245509 0.1063661 2.5420227 2894892
0.77465439 0.10630483 2.5405583 2894892
0.82470053 0.10624361 2.5390961 2894892
0.87468904 0.10618248 2.5376351 2894892
0.92462015 0.10612143 2.5361755 2894892
0.9744935 0.10606045 2.5347178 2894892
1.0243099 0.10599952 2.5332618 2894892
1.0751046 0.10593741 2.5317774 10000536
1.1258405 0.10587537 2.5302942 10197915
1.1754829 0.10581464 2.5288436 10197915
1.2250687 0.105754 2.5273941 10132122
1.2745975 0.10569343 2.5259471 10197915
1.3250996 0.10563166 2.5244708 10197915
1.375543 0.10556997 2.5229964 10197915
1.4249001 0.10550963 2.521554 10197915
1.4752264 0.10544807 2.5200832 10197915
1.5254947 0.10538661 2.5186141 10197915
1.5746802 0.10532645 2.5171764 10197915
1.6248323 0.10526511 2.5157106 10197915
1.6749264 0.10520384 2.5142467 10197915
1.7249615 0.10514266 2.512784 10197915
1.7749394 0.10508153 2.511323 10197915
1.8248587 0.1050205 2.5098643 10197915
1.8747202 0.10495951 2.5084071 10197915
1.9245241 0.10489865 2.5069523 10197915
1.9712268 0.10484155 2.5055878 10197915
0.43897429 0.10665198 2.5694323 2960685
0.47349349 0.10652133 2.5950158 2960685
0.5247314 0.10645219 2.5954754 2960685
0.57493824 0.10639085 2.5939806 2894892
0.62508678 0.10632963 2.5924876 2894892
0.67517805 0.10626846 2.5909965 2894892
0.72521144 0.10620736 2.5895066 2894892
0.77518761 0.10614636 2.5880184 2894892
0.82510591 0.10608536 2.5865326 2894892
0.87496758 0.10602448 2.585048 2894892
0.92477137 0.10596368 2.583565 2894892
0.97557622 0.10590164 2.5820525 2894892
1.0252651 0.10584097 2.5805733 2894892
1.0748968 0.10578036 2.5790956 7303023
1.1255261 0.10571852 2.5775881 10197915
1.1750435 0.10565805 2.5761139 10132122
1.2245039 0.10559765 2.574641 10132122
1.2749584 0.10553605 2.5731392 10197915
1.325354 0.10547451 2.5716388 10197915
1.3756909 0.10541305 2.5701399 10197915
1.4249226 0.10535293 2.5686743 10197915
1.4740977 0.10529288 2.56721 10197915
1.5242616 0.10523164 2.5657167 10197915
1.574367 0.10517043 2.5642247 10197915
1.6244143 0.10510933 2.5627348 10197915
1.6744035 0.10504828 2.5612464 10197915
1.7243347 0.10498732 2.5597599 10197915
1.7742076 0.1049264 2.558275 10197915
1.8250601 0.10486432 2.556761 10197915
1.8758526 0.10480229 2.555249 10197915
1.9255509 0.10474163 2.5537698 10197915
1.9751912 0.10468104 2.5522926 10197915
2.0224156 0.10452648 2.5800309 10197915
2.0582228 0.10441822 2.598377 10197915
0.44528025 0.10638471 2.6473117 2960685
0.47472996 0.10634881 2.6464188 2960685
0.52486151 0.10628769 2.6448977 2960685
0.57493562 0.10622663 2.6433785 2894892
0.62495214 0.10616565 2.6418612 2894892
0.67491126 0.10610475 2.6403451 2894892
0.72481304 0.1060439 2.6388307 2894892
0.77465779 0.10598313 2.6373188 2894892
0.82444537 0.10592242 2.6358082 2894892
0.87417585 0.10586179 2.6342993 2894892
0.92492861 0.10579991 2.6327593 2894892
0.97562253 0.10573811 2.6312213 2894892
1.0251802 0.10567766 2.6297181 2894892
1.074681 0.10561733 2.628216 4276545
1.1251999 0.10555574 2.626683 10132122
1.17566 0.10549421 2.6251523 10132122
1.2249893 0.10543405 2.6236558 10197915
1.2753328 0.10537267 2.6221285 10197915
1.3256184 0.10531137 2.6206021 10197915
1.3747768 0.10525144 2.6191108 10197915
1.424946 0.10519025 2.617589 10197915
1.4750575 0.10512917 2.6160686 10197915
1.5251104 0.10506815 2.6145501 10197915
1.5751055 0.1050072 2.6130331 10197915
1.6250424 0.10494631 2.6115181 10197915
1.674922 0.10488547 2.6100047 10197915
1.7247428 0.10482475 2.6084931 10197915
1.7755646 0.10476279 2.6069512 10197915
1.8252699 0.10470218 2.6054432 10197915
1.8749169 0.10464165 2.6039369 10197915
1.9255625 0.10457996 2.6024017 10197915
1.9750943 0.10451958 2.600899 10197915
2.0293257 0.10431532 2.6408055 10197915
2.0747316 0.10423045 2.648308 10197915
2.102576 0.10419653 2.6474469 10197915
0.47500283 0.10617767 2.6977842 2960685
0.5249967 0.10611682 2.6962385 2960685
0.57493275 0.10605603 2.6946938 2960685
0.62481225 0.10599532 2.6931512 2894892
0.67463416 0.10593468 2.6916099 2894892
0.72550452 0.10587276 2.6900365 2894892
0.77521157 0.10581224 2.6884992 2894892
0.82486159 0.10575181 2.6869636 2894892
0.87555647 0.10569008 2.6853952 2894892
0.92509234 0.10562979 2.6838632 2894892
0.97457129 0.10556957 2.6823332 2894892
1.0250916 0.10550807 2.6807709 2894892
1.0755532 0.10544663 2.6792097 2894892
1.1248612 0.10538661 2.677685 8684676
1.1741124 0.10532667 2.6761613 10197915
1.224401 0.10526546 2.6746061 10197915
1.2746308 0.1052043 2.673053 10197915
1.3248023 0.10514321 2.6715009 10197915
1.3749156 0.10508223 2.669951 10197915
1.4249709 0.10502131 2.6684029 10197915
1.474968 0.10496044 2.6668565 10197915
1.5249071 0.10489965 2.6653118 10197915
1.5747887 0.10483894 2.6637692 10197915
1.6246126 0.10477827 2.6622281 10197915
1.6743788 0.10471771 2.6606891 10197915
1.7240875 0.1046572 2.6591516 10197915
1.7748171 0.10459545 2.6575828 10197915
1.8254873 0.10453377 2.6560154 10197915
1.8750212 0.10447348 2.6544831 10197915
1.9244994 0.10441329 2.6529543 10197915
1.9749933 0.10435185 2.6513927 10197915
2.0104129 0.10430871 2.6502974 10197915
2.0995378 0.10402611 2.6999581 10197915
2.1235483 0.10399693 2.6992009 10197915
0.53080004 0.10593246 2.7494364 2960685
0.57493079 0.10587882 2.7480443 2960685
0.62579709 0.10581701 2.7464399 2894892
0.67547548 0.10575664 2.7448733 2894892
0.72509712 0.10569633 2.7433074 2894892
0.77466238 0.1056361 2.741744 2894892
0.82417107 0.10557594 2.7401831 2894892
0.87474632 0.10551447 2.7385876 2894892
0.92526346 0.10545308 2.7369945 2894892
0.97460073 0.10539313 2.7354383 2894892
1.025001 0.10533188 2.7338486 2894892
1.0753433 0.10527071 2.7322609 2894892
1.1245103 0.10521093 2.73071 5329233
1.1747367 0.10514991 2.7291257 10197915
1.2249054 0.10508894 2.7275434 10197915
1.2750155 0.10502805 2.7259631 10197915
1.3250676 0.10496721 2.7243841 10197915
1.3750618 0.10490648 2.7228074 10197915
1.4249984 0.10484577 2.7212322 10197915
1.4748768 0.10478516 2.7196589 10197915
1.5246981 0.10472462 2.7180877 10197915
1.5744612 0.10466415 2.7165179 10197915
1.6252712 0.10460239 2.7149155 10197915
1.674919 0.10454206 2.7133493 10197915
1.7245089 0.10448181 2.7117851 10197915
1.775142 0.10442029 2.7101884 10197915
1.8257157 0.10435881 2.7085931 10197915
1.8751324 0.10429878 2.7070348 10197915
1.9244928 0.10423882 2.7054791 10197915
1.9748909 0.1041776 2.7038894 10197915
2.0252297 0.10411642 2.7023017 10197915
2.0744171 0.10405664 2.7007506 10197915
0.47868904 0.10599577 2.75108 2960685
0.50588638 0.10596273 2.7502222 2960685
0.69246542 0.10555171 2.7997644 2894892
0.72582221 0.10551126 2.798691 2894892
0.77523869 0.1054513 2.7971008 2894892
0.82459867 0.10539143 2.7955129 2894892
0.87504864 0.10533021 2.7938893 2894892
0.92544001 0.10526908 2.7922676 2894892
0.97577304 0.10520803 2.7906482 2894892
1.0249059 0.10514843 2.7890673 2894892
1.073983 0.10508888 2.787488 2894892
1.1241437 0.10502804 2.7858737 2894892
1.1742467 0.10496724 2.7842619 9342606
1.2242914 0.10490655 2.7826509 10197915
1.2742784 0.10484589 2.7810428 10197915
1.3242078 0.10478535 2.7794361 10197915
1.3740795 0.10472483 2.7778313 10197915
1.4250247 0.10466302 2.7761919 10197915
1.4759103 0.10460132 2.7745547 10197915
1.5256072 0.10454101 2.7729557 10197915
1.5752465 0.10448079 2.7713583 10197915
1.6248283 0.10442065 2.7697623 10197915
1.6743538 0.10436055 2.7681684 10197915
1.7249455 0.10429918 2.7665412 10197915
1.7754779 0.10423788 2.764915 10197915
1.8248299 0.10417802 2.7633271 10197915
1.8752457 0.10411689 2.7617054 10197915
1.9256021 0.10405581 2.7600856 10197915
1.9747818 0.10399616 2.7585039 10197915
2.0250211 0.10393522 2.7568872 10197915
2.0752015 0.10387433 2.7552722 10197915
2.1253228 0.10381354 2.7536592 10197915
2.1698275 0.10375955 2.7522275 10197915
0.48367903 0.105805 2.8064828 2960685
0.52528375 0.10575452 2.8051438 2960685
0.5749284 0.10569432 2.8035467 2960685
0.62451577 0.10563415 2.8019512 2894892
0.6671406 0.10558245 2.8005793 2894892
0.93497032 0.1050662 2.8495123 2894892
0.97465998 0.10501813 2.8482089 2894892
1.0248064 0.10495741 2.8465621 2894892
1.0748947 0.10489675 2.8449171 2894892
1.124925 0.10483617 2.8432741 2894892
1.1748977 0.10477567 2.8416331 5987163
1.2248129 0.10471521 2.8399932 10197915
1.2746699 0.10465483 2.8383563 10197915
1.3256274 0.10459314 2.8366828 10197915
1.3753687 0.10453289 2.8350492 10197915
1.4250525 0.10447275 2.8334177 10197915
1.4746798 0.10441264 2.8317876 10197915
1.5242493 0.10435262 2.8301597 10197915
1.5749129 0.10429127 2.8284955 10197915
1.625517 0.10422999 2.826834 10197915
1.6749135 0.10417017 2.8252118 10197915
1.7242535 0.10411043 2.8235915 10197915
1.7746822 0.10404938 2.8219354 10197915
1.8250518 0.10398838 2.8202806 10197915
1.8753632 0.10392749 2.8186297 10197915
1.9256154 0.10386667 2.8169801 10197915
1.975808 0.10380588 2.8153317 10197915
2.0259428 0.10374517 2.8136849 10197915
2.0760183 0.10368454 2.8120406 10197915
2.1260352 0.10362396 2.8103979 10197915
2.1759939 0.10356347 2.8087573 10197915
2.2168274 0.10351402 2.8074162 10197915
0.4888739 0.10560638 2.8641629 2960685
0.52543592 0.10556211 2.8629625 2960685
0.57492512 0.10550217 2.8613372 2960685
0.6243583 0.10544232 2.8597136 2960685
0.67491007 0.1053811 2.8580534 2894892
0.72540367 0.10531996 2.8563952 2894892
0.77466619 0.10526031 2.8547771 2894892
0.82504368 0.10519931 2.8531227 2894892
0.87536323 0.10513838 2.8514702 2894892
0.91043705 0.10509589 2.850318 2894892
1.2336482 0.10450581 2.899471 10197915
1.2750777 0.10445572 2.8980818 10197915
1.3259251 0.10439429 2.8963771 10197915
1.3755319 0.10433433 2.8947134 10197915
1.4250817 0.10427443 2.8930519 10197915
1.4745748 0.10421463 2.8913922 10197915
1.525187 0.10415346 2.8896954 10197915
1.5757405 0.10409237 2.8879998 10197915
1.6250608 0.10403274 2.8863463 10197915
1.6743246 0.10397321 2.8846941 10197915
1.7247028 0.10391232 2.8830049 10197915
1.7750227 0.10385149 2.8813174 10197915
1.8252831 0.10379074 2.879632 10197915
1.8754861 0.10373014 2.8779504 10197915
1.9244641 0.10367094 2.876308 10197915
1.9745501 0.1036104 2.8746285 10197915
2.0245776 0.10354994 2.8729508 10197915
2.0745463 0.10348955 2.8712754 10197915
2.1256177 0.10342781 2.8695626 10197915
2.1754692 0.10336757 2.8678911 10197915
2.2252624 0.10330739 2.8662212 10197915
2.2645946 0.10325985 2.8649027 10197915
0.49308214 0.10540088 2.9243045 2960685
0.52439064 0.10536303 2.9232545 2960685
0.57492203 0.10530197 2.9215603 2960685
0.625395 0.10524096 2.9198678 2960685
0.6758095 0.10518004 2.9181774 2894892
0.7249676 0.10512061 2.9165285 2894892
0.77406967 0.10506126 2.9148819 2894892
0.82431209 0.10500054 2.913197 2894892
0.87449676 0.10493989 2.9115145 2894892
0.92462319 0.10487931 2.9098337 2894892
0.97469187 0.1048188 2.9081545 2894892
1.0247029 0.10475835 2.9064777 2894892
1.0746561 0.10469798 2.9048023 2894892
1.1245518 0.10463767 2.9031296 2894892
1.1743902 0.10457744 2.9014583 2894892
1.208771 0.10453589 2.9003057 8816262
1.5898056 0.10386898 2.949609 10197915
1.6257837 0.10382557 2.9483764 10197915
1.674908 0.1037663 2.9466941 10197915
1.7239759 0.10370713 2.9450133 10197915
1.774183 0.10364656 2.9432933 10197915
1.8243312 0.10358607 2.941576 10197915
1.874422 0.10352571 2.9398615 10197915
1.9244531 0.10346538 2.938148 10197915
1.974426 0.10340508 2.9364367 10197915
2.0243411 0.10334488 2.9347267 10197915
2.074198 0.10328473 2.9330189 10197915
2.123997 0.10322466 2.9313128 10197915
2.174921 0.10316324 2.9295685 10197915
2.2257855 0.10310189 2.9278262 10197915
2.275408 0.10304204 2.9261267 10197915
2.313179 0.10299648 2.9248323 10197915
0.49870101 0.10518508 2.9869833 2960685
0.52453023 0.10515392 2.9860985 2960685
0.57491875 0.10509314 2.9843729 2960685
0.62524956 0.10503244 2.9826486 2960685
0.67429656 0.10497327 2.9809687 2894892
0.72451222 0.1049127 2.9792485 2894892
0.77467036 0.10485218 2.977531 2894892
0.82477027 0.10479177 2.9758143 2894892
0.87481296 0.1047314 2.9741001 2894892
0.92479742 0.10467111 2.972388 2894892
0.97472495 0.10461088 2.9706776 2894892
1.0245947 0.10455075 2.9689696 2894892
1.0756215 0.10448919 2.9672217 2894892
1.1253754 0.10442916 2.9655178 2894892
1.1750722 0.10436922 2.963815 2894892
1.2247121 0.10430936 2.962115 5987163
1.2742947 0.10424954 2.9604163 10197915
1.3250281 0.10418834 2.9586787 10197915
1.3757018 0.10412721 2.956943 10197915
1.425112 0.10406762 2.9552503 10197915
1.474465 0.10400809 2.9535599 10197915
1.5249637 0.10394718 2.9518299 10197915
1.5646013 0.10389936 2.9504726 10197915
2.0253088 0.10312935 2.9991746 10197915
2.0750465 0.10306945 2.9974334 10197915
2.1247268 0.10300966 2.9956939 10197915
2.1743498 0.10294992 2.9939573 10197915
2.2251232 0.10288881 2.9921799 10197915
2.2758365 0.10282777 2.9904044 10197915
2.3252842 0.10276826 2.9886737 10197915
2.3626349 0.10272329 2.987366 10197915
0.58621341 0.10486156 3.0495503 2960685
0.62384379 0.10481626 3.0482333 2960685
0.67396939 0.10475592 3.0464778 2894892
0.72403729 0.10469564 3.0447254 2894892
0.77404785 0.10463544 3.0429749 2894892
0.82400066 0.10457532 3.0412259 2894892
0.8738963 0.10451525 3.0394795 2894892
0.92497951 0.10445378 3.0376911 2894892
0.97600317 0.10439235 3.0359046 2894892
1.0257243 0.10433249 3.0341644 2894892
1.0753884 0.10427272 3.0324256 2894892
1.1249958 0.104213 3.030689 2894892
1.1745464 0.10415335 3.0289545 2894892
1.2240402 0.10409378 3.0272222 2894892
1.2747123 0.10403278 3.0254483 9276813
1.3253257 0.10397186 3.0236764 10197915
1.3746471 0.1039125 3.0219502 10197915
1.4251432 0.10385171 3.0201824 10197915
1.4755803 0.103791 3.0184162 10197915
1.5247308 0.10373183 3.016696 10197915
1.5750511 0.10367127 3.0149348 10197915
1.6253132 0.10361074 3.0131748 10197915
1.6755164 0.10355032 3.0114176 10197915
1.7256619 0.10348997 3.0096624 10197915
1.7745272 0.10343114 3.0079513 10197915
1.8245569 0.10337096 3.0062008 10197915
1.8745291 0.10331084 3.0044525 10197915
1.9244425 0.10325074 3.0027058 10197915
1.9755127 0.10318927 3.0009174 10197915
0.5297029 0.10492957 3.0515285 2960685
0.56236291 0.10489026 3.050385 2960685
1.0954429 0.10402215 3.0998335 2894892
1.1245991 0.10398712 3.0987899 2894892
1.1752625 0.10392626 3.0969768 2894892
1.2258667 0.10386549 3.0951655 2894892
1.2751493 0.10380629 3.0934014 5395026
1.3243749 0.10374717 3.091639 10197915
1.374805 0.10368659 3.089834 10197915
1.425176 0.10362609 3.0880313 10197915
1.4754887 0.10356567 3.0862305 10197915
1.5257423 0.10350529 3.0844319 10197915
1.5759375 0.10344502 3.0826352 10197915
1.6260746 0.10338479 3.0808406 10197915
1.6761528 0.10332464 3.0790484 10197915
1.7261732 0.10326457 3.0772581 10197915
1.7761351 0.10320455 3.0754695 10197915
1.82604 0.10314466 3.0736849 10197915
1.8758863 0.10308482 3.0719008 10197915
1.9256748 0.103025 3.0701194 10197915
1.9754053 0.10296527 3.0683393 10197915
2.0250785 0.10290561 3.0665615 10197915
2.0746937 0.10284603 3.0647852 10197915
2.1242518 0.1027865 3.0630116 10197915
2.174989 0.10272555 3.0611954 10197915
2.2256665 0.10266469 3.0593817 10197915
2.2750499 0.10260538 3.0576141 10197915
2.3243763 0.10254612 3.0558486 10197915
2.3748765 0.10248548 3.0540411 10197915
2.4142518 0.10243817 3.0526316 10197915
0.53510767 0.10469517 3.1198895 2960685
0.57491225 0.10464735 3.1184647 2960685
0.62493873 0.10458726 3.1166739 2960685
0.67490822 0.10452725 3.1148856 2960685
0.72481996 0.1044673 3.1130989 2894892
0.77467495 0.10440741 3.1113145 2894892
0.82447231 0.10434761 3.1095319 2894892
0.87548763 0.10428634 3.1077061 2894892
0.92517018 0.10422665 3.1059279 2894892
0.97479534 0.10416704 3.104152 2894892
1.0256343 0.10410597 3.1023324 2894892
1.0713392 0.1040511 3.1006961 2894892
1.6857787 0.10307785 3.1494586 10197915
1.7254295 0.10303033 3.1480067 10197915
1.7752631 0.10297062 3.1461818 10197915
1.8250401 0.10291102 3.1443615 10197915
1.874758 0.10285145 3.1425409 10197915
1.9256912 0.10279042 3.140676 10197915
1.975293 0.10273097 3.1388595 10197915
2.0248373 0.1026716 3.1370459 10197915
2.0755925 0.10261078 3.1351874 10197915
2.1250212 0.10255155 3.1333776 10197915
2.1743927 0.10249239 3.1315696 10197915
2.2249713 0.10243177 3.1297178 10197915
2.2754893 0.10237124 3.1278682 10197915
2.3259482 0.10231076 3.1260207 10197915
2.3750885 0.10225187 3.1242211 10197915
2.4241719 0.10219304 3.1224241 10197915
2.4656613 0.10214333 3.1209052 10197915
0.54075986 0.10445 3.1913836 2960685
0.57490844 0.10440908 3.1901331 2960685
0.62477285 0.10434934 3.1883075 2960685
0.6745801 0.10428964 3.1864839 2960685
0.72433043 0.10423002 3.1846621 2894892
0.77402377 0.10417046 3.1828425 2894892
0.82496578 0.10410943 3.1809776 2894892
0.87584847 0.10404844 3.1791141 2894892
0.92536896 0.10398911 3.1773007 2894892
0.97483313 0.10392985 3.1754904 2894892
1.0242409 0.10387062 3.1736808 2894892
1.07489 0.10380992 3.1718261 2894892
1.1254805 0.10374931 3.1699736 2894892
1.1747168 0.1036903 3.1681712 2894892
1.2251904 0.10362981 3.1663232 2894892
1.2756054 0.1035694 3.1644769 2894892
1.3246711 0.1035106 3.1626806 8421504
1.3749698 0.10345032 3.1608384 10197915
1.4252107 0.10339011 3.158999 10197915
1.4753925 0.10332998 3.157162 10197915
1.5255164 0.1032699 3.1553264 10197915
1.5755816 0.1032099 3.1534934 10197915
1.625589 0.10314999 3.1516623 10197915
1.6601776 0.10310854 3.1503959 10197915
2.3327568 0.10205816 3.1992974 10197915
2.3753102 0.10200729 3.1977026 10197915
2.4242599 0.10194877 3.1958683 10197915
2.4744391 0.10188878 3.1939876 10197915
2.5194228 0.101835 3.1923018 10197915
0.98951912 0.10366394 3.2496352 2894892
1.0241117 0.1036226 3.2483389 2894892
1.0746235 0.10356221 3.2464457 2894892
1.1250765 0.10350189 3.2445552 2894892
1.1754707 0.10344164 3.2426665 2894892
1.2258062 0.10338145 3.2407796 2894892
1.2760832 0.10332136 3.2388959 2894892
1.3249815 0.10326289 3.2370632 3881787
1.3738235 0.10320451 3.2352326 10197915
1.4239289 0.1031446 3.2333548 10197915
1.4739759 0.10308478 3.2314792 10197915
1.523965 0.10302501 3.2296059 10197915
1.5738956 0.10296532 3.2277343 10197915
1.6250805 0.10290413 3.2258167 10197915
1.676205 0.10284301 3.2239006 10197915
1.7259598 0.10278352 3.2220354 10197915
1.7756574 0.10272413 3.2201736 10197915
1.8252981 0.10266482 3.2183149 10197915
1.8748808 0.10260556 3.2164576 10197915
1.9244062 0.10254634 3.214601 10197915
1.9751751 0.10248566 3.212698 10197915
2.0258846 0.10242502 3.2107975 10197915
2.0752358 0.10236603 3.2089481 10197915
2.1245306 0.10230709 3.2071009 10197915
2.1750636 0.10224668 3.2052073 10197915
2.2255366 0.10218634 3.2033153 10197915
2.2746582 0.10212762 3.2014749 10197915
2.3069463 0.10208902 3.2002647 10197915
0.54667675 0.10419334 3.2662306 2960685
0.5749045 0.10415962 3.2651734 2960685
0.62459904 0.10410021 3.2633109 2960685
0.67423636 0.10404088 3.2614508 2960685
0.72515661 0.10397998 3.2595427 2960685
0.77468002 0.10392079 3.2576869 2894892
0.82414651 0.10386166 3.2558331 2894892
0.87489146 0.10380099 3.253931 2894892
0.92557728 0.10374039 3.2520316 2894892
0.96555233 0.10369261 3.2505333 2894892
1.7332169 0.10251682 3.2993739 10197915
1.7747321 0.10246736 3.2977815 10197915
1.8255686 0.10240675 3.295831 10197915
1.8750093 0.10234781 3.2939336 10197915
1.9243927 0.1022889 3.2920387 10197915
1.9750522 0.10222852 3.2900939 10197915
2.0256517 0.10216816 3.2881522 10197915
2.0748622 0.10210949 3.2862635 10197915
2.1240163 0.10205086 3.2843773 10197915
2.1744399 0.10199073 3.2824419 10197915
2.2248046 0.10193068 3.2805092 10197915
2.2751093 0.10187068 3.2785778 10197915
2.3253553 0.10181076 3.27665 10197915
2.3755422 0.10175091 3.2747235 10197915
2.4256701 0.10169115 3.2728002 10197915
2.4757392 0.10163143 3.2708783 10197915
2.5257497 0.1015718 3.2689588 10197915
2.5743878 0.10151379 3.2670922 10197915
0.57902956 0.1038932 3.3436704 2960685
0.62579131 0.10383744 3.341876 2960685
0.67524952 0.10377847 3.3399777 2960685
0.72465158 0.10371955 3.3380816 2960685
0.77399755 0.10366072 3.3361881 2894892
0.82465571 0.10360029 3.3342433 2894892
0.87525541 0.10353994 3.3323016 2894892
0.92443073 0.10348132 3.3304145 2894892
0.97491378 0.10342111 3.3284767 2894892
1.0253386 0.10336098 3.3265419 2894892
1.0743439 0.10330253 3.3246603 2894892
1.1246529 0.10324254 3.3227298 2894892
1.1749039 0.10318261 3.3208015 2894892
1.2250959 0.10312276 3.3188751 2894892
1.2752303 0.10306298 3.3169508 2894892
1.3253062 0.10300326 3.3150284 2894892
1.3753245 0.10294362 3.3131094 6710886
1.4252844 0.10288404 3.3111916 10197915
1.4751868 0.10282453 3.3092766 10197915
1.5250312 0.10276511 3.3073635 10197915
1.5748185 0.10270571 3.3054531 10197915
1.624548 0.10264641 3.303544 10197915
1.6755617 0.10258558 3.3015864 10197915
1.7090931 0.1025456 3.3002994 10197915
2.5337374 0.10129404 3.349335 10197915
2.5754883 0.10124438 3.3476934 10197915
2.6252677 0.10118518 3.3457353 10197915
2.6548409 0.10114999 3.3445728 10197915
1.2479637 0.1028232 3.3998976 2894892
1.2757225 0.10279019 3.3988063 2894892
1.3256472 0.10273082 3.3968437 2894892
1.3755145 0.10267153 3.394882 2894892
1.425324 0.10261227 3.3929229 9145227
1.4750762 0.1025531 3.3909664 10197915
1.5247712 0.10249398 3.3890123 10197915
1.5744088 0.10243495 3.3870599 10197915
1.6239891 0.10237598 3.3851101 10197915
1.6748871 0.10231544 3.3831084 10197915
1.7257255 0.10225498 3.3811092 10197915
1.775133 0.10219629 3.3791683 10197915
1.8244828 0.10213758 3.3772278 10197915
1.8751438 0.10207733 3.3752348 10197915
1.9257458 0.10201715 3.3732455 10197915
1.9749228 0.10195866 3.3713114 10197915
2.0254068 0.10189862 3.3693261 10197915
2.0758319 0.10183866 3.3673429 10197915
2.1248369 0.10178035 3.3654158 10197915
2.1751447 0.10172053 3.3634377 10197915
2.2253933 0.10166076 3.3614612 10197915
2.275583 0.10160107 3.3594878 10197915
2.3257141 0.10154144 3.3575156 10197915
2.3744338 0.10148351 3.3556001 10197915
2.424448 0.10142402 3.3536332 10197915
2.4744048 0.10136461 3.3516684 10197915
2.5081279 0.10132451 3.350343 10197915
0.58476818 0.10361198 3.4259791 2960685
0.62422526 0.10356507 3.4244277 2960685
0.67490554 0.10350479 3.4224346 2960685
0.72552663 0.10344459 3.4204435 2960685
0.77608889 0.10338444 3.4184551 2894892
0.82519072 0.10332604 3.4165246 2894892
0.8742364 0.1032677 3.4145956 2894892
0.92462611 0.10320777 3.4126139 2894892
0.97495723 0.10314791 3.4106348 2894892
1.0252302 0.10308813 3.4086576 2894892
1.0754445 0.10302839 3.406683 2894892
1.1256012 0.10296874 3.4047103 2894892
1.1756996 0.10290916 3.4027402 2894892
1.2229619 0.10285295 3.4008813 2894892
2.1438308 0.10147466 3.4498234 10197915
2.1744916 0.10143831 3.4485872 10197915
2.2246206 0.10137884 3.4465663 10197915
2.2746909 0.10131945 3.4445472 10197915
2.3247023 0.10126016 3.4425306 10197915
2.3746555 0.1012009 3.4405167 10197915
2.4245501 0.10114174 3.4385045 10197915
2.474386 0.10108262 3.4364953 10197915
2.5241642 0.10102358 3.4344881 9276813
2.5738842 0.10096461 3.4324834 6645093
2.6249239 0.10090407 3.4304252 3552822
2.6759043 0.10084361 3.4283698 9079434
2.7130687 0.10079953 3.4268713 10197915
1.5446371 -1.5576795 3.497577 2039583
1.5600444 -1.5555182 3.4888661 2039583
1.5446197 -1.5251203 3.4977252 2039583
1.5607792 -1.525113 3.4883807 2039583
1.5457929 -1.4753201 3.49716 2039583
1.5609357 -1.4750375 3.4885643 2039583
1.5459933 -1.4247348 3.4972396 2039583
1.560989 -1.4251003 3.488683 2039583
1.5460216 -1.3750471 3.4974296 2039583
1.5609417 -1.3751531 3.4889138 2039583
1.5460498 -1.325353 3.4976192 2039583
1.5612247 -1.3249205 3.4890232 2039583
1.546208 -1.2747132 3.4977274 2039583
1.5611488 -1.2749691 3.4892259 2039583
1.5462377 -1.224528 3.4979186 2039583
1.5612137 -1.2251511 3.4893887 2039583
1.546308 -1.175311 3.4980786 2039583
1.5613999 -1.1749045 3.4895484 2039583
1.5463384 -1.1251143 3.4982693 2039583
1.561372 -1.1247936 3.4897263 2039583
1.5464963 -1.0744591 3.4983776 2039583
1.5614983 -1.0751069 3.4898579 2039583
1.5472898 -1.0265701 3.4980545 2039583
1.5615988 -1.0249873 3.4900634 2039583
1.5477179 -0.97529423 3.4979875 2039583
1.5615703 -0.97486567 3.4902444 2039583
1.5477576 -0.92532533 3.4981706 2039583
1.5617127 -0.92502028 3.4903557 2039583
1.5478948 -0.87467355 3.4982929 2039583
1.5617874 -0.87502891 3.4905229 2039583
1.5479342 -0.82469529 3.4984763 2039583
1.56183 -0.8248927 3.4907846 2039583
1.5480051 -0.77545196 3.4986362 2039583
1.5619206 -0.77489084 3.4908752 2039583
1.5480449 -0.72546327 3.4988198 2039583
1.5620885 -0.7250306 3.4909713 2039583
1.5481819 -0.67479503 3.4989419 2039583
1.56205 -0.67501777 3.4912977 2039583
1.5482215 -0.62479728 3.4991257 2039583
1.5620831 -0.62500644 3.491406 2039583
1.548823 -0.57963598 3.4989185 2039583
1.5623155 -0.57484668 3.4914613 2039583
1.5494876 -0.5247094 3.4987106 2039583
1.5622989 -0.52510756 3.4917219 2039583
1.5495605 -0.4740001 3.4988751 2039583
1.562292 -0.47521493 3.4919832 2039583
1.5496314 -0.4247351 3.4990354 2039583
1.56253 -0.42461967 3.4919605 2039583
1.5497022 -0.3754656 3.4991949 2039583
1.5625234 -0.37471727 3.4922221 2039583
1.5497751 -0.3247422 3.4993598 2039583
1.5625964 -0.32554197 3.4923861 2039583
1.549848 -0.27401412 3.4995246 2039583
1.5626024 -0.27519611 3.4926181 2039583
1.5499188 -0.22473079 3.4996843 2039583
1.562819 -0.22458203 3.4926581 2039583
1.5499772 -0.18414129 3.4998162 2039583
1.562384 -0.1745626 3.4931283 2039583
1.5622613 -0.12634982 3.4933922 2039583
1.5630294 -0.075115867 3.4931912 2039583
1.5630457 -0.024603393 3.4933896 2039583
1.5631189 0.024604937 3.4935546 2039583
1.5632538 0.075127088 3.4936922 4934475
0.92483139 0.1029204 3.4989734 2894892
0.97500306 0.10286088 3.4969509 2894892
1.0251161 0.10280144 3.49493 2894892
1.0751719 0.10274208 3.4929118 2894892
1.1251693 0.10268278 3.4908957 2894892
1.1751096 0.10262356 3.4888821 2894892
1.2249919 0.10256439 3.4868708 2894892
1.2748172 0.1025053 3.4848619 2894892
1.3245844 0.10244626 3.4828548 2894892
1.3757142 0.10238562 3.4807932 2894892
1.425366 0.10232674 3.478791 3947580
1.4749601 0.10226791 3.4767916 10197915
1.5259119 0.10220747 3.4747369 10197915
1.5741266 0.10203105 3.474215 10197915
1.624813 0.10209019 3.4707491 10197915
1.6755881 0.10202995 3.4687016 10197915
1.724896 0.1019715 3.4667144 10197915
1.774147 0.10191312 3.4647293 10197915
1.8247463 0.10185311 3.4626896 10197915
1.8752859 0.10179318 3.4606519 10197915
1.9257655 0.1017333 3.458616 10197915
1.9761865 0.10167349 3.4565837 10197915
2.0251503 0.10161544 3.4546094 10197915
2.0740573 0.10155742 3.4526372 10197915
2.1187251 0.10150445 3.4508362 10197915
1.4812486 -1.5667435 3.5393448 2171169
1.5180146 -1.5613308 3.51512 2039583
1.5894394 -1.5613664 3.5128644 2039583
1.6078414 -1.5665179 3.5407588 2039583
1.4822552 -1.52495 3.5388558 2105376
1.519881 -1.5249765 3.5140412 2039583
1.5888474 -1.5248187 3.5120149 2039583
1.6075313 -1.523919 3.5403454 2039583
1.4822882 -1.4749757 3.5390434 2105376
1.5209727 -1.4748952 3.5135295 2039583
1.5889441 -1.4739844 3.5122283 2039583
1.6076274 -1.4741384 3.5405569 2039583
1.4824024 -1.4249963 3.53918 2105376
1.5211334 -1.4249284 3.5136344 2039583
1.5890383 -1.4245958 3.5124364 2039583
1.6077231 -1.4243519 3.5407681 2039583
1.4830146 -1.3755387 3.5389824 2105376
1.5212938 -1.3748125 3.5137393 2039583
1.5891323 -1.3752019 3.5126443 2039583
1.6078194 -1.3745594 3.5409796 2039583
1.4836601 -1.3250123 3.5387685 2039583
1.5213021 -1.3248417 3.5139427 2039583
1.5892266 -1.3258022 3.5128531 2039583
1.6079152 -1.3247608 3.5411913 2039583
1.4837774 -1.2748071 3.5389011 2105376
1.5213518 -1.2750207 3.5141187 2039583
1.5891898 -1.275661 3.5128634 2039583
1.6080112 -1.2749566 3.5414028 2039583
1.4837984 -1.2248058 3.5390968 2105376
1.5214436 -1.2251179 3.5142684 2039583
1.5895516 -1.2248139 3.5134792 2039583
1.6081073 -1.2251463 3.5416138 2039583
1.483852 -1.1749032 3.5392706 2105376
1.5215337 -1.1750594 3.5144184 2039583
1.5895145 -1.1746604 3.5134897 2039583
1.6082031 -1.17533 3.5418262 2039583
1.4839456 -1.1249971 3.5394206 2105376
1.5215079 -1.1249955 3.5146463 2039583
1.5896086 -1.125237 3.5136979 2039583
1.6082991 -1.1255078 3.5420375 2039583
1.4839563 -1.0749824 3.5396197 2105376
1.521642 -1.0750017 3.5147674 2039583
1.589572 -1.0750829 3.5137088 2039583
1.6082622 -1.0749493 3.5420485 2039583
1.4840927 -1.0249623 3.5397408 2105376
1.5225691 -1.024716 3.5143659 2039583
1.5898 -1.0249209 3.5141203 2039583
1.6084944 -1.0243827 3.5424671 2039583
1.4841276 -0.97504252 3.539927 2105376
1.5229702 -0.97490418 3.5143096 2039583
1.5898943 -0.9754796 3.514329 2039583
1.6085905 -0.97454274 3.5426781 2039583
1.4844695 -0.925336 3.5399108 2039583
1.5230114 -0.92493546 3.5144932 2039583
1.5901221 -0.92529416 3.5147409 2039583
1.6064258 -0.92872244 3.5394566 2039583
1.4854679 -0.87485772 3.5394635 2039583
1.5230627 -0.87503374 3.5146699 2039583
1.5899545 -0.87440836 3.5145538 2039583
1.6040716 -0.87454844 3.535959 2039583
1.4855478 -0.82481426 3.5396209 2039583
1.5231652 -0.82512778 3.5148108 2039583
1.5901824 -0.82421082 3.514966 2039583
1.6041675 -0.82479084 3.5361698 2039583
1.4855341 -0.77476645 3.5398397 2039583
1.5232042 -0.77507162 3.5149944 2039583
1.5902768 -0.77474564 3.5151749 2039583
1.6042631 -0.77502716 3.536381 2039583
1.485624 -0.72482508 3.5399909 2039583
1.5232643 -0.7249409 3.5151651 2039583
1.590371 -0.72527456 3.5153828 2039583
1.6043587 -0.72525775 3.5365918 2039583
1.4856817 -0.67487961 3.5401609 2039583
1.5233054 -0.67494726 3.5153484 2039583
1.5904652 -0.67579776 3.5155914 2039583
1.6044544 -0.67548239 3.5368028 2039583
1.4857607 -0.62492955 3.5403192 2039583
1.5233735 -0.62495035 3.5155137 2039583
1.5904286 -0.62557381 3.5156021 2039583
1.60455 -0.62570095 3.5370135 2039583
1.4858302 -0.57497537 3.540483 2039583
1.5243067 -0.57463163 3.5151088 2039583
1.5907907 -0.57465631 3.5162184 2039583
1.6046457 -0.57591379 3.537225 2039583
1.4858998 -0.52501649 3.5406473 2039583
1.5247326 -0.5248754 3.5150359 2039583
1.5907539 -0.52442026 3.5162292 2039583
1.6047415 -0.52612048 3.5374358 2039583
1.4859784 -0.4750528 3.5408037 2039583
1.5247089 -0.47489798 3.5152609 2039583
1.5908481 -0.47491956 3.5164373 2039583
1.6048373 -0.47632134 3.5376465 2039583
1.4872043 -0.42496598 3.5402057 2039583
1.5248362 -0.42498541 3.5153856 2039583
1.5909426 -0.42541292 3.5166457 2039583
1.6049359 -0.42505124 3.5378642 2039583
1.4873247 -0.37475237 3.5403371 2039583
1.5249627 -0.37506974 3.5155139 2039583
1.5909059 -0.37517312 3.5166569 2039583
1.6050346 -0.37377492 3.5380816 2039583
1.4873766 -0.32453227 3.540514 2039583
1.5251534 -0.32508224 3.5155981 2039583
1.5911341 -0.32492852 3.5170689 2039583
1.6051302 -0.32395756 3.5382926 2039583
1.4866755 -0.27493337 3.5411842 2039583
1.5240847 -0.27487099 3.5165117 2039583
1.5912286 -0.27540421 3.5172787 2039583
1.605226 -0.27413425 3.5385041 2039583
1.4863172 -0.22448996 3.5416324 2039583
1.5238271 -0.22523063 3.5168898 2039583
1.5914568 -0.22513607 3.5176914 2039583
1.6053218 -0.22430502 3.5387149 2039583
1.4863861 -0.17461129 3.541796 2039583
1.5239449 -0.17510477 3.5170231 2039583
1.5914202 -0.17487785 3.5177014 2039583
1.6054174 -0.1744698 3.5389266 2039583
1.4864554 -0.12472811 3.5419595 2039583
1.5244406 -0.12452716 3.5169084 2039583
1.5822046 -0.12206216 3.5137868 2039583
1.6055136 -0.12462866 3.5391376 2039583
1.4865237 -0.074840233 3.5421243 2039583
1.5241574 -0.074315831 3.5173047 2039583
1.5777864 -0.074206725 3.5121415 2039583
1.6056092 -0.074781559 3.5393488 2039583
1.4865928 -0.024947779 3.5422885 2039583
1.5242279 -0.024772976 3.5174665 2039583
1.5778731 -0.024736779 3.5123339 2039583
1.6057053 -0.024928506 3.5395603 2039583
1.4875205 0.024505777 3.5418828 2039583
1.5242978 0.024774494 3.5176277 2039583
1.5779595 0.024738587 3.5125263 2039583
1.6058011 0.024930494 3.5397716 2039583
1.4878812 0.07483495 3.5418558 4934475
1.5243679 0.074326493 3.5177913 4802889
1.578046 0.074219383 3.5127187 4671303
1.6058969 0.07479544 3.539983 4671303
0.59224135 0.10331485 3.5123844 2960685
0.62402451 0.10327716 3.5111027 2960685
0.67454398 0.10321727 3.5090659 2960685
0.72500545 0.10315741 3.5070314 2960685
0.77540755 0.10309762 3.5049987 2960685
0.82575208 0.1030379 3.502969 2894892
0.8746022 0.10297997 3.5009992 2894892
1.4879175 0.10124953 3.5419431 10197915
1.524405 0.10056155 3.5178757 10197915
1.578092 0.10041706 3.5128212 10197915
1.6059476 0.1011967 3.5400946 10197915
1.8941464 0.10147214 3.5497298 10197915
1.9243492 0.10143642 3.54848 10197915
1.9746437 0.10137694 3.5463994 10197915
2.0248799 0.10131752 3.5443213 10197915
2.0750568 0.10125819 3.5422456 10197915
2.125175 0.10119893 3.5401723 10197915
2.1752346 0.10113974 3.5381017 10197915
2.2252359 0.1010806 3.5360329 10197915
2.2751784 0.10102155 3.533967 10197915
2.3250628 0.10096255 3.5319035 10197915
2.3748884 0.10090362 3.5298424 10197915
2.4246571 0.10084477 3.5277834 9934743
2.4743659 0.10078599 3.525727 7237230
2.5254359 0.10072559 3.5236142 4737096
2.5750291 0.10066694 3.5215626 2105376
2.6245635 0.10060838 3.5195131 2039583
2.6754534 0.10054818 3.5174084 2039583
2.7248714 0.10048975 3.5153642 3158064
2.7714136 0.10043471 3.5134385 9803157
1.3945689 -1.6046501 3.5963526 2960685
1.4082617 -1.602535 3.5873303 2960685
1.6407942 -1.6036048 3.5906758 2039583
1.3946074 -1.5748948 3.5964515 2960685
1.4246427 -1.5741768 3.5766466 2960685
1.4578267 -1.5703657 3.5547762 2960685
1.6316224 -1.5740229 3.5768085 2039583
1.3946191 -1.5246776 3.5966542 2960685
1.4253478 -1.5250264 3.5763881 2960685
1.4580009 -1.5252587 3.5548511 2960685
1.6313272 -1.5246228 3.5764265 2039583
1.3947192 -1.4748306 3.5967979 2960685
1.4253315 -1.4749873 3.576607 2960685
1.4580687 -1.4752539 3.555016 2960685
1.6314259 -1.4743352 3.5766416 2039583
1.3948195 -1.4249793 3.5969403 2960685
1.424713 -1.425169 3.5772252 2960685
1.4573467 -1.4244982 3.5557053 2960685
1.6315241 -1.424041 3.5768578 2039583
1.3949198 -1.3751248 3.5970848 2960685
1.4244184 -1.3748993 3.5776305 2960685
1.457696 -1.3745425 3.5556855 2960685
1.6314293 -1.374223 3.5767794 2039583
1.394931 -1.324888 3.5972877 2960685
1.424504 -1.3249898 3.5777819 2960685
1.4582697 -1.3253355 3.5555117 2960685
1.6317188 -1.3249185 3.5772843 2039583
1.3949432 -1.2746451 3.5974896 2960685
1.4244772 -1.2750055 3.5780098 2960685
1.4583374 -1.2753128 3.5556772 2960685
1.6318158 -1.2750998 3.5774963 2039583
1.3953897 -1.2264191 3.5973976 2960685
1.4245894 -1.2249452 3.5781453 2960685
1.4584053 -1.2252862 3.5558429 2960685
1.6319144 -1.224782 3.577713 2039583
1.3963599 -1.175277 3.5969727 2960685
1.4245771 -1.1750226 3.5783637 2960685
1.458473 -1.1752534 3.5560088 2960685
1.6320126 -1.1744579 3.5779281 2039583
1.3963776 -1.1251498 3.5971713 2960685
1.4247286 -1.1250243 3.5784733 2960685
1.4585408 -1.1252162 3.5561726 2894892
1.6321086 -1.1251146 3.5781384 2039583
1.3964428 -1.0745313 3.5973396 2960685
1.4248015 -1.0749515 3.5786347 2894892
1.458608 -1.0751748 3.5563378 2894892
1.6322057 -1.0757656 3.5783513 2039583
1.396461 -1.0243932 3.5975394 2960685
1.4247547 -1.0250143 3.5788746 2894892
1.4586761 -1.0251285 3.556504 2894892
1.6323043 -1.0254236 3.5785682 2039583
1.3966203 -0.97527689 3.59764 2960685
1.4249403 -0.97500223 3.578963 2894892
1.4587437 -0.97507733 3.5566678 2894892
1.6324028 -0.97507536 3.5787835 2039583
1.3966358 -0.9256258 3.5978372 2894892
1.4249209 -0.92498416 3.579185 2894892
1.4591097 -0.9244777 3.5566387 2894892
1.6291147 -0.92322338 3.5738664 2039583
1.3967015 -0.87498838 3.598007 2894892
1.4250526 -0.87496305 3.5793085 2894892
1.4600376 -0.87497795 3.5562336 2894892
1.6277516 -0.87492687 3.5718634 2039583
1.3967673 -0.82434642 3.5981762 2894892
1.4251525 -0.82500803 3.5794518 2894892
1.4601052 -0.82492417 3.5563996 2894892
1.6277043 -0.82541168 3.5718567 2039583
1.3967836 -0.77467936 3.5983727 2894892
1.4251252 -0.77511871 3.5796809 2894892
1.460173 -0.775029 3.556565 2894892
1.6280166 -0.77550536 3.572397 2039583
1.39798 -0.72647953 3.5977869 2894892
1.4251916 -0.7250821 3.5798457 2894892
1.4602407 -0.72512949 3.5567303 2894892
1.6281147 -0.7252292 3.572612 2039583
1.3981477 -0.67522484 3.5978901 2894892
1.4253107 -0.67504179 3.5799763 2894892
1.4603086 -0.67506123 3.5568967 2894892
1.6282129 -0.67494661 3.5728276 2039583
1.3982131 -0.62457508 3.5980597 2894892
1.42541 -0.62506795 3.5801232 2894892
1.4603763 -0.62498879 3.5570612 2894892
1.6283104 -0.62465811 3.5730426 2039583
1.3982424 -0.57464647 3.5982497 2894892
1.4255096 -0.57509089 3.5802646 2894892
1.4604594 -0.57507563 3.5572147 2894892
1.6281933 -0.57473332 3.5729303 2039583
1.3983783 -0.52551526 3.598367 2894892
1.4254559 -0.52503598 3.5805106 2894892
1.4605119 -0.52515703 3.5573909 2894892
1.6284343 -0.52517861 3.5733616 2039583
1.3984069 -0.47557747 3.5985572 2894892
1.4255487 -0.47490525 3.5806599 2894892
1.4606098 -0.47523585 3.5575361 2894892
1.6286025 -0.47524211 3.5736835 2039583
1.3984723 -0.424909 3.5987263 2894892
1.425675 -0.42484123 3.5807865 2894892
1.4618528 -0.42543089 3.5569241 2763306
1.6287006 -0.42492953 3.5738983 2039583
1.3985384 -0.37423563 3.5988953 2894892
1.4258006 -0.37484488 3.5809119 2894892
1.4619341 -0.37564212 3.5570793 2763306
1.6287986 -0.37461108 3.5741141 2039583
1.3986022 -0.32504818 3.5990603 2894892
1.4257873 -0.32484463 3.5811312 2894892
1.4619397 -0.32569644 3.5572836 2829099
1.6287504 -0.32503036 3.5741055 2039583
1.3990877 -0.28012878 3.5989282 2894892
1.4256344 -0.27483568 3.5814431 2894892
1.4620079 -0.2756021 3.557451 2829099
1.6289923 -0.27543899 3.574538 2039583
1.3999187 -0.22511989 3.5986104 2894892
1.4257599 -0.22482251 3.5815694 2894892
1.4620761 -0.22550316 3.5576165 2829099
1.6290907 -0.22510239 3.574754 2039583
1.3999749 -0.18189228 3.5987542 2894892
1.4255288 -0.17469013 3.5819314 2894892
1.4621435 -0.17539939 3.5577798 2829099
1.6291173 -0.17513077 3.5748601 2039583
1.4251989 -0.12549646 3.5823562 2894892
1.4622118 -0.12529103 3.5579474 2829099
1.6290697 -0.12553053 3.5748534 2039583
1.4248775 -0.07569918 3.5827777 2894892
1.4622798 -0.07517802 3.558111 2829099
1.6293823 -0.07554315 3.5753949 2039583
1.4249444 -0.025234107 3.5829442 2894892
1.462348 -0.025060378 3.5582757 2829099
1.6294805 -0.025182398 3.5756092 2039583
1.4250108 0.025235688 3.5831122 2894892
1.4633207 0.025475651 3.557847 2763306
1.6295787 0.025184425 3.575825 2039583
1.4250785 0.075710222 3.5832803 2894892
1.4636416 0.07517276 3.5578439 3158064
1.6296775 0.075557306 3.5760407 4539717
0.69044352 0.10289551 3.5995233 2960685
0.72593498 0.10285355 3.5980551 2960685
0.77616799 0.10279415 3.5959771 2960685
0.82634282 0.10273482 3.5939009 2894892
0.87498683 0.10267729 3.5918889 2894892
0.92357612 0.10261983 3.5898793 2894892
0.97358084 0.10256069 3.58781 2894892
1.0249963 0.1024999 3.5856836 2894892
1.0763512 0.10243917 3.583559 2894892
1.1261803 0.10238025 3.5814972 2894892
1.175952 0.10232139 3.5794384 2894892
1.2256666 0.10226259 3.5773821 2894892
1.2753242 0.10220387 3.5753274 2894892
1.3249246 0.10214522 3.5732758 2894892
1.3744682 0.1020866 3.5712256 2894892
1.4253873 0.10202484 3.5690651 2894892
1.4636776 0.10170658 3.5579317 3881787
1.6326419 0.10176349 3.559922 10197915
1.6748788 0.10173137 3.5587986 10197915
1.7254674 0.10167158 3.5567071 10197915
1.7745531 0.10161356 3.5546772 10197915
1.8250232 0.10155386 3.5525889 10197915
1.8696778 0.10150107 3.5507419 10197915
1.3298376 -1.6140685 3.6390042 2960685
1.3672677 -1.6085637 3.614342 2960685
1.6628027 -1.6105381 3.624038 2039583
1.3309984 -1.5749785 3.6384025 2960685
1.3695016 -1.5749923 3.6130099 2960685
1.6602108 -1.5753999 3.6201546 2039583
1.3309827 -1.525007 3.638622 2960685
1.3695989 -1.5249627 3.6131554 2960685
1.6605108 -1.5254855 3.6206746 2039583
1.3317056 -1.4753945 3.6383538 2960685
1.3697551 -1.4750192 3.613261 2960685
1.6606121 -1.4745758 3.6208973 2039583
1.332288 -1.4249752 3.6381814 2960685
1.3697759 -1.42507 3.6134586 2960685
1.6607105 -1.4251571 3.6211109 2039583
1.332544 -1.375195 3.638221 2960685
1.3698319 -1.3748512 3.6136317 2960685
1.6608094 -1.375733 3.6213257 2039583
1.3325318 -1.3250825 3.6384394 2960685
1.3699299 -1.3248923 3.613776 2960685
1.6609111 -1.3248043 3.6215467 2039583
1.3325208 -1.2749674 3.6386566 2960685
1.3698914 -1.2751056 3.6140106 2960685
1.6608093 -1.2748656 3.62146 2039583
1.3326447 -1.2250667 3.6387844 2960685
1.370456 -1.2246987 3.6138468 2960685
1.6611098 -1.2249309 3.6219802 2039583
1.3327231 -1.1748319 3.6389439 2960685
1.3712875 -1.1750057 3.6135104 2960685
1.6612085 -1.1749831 3.6221967 2039583
1.332711 -1.1249216 3.6391604 2960685
1.3713112 -1.1249911 3.6137037 2960685
1.6613086 -1.1250293 3.6224151 2039583
1.3328509 -1.0751092 3.6392767 2960685
1.3714867 -1.0749701 3.6137965 2960685
1.6614096 -1.0745701 3.6226342 2039583
1.3329084 -1.0250794 3.6394496 2960685
1.3714665 -1.025031 3.6140201 2960685
1.6615071 -1.0251039 3.6228476 2039583
1.3340665 -0.97513252 3.6388946 2960685
1.3715253 -0.97491628 3.6141903 2960685
1.6616074 -0.97513235 3.6230652 2039583
1.3342631 -0.92497039 3.6389756 2960685
1.3715866 -0.92496401 3.6143615 2894892
1.6615061 -0.92516047 3.6229777 2039583
1.3342124 -0.87502247 3.6392195 2960685
1.3716683 -0.87501234 3.6145132 2894892
1.6618063 -0.87517494 3.6234999 2039583
1.3343985 -0.8251974 3.6393042 2894892
1.3716768 -0.82496727 3.6147196 2894892
1.662104 -0.82467139 3.6240177 2039583
1.3343931 -0.77501154 3.6395197 2894892
1.3718879 -0.77500284 3.6147902 2894892
1.6618042 -0.7752043 3.6236291 2039583
1.3344431 -0.7249366 3.6396954 2894892
1.3729173 -0.72487533 3.6143243 2894892
1.6621051 -0.72518814 3.624151 2039583
1.3345166 -0.67509836 3.6398578 2894892
1.3730406 -0.67501235 3.6144493 2894892
1.6620082 -0.67466682 3.6240711 2039583
1.3346901 -0.62489629 3.6399524 2894892
1.3733101 -0.62515688 3.6144826 2894892
1.6625056 -0.62518078 3.6248913 2039583
1.3345388 -0.57492912 3.6402626 2894892
1.3732144 -0.57505596 3.6147561 2894892
1.6624039 -0.57514733 3.6248024 2039583
1.3353212 -0.52560616 3.6399534 2894892
1.3732553 -0.5248695 3.6149364 2894892
