# .PCD v0.7 - Point Cloud Data file format
VERSION 0.7
FIELDS x y z rgb
SIZE 4 4 4 4
TYPE F F F U
COUNT 1 1 1 1
WIDTH 1148
HEIGHT 1
VIEWPOINT 0 0 0 1 0 0 0
POINTS 1148
DATA ascii
0.12568758 -0.4106665 0.94174129 6513507
0.15842448 -0.41214463 0.94828528 6513507
0.026797481 -0.37498134 0.92417705 6513507
0.074884802 -0.37501672 0.9316169 6513507
0.12483965 -0.37498125 0.9416045 6513507
0.15831691 -0.37502185 0.94829822 6513507
0.026800597 -0.32499567 0.92424506 6513507
0.07486213 -0.32501009 0.93165857 6513507
0.12481842 -0.32499018 0.9416467 6513507
0.15833326 -0.32499355 0.94834733 6513507
0.026788307 -0.27500948 0.92431659 6513507
0.074891642 -0.27499142 0.93170965 6513507
0.12485901 -0.27500001 0.94169867 6513507
0.15794332 -0.27501202 0.9483161 6513507
0.026814615 -0.22502157 0.92438728 6513507
0.074874841 -0.22498606 0.93175274 6513507
0.12485015 -0.22499233 0.94174558 6513507
0.15795982 -0.22501037 0.94836444 6513507
0.026812132 -0.17503321 0.92445755 6513507
0.074901924 -0.17499405 0.93180329 6513507
0.12485357 -0.17498581 0.94179064 6513507
0.1579241 -0.17504358 0.94840282 6513507
0.026808858 -0.12500522 0.9245317 6513507
0.074901842 -0.12499692 0.93185014 6513507
0.12484816 -0.12501861 0.94183695 6513507
0.15774044 -0.12526593 0.94841206 6513507
0.02684588 -0.074962735 0.92460555 6513507
0.074893594 -0.07504265 0.93189347 6513507
0.12483242 -0.074996538 0.94187868 6513507
0.15756501 -0.07504759 0.9484238 6513507
0.02678021 -0.024970958 0.92467916 6513507
0.074900165 -0.025041977 0.93194187 6513507
0.12491798 -0.024974855 0.9419412 6513507
0.15757306 -0.025147947 0.94847077 6513507
0.026781965 0.024973635 0.92475146 6513507
0.074903794 0.025043665 0.9319883 6513507
0.12492388 0.024976535 0.94198936 6513507
0.1575262 0.024987942 0.94850779 6513507
0.026847377 0.074975021 0.92482781 6513507
0.074904166 0.075042292 0.93203366 6513507
0.124848 0.074995629 0.94201857 6513507
0.15718202 0.075052887 0.94848484 6513507
-0.75190866 0.11582927 0.94775039 10197915
-0.71964461 0.11582422 0.92982709 10197915
-0.67512381 0.11579549 0.92552441 10197915
-0.62502885 0.11575821 0.92521888 10197915
-0.57501411 0.11572103 0.92491192 10197915
-0.52498358 0.11568384 0.92459524 10197915
-0.47498557 0.11564664 0.92431676 10197915
-0.42501926 0.11560944 0.92404711 10197915
-0.37508577 0.11557236 0.9237231 10197915
-0.32503891 0.11553509 0.92343748 10197915
-0.27497783 0.11549789 0.92309916 10197915
-0.22499678 0.11546065 0.92287034 10197915
-0.17499988 0.1154235 0.92252278 10197915
-0.12498724 0.11538631 0.92223626 10197915
-0.074315131 0.11534703 0.92340624 10197915
-0.02503008 0.11530869 0.92468244 4342338
0.026306678 0.10929918 0.92209083 6513507
0.07520926 0.10938675 0.92801756 6513507
0.12496117 0.10974952 0.93578702 6513507
0.1679699 0.11203684 0.93523973 6513507
0.22500922 0.11511946 0.92624921 6513507
0.27499729 0.11508229 0.92594075 6513507
0.32504839 0.11504503 0.92565227 6513507
0.37506843 0.11500787 0.92535287 6513507
0.42500705 0.11497075 0.92501336 6513507
0.47496164 0.11493354 0.92478442 6513507
0.52502674 0.11489635 0.92443269 6513507
0.57506007 0.1148591 0.9241631 6513507
0.62501299 0.11482198 0.92383963 6513507
0.6750282 0.11478478 0.92356455 6513507
0.71881878 0.11474752 0.92767632 6513507
0.75086749 0.11470498 0.94495749 6579300
-0.0030007954 -0.42021367 0.98415071 3815994
0.0018954957 -0.41459107 0.95968878 6513507
0.18354651 -0.41327524 0.95330775 6513507
0.22528797 -0.4151333 0.96165127 6513507
0.27544928 -0.41737208 0.97167844 6513507
0.32537931 -0.4196128 0.98165941 6513507
0.37503573 -0.42182478 0.99158472 6513507
0.40832725 -0.42353457 0.99823964 6513507
-0.0028549142 -0.37507778 0.98363942 3881787
0.0019859604 -0.37489805 0.95942754 6513507
0.1832443 -0.3750194 0.95328277 6513507
0.22468057 -0.37498754 0.96156681 6513507
0.27492467 -0.37501228 0.9716118 6513507
0.32492977 -0.37499169 0.98161113 6513507
0.37464368 -0.37499687 0.99154967 6513507
0.40819436 -0.3750166 0.99825752 6513507
-0.0028594807 -0.32503581 0.98390383 3815994
0.0019888841 -0.32497701 0.95965403 6513507
0.18325625 -0.32502651 0.95333093 6513507
0.22467536 -0.32498273 0.96161109 6513507
0.27494255 -0.32501286 0.97166139 6513507
0.32495034 -0.32498074 0.98166108 6513507
0.37465781 -0.32500681 0.9915989 6513507
0.40821332 -0.32501352 0.99830747 6513507
-0.002844797 -0.27502707 0.98407131 3750201
0.0019869481 -0.27503043 0.95990449 6513507
0.18286249 -0.27500278 0.95329612 6513507
0.22471197 -0.27498567 0.96166497 6513507
0.27496818 -0.2749947 0.97171259 6513507
0.32496375 -0.27500007 0.98170751 6513507
0.37467459 -0.27501249 0.99164832 6513507
0.40817583 -0.27511755 0.99834567 6513507
-0.0028570502 -0.22493567 0.98437488 3750201
0.0019898498 -0.22490038 0.9601326 6513507
0.1828811 -0.22500117 0.95334715 6513507
0.22470836 -0.22499059 0.96170944 6513507
0.27496365 -0.22499157 0.97175884 6513507
0.3249712 -0.22502169 0.98175579 6513507
0.37469751 -0.22499804 0.99169803 6513507
0.4078005 -0.22501609 0.9983173 6513507
-0.0028538292 -0.174934 0.98460001 3750201
0.0019904624 -0.17482385 0.96037191 6513507
0.18286599 -0.17498504 0.95338964 6513507
0.22473483 -0.17500351 0.96176118 6513507
0.27497846 -0.17499788 0.97180563 6513507
0.3249751 -0.17503141 0.98180318 6513507
0.37468404 -0.17498663 0.99174106 6513507
0.40782949 -0.17498021 0.9983691 6513507
-0.0028623114 -0.12502559 0.98488319 3750201
0.0019884279 -0.12504151 0.96062171 6513507
0.18267541 -0.12483462 0.95339847 6513507
0.22473858 -0.12500492 0.96180815 6513507
0.27498335 -0.12503287 0.97185338 6513507
0.32501328 -0.12499981 0.98185676 6513507
0.37476516 -0.12497637 0.99180365 6513507
0.40782291 -0.12500927 0.99841332 6513507
-0.0028572229 -0.075033627 0.98509908 3750201
0.0019913602 -0.075074784 0.96084809 6513507
0.18245123 -0.074905999 0.95339793 6513507
0.22473539 -0.075054415 0.96185273 6513507
0.27497724 -0.074995026 0.97189897 6513507
0.32509947 -0.074970625 0.98192054 6513507
0.37469724 -0.075049929 0.99183673 6513507
0.40766147 -0.075299978 0.99842674 6513507
-0.0028540359 -0.025017351 0.98532408 3750201
0.00198942 -0.025004519 0.96109951 6513507
0.18249957 -0.024904124 0.95345366 6513507
0.22475444 -0.025052935 0.96190321 6513507
0.27506512 -0.024965474 0.97196186 6513507
0.32498622 -0.024987413 0.9819423 6513507
0.37481099 -0.025066756 0.99190497 6513507
0.40741697 -0.024891805 0.99842441 6513507
-0.0028566632 0.024967251 0.98557866 3815994
0.0019899139 0.025012815 0.96133828 6513507
0.18245563 0.024970638 0.95349276 6513507
0.22476064 0.025048006 0.96194983 6513507
0.27507839 0.02496721 0.97201115 6513507
0.32500222 0.024989096 0.98199141 6513507
0.37482864 0.025068454 0.99195427 6513507
0.40743777 0.024893472 0.99847442 6513507
-0.0028612642 0.07491637 0.98584211 3684408
0.0019979312 0.074973941 0.96153891 6513507
0.18206695 0.074905403 0.95345885 6513507
0.22477451 0.075052597 0.96199912 6513507
0.27502108 0.074999943 0.97204435 6513507
0.32514513 0.074960828 0.98206657 6513507
0.37475279 0.075054318 0.99198514 6513507
0.40749511 0.074948177 0.99853212 6513507
-0.76474756 0.1158046 0.97985941 10197915
-0.72511947 0.11578138 0.97376353 10197915
-0.6751079 0.11574414 0.9734835 10197915
-0.62501478 0.11570697 0.97312242 10197915
-0.5750106 0.11566973 0.97284216 10197915
-0.52481532 0.11563233 0.97264141 10197915
-0.47494838 0.11559177 0.97557616 10197915
-0.42499793 0.11555466 0.97524834 10197915
-0.37508076 0.11551753 0.97494954 10197915
-0.32509211 0.11548037 0.97462249 10197915
-0.2750366 0.11544316 0.97432452 10197915
-0.22501281 0.11540599 0.97398078 10197915
-0.17497057 0.11536875 0.97370344 10197915
-0.12496076 0.11533161 0.97335303 10197915
-0.075851165 0.1152936 0.97448325 9934743
-0.020327063 0.11341921 0.97811759 3158064
0.0023051307 0.10799637 0.95981771 6513507
0.18236591 0.10768276 0.95353019 6513507
0.22516173 0.10817212 0.96163678 6513507
0.27529866 0.10870408 0.97048497 6513507
0.32531753 0.10911191 0.97862953 6513507
0.37516689 0.10950592 0.98628843 6513507
0.4177877 0.11191754 0.9833926 6513507
0.47495937 0.11488188 0.97302997 6513507
0.52500308 0.11484478 0.97265327 6513507
0.57495755 0.11480761 0.97236854 6513507
0.62509674 0.11476684 0.97529757 6513507
0.67504543 0.11472968 0.97501975 6513507
0.72500414 0.11469235 0.97490984 6513507
0.76554638 0.11465426 0.98209536 6513507
-0.013367462 -0.45672873 1.0358245 2894892
0.48218083 -0.45160311 1.0129801 6513507
0.52788615 -0.45365703 1.0221165 6513507
0.57688427 -0.4558543 1.0319114 6513507
0.62643558 -0.45806524 1.0418162 6513507
0.6589542 -0.45951176 1.0483171 6513507
-0.0110638 -0.42482007 1.0244569 2894892
0.43379283 -0.42434797 1.0033294 6513507
0.47527143 -0.42498502 1.0116222 6513507
0.52524406 -0.4249993 1.0216149 6513507
0.57525343 -0.42501044 1.0316132 6513507
0.62528169 -0.42499712 1.0416151 6513507
0.65884078 -0.42498451 1.0483257 6513507
-0.011035494 -0.37497595 1.0245554 2894892
0.43353263 -0.37500897 1.0033259 6513507
0.47526863 -0.3749913 1.011669 6513507
0.52525574 -0.37500378 1.0216634 6513507
0.57528508 -0.37500015 1.0316658 6513507
0.62529528 -0.37500089 1.0416648 6513507
0.65887803 -0.37498045 1.0483797 6513507
-0.010632008 -0.32514811 1.022778 2829099
0.43345925 -0.32513577 1.0033571 6513507
0.47520697 -0.32490626 1.0117023 6513507
0.52530605 -0.32501081 1.0217192 6513507
0.57532352 -0.3249945 1.0317192 6513507
0.62533385 -0.3250376 1.0417167 6513507
0.65841132 -0.32495424 1.0483315 6513507
-0.010583114 -0.27500948 1.0227759 2894892
0.43307415 -0.27494094 1.0033239 6513507
0.47486934 -0.27500069 1.011681 6513507
0.52532816 -0.27500507 1.0217689 6513507
0.57511443 -0.27511892 1.0317233 6513507
0.62463659 -0.27487841 1.0416232 6513507
0.65794307 -0.27500895 1.0482841 6513507
-0.010596773 -0.22506428 1.023085 2894892
0.43268463 -0.22499169 1.0032926 6513507
0.4747166 -0.22511679 1.0116962 6513507
0.52487564 -0.22498371 1.021724 6513507
0.57460213 -0.22488873 1.0316665 6513507
0.62441933 -0.22502407 1.0416282 6513507
0.65799075 -0.2249746 1.048339 6513507
-0.010602183 -0.17505394 1.0233535 2894892
0.43273458 -0.17498718 1.0033475 6513507
0.47448069 -0.17500256 1.0116954 6513507
0.524441 -0.17500214 1.0216837 6513507
0.57441908 -0.17500938 1.0316764 6513507
0.62446934 -0.175 1.0416839 6513507
0.65794092 -0.17525539 1.0483754 6513507
-0.010600858 -0.12494301 1.0235882 2894892
0.43273398 -0.12497758 1.0033946 6513507
0.47446766 -0.12500815 1.0117378 6513507
0.52443016 -0.12503855 1.0217276 6513507
0.57445115 -0.12499957 1.0317289 6513507
0.624475 -0.12497127 1.0417295 6513507
0.65754455 -0.12502903 1.0483421 6513507
-0.010603115 -0.074922308 1.0238416 2894892
0.43249595 -0.074749313 1.0033925 6513507
0.47453526 -0.07505478 1.0117975 6513507
0.52446711 -0.074998468 1.0217804 6513507
0.57460111 -0.074993394 1.0318046 6513507
0.62450099 -0.075022414 1.0417819 6513507
0.6576134 -0.075057976 1.0484012 6513507
-0.010610061 -0.02499301 1.0241172 2894892
0.43234578 -0.024941767 1.0034084 6513507
0.47448775 -0.025043497 1.0118347 6513507
0.52455229 -0.024976725 1.0218438 6513507
0.57446444 -0.024999976 1.0318227 6513507
0.62458974 -0.025034023 1.0418466 6513507
0.65760446 -0.025112178 1.0484462 6513507
-0.010612692 0.025001278 1.024371 2894892
0.43236676 0.024943458 1.0034592 6513507
0.47450849 0.025037445 1.0118848 6513507
0.52457803 0.024978371 1.0218946 6513507
0.57449323 0.024993425 1.0318744 6513507
0.62462646 0.025035679 1.0418992 6513507
0.65746272 0.024757506 1.0484632 6513507
-0.010611018 0.07498017 1.0246036 2894892
0.43234396 0.074921474 1.0034984 6513507
0.47461373 0.075050928 1.0119511 6513507
0.52455002 0.075002313 1.0219359 6513507
0.57468814 0.074980393 1.0319595 6513507
0.6245963 0.075025655 1.041937 6513507
0.65720904 0.075086296 1.0484594 6513507
-0.81166196 0.11578073 1.0350528 10197915
-0.77475023 0.11576514 1.0237556 10197915
-0.72507602 0.11572841 1.0232319 10197915
-0.67507839 0.11569127 1.0229414 10197915
-0.62499356 0.11565406 1.0225565 10197915
-0.57500017 0.11561684 1.0222656 10197915
-0.52515578 0.11557981 1.0220075 10197915
-0.47504053 0.1155386 1.0253222 10197915
-0.42499295 0.1155014 1.0250235 10197915
-0.3750487 0.11546435 1.0246086 10197915
-0.32506424 0.11542718 1.0243126 10197915
-0.27497149 0.11538991 1.024035 10197915
-0.22498181 0.11535285 1.0235988 10197915
-0.17436112 0.11531428 1.0242294 10197915
-0.1249985 0.1152746 1.0266882 10197915
-0.075024106 0.11523733 1.0264299 8487297
-0.022844596 0.11231145 1.024887 2894892
0.43226996 0.10782728 1.003363 6513507
0.47497383 0.10828339 1.0111856 6513507
0.52487671 0.10877326 1.019673 6513507
0.57488018 0.10915284 1.0276436 6513507
0.62489802 0.10927175 1.0368414 6513507
0.66748816 0.1115839 1.0349442 6513507
0.72498423 0.11463901 1.024824 6513507
0.77504563 0.11460173 1.0245218 6513507
0.81083918 0.1145656 1.0332241 6513507
-0.021973586 -0.46635935 1.0788226 2894892
0.6841749 -0.46065384 1.0533583 6513507
0.72596532 -0.4625231 1.061711 6513507
0.77570283 -0.46474916 1.0716538 6513507
0.8253817 -0.46695125 1.0815848 6513507
0.85842568 -0.46845832 1.0881882 6513507
-0.02141141 -0.42506063 1.0762103 2894892
0.68380004 -0.42500353 1.053316 6513507
0.72523981 -0.42501727 1.0616008 6513507
0.77512401 -0.42500794 1.0715744 6513507
0.82488167 -0.42498237 1.0815234 6513507
0.8583926 -0.4249998 1.0882237 6513507
-0.021392975 -0.37499794 1.0763594 2894892
0.68383241 -0.37499815 1.0533684 6513507
0.72529316 -0.37499633 1.0616583 6513507
0.77516878 -0.37501889 1.0716305 6513507
0.82493174 -0.37498972 1.081579 6513507
0.85842949 -0.37500316 1.0882771 6513507
-0.020956688 -0.32480603 1.0744189 2894892
0.68339294 -0.32497603 1.0533265 6513507
0.72530067 -0.32498911 1.0617059 6513507
0.7751922 -0.32500631 1.0716801 6513507
0.8249737 -0.32499179 1.0816332 6513507
0.85849577 -0.32503065 1.0883373 6513507
-0.020916192 -0.27497816 1.0744568 2894892
0.68310195 -0.2752102 1.0533137 6513507
0.7250545 -0.27486622 1.0617028 6513507
0.77524316 -0.27498811 1.0717375 6513507
0.82499951 -0.27499905 1.0816859 6513507
0.85852093 -0.27499613 1.0883849 6513507
-0.020695444 -0.22561601 1.0735921 2894892
0.68295407 -0.22503991 1.0533305 6513507
0.72488272 -0.22496817 1.0617129 6513507
0.77527535 -0.22499326 1.0717887 6513507
0.82506233 -0.2250006 1.0817449 6513507
0.85856527 -0.22504148 1.0884427 6513507
-0.020424051 -0.17502834 1.0724779 2894892
0.68286788 -0.17489998 1.0533601 6513507
0.7247082 -0.17510197 1.0617255 6513507
0.77510875 -0.17486091 1.0718012 6513507
0.82506907 -0.1750264 1.0817899 6513507
0.85861611 -0.17496897 1.088498 6513507
-0.020447191 -0.12498083 1.0728351 2894892
0.68255013 -0.12498484 1.053342 6513507
0.72447389 -0.12499091 1.0617236 6513507
0.77484477 -0.12499012 1.0717953 6513507
0.82517207 -0.12502764 1.0818563 6513507
0.85864222 -0.12497647 1.0885481 6513507
-0.020448098 -0.074997596 1.0730808 2894892
0.68248397 -0.074882515 1.0533742 6513507
0.72442013 -0.075067014 1.0617578 6513507
0.77485168 -0.074917905 1.0718421 6513507
0.82509947 -0.075100966 1.0818901 6513507
0.85871899 -0.074920923 1.0886103 6513507
-0.020457365 -0.024990566 1.0733683 2894892
0.68258929 -0.024876209 1.0534418 6513507
0.72455639 -0.025074381 1.0618341 6513507
0.77490562 -0.024922971 1.0718982 6513507
0.82525134 -0.025101554 1.0819659 6513507
0.85872799 -0.024862992 1.0886582 6513507
-0.020462427 0.024998834 1.0736356 2894892
0.68243611 0.025044845 1.0534569 6513507
0.72459185 0.025075963 1.0618854 6513507
0.77487385 0.024852838 1.0719382 6513507
0.82521725 0.025167795 1.0820035 6513507
0.85877866 0.024836117 1.0887144 6513507
-0.020463342 0.075055622 1.0738809 2894892
0.68208349 0.074879669 1.053432 6513507
0.7245267 0.075069651 1.0619189 6513507
0.77444178 0.074910589 1.0718988 6513507
0.8246932 0.075100109 1.0819442 6513507
0.85884035 0.074904725 1.0887729 6513507
-0.85816652 0.1157578 1.0890907 10197915
-0.82384974 0.11574652 1.0755869 10197915
-0.77504474 0.11571139 1.0742116 10197915
-0.72511607 0.11567421 1.0739161 10197915
-0.67514384 0.11563715 1.0735353 10197915
-0.62505573 0.11559987 1.0732507 10197915
-0.57500017 0.11556279 1.0728445 10197915
-0.52497619 0.11552569 1.0724648 10197915
-0.47498462 0.11548848 1.0721552 10197915
-0.42502537 0.11545131 1.0718709 10197915
-0.37509814 0.1154143 1.0714666 10197915
-0.32512772 0.11537712 1.0711466 10197915
-0.27444637 0.11533862 1.0716176 10197915
-0.22500172 0.11529847 1.0744931 10197915
-0.1756582 0.11526099 1.0749332 10197915
-0.12504585 0.11521979 1.0779291 10197915
-0.07500425 0.1151825 1.07768 6908265
-0.028458728 0.11165591 1.0750663 2894892
0.68246621 0.10764867 1.0534258 6513507
0.72504777 0.10810298 1.0612442 6513507
0.7749728 0.10859571 1.0698042 6513507
0.82471693 0.10884691 1.0784395 6513507
0.85859382 0.10784916 1.0882672 6513507
-0.033961244 -0.50470406 1.1385955 2894892
-0.031329762 -0.47438422 1.1255797 2894892
-0.031224379 -0.42503658 1.1252906 2894892
-0.031250175 -0.37503627 1.1256611 2894892
-0.03126242 -0.32501236 1.1259623 2894892
-0.031249888 -0.27501503 1.1261412 2894892
-0.030968491 -0.22420958 1.1249801 2894892
-0.030743163 -0.17490767 1.1240906 2894892
-0.030739058 -0.12511189 1.1243101 2894892
-0.030756837 -0.075103574 1.1246405 2894892
-0.030751258 -0.025025463 1.1248538 2894892
-0.03048357 0.024368515 1.1237539 2894892
-0.030226214 0.074992515 1.1227106 2894892
-0.9061296 0.11573227 1.1466113 10197915
-0.87220448 0.11572544 1.1291928 10197915
-0.82501656 0.11569335 1.1261252 10197915
-0.77492911 0.11565635 1.1255807 10197915
-0.72503048 0.11561917 1.1253452 10197915
-0.67508394 0.11558217 1.124902 10197915
-0.62501556 0.11554483 1.1247079 10197915
-0.57497853 0.11550789 1.1241786 10197915
-0.52497357 0.11547067 1.1238732 10197915
-0.47500116 0.11543363 1.123456 10197915
-0.42498276 0.11539638 1.1231937 10197915
-0.37507516 0.11535939 1.1228027 10197915
-0.32504216 0.11532224 1.1224169 10197915
-0.2756305 0.11528486 1.1227195 10197915
-0.22507532 0.11524315 1.1262444 10197915
-0.17500226 0.11520606 1.1258152 10197915
-0.12496198 0.11516888 1.1254838 10197915
-0.075046889 0.11513178 1.1251562 5460819
-0.034421146 0.11069193 1.1231155 2894892
-0.042197786 -0.51398486 1.1797466 2894892
-0.040815067 -0.47498682 1.1730182 2894892
-0.04084231 -0.42491427 1.1733962 2894892
-0.040829644 -0.37493926 1.1735737 2894892
-0.040853951 -0.32506058 1.1739359 2894892
-0.040864386 -0.27503473 1.1742293 2894892
-0.040871367 -0.22498585 1.1745065 2894892
-0.040891755 -0.17497033 1.1748496 2894892
-0.040884756 -0.12487096 1.1750567 2894892
-0.040909149 -0.074867629 1.1754199 2894892
-0.040913463 -0.024962163 1.1756816 2894892
-0.040591881 0.025689017 1.1743171 2894892
-0.040344544 0.07491333 1.1733178 2894892
-0.95150852 0.11571059 1.1987118 10197915
-0.91971427 0.11570428 1.1823028 10197915
-0.87493503 0.11567523 1.1780518 10197915
-0.82498425 0.11563802 1.1778276 10197915
-0.77506471 0.11560111 1.1772977 10197915
-0.72508067 0.11556391 1.1769968 10197915
-0.67502815 0.11552685 1.1765803 10197915
-0.62500995 0.11548968 1.1762803 10197915
-0.57502371 0.11545265 1.1758249 10197915
-0.52497149 0.11541545 1.1754844 10197915
-0.47495091 0.11537838 1.1750689 10197915
-0.42496336 0.11534125 1.1747302 10197915
-0.37510589 0.11530425 1.1743519 10197915
-0.32508299 0.11526709 1.1740136 10197915
-0.2749005 0.11523002 1.1734816 10197915
-0.22484581 0.1151927 1.173256 10197915
-0.17492145 0.1151557 1.1728392 10197915
-0.12502921 0.11511863 1.1725011 10132122
-0.074973769 0.11508165 1.1719716 4013373
-0.041468821 0.1095186 1.1720557 2894892
-0.048085891 -0.52027392 1.2091657 2894892
-0.047474697 -0.47495174 1.2063272 2894892
-0.052575294 -0.41765377 1.232115 2894892
-0.0473768 -0.42332599 1.206087 2894892
-0.052590996 -0.37515867 1.2323982 2894892
-0.047506548 -0.37501657 1.2069684 2894892
-0.052598611 -0.32510337 1.2326777 2894892
-0.047510155 -0.32492843 1.2072282 2894892
-0.0526172 -0.27502215 1.2330126 2894892
-0.047521815 -0.27498233 1.2075275 2894892
-0.05262471 -0.22512087 1.2332909 2894892
-0.047541976 -0.22517805 1.2078692 2894892
-0.052643336 -0.17519271 1.2336245 2894892
-0.047553811 -0.17518105 1.2081695 2894892
-0.052650984 -0.12503792 1.2339052 2894892
-0.04755744 -0.12499337 1.2084296 2894892
-0.052664254 -0.074958809 1.2342136 2894892
-0.047569126 -0.074947767 1.2087291 2894892
-0.052682444 -0.024958707 1.2345451 2894892
-0.047589291 -0.025044153 1.2090716 2894892
-0.05269552 0.024966946 1.2348516 2894892
-0.047601126 0.025052454 1.2093717 2894892
-0.052703492 0.075016737 1.2351326 2894892
-0.047604546 0.075005673 1.20963 2894892
-0.96390265 0.11568707 1.2293447 10197915
-0.92492425 0.115663 1.2245282 10197915
-0.87505668 0.11562604 1.224112 10197915
-0.82509351 0.11558902 1.2236644 10197915
-0.77503508 0.11555177 1.2234062 10197915
-0.72366172 0.11551108 1.2253821 10197915
-0.67502844 0.11547196 1.2278702 10197915
-0.62497735 0.11543495 1.2273881 10197915
-0.57495606 0.11539774 1.2270813 10197915
-0.52496874 0.11536057 1.226774 10197915
-0.47501341 0.11532363 1.2262931 10197915
-0.4249869 0.11528656 1.2258552 10197915
-0.37509602 0.11524957 1.2254606 10197915
-0.32513309 0.11521237 1.2251557 10197915
-0.27500126 0.11517526 1.2247152 10197915
-0.2250028 0.11513823 1.224278 10197915
-0.17503601 0.11510111 1.2239285 10197915
-0.12510207 0.11506419 1.223448 9737364
-0.070393004 0.11329062 1.2255847 2894892
-0.04769782 0.10832305 1.209345 2894892
-0.060642444 -0.41740012 1.2724648 2894892
-0.06062011 -0.37485921 1.272558 2894892
-0.06063886 -0.32485279 1.2728932 2894892
-0.060674928 -0.27497232 1.273314 2894892
-0.060690042 -0.22506616 1.2736307 2894892
-0.060663298 -0.17506325 1.2737385 2894892
-0.060711853 -0.12503254 1.2742221 2894892
-0.060718365 -0.075052582 1.274496 2894892
-0.060742062 -0.025048986 1.2748556 2894892
-0.060757153 0.025057293 1.2751728 2894892
-0.060763657 0.075110577 1.275447 2894892
-1.0123159 0.11566086 1.2878256 10197915
-0.97473484 0.11564627 1.2750927 10197915
-0.925093 0.11561 1.2741963 10197915
-0.87497705 0.11557281 1.2738348 10197915
-0.82489407 0.11553571 1.2733777 10197915
-0.77494979 0.11549857 1.2730678 10197915
-0.72638822 0.11546043 1.2746582 10197915
-0.67503887 0.11541846 1.2779032 10197915
-0.62493867 0.11538114 1.2776456 10197915
-0.57487047 0.11534419 1.2770809 10197915
-0.52496612 0.11530712 1.276734 10197915
-0.47509393 0.11527023 1.2762619 10197915
-0.42512193 0.115233 1.2760051 10197915
-0.37518224 0.11519615 1.2754421 10197915
-0.32514003 0.11515898 1.2750939 10197915
-0.27513242 0.11512198 1.2746207 10197915
-0.2251554 0.11508486 1.2742732 10197915
-0.17494766 0.11504757 1.273922 10197915
-0.12477236 0.11501046 1.2734489 8158332
-0.072290793 0.11202771 1.2735354 2894892
-0.07068406 -0.41756696 1.3226881 2894892
-0.070715591 -0.37505704 1.3230505 2894892
-0.070724159 -0.32502633 1.3233351 2894892
-0.070736818 -0.27497011 1.3236396 2894892
-0.070754677 -0.22481161 1.3239707 2894892
-0.070781402 -0.17478214 1.3243457 2894892
-0.070789181 -0.12504347 1.3246248 2894892
-0.070807315 -0.075122602 1.3249569 2894892
-0.070834093 -0.025021128 1.3253318 2894892
-0.070851691 0.025029412 1.3256607 2894892
-0.070840992 0.075024553 1.3258492 2894892
-1.0590582 0.11563735 1.3425699 10197915
-1.0242255 0.11562485 1.3298138 10197915
-0.97494203 0.1155893 1.3285085 10197915
-0.92482978 0.11555202 1.328221 10197915
-0.87489033 0.11551505 1.3277587 10197915
-0.8249827 0.11547803 1.3273702 10197915
-0.77496701 0.11544111 1.3268052 10197915
-0.72498691 0.11540393 1.3265189 10197915
-0.67489713 0.11536685 1.326058 10197915
-0.62497956 0.11532992 1.325562 10197915
-0.57509291 0.11529285 1.3252076 10197915
-0.52496374 0.11525564 1.3248495 10197915
-0.47486719 0.11521861 1.3243542 10197915
-0.42493817 0.11518173 1.3238242 10197915
-0.37518251 0.1151447 1.3235395 10197915
-0.32517946 0.11510761 1.3231131 10197915
-0.27493837 0.11507057 1.3225507 10197915
-0.22486377 0.11503333 1.3222249 10197915
-0.17496012 0.11499634 1.3218679 10197915
-0.12508868 0.11495943 1.3213748 6776679
-0.078427359 0.11148056 1.3228147 2894892
-0.080811724 -0.41757169 1.3733424 2894892
-0.080773912 -0.37498608 1.3733581 2894892
-0.080818377 -0.32499158 1.3738222 2894892
-0.08085072 -0.27497348 1.3742251 2894892
-0.080858603 -0.22493191 1.374506 2894892
-0.080893837 -0.17495647 1.3749237 2894892
-0.080905087 -0.12495979 1.3752209 2894892
-0.080921836 -0.07493715 1.3755467 2894892
-0.080929726 -0.024985954 1.3758261 2894892
-0.080964938 0.024898726 1.3762429 2894892
-0.080976076 0.074804723 1.3765396 2894892
-1.1021342 0.11562055 1.3884702 10197915
-1.0716456 0.11561053 1.3764812 10197915
-1.0250189 0.1155779 1.3742677 10197915
-0.97517526 0.11554097 1.3738288 10197915
-0.92516977 0.11550383 1.3734905 10197915
-0.87465316 0.11546607 1.3733534 10197915
-0.82510138 0.11542273 1.3791653 10197915
-0.77499855 0.11538545 1.3788365 10197915
-0.72492677 0.11534844 1.3783544 10197915
-0.6750294 0.11531147 1.3779134 10197915
-0.62487996 0.1152744 1.3773942 10197915
-0.57476062 0.11523718 1.3770256 10197915
-0.52496123 0.11520021 1.376662 10197915
-0.47519365 0.11516343 1.3761444 10197915
-0.42517078 0.11512651 1.3756267 10197915
-0.37518197 0.11508939 1.3752593 10197915
-0.32522246 0.11505246 1.3747426 10197915
-0.27501237 0.11501501 1.374527 10197915
-0.22497788 0.11497822 1.3738161 10197915
-0.17497355 0.11494108 1.3734876 10197915
-0.12485945 0.11490405 1.372969 5131854
-0.085090697 0.11084937 1.3739216 2894892
-0.090792984 -0.41749305 1.4232649 2894892
-0.09083318 -0.37491587 1.4236715 2894892
-0.09086588 -0.32496247 1.4240761 2894892
-0.090857618 -0.27498376 1.4242758 2894892
-0.090900905 -0.22507913 1.4247332 2894892
-0.090920091 -0.17504855 1.42507 2894892
-0.09094958 -0.12489738 1.4254594 2894892
-0.090958178 -0.074917056 1.4257437 2894892
-0.090991341 -0.025011761 1.4261502 2894892
-0.091013931 0.025020046 1.4265046 2894892
-0.091025941 0.074974984 1.4268055 2894892
-1.1188216 0.11558878 1.4298794 7763574
-1.0750045 0.11556303 1.4232368 8882055
-1.0249994 0.11552618 1.4226511 9605778
-0.97488242 0.11548895 1.4222817 10132122
-0.92494136 0.11545194 1.421865 10197915
-0.8753165 0.11541495 1.4216256 10197915
-0.82475013 0.11536998 1.4281899 10197915
-0.77500093 0.11533333 1.4276183 10197915
-0.72508782 0.11529635 1.4271631 10197915
-0.67500484 0.11525917 1.4268174 10197915
-0.62515795 0.11522247 1.4261314 10197915
-0.57513934 0.11518534 1.425789 10197915
-0.52495885 0.11514808 1.4254416 10197915
-0.47481075 0.11511105 1.4248695 10197915
-0.42488861 0.11507422 1.4242965 10197915
-0.37520161 0.11503718 1.4240698 10197915
-0.32514647 0.11500027 1.423498 10197915
-0.27493066 0.11496306 1.4230378 10197915
-0.22494105 0.11492606 1.4225799 10197915
-0.17498626 0.11488895 1.4222338 10197915
-0.12506351 0.11485214 1.4216646 3618615
-0.092002034 0.10929912 1.4249761 2894892
-0.10251828 -0.41770342 1.4819088 2894892
-0.097914234 -0.41763422 1.4588817 2894892
-0.10256203 -0.37521133 1.4823327 2894892
-0.097924002 -0.37510085 1.459136 2894892
-0.10257212 -0.32514104 1.4826247 2894892
-0.097970344 -0.32501066 1.4596093 2894892
-0.10261311 -0.27504584 1.4830711 2894892
-0.097972833 -0.27489048 1.4598631 2894892
-0.10262311 -0.22513224 1.4833623 2894892
-0.098008111 -0.22504839 1.4602805 2894892
-0.1026641 -0.17519015 1.4838085 2894892
-0.098021448 -0.17517927 1.4605879 2894892
-0.10267425 -0.12502033 1.4841011 2894892
-0.09806782 -0.12498891 1.4610616 2894892
-0.10271526 -0.075030014 1.4845471 2894892
-0.098070361 -0.074769281 1.4613163 2894892
-0.10272527 -0.025017167 1.4848384 2894892
-0.098105676 -0.024827719 1.4617338 2894892
-0.10275082 0.025025457 1.4852077 2894892
-0.098129869 0.024835886 1.4620948 2894892
-0.10279186 0.075088069 1.4856547 2894892
-0.098143257 0.074826978 1.4624029 2894892
-1.1641321 0.11556799 1.4810947 6513507
-1.1248786 0.11554422 1.475762 6513507
-1.0748111 0.11550734 1.4751616 6513507
-1.024979 0.11547042 1.4746901 6579300
-0.97518182 0.11543362 1.4742199 6776679
-0.92500359 0.11539634 1.4738723 7566195
-0.87486029 0.11535934 1.4732716 8421504
-0.82515889 0.11532258 1.4728018 9342606
-0.77507681 0.11528549 1.4723315 10066329
-0.72482687 0.11524835 1.4718534 10197915
-0.67501336 0.11521148 1.471383 10197915
-0.6250298 0.11517434 1.4710367 10197915
-0.57487679 0.11513749 1.470313 10197915
-0.52495664 0.11510029 1.4700918 10197915
-0.4750686 0.11506363 1.4693699 10197915
-0.42501202 0.11502632 1.469146 10197915
-0.37389746 0.1149822 1.474555 10197915
-0.32526827 0.1149445 1.4757202 10197915
-0.27504465 0.11490708 1.4755263 10197915
-0.22500734 0.11487033 1.474719 10197915
-0.17499986 0.11483318 1.4743848 9342606
-0.12147915 0.11344713 1.4754957 2894892
-0.0981782 0.10833327 1.4615362 2894892
-0.11026403 -0.41764358 1.5206503 2894892
-0.11023788 -0.37501687 1.5207251 2894892
-0.11029501 -0.32506865 1.5212514 2894892
-0.1103124 -0.27509776 1.5215793 2894892
-0.11033969 -0.22535387 1.5219557 2894892
-0.11037772 -0.17520462 1.5223889 2894892
-0.1103948 -0.12490802 1.522716 2894892
-0.11043225 -0.074962743 1.5231442 2894892
-0.11044966 -0.02499412 1.5234723 2894892
-0.11047707 0.025002405 1.523851 2894892
-0.1105146 0.075020708 1.5242795 2894892
-1.2105881 0.11554485 1.5352691 6513507
-1.1748751 0.11553025 1.5239689 6513507
-1.1250627 0.11549357 1.523344 6513507
-1.0748608 0.11545637 1.5228546 6513507
-1.0246875 0.11541923 1.5223647 6513507
-0.97475946 0.11538211 1.5220151 6513507
-0.92486674 0.1153454 1.5213909 6513507
-0.87500089 0.11530856 1.5209044 6579300
-0.82495993 0.11527149 1.5204163 6513507
-0.77494723 0.11523448 1.5199281 6645093
-0.72497016 0.11519752 1.5194404 7368816
-0.67502165 0.11516061 1.5189534 8224125
-0.62510854 0.11512361 1.5184666 9013641
-0.57501382 0.11508665 1.5179777 9803157
-0.52495426 0.11504943 1.5176284 10197915
-0.4749268 0.11501253 1.5170013 10197915
-0.42338976 0.1149687 1.5219122 10197915
-0.37680197 0.11492517 1.5298828 10197915
-0.32518801 0.11488418 1.5320522 10197915
-0.27495801 0.11484697 1.5315564 10197915
-0.2249686 0.11480997 1.5310628 10197915
-0.17501442 0.11477292 1.5307108 7763574
-0.12284546 0.11187197 1.5272932 2894892
-1.1732831 -0.61682832 1.5892992 6513507
-1.1360083 -0.61685079 1.5969508 6513507
-1.1733532 -0.57503098 1.589324 6513507
-1.135988 -0.57499599 1.5969924 6513507
-1.1733713 -0.52503556 1.5893627 6513507
-1.1360188 -0.52493769 1.597032 6513507
-1.173388 -0.47502139 1.5894032 6513507
-1.1360587 -0.4750101 1.5970727 6513507
-1.1734192 -0.42498755 1.5894456 6513507
-1.1360586 -0.42505366 1.5971148 6513507
-0.12043599 -0.41761717 1.5715263 2894892
-1.173463 -0.37493598 1.5894842 6513507
-1.1363925 -0.37526643 1.5970925 6513507
-0.12047485 -0.37485144 1.5719267 2894892
-1.1734869 -0.32489789 1.5895265 6513507
-1.1367277 -0.32503477 1.5970727 6513507
-0.1205157 -0.32491842 1.572372 2894892
-1.1732981 -0.27477652 1.5896096 6513507
-1.1365931 -0.27534157 1.5971421 6513507
-0.1205347 -0.27495816 1.5727077 2894892
-1.1729848 -0.22498505 1.5897163 6513507
-1.1361851 -0.2249887 1.597273 6513507
-0.12057591 -0.2247158 1.5731565 2894892
-1.1730536 -0.17509684 1.5897465 6513507
-1.1361833 -0.17475805 1.5973208 6513507
-0.12062781 -0.1747034 1.5736574 2894892
-1.1730052 -0.12514098 1.5898049 6513507
-1.1361949 -0.12492761 1.597362 6513507
-0.12060212 -0.12506279 1.5737684 2894892
-1.1726942 -0.075237326 1.5899158 6513507
-1.1366917 -0.075506397 1.5973059 6513507
-0.12066547 -0.075133637 1.574326 2894892
-1.1724938 -0.025031218 1.5900047 6513507
-1.1368765 -0.025146348 1.5973155 6513507
-0.12068456 -0.025051182 1.5746632 2894892
-1.1725233 0.025032038 1.5900443 6513507
-1.1369045 0.025147168 1.5973549 6513507
-0.1207146 0.025059506 1.5750552 2894892
-1.1725529 0.075097874 1.5900819 6513507
-1.136999 0.075265341 1.5973805 6513507
-0.12075558 0.075191848 1.5755019 2894892
-1.2579067 0.11552075 1.5909798 6513507
-1.2239407 0.11551069 1.5765535 6513507
-1.1729747 0.1090536 1.5867076 6513507
-1.1329793 0.1101253 1.5901989 6513507
-1.074695 0.1154018 1.5737324 6513507
-1.0248142 0.11536489 1.5732257 6513507
-0.97496927 0.1153281 1.5727267 6513507
-0.92493439 0.11529091 1.5723742 6513507
-0.87515235 0.11525442 1.5715649 6513507
-0.82518142 0.11521728 1.5712163 6513507
-0.77502877 0.11518005 1.5708613 6513507
-0.72490555 0.1151432 1.5702055 6513507
-0.67481273 0.11510611 1.5697006 6513507
-0.62497109 0.1150692 1.5693491 6513507
-0.57494771 0.11503228 1.5686936 6513507
-0.52495188 0.11499548 1.5680344 7039851
-0.47498801 0.11495847 1.5676857 7763574
-0.42749521 0.1149184 1.5717535 9539985
-0.37530494 0.11487524 1.5755244 10197915
-0.32526636 0.11483843 1.5749027 10197915
-0.27526489 0.11480123 1.5745101 10197915
-0.2252896 0.11476445 1.573889 10197915
-0.17502563 0.11472702 1.5736083 6974058
-0.12803175 0.11119909 1.5771768 2894892
-1.1105052 -0.61684918 1.6021869 6513507
-1.0749161 -0.61688292 1.6094955 6513507
-1.0253398 -0.61688441 1.6196653 3947580
-0.97509164 -0.61690211 1.6299871 2236962
-0.92554009 -0.61693895 1.6402134 10263708
-1.110494 -0.57497555 1.6022272 6513507
-1.0748718 -0.57499695 1.6095331 6513507
-1.0253133 -0.57502198 1.6197336 3947580
-0.97515571 -0.57496673 1.630007 2039583
-0.92554456 -0.57504082 1.6402481 3618615
-1.1105253 -0.5250296 1.6022668 6513507
-1.0749217 -0.52498406 1.6095695 6513507
-1.0253532 -0.52504325 1.6197478 3947580
-0.97512978 -0.52495933 1.6300515 2039583
-0.92552495 -0.52502179 1.6402969 2039583
-1.1106114 -0.47501227 1.6022941 6513507
-1.0749855 -0.47498322 1.6096064 6513507
-1.0253774 -0.47501498 1.6197717 5723991
-0.97516942 -0.47496614 1.6300974 5131854
-0.92557311 -0.4750002 1.6403242 5131854
-1.1105442 -0.42499194 1.6023537 6513507
-1.0749247 -0.42498028 1.6096742 6513507
-1.0253772 -0.42499954 1.6198381 6513507
-0.97519112 -0.42498556 1.6301451 6513507
-0.92518598 -0.42489648 1.6404204 6513507
-0.88951927 -0.41701373 1.647736 6513507
-0.13137634 -0.41785461 1.6262441 2894892
-1.1109325 -0.37468776 1.6023203 6513507
-1.0750543 -0.37502351 1.6096926 6513507
-1.025461 -0.37496537 1.6198735 6513507
-0.97523475 -0.37502003 1.6301877 6513507
-0.92499644 -0.37502697 1.640488 6513507
-0.88943571 -0.37497708 1.6477914 6513507
-0.13140243 -0.37508079 1.6265808 2894892
-1.1112928 -0.32503864 1.6022913 6513507
-1.0750027 -0.32499892 1.6097449 6513507
-1.0254418 -0.32496178 1.6199185 6513507
-0.97526568 -0.32505071 1.6302222 6513507
-0.9249984 -0.32495737 1.6405374 6513507
-0.88954669 -0.3250728 1.6478144 6513507
-0.13106835 -0.32638019 1.6251448 2894892
-1.1112094 -0.27492538 1.6023538 6513507
-1.0750409 -0.27497408 1.6097728 6513507
-1.0254881 -0.27501804 1.6199723 6513507
-0.97530812 -0.27506357 1.6302513 6513507
-0.92508346 -0.27491799 1.6405689 6513507
-0.88956863 -0.27504414 1.647856 6513507
-0.13034952 -0.2751343 1.6217971 2894892
-1.1112688 -0.22501107 1.6023887 6513507
-1.0752072 -0.22502422 1.6097833 6513507
-1.0256189 -0.22502464 1.6199671 6513507
-0.97535527 -0.22500995 1.6302804 6513507
-0.9250533 -0.22494349 1.6406177 6513507
-0.88949209 -0.22488859 1.6479168 6513507
-0.13036725 -0.22480084 1.6221284 2894892
-1.1113527 -0.17512932 1.6024165 6513507
-1.0749422 -0.17500867 1.6098939 6513507
-1.0254259 -0.17507695 1.6200351 6513507
-0.97531253 -0.1749533 1.6303406 6513507
-0.92497402 -0.17493239 1.6406771 6513507
-0.88965338 -0.17506106 1.6479301 6513507
-0.13042967 -0.17477435 1.6226816 2894892
-1.1113354 -0.1248099 1.602466 6513507
-1.075277 -0.12500912 1.609874 6513507
-1.0254489 -0.12507732 1.6200947 6513507
-0.97532034 -0.12495836 1.630391 6513507
-0.92504835 -0.12500155 1.6407082 6513507
-0.88999617 -0.12528786 1.6479049 6513507
-0.13041626 -0.12506221 1.6228548 2894892
-1.1117265 -0.074737266 1.6024332 6513507
-1.0749811 -0.074984133 1.6099795 6513507
-1.025725 -0.074840724 1.6200925 6513507
-0.97534519 -0.074976869 1.630441 6513507
-0.92525923 -0.075204782 1.6407104 6513507
-0.89024311 -0.075097486 1.6478999 6513507
-0.13048658 -0.075156271 1.6234472 2894892
-1.1119714 -0.025226805 1.6024283 6513507
-1.0753301 -0.024967955 1.609953 6513507
-1.0255849 -0.024834806 1.6201645 6513507
-0.97536981 -0.024992811 1.6304744 6513507
-0.92512745 -0.025150936 1.6407849 6513507
-0.89026541 -0.02526062 1.6479414 6513507
-0.13050421 -0.025059082 1.6237769 2894892
-1.1119956 0.025227657 1.6024674 6513507
-1.0753553 0.024952879 1.609985 6513507
-1.0250623 0.024880601 1.6203355 6513507
-0.97484356 0.024950193 1.6306208 6513507
-0.92514676 0.025151793 1.6408288 6513507
-0.89028788 0.025261465 1.6479831 6513507
-0.13053665 0.025067404 1.6241809 2894892
-1.1120267 0.075020753 1.6025079 6513507
-1.0750655 0.074974149 1.6100876 6513507
-1.0252098 0.074828699 1.6203269 6513507
-0.97481817 0.074988261 1.6306664 6513507
-0.92532605 0.075194106 1.6408331 6513507
-0.89031017 0.075103275 1.6480242 6513507
-0.13058409 0.075214498 1.6246603 2894892
-1.3059727 0.11549417 1.6495709 6513507
-1.2722164 0.11548687 1.6327491 6513507
-1.2363278 0.11547182 1.6215895 6513507
-1.1120439 0.10755353 1.6025337 6513507
-1.0752615 0.10802208 1.6099603 6513507
-1.0245135 0.10824262 1.619711 6513507
-0.974877 0.10852477 1.6288801 6513507
-0.92474568 0.10883154 1.6377616 6513507
-0.88443154 0.11028927 1.6394743 6513507
-0.8249715 0.1151589 1.6256908 6513507
-0.77511168 0.11512222 1.6249998 6513507
-0.7250616 0.1150852 1.624482 6513507
-0.67503965 0.11504825 1.6239556 6513507
-0.62505388 0.11501129 1.6234392 6513507
-0.57487166 0.11497407 1.6230818 6513507
-0.52494895 0.11493754 1.6222245 6579300
-0.47505841 0.11490031 1.6220404 6447714
-0.42497295 0.11486346 1.6213516 9737364
-0.37514734 0.11482664 1.6208274 10197915
-0.32512581 0.11478966 1.6203105 10197915
-0.27469215 0.11475245 1.6197844 10197915
-0.22473562 0.11471532 1.619429 10197915
-0.17503725 0.11467893 1.6185744 6250335
-0.13539854 0.11062534 1.6238972 2894892
-0.9081859 -0.61689138 1.6734258 11711154
-0.90812755 -0.5747987 1.6733125 7566195
-0.90805244 -0.52490246 1.6731516 2039583
-0.90798014 -0.47501844 1.6730068 5855577
-0.90675789 -0.44460905 1.6671782 6513507
-0.86485249 -0.41694573 1.6527998 6513507
-0.82534963 -0.41686937 1.6609105 6513507
-0.77499735 -0.41708213 1.6712462 6513507
-0.72506553 -0.4170216 1.6814965 6513507
-0.67495179 -0.41704533 1.6917844 6513507
-0.64250481 -0.41688505 1.6984459 6513507
-0.14194041 -0.41782171 1.6790817 2894892
-0.86476856 -0.37500569 1.6528554 6513507
-0.82506633 -0.37503281 1.661005 6513507
-0.7748509 -0.3749311 1.6713157 6513507
-0.72521365 -0.37505457 1.6815045 6513507
-0.6749627 -0.37498218 1.6918204 6513507
-0.6424284 -0.37498933 1.6984999 6513507
-0.14187625 -0.37512997 1.6789664 2894892
-0.86477476 -0.32476139 1.6529007 6513507
-0.82490271 -0.32517779 1.6610858 6513507
-0.77478689 -0.32492575 1.6713735 6513507
-0.72520775 -0.3250663 1.6815525 6513507
-0.674968 -0.32495573 1.6918659 6513507
-0.64247829 -0.32503903 1.6985353 6513507
-0.14141044 -0.32350928 1.676885 2894892
-0.8641566 -0.27498993 1.6530721 6513507
-0.82444847 -0.27497962 1.6612256 6513507
-0.77481478 -0.27497107 1.6714127 6513507
-0.72519064 -0.27503911 1.6816014 6513507
-0.67497641 -0.27500087 1.6919104 6513507
-0.64246064 -0.27508232 1.6985853 6513507
-0.14078957 -0.27504465 1.674014 2894892
-0.86437964 -0.22500539 1.6530731 6513507
-0.8245129 -0.22496769 1.661257 6513507
-0.77484494 -0.22499634 1.6714524 6513507
-0.72521615 -0.22500959 1.6816415 6513507
-0.67499852 -0.22502358 1.6919514 6513507
-0.64251 -0.22512719 1.6986204 6513507
-0.14081225 -0.22503038 1.6743689 2894892
-0.86419922 -0.17498234 1.6531554 6513507
-0.824642 -0.17500703 1.6612759 6513507
-0.77491289 -0.17493071 1.6714858 6513507
-0.72527206 -0.17504971 1.681677 6513507
-0.67516017 -0.17502804 1.6919638 6513507
-0.6429438 -0.17573623 1.6985763 6513507
-0.14085981 -0.17498748 1.6748482 2894892
-0.86483318 -0.12476096 1.653071 6513507
-0.824426 -0.12514408 1.6613663 6513507
-0.77498895 -0.12479267 1.6715162 6513507
-0.72539896 -0.12521417 1.6816951 6513507
-0.67496139 -0.1248471 1.6920497 6513507
-0.643179 -0.12525828 1.6985745 6513507
-0.14088197 -0.12520169 1.6751994 2894892
-0.86485565 -0.075001217 1.6531119 6513507
-0.82464498 -0.074904852 1.6613667 6513507
-0.77489746 -0.074791566 1.6715808 6513507
-0.72527212 -0.075247325 1.6817669 6513507
-0.67510867 -0.075080693 1.6920642 6513507
-0.64317852 -0.075225502 1.6986202 6513507
-0.14050487 -0.076487452 1.6735487 2894892
-0.86508906 -0.025015464 1.6531105 6513507
-0.82456696 -0.024779052 1.6614296 6513507
-0.77491677 -0.024931084 1.6716224 6513507
-0.72529304 -0.02508305 1.6818088 6513507
-0.67505974 -0.025236815 1.6921209 6513507
-0.64322752 -0.02526563 1.6986562 6513507
-0.1397599 -0.025081689 1.6700699 2894892
-0.86511087 0.025016302 1.6531513 6513507
-0.8245874 0.02477989 1.6614704 6513507
-0.77493668 0.024931896 1.6716611 6513507
-0.72531259 0.025083862 1.6818515 6513507
-0.67507714 0.025237652 1.6921636 6513507
-0.64324391 0.025266478 1.6986986 6513507
-0.13979478 0.025090029 1.6704867 2894892
-0.86492068 0.075007021 1.6532356 6513507
-0.82471699 0.074893638 1.6614877 6513507
-0.77495521 0.074797377 1.6717037 6513507
-0.72532809 0.075253211 1.681893 6513507
-0.67514443 0.075068392 1.6921953 6513507
-0.64322674 0.075231351 1.698748 6513507
-0.13982871 0.074935749 1.670897 2894892
-1.3187287 0.1154698 1.6812705 6513507
-1.2819347 0.11544734 1.6764916 6513507
-0.8650406 0.10753215 1.6532413 6513507
-0.82430279 0.10791002 1.6615692 6513507
-0.77493638 0.10794826 1.671083 6513507
-0.72531337 0.10852938 1.6803533 6513507
-0.67491114 0.10842591 1.6893669 6513507
-0.63609731 0.11053475 1.6880863 6513507
-0.57530856 0.11492299 1.6711364 6513507
-0.52494663 0.11488594 1.6704601 6513507
-0.47397205 0.11484726 1.6708643 6579300
-0.42464858 0.11480112 1.6793929 10132122
-0.37513185 0.11476455 1.6788576 10197915
-0.32517773 0.11472767 1.6783226 10197915
-0.2750279 0.11469061 1.6777768 10197915
-0.22513893 0.11465359 1.677424 10197915
-0.17505236 0.114617 1.676513 5329233
-0.14144418 0.1095105 1.6712795 2894892
-0.91864294 -0.61704808 1.7243623 11711154
-0.91850257 -0.57504606 1.7238531 7697781
-0.91850895 -0.52501148 1.7240881 2631720
-0.91821635 -0.47660154 1.7228603 6513507
-0.91395855 -0.44922236 1.702235 6513507
-0.61753958 -0.41708258 1.703571 6513507
-0.57497883 -0.41697115 1.7123084 6513507
-0.52493447 -0.41726458 1.722581 6513507
-0.47452676 -0.41711754 1.7329291 7566195
-0.43083885 -0.41714001 1.7418987 11711154
-0.61763358 -0.37500569 1.7035898 6513507
-0.57467842 -0.37493572 1.7124083 6513507
-0.52456969 -0.37509352 1.7226937 6513507
-0.47455767 -0.37492216 1.7329626 7566195
-0.4307659 -0.37502488 1.7419516 11711154
-0.61747301 -0.32498187 1.7036699 6513507
-0.57462412 -0.32496583 1.7124652 6513507
-0.524589 -0.32510465 1.7227361 6513507
-0.47458971 -0.32490695 1.7330014 7566195
-0.43091235 -0.32502443 1.7419676 11711154
-0.61770266 -0.27493009 1.7036663 6513507
-0.57470268 -0.27503073 1.7124946 6513507
-0.52461499 -0.27505541 1.7227781 6513507
-0.47460809 -0.27496737 1.7330428 7105644
-0.43084082 -0.27496782 1.7420291 11119017
-0.6175077 -0.22500379 1.7037538 6513507
-0.57477802 -0.22505699 1.7125248 6513507
-0.52464283 -0.22494604 1.7228175 6513507
-0.47451973 -0.22496641 1.7331072 5066061
-0.43077606 -0.22496112 1.7420875 6316128
-0.61815625 -0.17469509 1.7036661 6513507
-0.57456523 -0.17511627 1.7126143 6513507
-0.52460927 -0.17489181 1.7228706 6513507
-0.47452936 -0.17494324 1.7331508 3815994
-0.43099341 -0.17509006 1.7420894 5526612
-0.61828107 -0.12492941 1.7036858 6513507
-0.57462084 -0.12504253 1.7126479 6513507
-0.52460504 -0.1249121 1.7229164 6513507
-0.47466287 -0.12511306 1.7331686 3750201
-0.43087292 -0.12486363 1.7421598 4144959
-0.61829591 -0.07481838 1.7037283 6513507
-0.57487559 -0.07480336 1.7126433 6513507
-0.52461886 -0.074949004 1.7229594 6513507
-0.47471884 -0.075261638 1.7332035 3684408
-0.43088529 -0.075064361 1.742202 4079166
-0.14579581 -0.059867669 1.7000916 2894892
-0.61831218 -0.024704715 1.7037716 6513507
-0.57471693 -0.024834497 1.712721 6513507
-0.52463269 -0.024983581 1.723002 6513507
-0.47461966 -0.025132451 1.7332697 3750201
-0.43089584 -0.025262592 1.7422458 4079166
-0.14582133 -0.024654772 1.7003893 2894892
-0.6183266 0.02470554 1.7038134 6513507
-0.57473069 0.024835322 1.7127638 6513507
-0.52464324 0.024984406 1.7230459 6513507
-0.47463199 0.025133299 1.7333131 3750201
-0.4309054 0.025263445 1.7422894 4210752
-0.14585708 0.024662828 1.7008052 2894892
-0.61834282 0.074824028 1.7038554 6513507
-0.57491809 0.074809179 1.7127696 6513507
-0.52465647 0.074954897 1.7230891 6513507
-0.47475457 0.075267471 1.733333 3881787
-0.43091759 0.07507015 1.7423326 7829367
-0.14589332 0.074709728 1.7012286 2894892
-1.3610089 0.11545451 1.7252235 6513507
-1.3260151 0.11543451 1.7193807 6513507
-1.2944224 0.11542167 1.7092175 6513507
-0.61840266 0.10794321 1.7036886 6513507
-0.57425416 0.10805239 1.712 6513507
-0.52474868 0.10831111 1.7211633 6513507
-0.47451991 0.10869443 1.7299582 6381921
-0.4297463 0.10845757 1.7399905 10066329
-0.37531796 0.11470954 1.7304323 10197915
-0.32538393 0.11467254 1.7300303 10197915
-0.27512375 0.11463543 1.7294704 10197915
-0.22490183 0.11459867 1.7286077 10197915
-0.17470965 0.1145613 1.7283521 4473924
-0.14617038 0.10782006 1.702951 2894892
-0.92922616 -0.61707109 1.7759172 11711154
-0.92917067 -0.57523274 1.7758182 7829367
-0.92909151 -0.52509797 1.7756366 3881787
-0.92867267 -0.48292178 1.773771 6513507
-0.41858736 -0.41711757 1.7757076 11711154
-0.41831183 -0.37494007 1.774539 11711154
-0.41798368 -0.32469353 1.7731466 11711154
-0.41765571 -0.27452567 1.7717553 11711154
-0.41732755 -0.22443599 1.7703636 6579300
-0.41700092 -0.17442544 1.7689776 6513507
-0.41667482 -0.12449311 1.7675946 6513507
-0.41634923 -0.074638791 1.7662132 6513507
-0.41602421 -0.024862321 1.7648342 6513507
-0.41569972 0.024836469 1.7634575 6710886
-0.41537088 0.075186737 1.7620627 10132122
-1.4122298 0.11542267 1.7909079 6513507
-1.374676 0.11541199 1.7745703 6513507
-1.3378075 0.11540175 1.7582904 6513507
-0.41077539 0.11271457 1.7719795 10132122
-0.37522939 0.1146628 1.7740732 10197915
-0.32513997 0.11462582 1.773506 10197915
-0.27472168 0.11458844 1.7730924 10197915
-0.22469842 0.11455153 1.7725213 10197915
-0.17616999 0.11451609 1.7716181 3815994
-0.93944156 -0.6169371 1.8256767 11711154
-0.93943584 -0.57484311 1.8258224 7829367
-0.93935186 -0.52495664 1.8256196 5131854
-0.93882656 -0.48891491 1.8232098 6513507
-0.42878911 -0.41744691 1.8254008 11711154
-0.42850915 -0.37561002 1.8242092 11711154
-0.42817339 -0.32547548 1.8227798 11711154
-0.42783755 -0.275419 1.8213501 11119017
-0.42750311 -0.2254414 1.8199263 6513507
-0.42716926 -0.17554192 1.818505 6513507
-0.42683092 -0.12496626 1.8170648 6513507
-0.42649314 -0.074470274 1.8156266 6513507
-0.42616084 -0.024806231 1.8142123 6513507
-0.42582917 0.024780493 1.8128002 6645093
-0.42549291 0.075039446 1.8113689 10132122
-1.4589334 0.11540017 1.8447059 6513507
-1.4245164 0.11538727 1.832628 6513507
-1.3882093 0.115367 1.8260946 6513507
-0.41601449 0.11319618 1.8193872 10132122
-0.37513626 0.11461361 1.8199723 10197915
-0.32526168 0.11457682 1.8193933 10197915
-0.275049 0.11453959 1.8189811 10197915
-0.22524039 0.11450287 1.8183975 10197915
-0.17847019 0.1144688 1.8174443 3158064
-0.95246619 -0.61671311 1.8891248 11711154
-0.94714588 -0.61739379 1.8632058 11711154
-0.95240641 -0.57441443 1.8890054 8158332
-0.94710535 -0.57505268 1.8631817 7960953
-0.95231491 -0.52459985 1.888765 6513507
-0.94703424 -0.5248403 1.8630421 6118749
-0.95185333 -0.49687037 1.8866315 6513507
-0.946729 -0.49380326 1.8616819 6513507
-0.43957365 -0.41701299 1.8779362 11711154
-0.43928331 -0.37475461 1.8766952 11711154
-0.43893948 -0.32474074 1.875226 11711154
-0.4385969 -0.27480555 1.8737636 10329501
-0.43825486 -0.2249482 1.8723019 6513507
-0.43791345 -0.17516857 1.8708435 6513507
-0.4375726 -0.12546648 1.8693873 6513507
-0.43722698 -0.075067148 1.8679105 6513507
-0.43688184 -0.024746951 1.8664361 6513507
-0.43654257 0.024721339 1.864987 6513507
-0.43619862 0.074883811 1.8635174 10132122
-1.5038722 0.11538058 1.8945801 6513507
-1.4722865 0.11536873 1.8834867 6513507
-1.4325533 0.11534536 1.8774757 6513507
-0.42163697 0.11343522 1.8684497 10132122
