# .PCD v0.7 - Point Cloud Data file format
VERSION 0.7
FIELDS x y z rgb
SIZE 4 4 4 4
TYPE F F F U
COUNT 1 1 1 1
WIDTH 1177
HEIGHT 1
VIEWPOINT 0 0 0 1 0 0 0
POINTS 1177
DATA ascii
0.76382148 -0.82517099 3.0225058 2894892
0.76370656 -0.77500099 3.0216808 2894892
0.76365119 -0.72484249 3.0218334 2894892
0.76356614 -0.6746909 3.0214972 2894892
0.7634812 -0.62455076 3.0211611 2894892
0.7633962 -0.57442158 3.0208244 2894892
0.76329666 -0.52461129 3.020242 2894892
0.76322746 -0.47482696 3.0201559 2894892
0.76313794 -0.42504507 3.0197408 2894892
0.76323062 -0.37704048 3.0222843 2894892
0.76336783 -0.32506838 3.0256464 2894892
0.76328266 -0.27489817 3.0253096 2894892
0.76319754 -0.22473913 3.0249724 2894892
0.76309967 -0.17501226 3.0244162 2894892
0.7630288 -0.12529375 3.0243037 2894892
0.76294392 -0.075168036 3.0239663 2894892
0.76312238 -0.023405045 3.0280085 2894892
0.7631734 0.025104368 3.0298769 2894892
0.76308811 0.075305633 3.0295379 2894892
-0.61074722 0.10955678 3.0396087 1919871
-0.57443786 0.10959709 3.0407267 4480895
-0.52431458 0.10965278 3.0422719 9934743
-0.47414047 0.10970853 3.0438182 9934743
-0.42391509 0.10976429 3.0453656 9934743
-0.37489662 0.10981875 3.0468764 9934743
-0.32582888 0.10987327 3.048389 9934743
-0.28679323 0.10991659 3.0495911 9934743
0.23865768 0.11062755 3.0003428 10197915
0.27605313 0.11066911 3.0014703 10197915
0.32595533 0.11072458 3.0029745 10197915
0.37590772 0.11078014 3.0044811 10197915
0.42591029 0.11083575 3.0059896 10197915
0.47596282 0.11089138 3.0074985 10197915
0.52606595 0.11094711 3.0090098 10197915
0.5749647 0.11100151 3.0104849 10197915
0.62391174 0.11105591 3.0119605 10197915
0.67416352 0.11111178 3.0134761 10197915
0.72446615 0.11116775 3.0149939 10197915
0.7613669 0.10698764 3.0253973 4868682
0.76818216 -1.3648441 3.082895 2894892
0.76789999 -1.3249937 3.0790937 2894892
0.76778835 -1.2747898 3.0783188 2894892
0.76774532 -1.2248983 3.0786705 2894892
0.76761818 -1.1750551 3.077636 2894892
0.76753825 -1.1248606 3.077383 2894892
0.76748496 -1.0750295 3.0775642 2894892
0.76736844 -1.0251896 3.0767021 2894892
0.767299 -0.97505051 3.0766191 2894892
0.76719779 -0.92492056 3.0760179 2894892
0.76713866 -0.87480205 3.0761058 2894892
0.7670328 -0.82501447 3.0754197 2894892
0.76695287 -0.77491492 3.0751665 2894892
0.76687264 -0.72483045 3.0749078 2894892
0.76678813 -0.67507368 3.0745714 2894892
0.76668739 -0.62501979 3.0739713 2894892
0.76660144 -0.57463169 3.0736272 2894892
0.76654834 -0.52492779 3.0738084 2894892
0.76643205 -0.47520417 3.0729485 2894892
0.76635695 -0.42487204 3.0727768 2894892
0.76626629 -0.37486014 3.0723472 2894892
0.76620281 -0.32518762 3.0723538 2894892
0.76609176 -0.27519676 3.0715826 2894892
0.76602668 -0.22490937 3.0715828 2894892
0.76591533 -0.17494144 3.0708089 2894892
0.76586688 -0.12499058 3.0710692 2894892
0.765751 -0.075373888 3.0702133 2894892
0.76590097 -0.027252333 3.0737045 2894892
0.76600301 0.025490712 3.0765066 2894892
0.76591825 0.075190276 3.0761657 2894892
-0.26159182 0.10994457 3.0503674 10000536
-0.22502509 0.10998521 3.0514951 10000536
-0.17454609 0.1100413 3.0530505 10000536
-0.12527971 0.11009598 3.0545683 10132122
-0.075963899 0.11015078 3.0560882 10197915
-0.025332803 0.11020704 3.0576491 10197915
0.025350038 0.1102633 3.0592103 10197915
0.07481546 0.11031824 3.0607343 10197915
0.12433068 0.11037326 3.0622613 10197915
0.17516652 0.1104297 3.0638268 10197915
0.22478136 0.1104848 3.0653558 10197915
0.27444628 0.11053999 3.0668874 10197915
0.32543585 0.11059661 3.0684581 10197915
0.37520084 0.11065187 3.0699914 10197915
0.42501616 0.11070725 3.0715272 10197915
0.47488073 0.1107626 3.0730629 10197915
0.52479565 0.11081804 3.0746012 10197915
0.57476032 0.11087357 3.0761421 10197915
0.62477529 0.11092909 3.0776825 10197915
0.67483985 0.11098468 3.0792246 10197915
0.72495562 0.11104039 3.08077 10197915
0.76358312 0.10708271 3.0770342 5526612
0.77179062 -1.403019 3.1415386 2894892
0.77092403 -1.3738869 3.1278758 2894892
0.77081007 -1.325273 3.1270318 2894892
0.7707395 -1.2754638 3.1269271 2894892
0.77062368 -1.2248234 3.1260977 2894892
0.7705521 -1.1746033 3.1259861 2894892
0.77046794 -1.1252682 3.125644 2894892
0.77036804 -1.0755041 3.1250589 2894892
0.77029711 -1.0253357 3.1249509 2894892
0.77022594 -0.97516674 3.1248438 2894892
0.77011102 -0.92501283 3.1240153 2894892
0.7700398 -0.87486637 3.1239066 2894892
0.76995486 -0.82516456 3.1235628 2894892
0.76985544 -0.7754752 3.1229787 2894892
0.76979887 -0.72535962 3.1231115 2894892
0.76968354 -0.67483836 3.1222847 2894892
0.76961243 -0.62474322 3.122174 2894892
0.76989996 -0.57466006 3.1279745 2894892
0.7698518 -0.52522427 3.1282291 2894892
0.76979786 -0.47463438 3.1284168 2894892
0.76967955 -0.4246904 3.1275241 2894892
0.76960498 -0.374764 3.1273584 2894892
0.76952589 -0.32516786 3.1271057 2894892
0.7694295 -0.27526206 3.1265793 2894892
0.76934898 -0.22503996 3.1263185 2894892
0.76925266 -0.17515662 3.1257911 2894892
0.76920038 -0.12528268 3.125989 2894892
0.76908147 -0.074779071 3.1250989 2894892
0.7690118 -0.024598928 3.1250165 2894892
0.76892751 0.024595343 3.1246748 2894892
0.76882583 0.07475324 3.1240606 2894892
-0.61788332 0.10941704 3.1071594 2051200
-0.5743686 0.10946528 3.1085303 6386052
-0.52440912 0.10952075 3.1101055 9934743
-0.47439831 0.10957623 3.1116805 9934743
-0.4243373 0.10963172 3.1132565 10000536
-0.37551099 0.10968592 3.1147959 10000536
-0.32534921 0.10974159 3.1163764 10000536
-0.27513701 0.10979724 3.1179571 10000536
-0.22487338 0.10985304 3.1195414 10000536
-0.1745591 0.10990884 3.1211267 10000536
-0.12548548 0.10996328 3.1226718 10132122
-0.075069681 0.11001922 3.1242604 10197915
-0.024603024 0.11007522 3.1258509 10197915
0.024619279 0.11012981 3.1274004 10197915
0.075187929 0.1101859 3.1289937 10197915
0.12580772 0.11024209 3.1305892 10197915
0.17517936 0.11029682 3.132144 10197915
0.22460012 0.11035164 3.1337006 10197915
0.27407008 0.11040658 3.1352601 10197915
0.32489318 0.11046293 3.1368608 10197915
0.3757678 0.11051935 3.1384628 10197915
0.4253884 0.11057445 3.1400275 10197915
0.47505826 0.11062952 3.1415915 10197915
0.52477759 0.11068465 3.143157 10197915
0.57454669 0.11073992 3.1447263 10197915
0.62436533 0.11079516 3.1462953 10197915
0.67423362 0.11085046 3.1478653 10197915
0.72020888 0.1109015 3.1493149 10197915
0.76886386 0.10578981 3.1253459 3750201
0.77427477 -1.4118888 3.1822782 2894892
0.77390641 -1.3747295 3.1769991 2894892
0.77380323 -1.3248974 3.1763587 2894892
0.77373523 -1.2750794 3.1762969 2894892
0.7736491 -1.224939 3.1759427 2894892
0.77356321 -1.1748096 3.17559 2894892
0.77347708 -1.1246912 3.1752365 2894892
0.77339113 -1.074584 3.1748836 2894892
0.77328837 -1.0248189 3.1742449 2894892
0.77322036 -0.97506684 3.1741829 2894892
0.77313441 -0.92499322 3.17383 2894892
0.77302569 -0.87493306 3.1731007 2894892
0.77296281 -0.82488507 3.1731253 2894892
0.77287686 -0.77484465 3.1727729 2894892
0.77277428 -0.72514665 3.1721337 2894892
0.77270645 -0.67545956 3.1720729 2894892
0.77262056 -0.62545252 3.1717207 2894892
0.77288443 -0.57649332 3.1771052 2894892
0.77288324 -0.52534807 3.1781766 2894892
0.77279758 -0.47526124 3.1778228 2894892
0.77271152 -0.42518565 3.177469 2894892
0.77262551 -0.37512121 3.177115 2894892
0.77252376 -0.32463574 3.1765113 2894892
0.77243757 -0.27458614 3.1761479 2894892
0.77236778 -0.22500262 3.1760557 2894892
0.772282 -0.17498264 3.1757026 2894892
0.77219617 -0.12497389 3.1753497 2894892
0.77211034 -0.074976169 3.1749969 2894892
0.77202457 -0.024989583 3.174644 2894892
0.77193874 0.024985885 3.1742911 2894892
0.77185279 0.074950241 3.1739388 2894892
-0.62534356 0.10927092 3.1777823 2050943
-0.57560599 0.10932601 3.1793842 8291466
-0.52581859 0.10938124 3.1809902 9934743
-0.4759804 0.10943644 3.182595 9934743
-0.42609206 0.10949168 3.1842022 10000536
-0.37615338 0.10954705 3.1858122 10000536
-0.32616413 0.10960243 3.187423 10000536
-0.27612427 0.10965784 3.1890342 10000536
-0.22603387 0.10971337 3.1906493 10000536
-0.17589268 0.10976892 3.192265 10000536
-0.12570064 0.10982451 3.1938813 10132122
-0.075457759 0.10988019 3.1955006 10197915
-0.025163937 0.10993594 3.1971219 10197915
0.025180941 0.10999169 3.1987431 10197915
0.057002045 0.11002693 3.1997681 10197915
0.74518329 0.11092921 3.1501019 10197915
0.76694012 0.10749024 3.1644583 6052956
0.77718329 -1.4225395 3.2299743 2894892
0.77701092 -1.374809 3.2281468 2894892
0.7769087 -1.3247377 3.2275221 2894892
0.7768544 -1.2746631 3.2276928 2894892
0.77673632 -1.2250736 3.2268035 2894892
0.77666646 -1.1750222 3.2267151 2894892
0.776564 -1.1249791 3.2260871 2894892
0.77651083 -1.0754273 3.2262671 2894892
0.77640802 -1.0249604 3.2256408 2894892
0.77630538 -0.97496337 3.225014 2894892
0.77623576 -0.92497873 3.2249258 2894892
0.77614957 -0.8750025 3.2245674 2894892
0.7760635 -0.82503742 3.2242107 2894892
0.77597678 -0.77463752 3.22385 2894892
0.77587461 -0.72470075 3.2232273 2894892
0.77582073 -0.67475671 3.2233987 2894892
0.77570313 -0.62530237 3.222512 2894892
0.77563357 -0.57538217 3.2224233 2894892
0.77554613 -0.5245927 3.2220602 2894892
0.77544367 -0.4746998 3.2214334 2894892
0.77539098 -0.42527932 3.2216134 2894892
0.77527297 -0.37541169 3.2207272 2894892
0.77520239 -0.32511342 3.2206314 2894892
0.7751469 -0.27442089 3.2207949 2894892
0.77547717 -0.22495399 3.2272851 2894892
0.77537853 -0.17479737 3.2267249 2894892
0.77532816 -0.12464996 3.2269609 2894892
0.77520615 -0.07518962 3.2260041 2894892
0.77513903 -0.025393467 3.2259517 2894892
0.77505159 0.025389645 3.2255871 2894892
0.77494073 0.075498894 3.2248254 2894892
0.082210831 0.11005489 3.2005811 10197915
0.12602414 0.11010344 3.2019935 10197915
0.1751928 0.1101579 3.203577 10197915
0.22441056 0.11021242 3.2051623 10197915
0.27500921 0.11026854 3.206794 10197915
0.32565916 0.11032462 3.2084255 10197915
0.37502554 0.1103793 3.2100153 10197915
0.42444158 0.11043409 3.2116089 10197915
0.47524381 0.11049036 3.2132456 10197915
0.5247587 0.1105452 3.2148402 10197915
0.57432342 0.11060014 3.2164383 10197915
0.62527865 0.1106566 3.2180803 10197915
0.67494255 0.11071161 3.2196796 10197915
0.72465664 0.1107667 3.221282 10197915
0.77037585 0.10743949 3.2241061 5921370
0.78018945 -1.4586785 3.2787347 2894892
0.77984208 -1.4254103 3.273716 2894892
0.779755 -1.3750753 3.2733524 2894892
0.77966791 -1.3247513 3.2729843 2894892
0.77956468 -1.2749003 3.2723458 2894892
0.77949607 -1.2255002 3.2722652 2894892
0.77940917 -1.1752098 3.2718992 2894892
0.77932209 -1.1249303 3.2715342 2894892
0.77921927 -1.0751083 3.2709002 2894892
0.77916604 -1.0248652 3.2710857 2894892
0.77904624 -0.9750666 3.2701702 2894892
0.77897698 -0.92528707 3.2700851 2894892
0.77889031 -0.87506336 3.2697222 2894892
0.77889806 -0.82383686 3.2709386 2894892
0.77918416 -0.77510726 3.2766855 2894892
0.77909702 -0.72479922 3.2763166 2894892
0.77899152 -0.67484939 3.2756412 2894892
0.7789256 -0.62558031 3.2755966 2894892
0.7788384 -0.57530558 3.2752306 2894892
0.77875161 -0.525042 3.2748654 2894892
0.77864659 -0.47512776 3.2741947 2894892
0.77857786 -0.42455339 3.2741363 2894892
0.778485 -0.37466556 3.2736657 2894892
0.77839261 -0.3247844 3.2732022 2894892
0.778332 -0.27523777 3.2732587 2894892
0.77871287 -0.22514135 3.2805955 2894892
0.77859217 -0.17483778 3.2796741 2894892
0.77852255 -0.12500018 3.2795854 2894892
0.77843547 -0.074720263 3.2792192 2894892
0.77834851 -0.024451451 3.2788517 2894892
0.77826399 0.024447905 3.278496 2894892
0.7781769 0.07469444 3.2781289 2894892
-0.6572417 0.10909139 3.2508957 1721980
-0.62512004 0.10912691 3.2519543 2509943
-0.57556081 0.10918174 3.2535882 10000536
-0.5246107 0.10923815 3.2552695 9934743
-0.47495064 0.10929308 3.2569063 9934743
-0.42524028 0.10934806 3.2585447 9934743
-0.37548053 0.10940319 3.2601871 10000536
-0.32566997 0.10945828 3.2618287 10000536
-0.27446106 0.10951493 3.2635164 10000536
-0.22454923 0.10957018 3.2651637 10000536
-0.17458647 0.10962545 3.2668107 10000536
-0.12457371 0.10968077 3.2684588 10132122
-0.074509993 0.10973617 3.2701106 10197915
-0.024396149 0.10979165 3.2717633 10197915
0.024412135 0.10984562 3.2733722 10197915
0.074626505 0.10990119 3.2750275 10197915
0.12489125 0.10995685 3.276686 10197915
0.17520732 0.11001249 3.2783444 10197915
0.22557385 0.11006819 3.2800045 10197915
0.27462861 0.11012253 3.2816236 10197915
0.3250964 0.11017834 3.2832873 10197915
0.37561494 0.11023422 3.2849519 10197915
0.4248178 0.11028871 3.2865756 10197915
0.47406912 0.1103432 3.2881997 10197915
0.52473933 0.11039925 3.2898695 10197915
0.57546097 0.11045538 3.2915423 10197915
0.62486136 0.11051006 3.2931719 10197915
0.67431051 0.11056475 3.2948017 10197915
0.72518462 0.11062104 3.296479 10197915
0.77220041 0.1080789 3.2869444 6842472
0.78286451 -1.4687279 3.3225956 2894892
0.7826466 -1.425475 3.3199241 2894892
0.78259349 -1.3748926 3.320123 2894892
0.78248894 -1.3247699 3.3194673 2894892
0.78240258 -1.2751215 3.3191011 2894892
0.78229803 -1.2245783 3.3184488 2894892
0.78247213 -1.1722444 3.3224306 2894892
0.78262132 -1.124321 3.3259068 2894892
0.78253525 -1.0745983 3.3255398 2894892
0.78244883 -1.024887 3.3251729 2894892
0.78234255 -0.97484767 3.3244808 2894892
0.78227508 -0.92481202 3.3244352 2894892
0.7821815 -0.87479395 3.3239563 2894892
0.78216523 -0.82562739 3.3247287 2894892
0.78249145 -0.77466726 3.331187 2894892
0.78240514 -0.7249046 3.3308187 2894892
0.78231859 -0.67515296 3.3304515 2894892
0.78223139 -0.62495184 3.3300793 2894892
0.78212607 -0.57432073 3.3294175 2894892
0.78205627 -0.52412713 3.3293345 2894892
0.7819699 -0.47441962 3.3289669 2894892
0.7818836 -0.42472336 3.3285995 2894892
0.78179741 -0.37503803 3.3282316 2894892
0.7816928 -0.32491133 3.3275745 2894892
0.7816233 -0.27478489 3.3274903 2894892
0.78153676 -0.22513267 3.3271234 2894892
0.78144968 -0.17503186 3.3267517 2894892
0.78134459 -0.12449066 3.326092 2894892
0.78127509 -0.074408434 3.3260081 2894892
0.78118873 -0.024800381 3.3256419 2894892
0.78110266 0.024796735 3.3252747 2894892
0.78101665 0.074382916 3.324909 2894892
-0.66599375 0.10893078 3.3282893 1853565
-0.62488645 0.10897619 3.3296769 4940414
-0.57414258 0.10903228 3.3313909 10000536
-0.52471972 0.1090869 3.3330595 9934743
-0.47524717 0.10914154 3.3347292 9934743
-0.4257251 0.10919625 3.336401 9934743
-0.3761535 0.10925108 3.3380761 10000536
-0.32515264 0.1093074 3.3397968 10000536
-0.27409953 0.10936379 3.3415198 10000536
-0.22437569 0.10941879 3.3432002 10000536
-0.17460163 0.10947376 3.3448803 10000536
-0.12477756 0.10952879 3.3465614 10066329
-0.074903376 0.10958392 3.3482463 10197915
-0.036079079 0.10962684 3.3495572 10197915
0.78096408 0.10468064 3.3246849 3487029
0.78632045 -1.5058048 3.3787484 2894892
0.78565329 -1.4750137 3.3684123 2894892
0.78556633 -1.425083 3.3680384 2894892
0.78546071 -1.3751643 3.3673592 2894892
0.78579724 -1.3238411 3.3739932 2894892
0.78577816 -1.2748212 3.3747211 2894892
0.78571159 -1.2246965 3.3746898 2894892
0.78581107 -1.1759846 3.3773608 2894892
0.78600955 -1.1246159 3.3817215 2894892
0.78596145 -1.0754831 3.381973 2894892
0.78585577 -1.0253886 3.38129 2894892
0.78574955 -0.97531879 3.3806064 2894892
0.78568107 -0.92526203 3.3805394 2894892
0.78559387 -0.87521291 3.3801644 2894892
0.78550637 -0.82517499 3.3797879 2894892
0.78540063 -0.77515036 3.3791049 2894892
0.78533214 -0.72513705 3.3790376 2894892
0.78524399 -0.67466521 3.378659 2894892
0.78515601 -0.62420475 3.3782804 2894892
0.78505069 -0.57467437 3.3775961 2894892
0.78500295 -0.52566743 3.3778481 2894892
0.78489691 -0.47569215 3.3771658 2894892
0.78480923 -0.42527619 3.3767884 2894892
0.78470355 -0.37534142 3.3761055 2894892
0.78463519 -0.32541576 3.3760393 2894892
0.78454745 -0.27503353 3.3756611 2894892
0.78446019 -0.2251288 3.3752871 2894892
0.78437304 -0.17523524 3.3749115 2894892
0.78426754 -0.12536116 3.3742301 2894892
0.78419942 -0.075485751 3.3741636 2894892
0.78411156 -0.025159417 3.3737857 2894892
0.78402394 0.025155663 3.3734086 2894892
0.78393602 0.075459488 3.3730307 2894892
-0.011103839 0.10965443 3.3504 10197915
0.024995727 0.1096943 3.3516185 10197915
0.075020798 0.10974957 3.353307 10197915
0.12509634 0.10980494 3.3549991 10197915
0.17522232 0.10986031 3.3566906 10197915
0.22539888 0.10991573 3.3583837 10197915
0.27562633 0.10997127 3.3600812 10197915
0.32590431 0.11002681 3.361778 10197915
0.37483415 0.11008086 3.3634295 10197915
0.42381275 0.11013498 3.3650835 10197915
0.47424078 0.11019075 3.3667867 10197915
0.52471948 0.11024651 3.3684897 10197915
0.57524961 0.11030232 3.3701959 10197915
0.62583113 0.11035825 3.3719049 10197915
0.67505628 0.11041262 3.3735664 10197915
0.72433031 0.11046704 3.3752289 10197915
0.77482438 0.10824317 3.3741055 7237230
0.78887522 -1.5152661 3.4206388 2894892
0.78864223 -1.4753362 3.4176486 2894892
0.78855443 -1.4251496 3.4172695 2894892
0.78844726 -1.3749745 3.4165697 2894892
0.78891921 -1.3249265 3.4254086 2894892
0.78932583 -1.2747294 3.4331708 2894892
0.78919941 -1.2248363 3.4321518 2894892
0.78913081 -1.1744502 3.4320905 2894892
0.78904349 -1.12456 3.431711 2894892
0.78893769 -1.0751483 3.4310176 2894892
0.78888947 -1.0252955 3.4312785 2894892
0.78876328 -0.97543228 3.430258 2894892
0.78869456 -0.92511475 3.4301934 2894892
0.78860718 -0.87527978 3.4298122 2894892
0.78851998 -0.82545584 3.429435 2894892
0.78841287 -0.77517086 3.4287341 2894892
0.78836316 -0.72489065 3.4289854 2894892
0.78823733 -0.67511362 3.4279671 2894892
0.78816879 -0.62485319 3.4279068 2894892
0.78808182 -0.57508463 3.4275279 2894892
0.78799462 -0.52532721 3.4271491 2894892
0.7878868 -0.47462738 3.4264457 2894892
0.78783852 -0.4249039 3.4267077 2894892
0.78771269 -0.37517697 3.4256892 2894892
0.78764403 -0.32499155 3.4256248 2894892
0.78755695 -0.27528927 3.4252446 2894892
0.78746915 -0.22512485 3.4248636 2894892
0.78736198 -0.17497554 3.4241602 2894892
0.78729367 -0.12483409 3.4241002 2894892
0.78720683 -0.075176008 3.4237223 2894892
0.78711998 -0.02552899 3.4233439 2894892
0.78703034 0.025525132 3.4229555 2894892
0.78694361 0.075150013 3.4225781 2894892
-0.67376804 0.10876371 3.4095016 1853307
-0.62464082 0.10881791 3.4112 7305606
-0.57405937 0.10887374 3.4129515 10000536
-0.5248332 0.10892806 3.4146533 10000536
-0.47555739 0.1089824 3.4163573 9934743
-0.42482269 0.10903838 3.4181125 9934743
-0.37403595 0.10909446 3.4198694 10000536
-0.32460991 0.10914896 3.4215782 10000536
-0.27513397 0.10920353 3.4232888 10000536
-0.22419326 0.1092598 3.4250526 10000536
-0.17461726 0.10931446 3.4267669 10000536
-0.12499118 0.10936919 3.4284823 10066329
-0.075315878 0.10942404 3.4302011 10197915
-0.025590282 0.10947891 3.4319215 10197915
0.025607867 0.10953537 3.4336917 10197915
0.075434275 0.10959035 3.4354148 10197915
0.12531126 0.10964543 3.4371409 10197915
0.17523782 0.10970049 3.4388676 10197915
0.22521499 0.10975561 3.4405951 10197915
0.27524215 0.10981084 3.4423268 10197915
0.32532004 0.1098661 3.4440589 10197915
0.37544775 0.10992138 3.4457922 10197915
0.42419186 0.10997516 3.4474773 10197915
0.47298393 0.11002904 3.4491673 10197915
0.78689152 0.10492007 3.4223511 3947580
0.79263896 -1.5542673 3.4818237 2894892
0.79186749 -1.5242791 3.4697506 2894892
0.79169905 -1.4751924 3.4680159 2894892
0.79163116 -1.4252174 3.4679589 2894892
0.79152322 -1.3752581 3.4672458 2894892
0.79159164 -1.3271739 3.4693918 2894892
0.79187173 -1.2749473 3.4751141 2894892
0.79179907 -1.2251281 3.4749758 2894892
0.79171032 -1.1746087 3.4745865 2894892
0.79162169 -1.1241009 3.4741971 2894892
0.79206109 -1.0748312 3.4824836 2894892
0.79195362 -1.0251809 3.4817686 2894892
0.79188573 -0.9750703 3.4817128 2894892
0.79181796 -0.92495668 3.4816592 2894892
0.79168957 -0.87487382 3.4806075 2894892
0.79162157 -0.82478231 3.4805515 2894892
0.79151374 -0.77471077 3.4798334 2894892
0.79144651 -0.72513193 3.4797833 2894892
0.79137832 -0.67506874 3.4797213 2894892
0.79124981 -0.62457061 3.4786737 2894892
0.79118294 -0.57501048 3.4786224 2894892
0.79107571 -0.52546221 3.4779079 2894892
0.79102677 -0.47499576 3.4781749 2894892
0.79091918 -0.42498901 3.4774637 2894892
0.7908116 -0.37500757 3.476752 2894892
0.79074359 -0.32503507 3.4766912 2894892
0.79065591 -0.27507234 3.4763069 2894892
0.79056704 -0.22464044 3.475915 2894892
0.79045928 -0.1747041 3.4751985 2894892
0.7903924 -0.12525539 3.4751477 2894892
0.79030377 -0.074857146 3.4747579 2894892
0.79021537 -0.024470067 3.4743695 2894892
0.79012924 0.02446652 3.4739912 2894892
0.79004097 0.074831262 3.4736025 2894892
-0.70780969 0.10855979 3.4938588 1589882
-0.67474216 0.10859621 3.4950304 1917810
-0.62438291 0.10865167 3.4968157 10000536
-0.57541329 0.10870568 3.498554 10000536
-0.54226077 0.10874218 3.4997284 10000536
0.49883226 0.11005755 3.4500604 10197915
0.5246979 0.11008608 3.4509544 10197915
0.57502717 0.11014158 3.4526949 10197915
0.62540698 0.11019722 3.4544389 10197915
0.67439616 0.11025126 3.4561329 10197915
0.7248764 0.11030693 3.4578781 10197915
0.77843475 0.10827342 3.4647372 7566195
0.79525059 -1.5636629 3.5246549 2894892
0.79497695 -1.5252804 3.5209587 2894892
0.79488909 -1.4755224 3.5205698 2894892
0.79477984 -1.4252828 3.5198379 2894892
0.79471177 -1.3750681 3.5197849 2894892
0.79462415 -1.3253428 3.5193975 2894892
0.79453653 -1.2756289 3.5190094 2894892
0.79444909 -1.2259257 3.5186214 2894892
0.79436159 -1.1762335 3.5182333 2894892
0.79425186 -1.1255656 3.5175045 2894892
0.79473251 -1.0744897 3.5265055 2894892
0.79462796 -1.023958 3.525856 2894892
0.79454023 -0.97418582 3.5254667 2894892
0.79445243 -0.92442459 3.5250776 2894892
0.79436481 -0.87467462 3.524688 2894892
0.79427719 -0.82493544 3.5242994 2894892
0.79418945 -0.7752074 3.5239105 2894892
0.79408509 -0.7247715 3.5232625 2894892
0.79445857 -0.67289442 3.5305152 2894892
0.7944659 -0.624744 3.5316558 2894892
0.79437786 -0.57493424 3.5312645 2894892
0.79429007 -0.52513546 3.530874 2894892
0.79420209 -0.4753477 3.5304837 2894892
0.79409283 -0.42508173 3.529747 2894892
0.79402465 -0.37483454 3.5296957 2894892
0.79393709 -0.32507998 3.5293052 2894892
0.79384935 -0.27533647 3.5289154 2894892
0.7937606 -0.22511648 3.5285203 2894892
0.79367214 -0.17490762 3.528127 2894892
0.79356283 -0.12471913 3.5273919 2894892
0.793495 -0.074528538 3.5273399 2894892
0.79340738 -0.0248404 3.5269501 2894892
0.7933197 0.024836745 3.5265608 2894892
0.79323202 0.074502937 3.5261712 2894892
-0.51629758 0.10877077 3.5006485 10000536
-0.4744395 0.10881686 3.5021322 9934743
-0.42532071 0.10887101 3.5038748 9934743
-0.37470579 0.10892678 3.5056696 10000536
-0.32403943 0.10898256 3.5074656 10000536
-0.2747708 0.10903683 3.5092115 10000536
-0.22545314 0.10909121 3.5109618 10000536
-0.17608614 0.10914558 3.5127108 10000536
-0.12521555 0.1092016 3.5145142 10066329
-0.074293196 0.10925774 3.5163214 10197915
-0.024775399 0.10931229 3.5180767 10197915
0.024791881 0.10936689 3.5198336 10197915
0.074408695 0.10942151 3.5215924 10197915
0.12407519 0.1094763 3.5233552 10197915
0.1737913 0.10953104 3.5251169 10197915
0.22502187 0.10958744 3.5269327 10197915
0.2763049 0.10964399 3.5287521 10197915
0.32617354 0.10969893 3.5305207 10197915
0.37609214 0.1097539 3.5322895 10197915
0.42606077 0.10980893 3.5340605 10197915
0.47607976 0.10986409 3.535836 10197915
0.52614874 0.10991923 3.5376105 10197915
0.57626802 0.10997441 3.5393865 10197915
0.62496144 0.11002809 3.5411141 10197915
0.67370278 0.11008181 3.5428426 10197915
0.72397029 0.11013716 3.5446241 10197915
0.7810384 0.10796029 3.5372484 7500402
0.79948997 -1.6034464 3.5936544 2894892
0.7983762 -1.5735849 3.5759406 2894892
0.79824305 -1.5249007 3.5747807 2894892
0.79815477 -1.4748774 3.5743866 2894892
0.79806584 -1.4248642 3.573988 2894892
0.79795533 -1.3748636 3.5732269 2894892
0.79788905 -1.3248777 3.5731955 2894892
0.79779983 -1.2744036 3.5727961 2894892
0.79771024 -1.2239408 3.5723958 2894892
0.79762363 -1.1749734 3.5720081 2894892
0.79753721 -1.1260164 3.57162 2894892
0.79744798 -1.0755872 3.5712206 2894892
0.79735869 -1.0251689 3.570821 2894892
0.79724836 -0.97525787 3.5700614 2894892
0.79718202 -0.92535937 3.5700305 2894892
0.79709303 -0.87497479 3.5696306 2894892
0.79700488 -0.82509553 3.5692375 2894892
0.79691666 -0.77522707 3.568841 2894892
0.79680616 -0.72537702 3.5680823 2894892
0.79712087 -0.67771006 3.5742774 2894892
0.79720217 -0.6253143 3.5767276 2894892
0.79711288 -0.57486886 3.5763268 2894892
0.79702353 -0.52443463 3.5759261 2894892
0.79691869 -0.47474086 3.5752547 2894892
0.79684782 -0.42508665 3.5751374 2894892
0.79675853 -0.374686 3.5747366 2894892
0.7966873 -0.32503849 3.5746191 2894892
0.79658264 -0.27539644 3.5739481 2894892
0.79649347 -0.22502933 3.5735478 2894892
0.79638886 -0.17542472 3.5728772 2894892
0.79631782 -0.12581336 3.5727599 2894892
0.79666185 -0.073686033 3.579535 2894892
0.79669726 -0.025222126 3.5811472 2894892
0.79660779 0.025218351 3.5807452 2894892
0.79651874 0.075647503 3.5803435 2894892
-0.71705347 0.10837469 3.5834603 1721466
-0.67576683 0.10842007 3.5849614 4282745
-0.62558818 0.10847528 3.586786 10000536
-0.57535845 0.10853055 3.588614 10000536
-0.52507734 0.10858584 3.5904417 10000536
-0.47474492 0.10864118 3.5922718 9934743
-0.42436147 0.10869664 3.5941057 10000536
-0.37392634 0.1087521 3.5959399 10000536
-0.32492554 0.10880598 3.5977211 10000536
-0.28182456 0.10885337 3.599288 10000536
0.79646599 0.10530689 3.580107 3881787
0.80205423 -1.6135269 3.6356897 2894892
0.80167824 -1.5753151 3.6303086 2894892
0.80161178 -1.5250115 3.6302814 2894892
0.80152291 -1.4752171 3.6298769 2894892
0.80143476 -1.425434 3.6294785 2894892
0.80132234 -1.3751596 3.6286972 2894892
0.80127853 -1.3248945 3.6290426 2894892
0.79999334 -1.2545691 3.60936 2894892
0.80121917 -1.2764987 3.6290934 2894892
0.79994017 -1.2245818 3.6091201 2894892
0.80164719 -1.2250721 3.6372356 2894892
0.79985249 -1.1751107 3.6087244 2894892
0.80155855 -1.1752158 3.636833 2894892
0.79976469 -1.1256505 3.6083281 2894892
0.80146998 -1.1253705 3.6364312 2894892
0.79967433 -1.0747027 3.6079202 2894892
0.80136263 -1.0747669 3.6357367 2894892
0.79958659 -1.0252647 3.6075244 2894892
0.80130875 -1.0249721 3.6359065 2894892
0.79949898 -0.97583747 3.6071293 2894892
0.80118555 -0.97513926 3.6349335 2894892
0.79940856 -0.92492354 3.6067216 2894892
0.80113161 -0.92535073 3.6351027 2894892
0.79931819 -0.87402135 3.6063142 2894892
0.80100846 -0.87555575 3.63413 2894892
0.79923069 -0.82462722 3.6059189 2894892
0.8009361 -0.82502484 3.6340082 2894892
0.79914302 -0.77524388 3.6055238 2894892
0.80086339 -0.77449334 3.6338863 2894892
0.79905283 -0.72437537 3.6051166 2894892
0.80074042 -0.72475553 3.6329136 2894892
0.79896516 -0.67501408 3.6047215 2894892
0.80068648 -0.67498291 3.6330833 2894892
0.79920024 -0.62134856 3.609731 2894892
0.8007198 -0.62916315 3.6346021 2894892
0.7993533 -0.57481527 3.6132438 2894892
0.80106288 -0.57477432 3.6414108 2894892
0.79924697 -0.52459335 3.6125586 2894892
0.80097425 -0.52493268 3.6410074 2894892
0.79919356 -0.47518116 3.6127274 2894892
0.80088562 -0.4751021 3.6406047 2894892
0.79908735 -0.42498139 3.6120412 2894892
0.80079681 -0.42528242 3.6402018 2894892
0.79898113 -0.37480468 3.611356 2894892
0.80070829 -0.37547386 3.6397991 2894892
0.79892766 -0.32540184 3.6115239 2894892
0.80061698 -0.32416743 3.639384 2894892
0.79882151 -0.27524731 3.6108396 2894892
0.80052841 -0.27438119 3.6389813 2894892
0.79871535 -0.22511561 3.6101553 2894892
0.80043989 -0.22460599 3.6385787 2894892
0.79864359 -0.17498504 3.6100349 2894892
0.80035126 -0.17484176 3.6381764 2894892
0.79857159 -0.12485383 3.6099145 2894892
0.80026281 -0.12508863 3.6377735 2894892
0.79877019 -0.079481669 3.6141474 2894892
0.8001743 -0.075346395 3.6373715 2894892
0.79894334 -0.025482727 3.6181483 2894892
0.80008572 -0.025615288 3.6369691 2894892
0.79924071 0.029696595 3.6242182 2894892
0.80001879 0.012052908 3.6366649 2894892
0.79933554 0.075125463 3.6267464 2894892
-0.256542 0.10888124 3.6002102 10066329
-0.22528903 0.1089156 3.6013465 10066329
-0.17465045 0.10897128 3.6031866 10197915
-0.12396006 0.10902701 3.6050298 10197915
-0.074711248 0.10908122 3.606822 10197915
-0.025412943 0.10913545 3.6086152 10197915
0.025430283 0.10919135 3.6104634 10197915
0.074827701 0.10924565 3.6122594 10197915
0.12427487 0.1093001 3.6140599 10197915
0.17527163 0.10935617 3.6159134 10197915
0.2248183 0.10941064 3.6177146 10197915
0.27441496 0.1094652 3.619519 10197915
0.32556608 0.10952149 3.6213801 10197915
0.37526262 0.10957614 3.6231866 10197915
0.4250094 0.10963081 3.6249948 10197915
0.47480556 0.10968565 3.6268082 10197915
0.52465189 0.10974046 3.6286201 10197915
0.57454729 0.10979532 3.630434 10197915
0.6244933 0.10985027 3.6322503 10197915
0.67448926 0.10990527 3.6340699 10197915
0.72453511 0.10996032 3.6358893 10197915
0.78284788 0.10839999 3.6339753 8355711
0.80471122 -1.623247 3.6792619 2894892
0.80460382 -1.5748935 3.6785173 2894892
0.80449724 -1.5251886 3.67782 2894892
0.80439085 -1.4755069 3.6771219 2894892
0.80433619 -1.4250714 3.6772943 2894892
0.80421084 -1.3746558 3.6762991 2894892
0.80414003 -1.3250026 3.6761861 2894892
0.80406916 -1.2753487 3.6760738 2894892
0.80394405 -1.2249904 3.6750793 2894892
0.80387324 -1.1753583 3.6749666 2894892
0.80378342 -1.1249903 3.674556 2894892
0.80369371 -1.0746336 3.6741452 2894892
0.80358756 -1.0250406 3.67345 2894892
0.80353326 -0.97472668 3.6736224 2894892
0.80342716 -0.92515552 3.6729274 2894892
0.80332118 -0.87560719 3.672231 2894892
0.80326682 -0.8253029 3.6724048 2894892
0.80314171 -0.77502424 3.6714118 2894892
0.80307132 -0.72550178 3.6712999 2894892
0.80337834 -0.67296338 3.6774781 2894892
0.80348021 -0.62509644 3.6801701 2894892
0.80339032 -0.57471871 3.6797588 2894892
0.80330038 -0.52435213 3.6793468 2894892
0.80318832 -0.47500727 3.6785495 2894892
0.8031233 -0.42518362 3.6785352 2894892
0.80303365 -0.37485081 3.6781266 2894892
0.80294377 -0.3245289 3.677712 2894892
0.80283105 -0.27472043 3.6769125 2894892
0.80279011 -0.22494113 3.677295 2894892
0.80267715 -0.17515476 3.6764915 2894892
0.80256468 -0.12539528 3.6756921 2894892
0.80252236 -0.075109661 3.6760602 2894892
0.80238503 -0.024885222 3.6748707 2894892
0.80229652 0.024881557 3.674464 2894892
0.80225432 0.075083651 3.6748345 2894892
-0.75098109 0.10815346 3.676882 1523833
-0.72527236 0.10818169 3.6778414 1720952
-0.67533255 0.1082365 3.6797047 7108228
-0.62534285 0.10829143 3.6815724 10000536
-0.57530171 0.10834637 3.68344 10000536
-0.5252102 0.10840134 3.6853094 10000536
-0.47506732 0.10845639 3.6871805 9934743
-0.42487428 0.10851157 3.6890566 10132122
-0.37462938 0.10856672 3.6909316 10197915
-0.32433385 0.10862192 3.6928079 10197915
-0.27551347 0.10867554 3.6946309 10197915
-0.22511664 0.1087309 3.6965132 10197915
-0.17466891 0.10878627 3.6983955 10197915
-0.14101009 0.10882322 3.6996515 10197915
0.80217755 0.10503031 3.6742041 3881787
0.80810654 -1.6600528 3.734422 2894892
0.80764228 -1.62454 3.7275269 2894892
0.80755335 -1.5749501 3.7271178 2894892
0.80743933 -1.5248601 3.7263 2894892
0.807374 -1.4747757 3.7262886 2894892
0.80728537 -1.4252186 3.7258797 2894892
0.80719578 -1.375157 3.7254658 2894892
0.80708086 -1.3245963 3.7246461 2894892
0.80701566 -1.2745563 3.7246363 2894892
0.8069272 -1.2250434 3.724227 2894892
0.80683851 -1.1755414 3.7238178 2894892
0.80672455 -1.1255205 3.7230015 2894892
0.80665851 -1.0750294 3.7229862 2894892
0.80656934 -1.0250452 3.7225745 2894892
0.80650431 -0.97506976 3.7225666 2894892
0.80636513 -0.92459667 3.7213421 2894892
0.8063001 -0.87464398 3.7213326 2894892
0.80621165 -0.82521874 3.7209241 2894892
0.80612224 -0.77529001 3.7205107 2894892
0.80600756 -0.72486567 3.7196932 2894892
0.80626243 -0.67751294 3.7248948 2894892
0.80645329 -0.625696 3.7291381 2894892
0.80636448 -0.5761947 3.7287285 2894892
0.8062731 -0.52515781 3.7283058 2894892
0.80618173 -0.47413242 3.7278826 2894892
0.80609322 -0.42466444 3.7274733 2894892
0.80600458 -0.37520728 3.7270639 2894892
0.80589634 -0.32498774 3.726347 2894892
0.80582476 -0.27478504 3.7262323 2894892
0.80573624 -0.22536077 3.7258234 2894892
0.80566454 -0.17516412 3.7257078 2894892
0.80553687 -0.12424073 3.7246845 2894892
0.80546516 -0.074066594 3.7245698 2894892
0.80537677 -0.024686454 3.7241607 2894892
0.80528831 0.024682842 3.7237523 2894892
0.80518025 0.074827686 3.7230361 2894892
-0.11651482 0.1088501 3.7005653 10197915
-0.075150996 0.10889557 3.7021108 10197915
-0.024550352 0.10895112 3.7039995 10197915
0.024566535 0.10900505 3.7058332 10197915
0.07526952 0.10906068 3.7077246 10197915
0.12602387 0.10911649 3.7096217 10197915
0.17528996 0.10917056 3.7114599 10197915
0.22460489 0.10922468 3.7132998 10197915
0.27396882 0.10927888 3.715143 10197915
0.32492709 0.10933488 3.7170465 10197915
0.37593687 0.10939087 3.7189498 10197915
0.42545104 0.10944521 3.7207973 10197915
0.47501466 0.10949967 3.7226486 10197915
0.52462757 0.10955415 3.7245009 10197915
0.57428974 0.10960867 3.7263541 10197915
0.62400126 0.10966323 3.7282093 10197915
0.67376286 0.10971792 3.7300684 10197915
0.72357357 0.10977261 3.7319276 10197915
0.77499306 0.10982902 3.7338462 10197915
0.80495828 0.10611873 3.7257977 5592405
0.81084251 -1.6711013 3.779264 2894892
0.81068772 -1.6260668 3.7776666 2894892
0.81059724 -1.5758096 3.7772455 2894892
0.81050676 -1.5255636 3.7768238 2894892
0.81041652 -1.4753292 3.7764032 2894892
0.81032622 -1.4251057 3.7759829 2894892
0.81023598 -1.3748937 3.7755623 2894892
0.81012756 -1.3254901 3.7748208 2894892
0.81005841 -1.2760756 3.7747355 2894892
0.80996835 -1.2258966 3.7743154 2894892
0.80987811 -1.1757288 3.7738955 2894892
0.80978811 -1.1255722 3.7734752 2894892
0.80969805 -1.0754268 3.773056 2894892
0.80960798 -1.0252925 3.7726362 2894892
0.80951822 -0.97516942 3.7722161 2894892
0.80942792 -0.92505735 3.7717967 2894892
0.80933791 -0.87495667 3.7713776 2894892
0.80924803 -0.82486683 3.7709587 2894892
0.80915809 -0.77478832 3.770539 2894892
0.80906814 -0.7247209 3.7701199 2894892
0.80895978 -0.67546576 3.7693799 2894892
0.80933017 -0.62402451 3.776576 2894892
0.80942148 -0.57614249 3.7790947 2894892
0.80933124 -0.52598351 3.7786739 2894892
0.809241 -0.4758358 3.7782533 2894892
0.80912471 -0.4251757 3.7774117 2894892
0.80905896 -0.37453541 3.7774019 2894892
0.80896878 -0.32442144 3.7769823 2894892
0.80887866 -0.27431858 3.776562 2894892
0.80876344 -0.22474784 3.7757108 2894892
0.80870062 -0.17519532 3.7757294 2894892
0.80861068 -0.12512569 3.7753093 2894892
0.80852056 -0.075067237 3.774889 2894892
0.80843067 -0.025019934 3.7744687 2894892
0.80834055 0.025016233 3.7740481 2894892
0.80825073 0.075041257 3.7736285 2894892
-0.7618894 0.10794742 3.7762506 1523576
-0.72616839 0.10798655 3.7776196 1785454
-0.67642885 0.10804106 3.779526 10000536
-0.62508249 0.1080974 3.7814968 10000536
-0.57368284 0.10815371 3.7834668 10000536
-0.52378917 0.10820837 3.7853789 10000536
-0.47384518 0.10826313 3.7872941 10000536
-0.42385077 0.10831795 3.7892129 10132122
-0.37380546 0.10837279 3.7911305 10197915
-0.32370949 0.10842766 3.7930503 10197915
-0.27356288 0.10848266 3.7949748 10197915
-0.22493502 0.10853598 3.7968397 10197915
-0.17625877 0.1085893 3.7987051 10197915
-0.14640351 0.10862201 3.7998493 10197915
0.80819726 0.1047388 3.7733793 4276545
0.8137064 -1.7063442 3.8257 2894892
0.81327248 -1.6755908 3.8192046 2894892
0.81323743 -1.6241153 3.8197203 2894892
0.81372625 -1.5751019 3.8288198 2894892
0.81363529 -1.5247003 3.8283904 2894892
0.81354529 -1.4748408 3.8279665 2894892
0.81345558 -1.4249926 3.8275442 2894892
0.81336474 -1.3746248 3.8271182 2894892
0.81324786 -1.3248054 3.8262498 2894892
0.81318396 -1.2744595 3.826267 2894892
0.81309533 -1.2251848 3.8258488 2894892
0.81300658 -1.1759214 3.8254302 2894892
0.81291461 -1.12508 3.8249998 2894892
0.81279689 -1.0747697 3.8241272 2894892
0.81273431 -1.0250252 3.8241518 2894892
0.81267136 -0.97527403 3.8241718 2894892
0.81252766 -0.92554003 3.8228607 2894892
0.81246424 -0.87528187 3.8228805 2894892
0.81237382 -0.82503712 3.8224559 2894892
0.81225705 -0.77533501 3.8215873 2894892
0.81219357 -0.72511548 3.8216054 2894892
0.8121019 -0.67437536 3.8211749 2894892
0.81237835 -0.6275546 3.8267248 2894892
0.81255627 -0.57608891 3.8307464 2894892
0.81246448 -0.52524447 3.830313 2894892
0.81237286 -0.47441164 3.8298812 2894892
0.81226206 -0.42437446 3.8291168 2894892
0.8122142 -0.37517151 3.8293748 2894892
0.81210333 -0.32515648 3.8286114 2894892
0.81199265 -0.27516565 3.8278482 2894892
0.81192291 -0.2251834 3.82776 2894892
0.81183124 -0.17441829 3.8273287 2894892
0.81176138 -0.12444074 3.8272412 2894892
0.81163192 -0.07531739 3.8261478 2894892
0.8115623 -0.025361929 3.8260601 2894892
0.81147093 0.025358118 3.8256292 2894892
0.81136018 0.075291261 3.8248661 2894892
-0.12124523 0.10864957 3.8008132 10197915
-0.075615019 0.10869963 3.8025649 10197915
-0.025216401 0.10875487 3.8044972 10197915
0.025233468 0.10881013 3.8064303 10197915
0.075734638 0.10886547 3.8083661 10197915
0.12628731 0.10892096 3.8103073 10197915
0.17530896 0.10897467 3.8121858 10197915
0.22437946 0.10902843 3.8140666 10197915
0.27508351 0.109084 3.81601 10197915
0.32583943 0.10913968 3.8179581 10197915
0.37505817 0.10919359 3.8198442 10197915
0.42432606 0.10924758 3.8217328 10197915
0.4752343 0.10930339 3.8236859 10197915
0.5246011 0.10935754 3.8255801 10197915
0.57401705 0.10941168 3.8274729 10197915
0.62507814 0.1094676 3.8294303 10197915
0.67459339 0.1095219 3.8313296 10197915
0.72415835 0.10957626 3.833231 10197915
0.77537304 0.10963237 3.8351936 10197915
0.80973339 0.10661231 3.8294187 6710886
0.81680787 -1.7174553 3.876565 2894892
0.8164444 -1.6751621 3.8714733 2894892
0.81643999 -1.6257743 3.8724535 2894892
0.81691658 -1.5751653 3.8813825 2894892
0.81686825 -1.5251608 3.8816447 2894892
0.81673557 -1.4751414 3.8805218 2894892
0.81668711 -1.4251411 3.880784 2894892
0.81655461 -1.375162 3.8796616 2894892
0.81650597 -1.3251661 3.8799238 2894892
0.81637353 -1.275227 3.8788021 2894892
0.81630278 -1.2244523 3.8787117 2894892
0.81621236 -1.1745082 3.8782818 2894892
0.81612182 -1.124575 3.8778524 2894892
0.81603146 -1.074653 3.8774226 2894892
0.8159411 -1.0247421 3.8769934 2894892
0.81585085 -0.97484225 3.8765638 2894892
0.81576043 -0.92495346 3.8761351 2894892
0.81564778 -0.87427312 3.8753531 2894892
0.81559938 -0.82440263 3.8756163 2894892
0.8154673 -0.77455974 3.8744957 2894892
0.81541896 -0.7246936 3.8747578 2894892
0.81528676 -0.6748907 3.8736386 2894892
0.81521595 -0.62424946 3.8735485 2894892
0.815126 -0.57443821 3.8731194 2894892
0.81503576 -0.52463806 3.8726914 2894892
0.81494564 -0.47484875 3.8722632 2894892
0.81485546 -0.42507055 3.871835 2894892
0.81474304 -0.37449542 3.8710549 2894892
0.81469482 -0.32475004 3.8713176 2894892
0.81456274 -0.27500325 3.870199 2894892
0.81451476 -0.22526212 3.8704615 2894892
0.81438273 -0.1755551 3.8693435 2894892
0.81431234 -0.12503336 3.8692539 2894892
0.81422222 -0.075332418 3.8688264 2894892
0.81413239 -0.025642583 3.8683984 2894892
0.81403935 0.025638692 3.8679578 2894892
0.81450754 0.076870851 3.876756 2894892
-0.77180731 0.10773169 3.8812015 1589367
-0.72551769 0.10778229 3.8830256 5136506
-0.67598772 0.10783649 3.8849788 10000536
-0.62480813 0.10789252 3.8869963 10000536
-0.57517713 0.10794678 3.8889515 10000536
-0.52549571 0.10800111 3.8909085 10000536
-0.47415969 0.10805731 3.8929331 10000536
-0.42437711 0.10811178 3.8948958 10132122
-0.37454367 0.10816627 3.8968587 10197915
-0.32466048 0.10822082 3.898824 10197915
-0.29728562 0.10825075 3.8999023 10197915
0.81455106 0.10443112 3.8780577 4276545
0.82029951 -1.7543415 3.9333119 2894892
0.81984508 -1.7242736 3.92646 2894892
0.81975591 -1.6752911 3.926034 2894892
0.81964368 -1.625489 3.9252448 2894892
0.8195948 -1.5749228 3.9255135 2894892
0.81948292 -1.5251439 3.9247258 2894892
0.81937099 -1.4753894 3.923939 2894892
0.81932205 -1.42483 3.9242074 2894892
0.81918728 -1.3742915 3.9230597 2894892
0.81911856 -1.3245653 3.9229815 2894892
0.81902975 -1.2756698 3.9225557 2894892
0.81893808 -1.2251555 3.922116 2894892
0.81884634 -1.1746523 3.9216771 2894892
0.81875736 -1.1257893 3.9212523 2894892
0.81866574 -1.0753084 3.9208126 2894892
0.81857401 -1.0248389 3.9203742 2894892
0.81846231 -0.9751873 3.9195883 2894892
0.81841391 -0.92475462 3.9198573 2894892
0.81830221 -0.87512499 3.9190717 2894892
0.81819063 -0.8255198 3.9182866 2894892
0.81814194 -0.77509362 3.9185557 2894892
0.81800759 -0.72471315 3.9174099 2894892
0.81793904 -0.67512399 3.9173319 2894892
0.81820363 -0.62216473 3.9228151 2894892
0.81842589 -0.57435942 3.9274943 2894892
0.81833702 -0.52548903 3.9270673 2894892
0.81821793 -0.47553581 3.926162 2894892
0.81818372 -0.42507413 3.9266713 2894892
0.81803477 -0.37514758 3.9252784 2894892
0.8179732 -0.32523704 3.9253185 2894892
0.81788164 -0.27479362 3.9248829 2894892
0.81779081 -0.22490375 3.9244456 2894892
0.8176716 -0.17503016 3.9235408 2894892
0.81760955 -0.12516318 3.9235761 2894892
0.81751782 -0.074764661 3.9231358 2894892
0.81742632 -0.024377327 3.9226964 2894892
0.81733769 0.024373803 3.9222703 2894892
0.81769419 0.072724395 3.9291697 2894892
-0.2715039 0.10827903 3.9009211 10197915
-0.22474273 0.10833018 3.9027634 10197915
-0.17470774 0.10838489 3.9047348 10197915
-0.12462271 0.10843966 3.9067078 10197915
-0.074486554 0.10849456 3.9086862 10197915
-0.024300141 0.10854946 3.9106638 10197915
0.024315996 0.10860262 3.9125786 10197915
0.074602999 0.10865761 3.9145598 10197915
0.12494051 0.10871275 3.9165463 10197915
0.17532957 0.10876784 3.9185314 10197915
0.22576912 0.10882302 3.9205184 10197915
0.27463061 0.10887644 3.9224434 10197915
0.32517183 0.10893179 3.9244382 10197915
0.37576357 0.10898712 3.9264312 10197915
0.42477253 0.10904073 3.9283617 10197915
0.47382975 0.10909437 3.9302945 10197915
0.52457362 0.10914993 3.9322968 10197915
0.57536823 0.10920548 3.9342983 10197915
0.62457383 0.10925929 3.9362364 10197915
0.67382795 0.10931317 3.9381781 10197915
0.72477579 0.10936897 3.940187 10197915
0.77577436 0.10942473 3.9421961 10197915
0.81369537 0.10751757 3.9375191 7697781
0.82273304 -1.7633067 3.9732163 2894892
0.82254118 -1.7240427 3.9708889 2894892
0.82245058 -1.6745055 3.9704516 2894892
0.82236016 -1.6249795 3.970015 2894892
0.82227004 -1.5754647 3.9695795 2894892
0.82215625 -1.5251317 3.9687746 2894892
0.82208699 -1.4748234 3.9686959 2894892
0.82199681 -1.4253418 3.9682608 2894892
0.82192713 -1.3750368 3.9681797 2894892
0.82181346 -1.3247573 3.9673758 2894892
0.82169992 -1.274503 3.9665711 2894892
0.82163024 -1.2242273 3.9664917 2894892
0.82196909 -1.1723753 3.9731755 2894892
0.82213616 -1.1252811 3.9769244 2894892
0.82204562 -1.0757351 3.9764872 2894892
0.82192457 -1.0256457 3.9755557 2894892
0.82186186 -0.97503126 3.9755967 2894892
0.82177073 -0.92496812 3.9751573 2894892
0.82168043 -0.87546635 3.9747205 2894892
0.82155967 -0.82542205 3.9737895 2894892
0.82149804 -0.77540171 3.9738376 2894892
0.82143652 -0.7253738 3.9738877 2894892
0.82131433 -0.67481971 3.9729486 2894892
0.82143706 -0.62679416 3.9759881 2894892
0.82181382 -0.57427853 3.9833107 2894892
0.82172352 -0.5247137 3.9828718 2894892
0.8216328 -0.47515967 3.9824338 2894892
0.8215425 -0.42561665 3.9819953 2894892
0.82142824 -0.37525347 3.9811845 2894892
0.82135856 -0.32491726 3.9811046 2894892
0.8212682 -0.27540722 3.9806662 2894892
0.82119864 -0.22507496 3.9805861 2894892
0.82108456 -0.17476577 3.9797757 2894892
0.82097059 -0.1244818 3.9789658 2894892
0.82090104 -0.074178666 3.9788864 2894892
0.82081074 -0.024723807 3.9784491 2894892
0.82072037 0.024720183 3.9780109 2894892
0.82063019 0.074153297 3.9775732 2894892
-0.80854207 0.10747495 3.9910896 1523320
-0.77572942 0.10751076 3.9924195 1654645
-0.72482908 0.10756629 3.994482 8554122
-0.67387712 0.10762199 3.9965503 10000536
-0.62451798 0.10767587 3.9985511 10000536
-0.59488064 0.10770822 3.999752 10000536
0.82057601 0.10380838 3.9773109 4079166
0.82613784 -1.8008136 4.0285144 2894892
0.8254382 -1.7723808 4.0175886 2894892
0.82529944 -1.723807 4.0163355 2894892
0.82520741 -1.6737026 4.0158877 2894892
0.82516295 -1.6236948 4.0162172 2894892
0.82573003 -1.5752745 4.0265884 2894892
0.82563835 -1.5250598 4.0261402 2894892
0.82554644 -1.4748563 4.0256925 2894892
0.82545447 -1.4246637 4.0252438 2894892
0.82533169 -1.3750408 4.0242748 2894892
0.8252728 -1.3254336 4.0243578 2894892
0.82518101 -1.2752744 4.023911 2894892
0.82508945 -1.2251263 4.0234632 2894892
0.82530463 -1.1775206 4.0280209 2894892
0.8256048 -1.1247586 4.0340881 2894892
0.82551277 -1.0745006 4.0336385 2894892
0.82542074 -1.0242537 4.0331893 2894892
0.82530594 -0.97484738 4.0323467 2894892
0.82523996 -0.9254725 4.0323057 2894892
0.82514799 -0.87525874 4.0318561 2894892
0.82505596 -0.82505643 4.0314069 2894892
0.82496399 -0.77486521 4.0309577 2894892
0.82487226 -0.72468525 4.0305085 2894892
0.82478029 -0.67451632 4.0300593 2894892
0.82468849 -0.62435853 4.0296106 2894892
0.82459652 -0.5742119 4.0291615 2894892
0.82450479 -0.52407658 4.0287132 2894892
0.82441294 -0.47395238 4.0282645 2894892
0.82429838 -0.42466354 4.0274239 2894892
0.82423264 -0.3754122 4.0273829 2894892
0.82414067 -0.32532105 4.0269346 2894892
0.82404894 -0.27524117 4.0264869 2894892
0.82395738 -0.22517228 4.0260382 2894892
0.82386571 -0.1751146 4.0255904 2894892
0.82377398 -0.12506807 4.0251422 2894892
0.82368249 -0.075032681 4.0246954 2894892
0.82359087 -0.02500842 4.0242472 2894892
0.82349914 0.025004718 4.0237994 2894892
0.82340729 0.075006731 4.0233521 2894892
-0.57016641 0.10773516 4.0007534 10000536
-0.52565104 0.10778376 4.0025573 10000536
-0.47614366 0.10783788 4.0045671 10000536
-0.42493314 0.10789377 4.0066428 10132122
-0.37367004 0.10794973 4.0087209 10197915
-0.32400969 0.10800391 4.0107331 10197915
-0.27429965 0.10805825 4.0127506 10197915
-0.22453941 0.10811257 4.0147681 10197915
-0.17472911 0.10816693 4.0167861 10197915
-0.1248687 0.10822133 4.0188069 10197915
-0.074958138 0.10827589 4.0208325 10197915
-0.024997238 0.10833042 4.0228581 10197915
0.025014013 0.108385 4.0248847 10197915
0.075075671 0.10843964 4.0269132 10197915
0.12518795 0.1084944 4.0289474 10197915
0.17535076 0.10854916 4.0309806 10197915
0.2255642 0.10860396 4.0330153 10197915
0.27582833 0.10865882 4.0350528 10197915
0.32614356 0.10871383 4.0370951 10197915
0.37482953 0.10876695 4.0390687 10197915
0.42356357 0.10882015 4.0410433 10197915
0.47402805 0.1088752 4.0430889 10197915
0.524544 0.10893042 4.0451388 10197915
0.57511085 0.10898563 4.0471888 10197915
0.6223523 0.10903718 4.0491033 10197915
0.82335258 0.10500305 4.0230832 5000268
0.82941544 -1.8132217 4.0822535 2894892
0.82893366 -1.7743466 4.0751419 2894892
0.82880872 -1.7246127 4.0741429 2894892
0.82878453 -1.6755153 4.0747838 2894892
0.82869315 -1.6257602 4.0743356 2894892
0.8292582 -1.574777 4.0847292 2894892
0.82921749 -1.5255497 4.0851035 2894892
0.82910055 -1.475455 4.0842404 2894892
0.82898366 -1.4253863 4.0833769 2894892
0.82891661 -1.3753235 4.0833344 2894892
0.82882303 -1.3244239 4.0828738 2894892
0.8287558 -1.274363 4.08283 2894892
0.82861584 -1.2252226 4.0815663 2894892
0.82854867 -1.1751839 4.0815229 2894892
0.82845503 -1.1243294 4.0810618 2894892
0.8283385 -1.0743154 4.0801992 2894892
0.82829797 -1.0252138 4.0805745 2894892
0.82818127 -0.97522199 4.0797119 2894892
0.82806456 -0.92525619 4.0788507 2894892
0.82799774 -0.87531257 4.0788078 2894892
0.82790446 -0.82452577 4.0783477 2894892
0.82783747 -0.77458417 4.0783048 2894892
0.82769763 -0.72553599 4.0770421 2894892
0.8276307 -0.67561632 4.0769997 2894892
0.82753736 -0.62487447 4.0765409 2894892
0.8274442 -0.57414401 4.0760813 2894892
0.82735413 -0.52511519 4.0756373 2894892
0.82726407 -0.47609723 4.0751929 2894892
0.82717079 -0.42540023 4.0747342 2894892
0.82707775 -0.37471458 4.074275 2894892
0.82696116 -0.32488376 4.0734162 2894892
0.82689452 -0.27507114 4.0733738 2894892
0.82680148 -0.22441933 4.0729146 2894892
0.82673466 -0.17460883 4.0728726 2894892
0.82659525 -0.12569518 4.0716128 2894892
0.82652855 -0.075906605 4.0715709 2894892
0.82643545 -0.025299672 4.0711112 2894892
0.82634246 0.02529588 4.0706544 2894892
0.82624942 0.075880043 4.0701966 2894892
0.6476773 0.10906482 4.0501299 10197915
0.67470819 0.10909431 4.0512247 10197915
0.72373664 0.10914789 4.0532146 10197915
0.77450573 0.10920333 4.055274 10197915
0.81770688 0.10767716 4.061213 8224125
