# .PCD v0.7 - Point Cloud Data file format
VERSION 0.7
FIELDS x y z rgb
SIZE 4 4 4 4
TYPE F F F U
COUNT 1 1 1 1
WIDTH 1133
HEIGHT 1
VIEWPOINT 0 0 0 1 0 0 0
POINTS 1133
DATA ascii
0.062212039 -0.20047183 0.44905394 2894892
0.080388226 -0.17166761 0.43206444 2894892
0.10695352 -0.1659272 0.40679193 2894892
0.081888802 -0.12511204 0.43119866 2894892
0.10743665 -0.12475624 0.40683138 2894892
0.082153432 -0.075055905 0.43155521 2894892
0.10773106 -0.074875042 0.40715703 2894892
0.082510971 -0.025067946 0.43182129 2894892
0.10811733 -0.024892451 0.40739617 2894892
0.082712203 0.024922024 0.4322373 2894892
0.10837445 0.025098225 0.40775815 2894892
0.083061896 0.074940547 0.43251127 4671303
0.10876442 0.075092956 0.40799376 3092271
-0.35251644 0.10920746 0.44634292 10197915
-0.31959805 0.10943339 0.42754406 10197915
-0.2750009 0.10948327 0.42351305 10197915
-0.22500463 0.10948382 0.42350885 10197915
-0.17500398 0.10948351 0.42350382 10197915
-0.12500419 0.10948244 0.42350298 10197915
-0.075004719 0.10948011 0.42350388 10197915
-0.025001558 0.10948093 0.42348835 10197915
0.025001297 0.1094797 0.42348918 10197915
0.076363817 0.10753445 0.42492869 10132122
0.10852243 0.10563667 0.40768781 4408131
0.026053885 -0.20812899 0.48345369 2894892
0.054443177 -0.20210311 0.45644552 2894892
0.03041734 -0.17506716 0.47969335 2894892
0.055865005 -0.17476507 0.45542073 2894892
0.030732876 -0.12506828 0.48000076 2894892
0.056209989 -0.12479758 0.45569959 2894892
0.031032415 -0.075113028 0.48032171 2894892
0.056539316 -0.074734457 0.45599359 2894892
0.031192251 -0.025064988 0.48077706 2894892
0.056766499 -0.024819382 0.45638397 2894892
0.031539626 0.024929835 0.4810546 2894892
0.057115361 0.025186229 0.45665836 2894892
0.031838059 0.074936397 0.48137656 4671303
0.057465188 0.075131021 0.45693269 4671303
-0.36582896 0.1088003 0.4798215 10197915
-0.32499859 0.10887848 0.47352064 10197915
-0.27499753 0.10887405 0.47352466 10197915
-0.22500332 0.10887481 0.4735074 10197915
-0.1750035 0.10887498 0.47352386 10197915
-0.12499814 0.10887402 0.47351152 10197915
-0.074999675 0.1088742 0.47351754 10197915
-0.025001938 0.10887292 0.47350883 10197915
0.025690505 0.10701998 0.47416601 10132122
0.057343166 0.10527436 0.45662224 10132122
-0.022965338 -0.21860693 0.53008986 2894892
0.0042812359 -0.21274891 0.50416875 2894892
-0.020797148 -0.17506912 0.52855062 2894892
0.0046117827 -0.17466615 0.50431657 2894892
-0.020497574 -0.12507026 0.52887225 2894892
0.0049258526 -0.12473627 0.50462335 2894892
-0.020228805 -0.075061493 0.52922404 2894892
0.0052658031 -0.074733935 0.50490707 2894892
-0.019896587 -0.025064928 0.52951539 2894892
0.0055698967 -0.024786405 0.50522387 2894892
-0.019629357 0.024925767 0.52986676 2894892
0.0059194006 0.02522276 0.50549841 2894892
-0.019325286 0.074924819 0.53018558 4671303
0.0062143551 0.075187333 0.50582427 4737096
-0.41213703 0.10815046 0.53342468 10197915
-0.37496156 0.10826777 0.52374429 10197915
-0.32500252 0.10826726 0.52371466 10197915
-0.27499378 0.10826708 0.52371699 10197915
-0.22498572 0.10826588 0.52371347 10197915
-0.17499541 0.10826644 0.52369738 10197915
-0.12499695 0.10826297 0.5236994 10197915
-0.074990787 0.10826363 0.52369851 10197915
-0.024951685 0.10647561 0.52370393 10197915
0.0062090196 0.10482834 0.50563002 10132122
-0.081857167 -0.25607437 0.58581573 2894892
-0.072401054 -0.22505029 0.5771715 2894892
-0.047073953 -0.22325274 0.5530321 2894892
-0.071891375 -0.17505941 0.57729125 2894892
-0.046527777 -0.17471661 0.55310112 2894892
-0.071620397 -0.12506862 0.5776422 2894892
-0.046205163 -0.12458412 0.55340284 2894892
-0.071325012 -0.075070351 0.57796705 2894892
-0.045941785 -0.07466948 0.55375797 2894892
-0.071067549 -0.025083093 0.57832831 2894892
-0.045603134 -0.024698043 0.55404252 2894892
-0.070821486 0.024920221 0.578704 2894892
-0.045339815 0.025317706 0.55439937 2894892
-0.070558496 0.074933171 0.57905948 4737096
-0.045035765 0.075296484 0.55471706 4802889
-0.45887518 0.1074877 0.58813572 10197915
-0.424018 0.10765256 0.57451123 10197915
-0.37500036 0.10766089 0.57370615 10197915
-0.32499811 0.10766155 0.57364899 10197915
-0.27500826 0.10766122 0.57366526 10197915
-0.22500695 0.10765994 0.57364661 10197915
-0.17499553 0.10765904 0.57367069 10197915
-0.12499609 0.10765931 0.57363069 10197915
-0.075675406 0.10597853 0.57288951 10197915
-0.045017779 0.10445517 0.5546124 10197915
-0.12658687 -0.26559395 0.62836987 2894892
-0.098403059 -0.25923872 0.60156089 2894892
-0.12348838 -0.22507828 0.62590557 2894892
-0.098137341 -0.22413561 0.60173392 2894892
-0.12324286 -0.17506826 0.62627995 2894892
-0.097897775 -0.1741856 0.60211253 2894892
-0.1229655 -0.12502873 0.62662315 2894892
-0.097627193 -0.12474346 0.60245585 2894892
-0.12245639 -0.07508041 0.626746 2894892
-0.097064883 -0.074485928 0.60253 2894892
-0.12223484 -0.025091017 0.62714094 2894892
-0.096810706 -0.024427872 0.60289603 2894892
-0.12201164 0.024917606 0.62753731 2894892
-0.096564598 0.025507217 0.60326791 2894892
-0.12178024 0.074942745 0.62792397 4802889
-0.096304394 0.075368263 0.60362589 4802889
-0.50577521 0.10682079 0.64312094 10197915
-0.47221607 0.10702103 0.62659192 10197915
-0.42502552 0.10705049 0.6241374 10197915
-0.37500298 0.10704925 0.62414318 10197915
-0.32499558 0.10704961 0.62412894 10197915
-0.2750034 0.10704798 0.62413317 10197915
-0.22501159 0.10704678 0.62412661 10197915
-0.17500629 0.1070465 0.62412131 10197915
-0.12645164 0.10547637 0.62219727 10197915
-0.096171796 0.10403966 0.60357308 10197915
-0.20128241 -0.30662054 0.69912845 2894892
-0.19029745 -0.30405247 0.68868029 2894892
-0.20102973 -0.27627537 0.69925606 2894892
-0.17489628 -0.27405348 0.67435372 2894892
-0.14950974 -0.26534423 0.65024066 2894892
-0.20046085 -0.22641273 0.69931954 2894892
-0.17401464 -0.22502726 0.67410821 2894892
-0.14936154 -0.22259602 0.65061891 2894892
-0.20030791 -0.18233281 0.69970942 2894892
-0.17418171 -0.1750048 0.67487538 2894892
-0.14912486 -0.1737946 0.65098602 2894892
-0.17403769 -0.12500748 0.67534381 2894892
-0.14870641 -0.12542146 0.65117466 2894892
-0.1736846 -0.075105369 0.67561531 2894892
-0.14831524 -0.073684424 0.65143073 2894892
-0.17348832 -0.025096148 0.67603439 2894892
-0.14809574 -0.02393423 0.65182585 2894892
-0.1732903 0.024905706 0.67645454 2894892
-0.14787267 0.025765058 0.65221781 2894892
-0.17283443 0.075005509 0.67662722 4802889
-0.14742866 0.074674405 0.65238822 4737096
-0.55233693 0.10616621 0.69709623 10197915
-0.51950085 0.10639131 0.67851073 10197915
-0.47499028 0.10644177 0.67432725 10197915
-0.42496157 0.10644016 0.67436254 10197915
-0.37495124 0.10643928 0.6743542 10197915
-0.32499802 0.10643924 0.67429703 10197915
-0.27500778 0.10643856 0.67433935 10197915
-0.22498113 0.10643762 0.67431122 10197915
-0.17718774 0.10493571 0.67177254 10197915
-0.14710668 0.10356234 0.65232986 10197915
-0.2525343 -0.31721115 0.74789214 2894892
-0.22906937 -0.31226775 0.72556657 2894892
-0.25205204 -0.27404776 0.74795669 2894892
-0.22508566 -0.27507064 0.72221953 2894892
-0.25172964 -0.22532605 0.74824148 2894892
-0.22471966 -0.22492823 0.72247833 2894892
-0.25156093 -0.17523271 0.74868912 2894892
-0.22452782 -0.17490421 0.72290426 2894892
-0.25108853 -0.12287124 0.7488749 2894892
-0.22425459 -0.1251107 0.72324938 2894892
-0.19985779 -0.10964543 0.70016336 2894892
-0.25076574 -0.075559482 0.74914223 2894892
-0.22408782 -0.074909255 0.72370028 2894892
-0.19959462 -0.074629433 0.70033783 2894892
-0.25060803 -0.027012916 0.74958193 2894892
-0.22417973 -0.025016231 0.72439432 2894892
-0.19919305 -0.021062069 0.70060593 2894892
-0.25006461 0.034792483 0.74981463 2894892
-0.22423337 0.024893956 0.72505271 2894892
-0.19901893 0.027118621 0.70102549 2894892
-0.22412542 0.075034842 0.72555786 4802889
-0.19874665 0.075006105 0.70134795 4539717
-0.56531465 0.10576741 0.72997296 10197915
-0.52501392 0.10584231 0.72373527 10197915
-0.47500736 0.10584226 0.72370934 10197915
-0.42502448 0.10584099 0.72374564 10197915
-0.37506494 0.10583965 0.72375691 10197915
-0.32503736 0.1058396 0.72369713 10197915
-0.27501038 0.10583862 0.72372538 10197915
-0.22784309 0.10448416 0.72047138 10197915
-0.19850862 0.10324552 0.701424 10197915
-0.30418736 -0.35320878 0.79672962 2894892
-0.29655799 -0.35162941 0.78947079 2894892
-0.30364597 -0.32501534 0.79655588 2894892
-0.27820891 -0.32254982 0.77231896 2894892
-0.30321991 -0.27589622 0.79674596 2894892
-0.27636757 -0.27497944 0.77114248 2894892
-0.30307674 -0.22599629 0.79721653 2894892
-0.27620044 -0.22497812 0.77159077 2894892
-0.30265778 -0.17484227 0.79743844 2894892
-0.27577853 -0.17511636 0.7717939 2894892
-0.30229279 -0.1261186 0.7976827 2894892
-0.27537417 -0.12499433 0.77201706 2894892
-0.30215588 -0.076442949 0.79815608 2894892
-0.2751956 -0.074979223 0.77245492 2894892
-0.30166236 -0.024760157 0.79831314 2894892
-0.27471986 -0.025076563 0.77260673 2894892
-0.30136636 0.023726711 0.79861993 2894892
-0.27438846 0.025028192 0.7729007 2894892
-0.30123696 0.073476724 0.79910159 4408131
-0.27426055 0.074986547 0.77338636 4802889
-0.24952272 0.096950367 0.75005335 10197915
-0.61223233 0.10509893 0.7850824 10197915
-0.57490999 0.10522677 0.77448916 10197915
-0.52501488 0.1052279 0.77437615 10197915
-0.47499105 0.10522763 0.77434456 10197915
-0.42502171 0.10522579 0.77440882 10197915
-0.37502629 0.10522619 0.77431726 10197915
-0.32482547 0.10520278 0.77455264 10197915
-0.27851149 0.10404916 0.76905936 10197915
-0.24955779 0.10286883 0.75015873 10197915
-0.35533005 -0.36447138 0.84538102 2894892
-0.33226171 -0.3591848 0.8234387 2894892
-0.35472399 -0.3250657 0.8452819 2894892
-0.32801881 -0.32496691 0.81980652 2894892
-0.35449082 -0.27550885 0.8456617 2894892
-0.32773688 -0.27486157 0.82014775 2894892
-0.35438934 -0.22524402 0.84617609 2894892
-0.32760465 -0.22486536 0.82062924 2894892
-0.35369018 -0.17501409 0.84611976 2894892
-0.32692325 -0.17486529 0.82058656 2894892
-0.35354453 -0.12508643 0.84658748 2894892
-0.32677943 -0.12488351 0.82105649 2894892
-0.35329637 -0.074607104 0.84696418 2894892
-0.326509 -0.074997343 0.82140571 2894892
-0.35277447 -0.025746264 0.84706056 2894892
-0.32597557 -0.024907434 0.82150543 2894892
-0.35268191 0.023646051 0.84757262 2894892
-0.32582712 0.025074709 0.82197148 2894892
-0.35229373 0.074903175 0.84782523 4934475
-0.32544219 0.074921347 0.82221049 4868682
-0.65866774 0.10444432 0.83905745 9934743
-0.62401444 0.10460193 0.82604235 10066329
-0.5749867 0.10461178 0.82516927 10197915
-0.52500218 0.10461075 0.82520097 10197915
-0.47495008 0.10460924 0.82522047 10197915
-0.42493275 0.10460947 0.82514924 10197915
-0.37428236 0.10452668 0.82585311 10197915
-0.32944176 0.10356886 0.8185274 10197915
-0.4110589 -0.40088755 0.89810193 2894892
-0.40656039 -0.37529954 0.89412177 2894892
-0.3812499 -0.36948314 0.87004679 2894892
-0.40586191 -0.32535231 0.89406157 2894892
-0.37926385 -0.32492706 0.86869425 2894892
-0.40572897 -0.27551445 0.89454132 2894892
-0.3790794 -0.27488348 0.86912602 2894892
-0.40553346 -0.22467233 0.89497304 2894892
-0.37886074 -0.2250654 0.86952353 2894892
-0.40488821 -0.17499742 0.89496088 2894892
-0.37825993 -0.17501187 0.86955804 2894892
-0.40478942 -0.12537014 0.89547014 2894892
-0.37810779 -0.12500432 0.87002194 2894892
-0.40441939 -0.074826121 0.89573067 2894892
-0.37771091 -0.075113483 0.87024957 2894892
-0.40402856 -0.025936546 0.8959524 2894892
-0.37728217 -0.024889864 0.87045014 2894892
-0.40398592 0.023871914 0.89651793 2894892
-0.37719524 0.025160855 0.87097573 2894892
-0.40338212 0.074935459 0.89656234 4737096
-0.3765896 0.075064555 0.87100452 4868682
-0.7053405 0.10378193 0.89368099 9934743
-0.67205709 0.10398131 0.8771984 9934743
-0.62498838 0.10401002 0.87479305 9934743
-0.57501262 0.10400964 0.87473673 10066329
-0.52495748 0.10400862 0.87477475 10197915
-0.47502396 0.10400774 0.87477684 10197915
-0.42433283 0.10392588 0.87538266 10197915
-0.38078532 0.10317989 0.86739922 10197915
-0.45832774 -0.41131082 0.94306809 2894892
-0.43604386 -0.40620318 0.9218719 2894892
-0.45756745 -0.37448215 0.94279063 2894892
-0.43098313 -0.37499294 0.91742384 2894892
-0.45704111 -0.32503232 0.94288951 2894892
-0.43060154 -0.32478544 0.91767031 2894892
-0.45703337 -0.27551284 0.94348443 2894892
-0.430536 -0.27484497 0.91821486 2894892
-0.45642126 -0.22532931 0.94351012 2894892
-0.42990252 -0.22508392 0.91821498 2894892
-0.45628685 -0.17558533 0.94398654 2894892
-0.429654 -0.17501208 0.91858691 2894892
-0.45615926 -0.12471991 0.9444834 2894892
-0.42944971 -0.12503439 0.91899979 2894892
-0.45538586 -0.075064309 0.94434935 2894892
-0.42882526 -0.074830346 0.91901278 2894892
-0.45537445 -0.025583491 0.94493926 2894892
-0.42874312 -0.024800804 0.91954404 2894892
-0.45500118 0.025078556 0.94519919 2894892
-0.42836648 0.024992138 0.91978991 2894892
-0.45460719 0.074212469 0.94541997 4671303
-0.4279435 0.075130619 0.91999388 4868682
-0.75139284 0.10314004 0.9466058 9934743
-0.71912706 0.10335613 0.92876369 9934743
-0.6749751 0.10340792 0.92445445 9934743
-0.62494278 0.10340705 0.92447913 9934743
-0.57495892 0.10340665 0.92443997 9934743
-0.52502322 0.10340603 0.92441255 10066329
-0.47441083 0.10332812 0.92504936 10132122
-0.43198112 0.1027608 0.91639698 10197915
-0.50919616 -0.42218578 0.99146259 2894892
-0.48378056 -0.4161737 0.96729022 2894892
-0.50896621 -0.37558812 0.99180907 2894892
-0.48255515 -0.37494671 0.96662205 2894892
-0.50825602 -0.32502976 0.99174649 2894892
-0.4816615 -0.32504398 0.96637648 2894892
-0.50804114 -0.27505943 0.992149 2894892
-0.48158321 -0.2748071 0.96691197 2894892
-0.50781316 -0.22502494 0.99253929 2894892
-0.48138565 -0.22495025 0.9673298 2894892
-0.50730366 -0.17563449 0.99265385 2894892
-0.4808057 -0.1748002 0.96738571 2894892
-0.50734723 -0.12528901 0.99330753 2894892
-0.48082581 -0.12496357 0.96801066 2894892
-0.50673383 -0.074350253 0.9933418 2894892
-0.48018432 -0.075218134 0.9680047 2894892
-0.50638133 -0.025430707 0.99360007 2894892
-0.47985315 -0.024848687 0.96830046 2894892
-0.50643468 0.024176769 0.99425405 2894892
-0.47985327 0.025208183 0.96890849 2894892
-0.5057013 0.074522108 0.99416614 4737096
-0.47908485 0.075158462 0.9687838 4868682
-0.7645756 0.10274085 0.9795 9934743
-0.72501349 0.10281739 0.97316277 9934743
-0.67495441 0.10281526 0.97326785 9934743
-0.62501085 0.10281435 0.97326326 9934743
-0.57501107 0.10281447 0.97319055 9934743
-0.52433866 0.10274456 0.97391576 9934743
-0.48308048 0.10235123 0.96493047 10000536
-0.5607971 -0.45769984 1.0402565 2894892
-0.54094207 -0.45353895 1.0213659 2894892
-0.56011486 -0.42507705 1.0400026 2894892
-0.53366888 -0.42461249 1.0147787 2894892
-0.55991995 -0.37499279 1.0404246 2894892
-0.53368616 -0.3747412 1.0154016 2894892
-0.55950892 -0.32493293 1.0406414 2894892
-0.53324908 -0.32525533 1.0155865 2894892
-0.55922407 -0.27553651 1.04097 2894892
-0.53271967 -0.27498055 1.0156924 2894892
-0.55927265 -0.22503914 1.04163 2894892
-0.53272218 -0.22476813 1.0163059 2894892
-0.5583021 -0.17503451 1.0413119 2894892
-0.53200591 -0.17480651 1.0162283 2894892
-0.55837119 -0.12566185 1.0419785 2894892
-0.53197885 -0.12486485 1.0168116 2894892
-0.55819029 -0.07489562 1.0424229 2894892
-0.53167665 -0.075225741 1.0171255 2894892
-0.55753392 -0.025042612 1.0424021 2894892
-0.53097469 -0.024860514 1.0170683 2894892
-0.55747551 0.024625165 1.0429502 2894892
-0.53102672 0.025263429 1.0177273 2894892
-0.55699587 0.074997731 1.0431052 4868682
-0.53056306 0.074932292 1.0178878 4868682
-0.81162792 0.10206512 1.0352255 9934743
-0.77469856 0.10220277 1.0238376 9934743
-0.72500235 0.10220359 1.0237058 9934743
-0.67495704 0.10220407 1.0236102 9934743
-0.6249705 0.10220351 1.0236158 9934743
-0.57486856 0.10215526 1.0237159 9934743
-0.53396612 0.10196296 1.0126818 9934743
-0.61199099 -0.46852002 1.0889617 2894892
-0.58620387 -0.46303672 1.0644292 2894892
-0.61170286 -0.42551202 1.0892102 2894892
-0.58549851 -0.42494044 1.0642182 2894892
-0.61094505 -0.37489808 1.0891026 2894892
-0.58439678 -0.3750782 1.0637742 2894892
-0.61067319 -0.32500383 1.089449 2894892
-0.58446181 -0.32470262 1.0644479 2894892
-0.61051637 -0.27503547 1.0899073 2894892
-0.58426774 -0.27501199 1.0648673 2894892
-0.61007154 -0.22529127 1.0900873 2894892
-0.58369827 -0.22502436 1.064931 2894892
-0.6099574 -0.17502832 1.0905892 2894892
-0.58353966 -0.17492534 1.0653899 2894892
-0.60934395 -0.12491881 1.0906131 2894892
-0.58303028 -0.12497372 1.0655104 2894892
-0.60923314 -0.075458616 1.0911088 2894892
-0.58281648 -0.074785456 1.0659174 2894892
-0.6092242 -0.024971997 1.0917141 2894892
-0.58278996 -0.02499393 1.0664965 2894892
-0.60816431 0.024631586 1.0913059 2894892
-0.58179283 0.02516282 1.0661551 2894892
-0.60836625 0.074266203 1.0921018 4737096
-0.58185422 0.075312078 1.0668226 4934475
-0.85838372 0.10140243 1.0898669 9868950
-0.82371318 0.10156578 1.0763535 9868950
-0.77482212 0.10157676 1.0753999 9868950
-0.72499454 0.1015765 1.0753801 9934743
-0.67501891 0.10157587 1.0753365 9934743
-0.62541026 0.10155704 1.0748137 9934743
-0.58600694 0.1014618 1.0635365 9934743
-0.66580009 -0.50503021 1.1398505 2894892
-0.6467157 -0.50079685 1.1216959 2894892
-0.662655 -0.47556308 1.1372083 2894892
-0.63663417 -0.47352293 1.1124105 2894892
-0.66292012 -0.42504108 1.1380744 2894892
-0.63650709 -0.42458481 1.1128834 2894892
-0.66201347 -0.37450629 1.1378247 2894892
-0.63614225 -0.37544197 1.1131325 2894892
-0.66188979 -0.32553679 1.1383018 2894892
-0.63544327 -0.32496464 1.1130794 2894892
-0.66210222 -0.27504337 1.1391174 2894892
-0.63561267 -0.27457067 1.1138543 2894892
-0.66089249 -0.22482757 1.1385753 2894892
-0.63489497 -0.22496431 1.113772 2894892
-0.66105664 -0.17562234 1.139329 2894892
-0.63469851 -0.17503099 1.1141922 2894892
-0.66104776 -0.12464929 1.1399397 2894892
-0.63449478 -0.12497326 1.1146059 2894892
-0.65995574 -0.075058252 1.1395011 2894892
-0.63389534 -0.074710444 1.1146438 2894892
-0.6602627 -0.025699304 1.1403941 2894892
-0.63393003 -0.025033049 1.1152827 2894892
-0.65990281 0.025601838 1.1406749 2894892
-0.63325804 0.024820158 1.1152464 2894892
-0.65916544 0.074979961 1.1405711 4934475
-0.63301361 0.075376526 1.1156271 5000268
-0.9037326 0.10078201 1.1410284 10197915
-0.87165552 0.10096602 1.1258367 10000536
-0.82480669 0.10099504 1.1233853 9868950
-0.77481502 0.10099439 1.1233737 9868950
-0.72501206 0.1009936 1.123371 9868950
-0.67537057 0.10098168 1.1231933 9934743
-0.6372211 0.10099424 1.1120725 9934743
-0.71548617 -0.5154649 1.1871226 2894892
-0.6896264 -0.50997019 1.1625199 2894892
-0.71382499 -0.47533956 1.1860254 2894892
-0.68761671 -0.47438216 1.1610348 2894892
-0.71380544 -0.42498502 1.1866184 2894892
-0.68783051 -0.42497003 1.1618396 2894892
-0.71352017 -0.37496325 1.186955 2894892
-0.68722361 -0.37549204 1.1618624 2894892
-0.71304685 -0.32524338 1.1871083 2894892
-0.68671113 -0.32450667 1.161993 2894892
-0.71288979 -0.27498138 1.1875687 2894892
-0.68693662 -0.27499872 1.16281 2894892
-0.71243936 -0.22501409 1.1877459 2894892
-0.6860792 -0.22552812 1.1625935 2894892
-0.71230388 -0.17506416 1.1882242 2894892
-0.68584067 -0.17453676 1.1629857 2894892
-0.71199882 -0.12501734 1.1885414 2894892
-0.68612492 -0.1249914 1.1638589 2894892
-0.71132958 -0.075423956 1.1885061 2894892
-0.68485951 -0.075152576 1.1632577 2894892
-0.71141911 -0.025023656 1.1892035 2894892
-0.68497962 -0.024507817 1.1639874 2894892
-0.71099836 0.025212582 1.189413 2894892
-0.68506241 0.024717065 1.1646644 2894892
-0.71046436 0.074440546 1.1895027 4802889
-0.6838904 0.07496848 1.1641579 4934475
-0.91767848 0.10035965 1.1758394 10197915
-0.8750456 0.1004171 1.1710435 10132122
-0.82526809 0.10041802 1.1709217 10000536
-0.77519816 0.10041676 1.1709538 9868950
-0.72591835 0.10042656 1.1700356 9868950
-0.68792158 0.10054647 1.1581891 9868950
-0.77512693 -0.55320251 1.243559 2894892
-0.76586562 -0.52511537 1.2350651 2894892
-0.73957449 -0.52062058 1.2100393 2894892
-0.76550984 -0.47458303 1.2353399 2894892
-0.73949254 -0.47492611 1.2105167 2894892
-0.76451868 -0.42537194 1.2349923 2894892
-0.7385118 -0.42498723 1.2101874 2894892
-0.76494741 -0.3752656 1.2360098 2894892
-0.73855126 -0.37443399 1.2108401 2894892
-0.7641989 -0.3244518 1.2359139 2894892
-0.73834294 -0.32533821 1.2112379 2894892
-0.76384896 -0.27556488 1.2361749 2894892
-0.73757637 -0.27505469 1.2111183 2894892
-0.76416457 -0.22507639 1.2370899 2894892
-0.73775429 -0.22446124 1.2119019 2894892
-0.76298535 -0.17483926 1.2365749 2894892
-0.73722738 -0.1754318 1.2119955 2894892
-0.76316041 -0.1254286 1.2373427 2894892
-0.73659486 -0.12502588 1.2120049 2894892
-0.76311308 -0.074876502 1.2379113 2894892
-0.73693007 -0.0745636 1.2129368 2894892
-0.76201159 -0.025540484 1.2374606 2894892
-0.73600054 -0.025023798 1.2126535 2894892
-0.76245075 0.024993785 1.2384946 2894892
-0.73577946 0.025153976 1.2130531 2894892
-0.96516025 0.099671446 1.2325792 10197915
-0.92499763 0.099726021 1.2280291 10197915
-0.87500358 0.099723779 1.2281619 10197915
-0.82513654 0.099723063 1.2281512 10197915
-0.7661671 0.082192384 1.2350123 6513507
-0.73605198 0.075804114 1.2137034 5131854
-0.95270437 0.10004888 1.2014724 10197915
-0.92482603 0.10004851 1.2014679 10197915
-0.87504548 0.10004785 1.20146 10197915
-0.82526517 0.10004722 1.201452 10197915
-0.77498734 0.1000465 1.2014438 9934743
-0.73615938 0.10004602 1.201438 9868950
-0.81926632 -0.56260663 1.2855527 2894892
-0.79191214 -0.5566045 1.2595303 2894892
-0.81688547 -0.52493948 1.2837386 2894892
-0.79112333 -0.52434582 1.259169 2894892
-0.81618047 -0.47535005 1.2836689 2894892
-0.790021 -0.47520918 1.2587152 2894892
-0.81616122 -0.42502588 1.2842616 2894892
-0.7899847 -0.42448154 1.2592973 2894892
-0.81594527 -0.37510839 1.2846627 2894892
-0.79008335 -0.37532625 1.2599882 2894892
-0.81541961 -0.32503754 1.2847699 2894892
-0.78899586 -0.32502377 1.2595633 2894892
-0.8152079 -0.27522016 1.2851732 2894892
-0.78925598 -0.274185 1.260429 2894892
-0.81496644 -0.2248691 1.2855548 2894892
-0.78888017 -0.22569786 1.2606593 2894892
-0.81432623 -0.17497493 1.2855508 2894892
-0.78807873 -0.17477405 1.2605149 2894892
-0.81458426 -0.12558819 1.2863978 2894892
-0.7885288 -0.12450389 1.2615539 2894892
-0.81382126 -0.074630305 1.2862893 2894892
-0.78749931 -0.075494826 1.261168 2894892
-0.81343323 -0.025310319 1.2865189 2894892
-0.78733087 -0.024439171 1.2616279 2894892
-0.81397372 0.024766922 1.287643 2894892
-0.78778887 0.02496038 1.2626653 2894892
-1.010389 0.099055871 1.2833399 10197915
-0.97488582 0.099174976 1.2734877 10197915
-0.92502683 0.099175714 1.2733555 10197915
-0.87503636 0.09917637 1.2732526 10197915
-0.81639194 0.081208877 1.2826464 6316128
-0.78643817 0.076037094 1.2615495 5263440
-0.88386762 -0.60110962 1.3467114 2894892
-0.8688581 -0.57270938 1.3327382 2894892
-0.84252006 -0.56737161 1.3076771 2894892
-0.86797273 -0.52531779 1.3324697 2894892
-0.84170848 -0.52513468 1.3074164 2894892
-0.86810166 -0.47454047 1.3332099 2894892
-0.84190357 -0.47513843 1.30821 2894892
-0.86669034 -0.42508319 1.3324658 2894892
-0.84092933 -0.42507973 1.3078892 2894892
-0.86747056 -0.37519449 1.3338149 2894892
-0.84106779 -0.37418154 1.3086399 2894892
-0.86645681 -0.32440007 1.3334656 2894892
-0.84083074 -0.32593161 1.3090005 2894892
-0.86627436 -0.27558362 1.3338834 2894892
-0.83989221 -0.27465025 1.3087283 2894892
-0.86643296 -0.22504056 1.334651 2894892
-0.84042907 -0.22425863 1.3098525 2894892
-0.8654263 -0.17510678 1.3342967 2894892
-0.83934546 -0.17556523 1.3094116 2894892
-0.86561084 -0.12504858 1.3350819 2894892
-0.83922648 -0.12414881 1.3099232 2894892
-0.86530447 -0.075158887 1.3353956 2894892
-0.83956414 -0.075008906 1.3108422 2894892
-0.86463898 -0.025197471 1.3353679 2894892
-0.83808076 -0.024737982 1.310038 2894892
-0.86438787 0.024962978 1.3357385 2894892
-0.83861876 0.025384095 1.3111602 2894892
-1.0570602 0.098398052 1.3375825 10197915
-1.0233002 0.098568492 1.3235006 10197915
-0.97503954 0.098585159 1.3220693 10197915
-0.92505598 0.098585747 1.3219569 10197915
-0.86811423 0.0806453 1.331941 6316128
-0.83837754 0.075528719 1.3110402 5131854
-0.92202681 -0.6092822 1.3830149 2894892
-0.89351577 -0.60356271 1.3558857 2894892
-0.91937053 -0.57496321 1.380898 2894892
-0.89314085 -0.57519501 1.3558724 2894892
-0.9189415 -0.52501321 1.3810952 2894892
-0.89313328 -0.52413851 1.3564857 2894892
-0.9191795 -0.47460437 1.3819352 2894892
-0.89326918 -0.47641641 1.3571957 2894892
-0.91793239 -0.42500439 1.3813485 2894892
-0.89190441 -0.42473918 1.3565217 2894892
-0.91862172 -0.37545887 1.3826087 2894892
-0.89260507 -0.37434056 1.3578025 2894892
-0.91769218 -0.32446474 1.3823417 2894892
-0.89169776 -0.32629189 1.3575213 2894892
-0.91744804 -0.27553791 1.3827034 2894892
-0.89131457 -0.27390796 1.3577926 2894892
-0.91762185 -0.22498988 1.3834833 2894892
-0.89158672 -0.22495653 1.3586466 2894892
-0.91662377 -0.17496039 1.3831398 2894892
-0.89058203 -0.1749189 1.3582964 2894892
-0.91673344 -0.12497595 1.3838508 2894892
-0.89073038 -0.12498737 1.3590456 2894892
-0.91657817 -0.075410269 1.384306 2894892
-0.89039117 -0.074664205 1.3593338 2894892
-0.91593093 -0.024786999 1.3843043 2894892
-0.88973701 -0.024831992 1.3593153 2894892
-0.91529399 0.025011227 1.3843008 2894892
-0.88936687 0.024950728 1.359567 2894892
-1.1047286 0.097697094 1.3953799 10197915
-1.0713308 0.09790916 1.3778684 10197915
-1.0249006 0.097949721 1.3744674 10197915
-0.97506511 0.097947232 1.3746132 10197915
-0.91934472 0.079976864 1.381886 6184542
-0.88995194 0.076032296 1.3603671 5329233
-0.97189981 -0.61987042 1.4304634 2894892
-0.94403553 -0.6141932 1.4039506 2894892
-0.97051144 -0.57561213 1.4296774 2894892
-0.94483513 -0.57515949 1.4051877 2894892
-0.97085434 -0.52508461 1.4306184 2894892
-0.94445103 -0.52474248 1.405434 2894892
-0.96951467 -0.47516179 1.4299459 2894892
-0.94403768 -0.47564077 1.4056363 2894892
-0.96974343 -0.42504793 1.4307741 2894892
-0.94336247 -0.42495295 1.4056084 2894892
-0.96978039 -0.37548643 1.4314111 2894892
-0.94401652 -0.37388384 1.4068531 2894892
-0.96875399 -0.32492843 1.431047 2894892
-0.94243115 -0.32528818 1.4059317 2894892
-0.96855897 -0.27533969 1.4314642 2894892
-0.94273639 -0.2736429 1.4068506 2894892
-0.96917796 -0.2247851 1.4326688 2894892
-0.94293427 -0.22541964 1.4076256 2894892
-0.96732402 -0.17518234 1.4315028 2894892
-0.94147754 -0.17371115 1.4068645 2894892
-0.96826345 -0.12515549 1.433007 2894892
-0.94209152 -0.12494391 1.408043 2894892
-0.96741802 -0.074642792 1.4328152 2894892
-0.94151586 -0.075114012 1.4080997 2894892
-0.96708781 -0.02532478 1.4330994 2894892
-0.94111079 -0.025083382 1.408321 2894892
-0.96685094 0.024947705 1.4334846 2894892
-0.94063205 0.025096098 1.4084733 2894892
-1.1178466 0.097306564 1.4275639 10197915
-1.0751548 0.097348116 1.4240866 10197915
-1.0249976 0.097347505 1.424077 10197915
-0.96929181 0.078541331 1.4315534 5921370
-0.94113302 0.074190259 1.4094224 4868682
-1.0283056 -0.6569193 1.4838216 2894892
-1.0220659 -0.62518829 1.4782557 2894892
-0.99578869 -0.62489712 1.4531906 2894892
-1.0216802 -0.57486081 1.4784985 2894892
-0.99604267 -0.57236528 1.4540712 2894892
-1.0219399 -0.52479726 1.4793559 2894892
-0.99575698 -0.52702767 1.4543504 2894892
-1.020545 -0.4750582 1.4786295 2894892
-0.99471539 -0.47235835 1.4540207 2894892
-1.0213746 -0.42538854 1.4800246 2894892
-0.99533522 -0.4250153 1.4551885 2894892
-1.0202916 -0.37447876 1.4796113 2894892
-0.9944818 -0.37529537 1.454978 2894892
-1.0202239 -0.32543457 1.4801413 2894892
-0.99425828 -0.32498142 1.4553761 2894892
-1.020111 -0.27508152 1.480646 2894892
-0.99400789 -0.27392641 1.4557577 2894892
-1.0196414 -0.22498567 1.4808065 2894892
-0.99392766 -0.22660968 1.456257 2894892
-1.0189604 -0.17499985 1.4807651 2894892
-0.99275178 -0.17446394 1.4557689 2894892
-1.0194948 -0.12558909 1.4818755 2894892
-0.99373537 -0.12469077 1.4573119 2894892
-1.0184255 -0.074518546 1.4814751 2894892
-0.9921903 -0.076133795 1.4564286 2894892
-1.0183017 -0.025582839 1.481951 2894892
-0.99243438 -0.02415858 1.4572929 2894892
-1.0184464 0.025007311 1.4827045 2894892
-0.99217355 0.024886688 1.4576399 2894892
-1.1620319 0.096712202 1.4765773 10197915
-1.1248441 0.096799433 1.4693424 10197915
-1.0749133 0.096795715 1.4695872 10197915
-1.0197231 0.078178234 1.479149 5855577
-0.99179685 0.074608989 1.4575509 5263440
-1.0759056 -0.66696501 1.5291077 2894892
-1.0469787 -0.66065943 1.50159 2894892
-1.0729368 -0.62537187 1.5267816 2894892
-1.0475268 -0.62270528 1.5025738 2894892
-1.073802 -0.57505244 1.5282195 2894892
-1.0472814 -0.57531363 1.5029161 2894892
-1.0719024 -0.52522427 1.5270122 2894892
-1.0466381 -0.52462548 1.5029186 2894892
-1.0725273 -0.47503278 1.5282178 2894892
-1.0460988 -0.47509712 1.5030057 2894892
-1.0724292 -0.42540613 1.528729 2894892
-1.0468549 -0.42325982 1.504357 2894892
-1.071472 -0.37477893 1.5284302 2894892
-1.0451787 -0.37642205 1.5033273 2894892
-1.0711751 -0.32554469 1.5287455 2894892
-1.0455273 -0.32279488 1.5043122 2894892
-1.0718601 -0.27503902 1.5300144 2894892
-1.045575 -0.274948 1.5049388 2894892
-1.0701786 -0.22532499 1.5290142 2894892
-1.0444288 -0.22327472 1.5044732 2894892
-1.0706229 -0.17500438 1.5300485 2894892
-1.0443546 -0.1747859 1.5049922 2894892
-1.0706409 -0.12553424 1.5306667 2894892
-1.044811 -0.12302874 1.5060564 2894892
-1.0695006 -0.074913993 1.5301943 2894892
-1.0433015 -0.075215451 1.5051984 2894892
-1.0694113 -0.025584752 1.5307095 2894892
-1.0435629 -0.023179555 1.5060797 2894892
-1.0699776 0.025011551 1.5318639 2894892
-1.0438341 0.024976972 1.5069239 2894892
-1.208674 0.096062966 1.5301118 10197915
-1.1738975 0.096202701 1.5185539 10197915
-1.1247611 0.096210808 1.5178312 10197915
-1.0703132 0.07745409 1.527483 5789784
-1.0423584 0.076383874 1.5056833 5395026
-1.1380113 -0.70527166 1.5878897 2894892
-1.1500255 -0.65621048 1.599947 2894892
-1.1249868 -0.67468411 1.5758364 2894892
-1.0999486 -0.69172686 1.5517437 2894892
-1.1238655 -0.62498087 1.575371 2894892
-1.0979245 -0.61866385 1.5507007 2894892
-1.12521 -0.57493132 1.5772618 2894892
-1.0990837 -0.57493979 1.5523384 2894892
-1.1228763 -0.52456456 1.5756475 2894892
-1.0972556 -0.52362275 1.5512179 2894892
-1.123966 -0.47492182 1.5772898 2894892
-1.0977644 -0.4752427 1.5522913 2894892
-1.1232986 -0.42510825 1.5772589 2894892
-1.0975474 -0.42191443 1.5527323 2894892
-1.1228596 -0.37467253 1.577454 2894892
-1.0969828 -0.37796766 1.5527281 2894892
-1.1221465 -0.32530302 1.5773733 2894892
-1.0962119 -0.32188624 1.5526743 2894892
-1.1231143 -0.27503088 1.5789083 2894892
-1.0971228 -0.27491939 1.554114 2894892
-1.1213714 -0.22500937 1.5778527 2894892
-1.095513 -0.2242422 1.5531944 2894892
-1.1217945 -0.17493697 1.5788645 2894892
-1.0958021 -0.17511642 1.5540674 2894892
-1.121658 -0.12547791 1.5793365 2894892
-1.0956938 -0.12301381 1.5545971 2894892
-1.1207893 -0.074636348 1.5791258 2894892
-1.0949253 -0.07693661 1.5544243 2894892
-1.1205448 -0.025564175 1.5794876 2894892
-1.0944222 -0.022930847 1.5546008 2894892
-1.1210763 0.024954684 1.5806094 2894892
-1.0951416 0.025143588 1.5558716 2894892
-1.2562065 0.095366463 1.5875421 10197915
-1.222549 0.095559828 1.5715749 10197915
-1.1747531 0.095584281 1.5694963 10197915
-1.1214964 0.077097982 1.5769641 5723991
-1.093703 0.074980371 1.5548028 5131854
-1.2004606 -0.71658897 1.6473264 2894892
-1.1774958 -0.71376467 1.6254534 2894892
-1.2016703 -0.67495215 1.6489865 2894892
-1.1749518 -0.67484957 1.6234988 2894892
-1.1744641 -0.62504727 1.6236401 2894892
-1.2004218 -0.56365687 1.6491483 2894892
-1.1747347 -0.57562506 1.624499 2894892
-1.2009293 -0.54612541 1.6498455 2894892
-1.1748421 -0.52486044 1.6252179 2894892
-1.1493711 -0.52792412 1.6008823 2894892
-1.1743009 -0.47505131 1.6253064 2894892
-1.1742541 -0.42554516 1.625864 2894892
-1.1480633 -0.42314088 1.6009083 2894892
-1.1748265 -0.37482294 1.6270264 2894892
-1.1493511 -0.37647304 1.602704 2894892
-1.1730313 -0.32544437 1.6259143 2894892
-1.1466833 -0.32098821 1.6008333 2894892
-1.173558 -0.27493948 1.6270304 2894892
-1.1479514 -0.27486596 1.6026036 2894892
-1.1739558 -0.22547086 1.6280112 2894892
-1.1475434 -0.22277467 1.6028475 2894892
-1.1720133 -0.17503519 1.6267711 2894892
-1.1464972 -0.17525569 1.6024274 2894892
-1.172845 -0.12546538 1.6281663 2894892
-1.1462262 -0.12180333 1.602818 2894892
-1.172498 -0.0749541 1.6284505 2894892
-1.14715 -0.075098254 1.6042674 2894892
-1.1718068 -0.025120972 1.6283963 2894892
-1.1451099 -0.022361334 1.6029621 2894892
-1.1711967 0.024966467 1.6284224 2894892
-1.1457126 0.025258565 1.6041158 2894892
-1.3037218 0.0946799 1.6441469 10197915
-1.2708504 0.094873086 1.6281914 10197915
-1.2249 0.094911523 1.6249713 10197915
-1.1736957 0.07643088 1.6277889 5592405
-1.1458431 0.075620554 1.6048166 5131854
-1.2530515 -0.75413167 1.6970401 2894892
-1.2439203 -0.75331664 1.688339 2894892
-1.2524872 -0.72897828 1.6968075 2894892
-1.2264129 -0.72322726 1.6720039 2894892
-1.2524209 -0.67507881 1.6973995 2894892
-1.2266909 -0.67501491 1.6728545 2894892
-1.2537636 -0.63075066 1.6992191 2894892
-1.2258626 -0.62498748 1.6726725 2894892
-1.2507225 -0.57438529 1.6970028 2894892
-1.2250717 -0.5749566 1.6725255 2894892
-1.2521888 -0.52578771 1.6989925 2894892
-1.2244903 -0.52469289 1.6725823 2894892
-1.2257464 -0.47508419 1.6743828 2894892
-1.250614 -0.42085585 1.6987656 2894892
-1.2241105 -0.42479175 1.673434 2894892
-1.1998363 -0.42934284 1.6502221 2894892
-1.2513893 -0.39506418 1.6998186 2894892
-1.224017 -0.37511733 1.6739486 2894892
-1.2255555 -0.32507125 1.6760255 2894892
-1.1987035 -0.3138631 1.6505452 2894892
-1.2500445 -0.28240439 1.6999053 2894892
-1.2245816 -0.27502623 1.6757044 2894892
-1.1995622 -0.28397885 1.6517278 2894892
-1.2238252 -0.22503805 1.6755904 2894892
-1.197239 -0.20990913 1.6504116 2894892
-1.2244469 -0.17552589 1.6767848 2894892
-1.1982332 -0.17517951 1.6517825 2894892
-1.2239003 -0.12452749 1.6768847 2894892
-1.1984613 -0.12529954 1.6526062 2894892
-1.2231362 -0.075349845 1.6767522 2894892
-1.1966511 -0.075256273 1.6514876 2894892
-1.2229346 -0.025009004 1.6771723 2894892
-1.1977057 -0.023134686 1.6531273 2894892
-1.2239995 0.025267612 1.6787992 2894892
-1.1970562 0.023468032 1.6530739 2894892
-1.3169801 0.094287001 1.6765249 10197915
-1.2753644 0.09431655 1.6740402 10197915
-1.2225335 0.074836843 1.6758308 5263440
-1.1964324 0.072597876 1.6530762 4605510
-1.3054925 -0.76798421 1.7468983 2894892
-1.2820809 -0.76071697 1.7246528 2894892
-1.3037785 -0.72139758 1.7458298 2894892
-1.2780845 -0.72481638 1.721277 2894892
-1.3037345 -0.67501158 1.7463521 2894892
-1.2764755 -0.67494744 1.7203487 2894892
-1.3031279 -0.62671286 1.7463596 2894892
-1.2774414 -0.62454766 1.7218819 2894892
-1.3040466 -0.57263416 1.7478937 2894892
-1.2768962 -0.57546753 1.7219585 2894892
-1.3020616 -0.52954334 1.746524 2894892
-1.2762537 -0.52496767 1.721959 2894892
-1.3024698 -0.47566071 1.7475681 2894892
-1.2753117 -0.47482568 1.7216704 2894892
-1.3037726 -0.43410549 1.7493159 2894892
-1.2768962 -0.42497763 1.7237874 2894892
-1.3006865 -0.37275812 1.7471176 2894892
-1.2742286 -0.37486041 1.7218522 2894892
-1.302099 -0.32751322 1.7490155 2894892
-1.2750951 -0.32504654 1.7232851 2894892
-1.2749937 -0.27444801 1.7238028 2894892
-1.3005385 -0.21735781 1.7488655 2894892
-1.2741637 -0.22549462 1.7236058 2894892
-1.301234 -0.19500366 1.7498004 2894892
-1.2747684 -0.17499526 1.7247959 2894892
-1.2490133 -0.15920793 1.7004188 2894892
-1.2751091 -0.12445463 1.7257348 2894892
-1.2496626 -0.13744062 1.7013029 2894892
-1.274022 -0.075657465 1.7252922 2894892
-1.2474378 -0.054236233 1.7001917 2894892
-1.274631 -0.025029251 1.7264876 2894892
-1.2483166 -0.024665464 1.7013899 2894892
-1.2746969 0.025120212 1.7271602 2894892
-1.2495322 0.016229773 1.7030461 2894892
-1.3659177 0.093551613 1.7371615 10197915
-1.3251632 0.093686804 1.7259728 10197915
-1.2737184 0.07531666 1.7238744 5395026
-1.2465311 0.07328745 1.7008771 4671303
-1.3579142 -0.80194592 1.7964944 2894892
-1.3568453 -0.7734772 1.7958205 2894892
-1.3315136 -0.77136612 1.7716801 2894892
-1.3537574 -0.72481716 1.7934664 2894892
-1.327613 -0.7249797 1.7685248 2894892
-1.3554375 -0.67473632 1.7956777 2894892
-1.329249 -0.67496616 1.7706927 2894892
-1.3555773 -0.62896281 1.7963678 2894892
-1.3284286 -0.62474072 1.770521 2894892
-1.3534505 -0.57445681 1.7950015 2894892
-1.3273638 -0.57489765 1.7701107 2894892
-1.3544111 -0.52815092 1.7964801 2894892
-1.3272436 -0.52429569 1.7706103 2894892
-1.3540062 -0.47490197 1.7967411 2894892
-1.3278302 -0.47516435 1.7717682 2894892
-1.3535454 -0.42187393 1.7969465 2894892
-1.3267652 -0.42488638 1.7713621 2894892
-1.3519675 -0.37500405 1.7960105 2894892
-1.3259172 -0.37495616 1.7711608 2894892
-1.3535969 -0.32479852 1.7981753 2894892
-1.3273041 -0.32474166 1.7730942 2894892
-1.3522208 -0.27426618 1.7974766 2894892
-1.3253934 -0.27556619 1.7718688 2894892
-1.3515565 -0.22488205 1.7974436 2894892
-1.3255343 -0.22496286 1.7726194 2894892
-1.352923 -0.18262365 1.7992607 2894892
-1.3250812 -0.17462444 1.7727982 2894892
-1.3501637 -0.10500425 1.7975718 2894892
-1.3256948 -0.12546068 1.7739811 2894892
-1.3511215 -0.075264528 1.7988468 2894892
-1.3238137 -0.074344061 1.7728064 2894892
-1.2999643 -0.075402267 1.7500432 2894892
-1.3519604 -0.049216419 1.799964 2894892
-1.3243411 -0.024981987 1.7739111 2894892
-1.3259171 0.025021641 1.7760233 2894892
-1.2986718 0.043506857 1.7502555 2894892
-1.4107928 0.092939831 1.7876086 10197915
-1.3716526 0.088871814 1.7840279 9211020
-1.3254563 0.073537216 1.7750925 5000268
-1.2994341 0.068203151 1.7512828 3487029
-1.4079686 -0.81351388 1.8441037 2894892
-1.3845918 -0.80739206 1.8218775 2894892
-1.4066831 -0.7747609 1.8433486 2894892
-1.3816973 -0.77493429 1.8195108 2894892
-1.4067146 -0.72226524 1.8440168 2894892
-1.3793443 -0.72578973 1.8178637 2894892
-1.4054563 -0.67702293 1.8433663 2894892
-1.3796906 -0.67501932 1.8188109 2894892
-1.4062078 -0.62514448 1.8447134 2894892
-1.3794385 -0.62435347 1.8191864 2894892
-1.4064288 -0.57610434 1.8455207 2894892
-1.3796378 -0.57562464 1.8199687 2894892
-1.4039909 -0.52553529 1.8438095 2894892
-1.3783381 -0.52408528 1.8193552 2894892
-1.4056485 -0.47530833 1.8460013 2894892
-1.3781073 -0.47476846 1.8197346 2894892
-1.4050134 -0.42635968 1.8459907 2894892
-1.3797801 -0.42495546 1.8219355 2894892
-1.4036216 -0.37382907 1.8453015 2894892
-1.3762271 -0.37507188 1.8191524 2894892
-1.4040023 -0.32889405 1.8462106 2894892
-1.3777193 -0.32498696 1.8211848 2894892
-1.4040828 -0.27469015 1.8469458 2894892
-1.3774886 -0.27441275 1.8215792 2894892
-1.4035645 -0.22259097 1.8470855 2894892
-1.3766909 -0.2257342 1.8214103 2894892
-1.4018637 -0.17513232 1.8460394 2894892
-1.3763573 -0.17436692 1.8217167 2894892
-1.4035498 -0.12480597 1.8482594 2894892
-1.37616 -0.12505372 1.8221275 2894892
-1.4023131 -0.074510038 1.8476909 2894892
-1.3768777 -0.075569756 1.8234141 2894892
-1.4013296 -0.025251023 1.8473518 2894892
-1.3742137 -0.02481696 1.8214899 2894892
-1.4027599 0.017623147 1.8492376 2894892
-1.3757701 0.024935985 1.8235794 2894892
-1.4575932 0.092291355 1.8410825 10197915
-1.424165 0.092430726 1.8295619 10197915
-1.3763803 0.073569983 1.8235885 4934475
-1.4598401 -0.8241716 1.8934574 2894892
-1.4340897 -0.81763303 1.8689725 2894892
-1.4573519 -0.77267075 1.8917102 2894892
-1.4314007 -0.77588665 1.8669138 2894892
-1.4574201 -0.72517073 1.8923519 2894892
-1.4310783 -0.72486597 1.8672276 2894892
-1.4574811 -0.67765766 1.8929883 2894892
-1.4307973 -0.67408824 1.8675761 2894892
-1.4578527 -0.62502658 1.8939826 2894892
-1.4316196 -0.6249938 1.8689579 2894892
-1.4564496 -0.57617277 1.8932377 2894892
-1.4296857 -0.57406557 1.8677312 2894892
-1.4556186 -0.52467501 1.8930713 2894892
-1.4293743 -0.52516943 1.8680289 2894892
-1.4573596 -0.47504854 1.8953347 2894892
-1.4311749 -0.47509843 1.8703548 2894892
-1.4550694 -0.42499748 1.8937589 2894892
-1.4283741 -0.42549682 1.8682863 2894892
-1.4549741 -0.37511751 1.8942745 2894892
-1.4288341 -0.375058 1.8693379 2894892
-1.4563394 -0.32733178 1.8961573 2894892
-1.4290576 -0.32420439 1.8701698 2894892
-1.454273 -0.27102292 1.8948702 2894892
-1.4286083 -0.27565372 1.8703313 2894892
-1.4542974 -0.22497831 1.8954535 2894892
-1.427905 -0.2245722 1.8702812 2894892
-1.4542118 -0.17814705 1.895941 2894892
-1.427205 -0.17500198 1.8702153 2894892
-1.4548852 -0.12496924 1.8972299 2894892
-1.4288963 -0.1250803 1.872436 2894892
-1.4532213 -0.077596784 1.8962183 2894892
-1.4258097 -0.074473351 1.8701068 2894892
-1.4524993 -0.025132893 1.896167 2894892
-1.4266 -0.024904039 1.871464 2894892
-1.454239 0.025173025 1.8984381 2894892
-1.4273684 0.025617048 1.8728102 2894892
-1.5021547 0.091680802 1.8914293 10197915
-1.4665145 0.086843349 1.8851287 8750469
-1.4265488 0.072283238 1.8714107 4802889
-1.5098581 -0.8602019 1.9407351 2894892
-1.4874866 -0.85426801 1.9194659 2894892
-1.5084227 -0.82505316 1.939793 2894892
-1.4835293 -0.82460022 1.9160511 2894892
-1.5102608 -0.77483177 1.9421576 2894892
-1.4825178 -0.77501369 1.915689 2894892
-1.5088968 -0.72492057 1.9414626 2894892
-1.4835294 -0.726035 1.9172491 2894892
-1.5076151 -0.67516333 1.9408449 2894892
-1.4811411 -0.67408675 1.9156021 2894892
-1.5091897 -0.62618315 1.9429425 2894892
-1.4817935 -0.62499803 1.9168214 2894892
-1.5081668 -0.57503533 1.9425876 2894892
-1.4832304 -0.574323 1.9188087 2894892
-1.5071017 -0.52435446 1.9421878 2894892
-1.4798113 -0.5249784 1.916146 2894892
-1.507093 -0.47751963 1.9427488 2894892
-1.4811293 -0.47479394 1.9180142 2894892
-1.507459 -0.42517427 1.9437343 2894892
-1.4809234 -0.42419055 1.9184325 2894892
-1.5072929 -0.37330958 1.9442065 2894892
-1.4802556 -0.3760156 1.9183804 2894892
-1.5048976 -0.32511589 1.9425073 2894892
-1.4799089 -0.32447055 1.9186773 2894892
-1.5066522 -0.27514806 1.944788 2894892
-1.4792715 -0.2751393 1.9186687 2894892
-1.5067492 -0.22746366 1.9454603 2894892
-1.4808112 -0.22542353 1.9207407 2894892
-1.5041528 -0.17472792 1.9436247 2894892
-1.4774725 -0.17441152 1.9181767 2894892
-1.5059421 -0.12495269 1.9459364 2894892
-1.4786322 -0.12498122 1.9198831 2894892
-1.5046555 -0.074945755 1.9453168 2894892
-1.4795152 -0.074165262 1.9213427 2894892
-1.5040848 -0.021731628 1.9454193 2894892
-1.4770606 -0.025712445 1.9195912 2894892
-1.5040389 0.020870715 1.9458933 2894892
-1.4778111 0.02490605 1.9209216 2894892
-1.5141137 0.083543994 1.9389213 8026746
-1.4779332 0.072641216 1.9206634 4802889
-1.5615927 -0.87005788 1.9899688 2894892
-1.534687 -0.8637206 1.9643781 2894892
-1.5597304 -0.82566005 1.9887317 2894892
-1.533587 -0.82481897 1.9638019 2894892
-1.5613697 -0.77503639 1.9909109 2894892
-1.5355231 -0.77498621 1.9662548 2894892
-1.5601631 -0.72486544 1.9903699 2894892
-1.5331588 -0.72537565 1.9646024 2894892
-1.5586091 -0.67503029 1.9894933 2894892
-1.5327333 -0.67514896 1.9648067 2894892
-1.5605071 -0.62468797 1.9919156 2894892
-1.5341411 -0.62443781 1.9667664 2894892
-1.5594932 -0.57555825 1.9915456 2894892
-1.5329301 -0.57577252 1.9662027 2894892
-1.5577257 -0.52527928 1.990471 2894892
-1.5320404 -0.52532238 1.9659663 2894892
-1.5592924 -0.47573167 1.9925667 2894892
-1.531706 -0.47412756 1.9662708 2894892
-1.5582229 -0.42503852 1.9921633 2894892
-1.5325857 -0.42497337 1.9677068 2894892
-1.5577013 -0.37326193 1.9922947 2894892
-1.5320227 -0.37566766 1.967769 2894892
-1.5571815 -0.32734224 1.9923568 2894892
-1.5297577 -0.32503098 1.9662237 2894892
-1.5573382 -0.27496374 1.9931431 2894892
-1.531768 -0.27485567 1.9687514 2894892
-1.5582228 -0.2231885 1.9946162 2894892
-1.5310776 -0.22460715 1.9687032 2894892
-1.5550103 -0.17602713 1.9921253 2894892
-1.5290531 -0.17509586 1.9673746 2894892
-1.5564898 -0.12514998 1.9941555 2894892
-1.5308952 -0.12512024 1.9697385 2894892
-1.5574838 -0.078156568 1.9956745 2894892
-1.5295924 -0.075160079 1.9691035 2894892
-1.5542192 -0.022264959 1.9932392 2894892
-1.5289768 -0.025816822 1.9691148 2894892
-1.5555348 0.024800835 1.9950665 2894892
-1.5283616 0.026021352 1.9691581 2894892
-1.5564761 0.073011138 1.989535 5460819
-1.5292834 0.071625352 1.9700594 4605510
-1.6154422 -0.90659386 2.040895 2894892
-1.59478 -0.90226954 2.0212364 2894892
-1.6125013 -0.87683612 2.0384512 2894892
-1.587638 -0.87447333 2.0147614 2894892
-1.6122185 -0.82387131 2.038825 2894892
-1.5854206 -0.82555157 2.0132406 2894892
-1.6116564 -0.77520311 2.0388803 2894892
-1.5846123 -0.77516329 2.0130811 2894892
-1.6101998 -0.72501415 2.038101 2894892
-1.5852146 -0.72385108 2.0142803 2894892
-1.612078 -0.67489064 2.0405018 2894892
-1.5850221 -0.67506945 2.0146897 2894892
-1.6105766 -0.62493765 2.0396767 2894892
-1.5846586 -0.62637502 2.0149345 2894892
-1.6091267 -0.57468826 2.0389042 2894892
-1.5831256 -0.57414138 2.0141072 2894892
-1.6111557 -0.52435559 2.0414517 2894892
-1.5839965 -0.52491081 2.0155363 2894892
-1.6100136 -0.47511497 2.040961 2894892
-1.5850689 -0.47526094 2.0171626 2894892
-1.60817 -0.42506301 2.0398111 2894892
-1.5811334 -0.42521387 2.0140166 2894892
-1.6101019 -0.37509045 2.0422614 2894892
-1.5831691 -0.37510011 2.0165677 2894892
-1.6086683 -0.3251853 2.0414999 2894892
-1.5831337 -0.3239066 2.0171564 2894892
-1.6079774 -0.27311772 2.0414734 2894892
-1.5814147 -0.2761167 2.016098 2894892
-1.608054 -0.22687489 2.0421085 2894892
-1.5821224 -0.22515902 2.0173917 2894892
-1.6076567 -0.17471249 2.0423641 2894892
-1.5810086 -0.17464261 2.016943 2894892
-1.6087276 -0.12329117 2.0440104 2894892
-1.5822035 -0.12551558 2.0186803 2894892
-1.606038 -0.077660263 2.0419993 2894892
-1.5799665 -0.074011579 2.0171721 2894892
-1.6065389 -0.025388004 2.0431128 2894892
-1.5798445 -0.025071679 2.0176513 2894892
-1.6084093 0.025010657 2.0455091 2894892
-1.5817329 0.025111625 2.020062 2894892
-1.6051667 0.076810531 2.0399666 5658198
-1.5795465 0.072923988 2.0168326 4934475
-1.6381454 -0.9113282 2.0624957 2894892
-1.6365738 -0.87344009 2.0614567 2894892
-1.6375742 -0.82494706 2.0630007 2894892
-1.650542 -0.76463181 2.0761044 2894892
-1.6375889 -0.77677077 2.0635996 2894892
-1.6521313 -0.72490078 2.0781035 2894892
-1.6343846 -0.72520536 2.0611703 2894892
-1.6541303 -0.67492169 2.0806181 2894892
-1.6364814 -0.67521161 2.0637782 2894892
-1.6561345 -0.62482077 2.0831389 2894892
-1.6370047 -0.62397492 2.0649004 2894892
-1.6545035 -0.57495499 2.0821891 2894892
-1.6334054 -0.57492357 2.062062 2894892
-1.6565528 -0.52511531 2.0847504 2894892
-1.6353667 -0.52515078 2.0645385 2894892
-1.6584873 -0.47515562 2.0872023 2894892
-1.6348895 -0.47411957 2.0647037 2894892
-1.6587796 -0.42221272 2.0881257 2894892
-1.6342516 -0.4264304 2.0646746 2894892
-1.6589906 -0.37471262 2.0889027 2894892
-1.6343101 -0.37497464 2.0653558 2894892
-1.6609739 -0.32490715 2.0914011 2894892
-1.6326809 -0.32483053 2.0644116 2894892
-1.6602467 -0.27672866 2.0912929 2894892
-1.6347317 -0.27486914 2.0669749 2894892
-1.6582022 -0.22373234 2.0899863 2894892
-1.632341 -0.22434454 2.0653088 2894892
-1.6596111 -0.17533517 2.0919189 2894892
-1.6316235 -0.17505091 2.0652232 2894892
-1.6581331 -0.12518607 2.0911181 2894892
-1.6336182 -0.12506083 2.0677345 2894892
-1.6589615 -0.073218986 2.092541 2894892
-1.6321363 -0.074766301 2.0669317 2894892
-1.6575954 -0.027273163 2.0917957 2894892
-1.6305768 -0.024817383 2.0660512 2894892
-1.6570272 0.025137722 2.0918908 2894892
-1.6325059 0.024856523 2.0684943 2894892
-1.6588372 0.071432531 2.0938406 4605510
-1.6306427 0.070871405 2.0668151 4473924
-1.6703346 -0.26982704 2.1010003 2894892
-1.6721008 -0.22567195 2.1032217 2894892
-1.6737112 -0.17379938 2.1053889 2894892
-1.6725361 -0.12469381 2.1048644 2894892
-1.6745166 -0.075077809 2.1073573 2894892
-1.675012 -0.022896048 2.108464 2894892
-1.6749238 0.025342949 2.1089661 2894892
-1.6767013 0.069974676 2.1112044 4079166
