# .PCD v0.7 - Point Cloud Data file format
VERSION 0.7
FIELDS x y z rgb
SIZE 4 4 4 4
TYPE F F F U
COUNT 1 1 1 1
WIDTH 1171
HEIGHT 1
VIEWPOINT 0 0 0 1 0 0 0
POINTS 1171
DATA ascii
0.32491264 0.10785422 1.627161 10197915
0.37719065 0.10791694 1.6245288 10197915
0.42480341 0.10798937 1.6189934 10197915
0.47463486 0.10803366 1.619662 10197915
0.52495372 0.10807759 1.6204988 10197915
0.57509059 0.1081238 1.6208299 10197915
0.62504172 0.10816659 1.6218343 10197915
0.67526102 0.10821208 1.6223373 10197915
0.72529846 0.10825657 1.6229995 10197915
0.77515006 0.10830008 1.6238358 10197915
0.82503849 0.1083461 1.6241604 10197915
0.87497258 0.10838883 1.6251668 10197915
0.92494458 0.10843414 1.6256617 10197915
0.97496265 0.10847941 1.6261609 10197915
1.0252407 0.10852247 1.6271704 10197915
1.0751137 0.10856768 1.6276633 9803157
1.1247956 0.10861188 1.6283263 5329233
1.1749759 0.10865565 1.6291673 6447714
1.2339816 0.10636851 1.6362934 6447714
1.2649062 0.10479145 1.622004 6447714
1.1870809 -0.75365412 1.6924185 5921370
1.2013446 -0.75057983 1.6790863 6447714
1.1896448 -0.72504532 1.690134 6118749
1.2158773 -0.72256297 1.6656021 6447714
-0.26226565 -0.66127622 1.6880233 6447714
-0.23559435 -0.66119242 1.6630148 6447714
1.1897241 -0.6749869 1.6902596 6118749
1.2167658 -0.67501283 1.6649607 6447714
-0.96157664 -0.60318607 1.6629699 6566193
-0.92415142 -0.60318708 1.6746861 6566193
-0.87496382 -0.60311586 1.6752717 5776677
-0.82499522 -0.6030395 1.675053 4132623
-0.77493334 -0.60296291 1.6748227 3020824
-0.72499037 -0.60288626 1.6745862 2039326
-0.67500722 -0.60280997 1.6744231 3552822
-0.62530422 -0.60273361 1.6741349 6447714
-0.57528913 -0.60265702 1.6739266 6447714
-0.52502471 -0.60258061 1.6738353 6447714
-0.47509214 -0.60250372 1.6735075 6447714
-0.428949 -0.60241312 1.6692307 6447714
-0.39384854 -0.6022858 1.6540351 6447714
-0.26226619 -0.62501502 1.6881547 6447714
-0.23568076 -0.62500119 1.6632277 6447714
1.1898099 -0.62500566 1.6903788 6118749
1.2168435 -0.62501407 1.6650873 6447714
-0.2623083 -0.57501227 1.6883773 6447714
-0.23567639 -0.57500333 1.6634063 6447714
1.190129 -0.57540405 1.6902776 6184542
1.2168427 -0.57490319 1.6652879 6447714
-0.26234466 -0.52499646 1.6885937 6447714
-0.23568438 -0.52499229 1.6635963 6447714
1.1899687 -0.52499622 1.6906271 6250335
1.2166135 -0.52498215 1.6657006 6447714
-0.2623471 -0.47501415 1.6887783 6447714
-0.23577596 -0.47500831 1.6638646 6447714
1.1900725 -0.47502729 1.69073 6250335
1.2166905 -0.4749943 1.6658273 6447714
-0.25995877 -0.44502094 1.6866482 6447714
-0.23418395 -0.43915349 1.6625019 6447714
1.1901438 -0.42502114 1.6908637 6250335
1.2169461 -0.42488009 1.6657881 6447714
1.1902529 -0.3750076 1.6909589 6250335
1.2172697 -0.37501943 1.6656832 6447714
-0.90261424 -0.31165853 1.6981385 5526612
-0.86868811 -0.31190437 1.6828953 3223857
-0.84745359 -0.3117002 1.6976357 2039583
1.1903036 -0.32498714 1.6911116 6250335
1.2173796 -0.32496315 1.6657823 6447714
-1.3179427 -0.29398116 1.6778948 1783118
-1.2902157 -0.2938754 1.6619223 1980240
-0.90083987 -0.2688956 1.6966307 4148831
-0.86862063 -0.27514958 1.6830033 2829615
-0.84755629 -0.27515474 1.6977425 2039583
-0.36312729 -0.29306778 1.6755835 3039381
-0.32508346 -0.29302788 1.6761725 1917548
-0.27515304 -0.29296899 1.6755594 3622228
-0.23127358 -0.29289085 1.6693884 6447714
-0.1981623 -0.29278648 1.6550869 6447714
1.1904767 -0.27509484 1.6911488 6250335
1.2174497 -0.27494881 1.6659151 6447714
-0.90014768 -0.22486036 1.696142 5667233
-0.86803705 -0.22496596 1.6829444 2440018
-0.84764183 -0.22509986 1.6979457 2039583
1.1909031 -0.22496717 1.6909488 6381921
1.2175595 -0.22502649 1.66601 6447714
-0.9003396 -0.1750066 1.696504 5404833
-0.86818206 -0.17498928 1.6832058 2374483
-0.84819722 -0.17512505 1.6976482 2039583
1.1910161 -0.17498672 1.691043 6381921
1.2176197 -0.17504732 1.6661533 6447714
-0.90053189 -0.12513155 1.696866 4353692
-0.86829233 -0.12499742 1.6834465 2046034
-0.84829307 -0.12520379 1.6978397 2039583
1.1910301 -0.1249992 1.6912271 6381921
1.2176968 -0.12502909 1.6662793 6447714
-0.90072399 -0.07523527 1.6972281 3302550
-0.86843055 -0.075113557 1.6836188 1717328
-0.84838915 -0.075271294 1.698032 2039583
1.1910446 -0.075477302 1.6914103 6381921
1.2180387 -0.074779846 1.6661603 6447714
-0.90091634 -0.025317578 1.6975904 2645394
-0.86852312 -0.025114127 1.6839272 1586256
-0.84848487 -0.025327463 1.6982241 2039583
1.1908129 -0.025232263 1.6918288 6381921
1.217876 -0.02493435 1.6665119 6447714
-0.90111136 0.025324889 1.6979584 2185101
-0.86860305 0.025174446 1.6841971 1454670
-0.84856135 0.024658384 1.698437 2039583
1.1909086 0.025201868 1.6919385 6381921
1.2179528 0.024920903 1.6666389 6447714
-0.90130395 0.075285405 1.6983205 3236495
-0.86828005 0.075110123 1.6846762 2966622
-0.84860194 0.074044831 1.6986848 7829367
1.1912279 0.074838243 1.691838 6447714
1.2180791 0.074936271 1.6667181 6447714
-1.3190593 0.10602886 1.6797565 927556
-1.2890316 0.10615475 1.6598254 927043
-1.054212 0.10619479 1.6975553 993350
-1.0220625 0.10631245 1.6797239 2242897
-0.98246133 0.10638221 1.6731722 9343122
-0.90227896 0.10427599 1.6990207 10197915
-0.86852461 0.10394698 1.681462 10197915
-0.82799464 0.10616823 1.6732515 8884120
-0.77521175 0.10659172 1.6707724 1523303
-0.74248469 0.10663883 1.6675128 1059655
-0.62148184 0.10672409 1.6737093 9868950
-0.57475209 0.10676941 1.6735576 10000536
-0.52504867 0.10681348 1.6742489 10000536
-0.48108423 0.10685693 1.6739411 10000536
-0.36436319 0.1069525 1.6771873 1986695
-0.32479158 0.10699172 1.6768891 1324385
-0.27523345 0.10703495 1.6777202 4806246
-0.2252823 0.10707924 1.6784142 10000536
-0.1749444 0.10712454 1.6789749 10000536
-0.12220033 0.10719146 1.6755718 10132122
-0.074965432 0.10726204 1.6703374 10197915
-0.046601977 0.10729238 1.6696697 10197915
0.089377381 0.10741124 1.6719038 10197915
0.12477057 0.10743829 1.6732849 10197915
0.17474876 0.10748442 1.6736028 10197915
0.22476885 0.10752698 1.6746657 10197915
0.27483308 0.10757321 1.6749853 10197915
0.32493225 0.10761582 1.6760494 10197915
0.37484798 0.10766102 1.6765501 10197915
0.42503175 0.10770548 1.6772482 10197915
0.47526139 0.10775008 1.6779373 10197915
0.52506363 0.10779332 1.6788155 10197915
0.57403827 0.10784154 1.6785084 10197915
0.62475991 0.10793106 1.6700757 10197915
0.67519689 0.1079765 1.6706319 10197915
0.72533375 0.108021 1.6713164 10197915
0.77515769 0.10806452 1.6721404 10197915
0.82502854 0.10810947 1.6726846 10197915
0.87493265 0.10815306 1.6735103 10197915
0.92523313 0.10819771 1.674201 10197915
0.97522444 0.10824276 1.6747468 10197915
1.0252544 0.10828647 1.6755743 10197915
1.0753289 0.10833158 1.6761215 10197915
1.1250927 0.10837436 1.6770864 8553090
1.1850965 0.10564883 1.6864198 5987163
1.2176275 0.10443667 1.6669078 6447714
1.1371146 -0.76410514 1.7391216 6447714
1.1630462 -0.75867063 1.714883 4868682
1.1379637 -0.72504187 1.738483 6447714
1.1648118 -0.7250306 1.7133662 4539717
-0.31102133 -0.66129822 1.7337373 3491159
-0.28715619 -0.66120476 1.7113609 2439759
1.1377405 -0.67523283 1.738891 6447714
1.1645286 -0.67492568 1.7138313 4605510
-0.91243571 -0.60336447 1.7144814 6566193
-0.87465119 -0.60335946 1.7251275 3938842
-0.82505178 -0.60328615 1.7253788 2235677
-0.77503657 -0.60320938 1.7251303 2039583
-0.72503424 -0.60313267 1.7249027 2039583
-0.67504501 -0.60305679 1.7247617 5329233
-0.62471211 -0.60297918 1.7244265 6447714
-0.57468498 -0.60290235 1.7241971 6447714
-0.52497435 -0.60282725 1.7241598 6447714
-0.47938016 -0.60273302 1.7189351 6447714
-0.44491023 -0.60260683 1.7038242 6447714
-0.31103909 -0.6249994 1.7338871 3294038
-0.28717101 -0.62496108 1.7115072 2505551
1.1381257 -0.62502789 1.7387302 6447714
1.1645439 -0.625027 1.7140136 4605510
-0.31106329 -0.57501006 1.7340918 3162710
-0.28720745 -0.57497442 1.711723 2374223
1.1382139 -0.57503307 1.7388467 6447714
1.1649652 -0.57488108 1.71382 4539717
-0.31112555 -0.52506393 1.7343322 2900053
-0.28723413 -0.52492797 1.7119316 2242638
1.1382854 -0.52500439 1.7389787 6447714
1.1651479 -0.5249927 1.7138492 4539717
-0.31067035 -0.48135763 1.7340646 2637140
-0.28689754 -0.47616825 1.7117941 2242895
1.1383731 -0.47502241 1.7390963 6447714
1.165242 -0.47499985 1.7139589 4539717
-0.27691728 -0.44873756 1.7025356 5396316
1.1384505 -0.42500678 1.7392225 6447714
1.16531 -0.42497987 1.7140954 4539717
1.1385454 -0.37498352 1.739332 6447714
1.1654143 -0.37497315 1.7141966 4539717
-0.90542167 -0.3121413 1.7007693 5592405
-0.82268572 -0.31190303 1.7240489 3296875
-0.79924458 -0.3123067 1.7490484 2374483
1.1387683 -0.32517809 1.7393228 6447714
1.1654725 -0.32497957 1.7143416 4539717
-1.3639101 -0.29429278 1.7321455 1783118
-1.3361614 -0.29418606 1.715986 1848911
-0.91339684 -0.29477322 1.7167549 6052956
-0.85583186 -0.29389676 1.7345217 2039583
-0.82629007 -0.29591388 1.7258772 3297132
-0.79927218 -0.29710025 1.7491087 2308947
-0.35434306 -0.2932066 1.7072234 2973587
-0.31813809 -0.27368772 1.7145158 1520463
-0.2885024 -0.27453342 1.7205226 2045260
1.1391582 -0.27492076 1.7391578 6447714
1.165648 -0.27488932 1.714376 4539717
-0.31663144 -0.22481209 1.7149667 1454669
-0.29020435 -0.22529231 1.7222797 1717067
1.1391981 -0.22496159 1.7393194 6447714
1.1660564 -0.22502181 1.7141933 4539717
-0.84590143 -0.17467354 1.7000997 2039583
-0.31622475 -0.17504458 1.7151417 1323340
-0.28982607 -0.17501819 1.7229786 1651274
1.1392934 -0.17507769 1.7394289 6447714
1.1661659 -0.17497103 1.7142915 4539717
-0.8459971 -0.12468021 1.700292 2039583
-0.31626964 -0.12510431 1.715386 1323084
-0.2898787 -0.12498105 1.723217 1585738
1.1388931 -0.12500644 1.740003 6447714
1.1657686 -0.12499672 1.7148588 4539717
-0.84609294 -0.074675485 1.7004844 2039583
-0.31621537 -0.074938275 1.7155342 1191242
-0.28987429 -0.074972823 1.7235169 1519689
1.1390529 -0.075184487 1.7400516 6447714
1.1659586 -0.074888833 1.7148812 4539717
-0.84618878 -0.024659494 1.700677 2039583
-0.31636989 -0.02487947 1.7158515 1125962
-0.28991649 -0.024994148 1.7237662 1322311
1.1390893 -0.025203621 1.7402178 6447714
1.1659335 -0.024868878 1.7151054 4539717
-0.84628326 0.024663163 1.7008669 2039583
-0.31641176 0.024883848 1.7160804 1125705
-0.28995836 0.02499898 1.7240161 1322054
1.1394213 0.02493632 1.7401068 6447714
1.166013 0.024871249 1.7152274 4539717
-0.84681463 0.076007418 1.7006027 8355711
-0.31636268 0.074907847 1.7162324 1059912
-0.29000044 0.075006619 1.7242666 1189956
1.139739 0.075160921 1.7400095 6447714
1.1664249 0.075055018 1.7150428 4605510
-1.3626878 0.10574768 1.7288817 993605
-1.3376068 0.10580726 1.7215805 927300
-1.0650141 0.10601794 1.7317185 993606
-1.0258454 0.1060665 1.7294226 7042172
-0.99589628 0.10614345 1.7195092 10000536
-0.92102081 0.10615682 1.7314185 10197915
-0.85671037 0.10618722 1.7377671 10197915
-0.8267017 0.10604977 1.7204086 4876939
-0.77930754 0.10635095 1.7193407 1191757
-0.65826851 0.10639468 1.7340591 1782089
-0.62524974 0.10647236 1.7245888 8619915
-0.5752281 0.10651561 1.7255125 10000536
-0.52493203 0.10655912 1.7264334 10000536
-0.4876352 0.10661131 1.7230246 10000536
-0.37127641 0.10672957 1.7215471 1920902
-0.32056832 0.10437705 1.7156496 1125711
-0.28228962 0.10492653 1.7211244 3622491
-0.22480053 0.10687798 1.7197753 10000536
-0.17499337 0.10692208 1.7204801 10000536
-0.12550478 0.10696511 1.7213391 10066329
-0.075260997 0.10701031 1.7219044 10197915
-0.047097098 0.1070345 1.7224555 10197915
0.09072978 0.10715645 1.7244184 10197915
0.12505209 0.1071883 1.7246022 10197915
0.17514433 0.10723115 1.72562 10197915
0.22528075 0.10727552 1.726334 10197915
0.27509907 0.10732035 1.7268888 10197915
0.32495603 0.1073637 1.7277532 10197915
0.37521642 0.10740818 1.7284691 10197915
0.42515519 0.10745315 1.729025 10197915
0.47513852 0.10749657 1.729892 10197915
0.52516097 0.10754161 1.7304491 10197915
0.5764159 0.10759455 1.7296262 10197915
0.62517369 0.10768174 1.7212905 10197915
0.67489469 0.10772672 1.7217934 10197915
0.72488779 0.10776902 1.7229061 10197915
0.77492976 0.10781427 1.7234098 10197915
0.8250131 0.10785759 1.7243235 10197915
0.87513489 0.10790303 1.7248285 10197915
0.92481631 0.107947 1.7255309 10197915
0.97478408 0.10799222 1.7260386 10197915
1.0252662 0.10803492 1.7271578 10197915
1.0753163 0.10808025 1.7276604 10197915
1.1326475 0.10570017 1.7341726 10066329
1.166239 0.10447267 1.7145597 6381921
1.0763485 -0.80172586 1.7958201 6447714
1.0856948 -0.7742573 1.7871851 6447714
1.1119378 -0.76937521 1.7626566 6447714
1.0860748 -0.72507524 1.7870255 6447714
1.1126015 -0.72505254 1.7622087 6447714
1.0861641 -0.67503482 1.787142 6447714
1.1127849 -0.67484051 1.7622373 6447714
-0.86361855 -0.60353947 1.7652185 2039583
-0.82492983 -0.60352612 1.7743974 2039583
-0.77497685 -0.6034494 1.7741385 2039583
-0.72497028 -0.60337275 1.7739134 2631720
-0.67497623 -0.60329664 1.7737467 6381921
-0.62472945 -0.60321933 1.7734641 6447714
-0.57430655 -0.60314947 1.7747117 6447714
-0.5304454 -0.60305476 1.7689117 6447714
-0.49650934 -0.60292774 1.7534194 6447714
1.0862349 -0.62506366 1.787274 6447714
1.1132294 -0.62501824 1.7620224 6447714
1.0863143 -0.57506174 1.7874006 6447714
1.1133016 -0.57501721 1.7621515 6447714
1.0865481 -0.5252291 1.7873788 6447714
1.1133885 -0.524984 1.7622715 6447714
1.0869342 -0.47500643 1.7872179 6447714
1.1134591 -0.47499394 1.7624038 6447714
1.0870196 -0.42497885 1.787338 6447714
1.113551 -0.42497146 1.762516 6447714
1.0870923 -0.37499714 1.7874682 6447714
1.1136214 -0.37496746 1.762653 6447714
-0.78942573 -0.31198686 1.7595223 2899796
1.0871634 -0.32498163 1.7876015 6447714
1.1138734 -0.3247574 1.7626139 6447714
-1.3773376 -0.29446205 1.763941 1783118
-0.9542048 -0.29428551 1.7938006 2039583
-0.93951988 -0.29413936 1.7661946 2039583
-0.86743933 -0.29411668 1.7785772 2833743
-0.8252998 -0.2940498 1.7743905 3298423
-0.79082096 -0.29591697 1.7654811 2768468
1.0872605 -0.27498591 1.7877102 6447714
1.1142517 -0.27493346 1.7624596 6447714
1.0871557 -0.22523318 1.7880056 6447714
1.1141479 -0.22480313 1.7627553 6447714
1.0871043 -0.17527536 1.7882529 6447714
1.1139627 -0.17497839 1.7631279 6447714
1.0874387 -0.12505023 1.7881398 6447714
1.1139781 -0.12496267 1.7633114 6447714
1.0876206 -0.075196907 1.7881678 6447714
1.1141639 -0.074847557 1.7633375 6447714
1.0876065 -0.025190458 1.7883804 6447714
1.1141412 -0.02484083 1.7635556 6447714
1.0876846 0.025192847 1.7885082 6447714
1.1144785 0.025032338 1.76344 6447714
1.0878525 0.075185038 1.7885499 6447714
1.1148601 0.074835412 1.7632822 6447714
-1.4077899 0.10545521 1.7800395 993605
-1.3793834 0.10554756 1.7666544 993348
-1.1067399 0.10572066 1.7845198 993606
-1.0749449 0.10580418 1.7736063 2965847
-1.0359137 0.10585212 1.7714131 10000536
-0.95123929 0.10585776 1.7868342 10197915
-0.94223851 0.10593978 1.7717692 10197915
-0.8671546 0.10597884 1.7784534 7373460
-0.82537186 0.10602435 1.7772974 1589096
-0.79134881 0.10607129 1.7743267 1059399
-0.66749364 0.10615637 1.7811224 4214882
-0.62503833 0.10620189 1.7800943 10066329
-0.57475853 0.10624544 1.7810035 10000536
-0.52480251 0.10628951 1.7817423 10000536
-0.49517295 0.106341 1.7769796 10000536
-0.4024691 0.10636395 1.7904212 1789060
-0.37294221 0.10646904 1.7746441 1920389
-0.34559605 0.10655767 1.7618183 1523063
-0.26838624 0.1065648 1.7754712 10000536
-0.22498137 0.10660898 1.7749019 10000536
-0.1750576 0.1066552 1.7751913 10000536
-0.12509365 0.10669716 1.7763695 10000536
-0.077037841 0.10675543 1.7738252 10066329
-0.047559395 0.10682111 1.7661219 10197915
0.091920592 0.10694665 1.7676709 10197915
0.12529367 0.10697374 1.7686455 10197915
0.17519137 0.10701782 1.769374 10197915
0.22512667 0.10706352 1.7697732 10197915
0.27510083 0.10710603 1.7708329 10197915
0.32512203 0.10715021 1.7715629 10197915
0.37518457 0.10719442 1.772294 10197915
0.42491555 0.10723916 1.7728524 10197915
0.47469112 0.1072823 1.7737471 10197915
0.52487713 0.10732663 1.7744797 10197915
0.57472789 0.10737147 1.7750398 10197915
0.62462944 0.1074147 1.775936 10197915
0.67456365 0.10745961 1.7764972 10197915
0.7245453 0.10750294 1.7773949 10197915
0.77456325 0.10754794 1.7779572 10197915
0.82462603 0.10759133 1.7788562 10197915
0.87472779 0.10763639 1.7794195 10197915
0.92487115 0.10767985 1.7803199 10197915
0.97505689 0.10772499 1.7808844 10197915
1.0252813 0.10776851 1.7817861 10197915
1.0831506 0.10499829 1.7863129 9868950
1.1142706 0.10401401 1.7638718 9934743
1.0324076 -0.81092936 1.8368909 6447714
1.0593615 -0.80528259 1.8116981 6447714
1.0342832 -0.77524894 1.8352783 6447714
1.0611384 -0.77506256 1.810156 6447714
1.0346974 -0.72508466 1.8350916 6447714
1.0612155 -0.72506481 1.8102832 6447714
1.0347762 -0.674981 1.8352176 6447714
1.0613004 -0.67499495 1.810402 6447714
-0.81532234 -0.60371011 1.814904 2039583
-0.77499938 -0.60369265 1.8237845 2039583
-0.72497141 -0.60361618 1.8235148 4342338
-0.67495674 -0.60353941 1.8233213 6447714
-0.62481844 -0.60346216 1.8230276 6447714
-0.58172464 -0.60337448 1.8183453 6447714
-0.5486865 -0.60325611 1.8043709 6447714
1.0348643 -0.62504148 1.8353336 6447714
1.0613674 -0.62504822 1.8105383 6447714
1.0349261 -0.5750457 1.8354756 6447714
1.061446 -0.57506078 1.8106647 6447714
1.0349914 -0.52499354 1.835614 6447714
1.0616953 -0.52478206 1.8106325 6447714
1.0350814 -0.47500783 1.8357288 6447714
1.0620742 -0.47500375 1.8104762 6447714
1.035127 -0.42516354 1.8358833 6447714
1.0620905 -0.42485973 1.8106583 6447714
1.0352337 -0.37499082 1.8359835 6447714
1.0617478 -0.37499464 1.8111783 6447714
-0.70714128 -0.31224459 1.8472793 2633784
1.0352973 -0.32497004 1.8361236 6447714
1.0618267 -0.32501456 1.8113029 6447714
-0.97200727 -0.29446271 1.8272673 2039583
-0.90659469 -0.2944375 1.8375146 2039583
-0.87503588 -0.29435045 1.8265114 3692923
-0.82765448 -0.29428807 1.8245319 2440791
-0.79793036 -0.29417133 1.8067805 1848654
-0.70716584 -0.29694897 1.8473434 4017498
1.0353677 -0.27491507 1.8362571 6447714
1.0619169 -0.27499691 1.8114187 6447714
1.0354651 -0.2249849 1.8363652 6447714
1.0619529 -0.22506282 1.811583 6447714
1.0354789 -0.17502117 1.8365506 6447714
1.0622197 -0.17482054 1.8115346 6447714
1.0355728 -0.12499701 1.836663 6447714
1.0625712 -0.12500414 1.8114049 6447714
1.0357133 -0.075125858 1.8367289 6447714
1.0627158 -0.074846752 1.8114693 6447714
1.0361519 -0.025182078 1.8365177 6447714
1.062758 -0.024826406 1.8116276 6447714
1.0362735 0.025109446 1.8366044 6447714
1.062819 0.024799401 1.8117681 6447714
1.0364338 0.075115986 1.8366537 6447714
1.0629566 0.07480593 1.8118411 6447714
-1.451422 0.10518648 1.826597 927556
-1.4233311 0.1052628 1.8164462 993605
-1.3942523 0.10535347 1.8035464 993092
-1.1183612 0.10552678 1.8219916 993862
-1.0767581 0.10557838 1.8195531 7765123
-1.0468527 0.10565945 1.8087842 10000536
-0.96918374 0.1056693 1.8219595 10000536
-0.90614468 0.10566621 1.8349276 10197915
-0.87509948 0.10575299 1.8232085 4680077
-0.82723689 0.10580012 1.8229123 1191757
-0.79971009 0.10587712 1.8125107 1124934
-0.70359874 0.1058444 1.838022 1256775
-0.67456216 0.10592775 1.8266171 6450039
-0.62523788 0.10597207 1.8271805 10197915
-0.57513493 0.10601705 1.8277614 10066329
-0.52714449 0.10606234 1.827866 10000536
-0.40709108 0.10615481 1.8323957 1854596
-0.3772952 0.10619333 1.83033 1920132
-0.2733373 0.10627987 1.8329242 10000536
-0.2255574 0.10632391 1.8332462 10000536
-0.17512655 0.10636916 1.8338315 10000536
-0.124654 0.10641272 1.8347785 10000536
-0.072584175 0.10648451 1.8302475 10000536
-0.048593093 0.10655425 1.8206482 10066329
0.092806958 0.1067238 1.8135496 10197915
0.12479354 0.10674896 1.8146496 10197915
0.17485717 0.10679394 1.8152236 10197915
0.22496226 0.10683724 1.8161498 10197915
0.27511027 0.10688229 1.8167247 10197915
0.32529688 0.10692565 1.8176531 10197915
0.37515107 0.10696959 1.8184011 10197915
0.42504624 0.10701357 1.8191481 10197915
0.47497532 0.10705931 1.8195368 10197915
0.52494997 0.1071016 1.8206444 10197915
0.57496846 0.10714567 1.8213933 10197915
0.62502801 0.10718978 1.8221438 10197915
0.67474294 0.10723449 1.8227057 10197915
0.72450596 0.10727745 1.823634 10197915
0.77506483 0.10732289 1.8242145 10197915
0.82529098 0.10736716 1.8249608 10197915
0.87516874 0.10741022 1.8258909 10197915
0.9250986 0.10745512 1.8264561 10197915
0.97505653 0.10749824 1.8273869 10197915
1.0323633 0.1048275 1.8335657 9605778
1.0625595 0.10396158 1.8122085 9605778
0.98147017 -0.8215974 1.8845019 6447714
1.008477 -0.81593245 1.8592594 6447714
0.98253089 -0.77512282 1.8836954 6447714
1.0090861 -0.77478546 1.8588521 6447714
0.98259163 -0.72511059 1.8838371 6447714
1.0094953 -0.72507668 1.8586682 6447714
0.98264998 -0.67502058 1.8839806 6447714
1.0095685 -0.67503333 1.8587989 6447714
-0.76609069 -0.6038897 1.8667068 2171169
-0.72502249 -0.60386068 1.8734204 5987163
-0.67502791 -0.6037848 1.8733428 6447714
-0.63132352 -0.60368484 1.8664256 6447714
-0.59819174 -0.60356009 1.8511577 6447714
0.98277438 -0.62513 1.8840631 6447714
1.009652 -0.62506318 1.8589201 6447714
0.98333752 -0.57506853 1.8837366 6447714
1.0096989 -0.57504475 1.8590759 6447714
0.98337811 -0.52503681 1.8838972 6447714
1.0097886 -0.52502078 1.8591905 6447714
0.98346692 -0.47502321 1.8840135 6447714
1.0098722 -0.47498846 1.8593124 6447714
0.98353398 -0.42497784 1.8841493 6447714
1.0099847 -0.42484888 1.8594055 6447714
0.98358798 -0.37499815 1.8842995 6447714
1.0105163 -0.37497547 1.8591082 6447714
-1.108833 -0.31250745 1.8914957 2039583
-1.086483 -0.31229657 1.8705393 2039583
-0.70222253 -0.31205282 1.8525265 1976372
-0.67899221 -0.3121725 1.8773018 4671562
0.98369807 -0.32501179 1.8843961 6447714
1.010585 -0.32493466 1.8592422 6447714
-1.1078633 -0.29628798 1.8936869 2039583
-1.0880724 -0.29635811 1.8749322 2039583
-1.0067471 -0.29480854 1.8925745 2039583
-0.99308854 -0.29467255 1.8668979 2039583
-0.91733581 -0.29464674 1.8794868 2702156
-0.87520343 -0.29458433 1.8762604 3233146
-0.83767903 -0.29452181 1.8719021 2637139
-0.70940113 -0.29500645 1.8732585 2899795
-0.68118012 -0.29632422 1.8797536 5790558
0.98373777 -0.2749697 1.8845582 6447714
1.0106555 -0.27500284 1.8593752 6447714
0.98414749 -0.22516295 1.8843738 6447714
1.0107374 -0.2249866 1.8594973 6447714
0.98403776 -0.17520717 1.8846766 6447714
1.0104014 -0.17472804 1.860013 6447714
0.98403054 -0.12502462 1.8848816 6447714
1.010415 -0.12510756 1.8601977 6447714
0.98399651 -0.075000361 1.8851126 6447714
1.0103396 -0.07501512 1.8604671 6447714
0.98405063 -0.024993006 1.8852607 6447714
1.0110291 -0.024843808 1.860023 6447714
0.98412144 0.024995374 1.8853951 6447714
1.0111401 0.024909673 1.8601168 6447714
0.98419023 0.074990824 1.8855278 6447714
1.0110629 0.075000972 1.8603888 6447714
-1.4675668 0.10497352 1.867117 993605
-1.4393865 0.10505275 1.8563852 993350
-1.1598884 0.10523049 1.8746321 993862
-1.1249231 0.10529202 1.8688562 4215139
-1.0876507 0.1053468 1.8649185 10000536
-1.0018847 0.10533834 1.8834336 4879516
-0.98852617 0.10547359 1.8583211 7506074
-0.91579866 0.10546334 1.8746496 7964564
-0.87474 0.10551271 1.8725609 1721455
-0.83711767 0.10555878 1.8704796 1059398
-0.71101409 0.1056395 1.8785981 1584969
-0.67492688 0.1056882 1.8756754 9408915
-0.62467152 0.10573233 1.8764588 10197915
-0.57476455 0.10577521 1.8774322 10132122
-0.53392166 0.10581864 1.8765192 10066329
-0.4129301 0.10590959 1.8815449 1986951
-0.38240758 0.10594956 1.8793241 1854082
-0.30259466 0.10597698 1.8893149 10000536
-0.27484289 0.10603958 1.8819116 10000536
-0.22464469 0.10608273 1.88289 10000536
-0.17479302 0.10612652 1.8836675 10000536
-0.12490346 0.10617226 1.8840464 10000536
-0.074976712 0.10621417 1.8852229 10000536
-0.049215093 0.10623682 1.8856251 10000536
0.093739383 0.10648933 1.8618119 10197915
0.12503946 0.10651281 1.8631221 10197915
0.17528352 0.10655698 1.8638955 10197915
0.22517464 0.1066018 1.8644708 10197915
0.27511731 0.10664476 1.8654305 10197915
0.3250922 0.10668963 1.8660076 10197915
0.37511563 0.1067327 1.8669686 10197915
0.42517474 0.10677765 1.8675467 10197915
0.47527909 0.10682078 1.8685092 10197915
0.52503645 0.10686451 1.8692746 10197915
0.57521582 0.10690959 1.8698542 10197915
0.62505674 0.10695343 1.8706144 10197915
0.6745432 0.10699598 1.8715738 10197915
0.72485459 0.10704115 1.8721553 10197915
0.7752015 0.10708449 1.8731221 10197915
0.82520503 0.10712844 1.8738914 10197915
0.8748554 0.1071731 1.8744563 10197915
0.9245472 0.10721582 1.8754193 10197915
0.9811973 0.10459159 1.8816622 9342606
1.0113057 0.10397583 1.8601009 9342606
0.92710137 -0.85788804 1.9352207 6447714
0.95480055 -0.85208911 1.909331 6447714
0.93083417 -0.82493645 1.9318604 6447714
0.95750725 -0.82505554 1.9069065 6447714
0.93087095 -0.77486682 1.932025 6447714
0.95755333 -0.77500129 1.9070634 6447714
0.93094498 -0.72488141 1.9321564 6447714
0.95764565 -0.72493941 1.9071764 6447714
0.9313072 -0.67514187 1.9320135 6447714
0.95770174 -0.67498416 1.9073224 6447714
-0.72184348 -0.60410303 1.9238771 6447714
-0.68187958 -0.60400045 1.9152559 6447714
-0.64954406 -0.60387909 1.9004316 6447714
0.93163884 -0.62506419 1.9319029 6447714
0.95781302 -0.62492335 1.9074168 6447714
0.93170112 -0.57508141 1.9320471 6447714
0.9583835 -0.57507646 1.9070823 6447714
0.93175399 -0.52504593 1.9321952 6447714
0.95842898 -0.52502197 1.9072391 6447714
0.93183118 -0.47504875 1.9323212 6447714
0.95851737 -0.47501412 1.9073563 6447714
0.93189216 -0.42502242 1.9324639 6447714
0.95856732 -0.42499807 1.9075077 6447714
0.93162966 -0.37520158 1.9329082 6447714
0.95831251 -0.37462583 1.9079465 6447714
-1.1605198 -0.31238076 1.9399594 1778474
-1.1335214 -0.31252062 1.9146448 2039583
-0.65394801 -0.31225923 1.9040115 6381921
-0.63051647 -0.31229982 1.9290018 6447714
0.93146062 -0.32500428 1.9332646 6447714
0.95818311 -0.32492629 1.9082658 6447714
-1.159333 -0.29678422 1.9405577 1843751
-1.1290205 -0.29572704 1.9229131 2039583
-1.0236893 -0.29497719 1.9244239 2039583
-0.95561904 -0.29494438 1.9336952 2039583
-0.92463821 -0.29486242 1.9236321 3626871
-0.87541032 -0.29480371 1.9229043 2375513
-0.84614861 -0.29471314 1.9105924 2045776
-0.72083503 -0.29466224 1.9296479 4279640
-0.67223161 -0.29496044 1.9240471 6381921
-0.63245296 -0.29639977 1.932114 6447714
0.93207014 -0.27501076 1.9328947 6447714
0.95823908 -0.27494067 1.9084136 6447714
0.93213207 -0.22500587 1.9330351 6447714
0.95867002 -0.22472484 1.9082094 6447714
0.93225628 -0.17499232 1.9331188 6447714
0.95896029 -0.17507997 1.9081357 6447714
0.9322381 -0.12497064 1.9333335 6447714
0.95897311 -0.1249135 1.9083234 6447714
0.93244505 -0.074843958 1.9333405 6447714
0.95904058 -0.07511121 1.9084591 6447714
0.93237239 -0.024832899 1.9336075 6447714
0.95912385 -0.025256814 1.9085788 6447714
0.93243945 0.024835244 1.933745 6447714
0.95920724 0.025213571 1.9087026 6447714
0.93283296 0.074653417 1.9335752 6447714
0.95921397 0.075033277 1.9088938 6447714
-1.5138193 0.1046686 1.9205945 1059398
-1.4851414 0.1047484 1.9098361 993605
-1.2028053 0.10490511 1.9329605 1059399
-1.17276 0.10498955 1.9215202 1651275
-1.1284426 0.10504742 1.9183252 8948622
-1.0226626 0.10512804 1.9224938 4550810
-0.95651871 0.10512077 1.9369342 10000536
-0.92500108 0.10521465 1.9238466 4746126
-0.8763057 0.10525844 1.9243932 1257809
-0.84673989 0.10534743 1.9119209 1059398
-0.72050548 0.1053852 1.9288826 4740711
-0.67492944 0.1054327 1.928066 10197915
-0.62526768 0.10547725 1.9286488 10197915
-0.57516158 0.10552114 1.9294513 10197915
-0.54096723 0.10556197 1.927771 10197915
-0.41875038 0.10565148 1.9333391 2118537
-0.38738236 0.10569283 1.9309926 1655934
-0.3066439 0.10574227 1.9366571 10000536
-0.27527612 0.10578392 1.934256 10000536
-0.22528152 0.10582668 1.9352707 10000536
-0.17524663 0.10587154 1.9358584 10000536
-0.12652941 0.10597089 1.9250132 10000536
-0.074932523 0.10602408 1.9242015 9934743
0.095142759 0.10623723 1.9137791 10197915
0.12489715 0.10626436 1.914041 10197915
0.17493331 0.10630824 1.9148314 10197915
0.22501075 0.10635219 1.9156226 10197915
0.27511939 0.1063941 1.9168321 10197915
0.32527563 0.10644013 1.9172071 10197915
0.37507826 0.1064828 1.9182026 10197915
0.42491591 0.10652754 1.9187814 10197915
0.47479859 0.1065703 1.9197786 10197915
0.52471995 0.10661508 1.9203583 10197915
0.57468301 0.10665789 1.921357 10197915
0.62468827 0.10670277 1.9219376 10197915
0.67473155 0.10674567 1.9229382 10197915
0.72482121 0.10679065 1.9235202 10197915
0.77494496 0.10683359 1.9245218 10197915
0.8247149 0.10687727 1.9253083 10197915
0.87492448 0.10692229 1.925892 10197915
0.92984444 0.10435764 1.9307134 9013641
0.95936978 0.10355672 1.9088135 8750469
0.8775906 -0.86828583 1.9814959 6447714
0.90545058 -0.86249375 1.9554573 6447714
0.87938046 -0.82499087 1.9799962 6447714
0.90569615 -0.8250801 1.9553764 6447714
0.87942833 -0.774894 1.9801532 6447714
0.90574419 -0.77499092 1.9555317 6447714
0.87947679 -0.72492641 1.9803045 6447714
0.90580493 -0.72497475 1.9556738 6447714
-0.57669932 -0.66340464 1.9905757 6447714
0.87954086 -0.6750204 1.9804446 6447714
0.90620655 -0.67441899 1.9555004 6447714
-0.75614047 -0.60444397 1.9828869 6447714
-0.73341376 -0.60432369 1.965349 6447714
-0.57807076 -0.6250537 1.9904186 6447714
0.87960535 -0.62508458 1.9805815 6447714
0.9065116 -0.62503219 1.9554116 6447714
-0.57813793 -0.57508016 1.9906609 6447714
0.87967604 -0.57505 1.9807149 6447714
0.90658182 -0.5750677 1.9555436 6447714
-0.58257866 -0.54601216 1.9896142 6447714
0.88013542 -0.52514803 1.9804876 6447714
0.90663004 -0.52502269 1.9556981 6447714
0.88038194 -0.47503445 1.9804543 6447714
0.90669745 -0.47496971 1.955834 6447714
0.8804335 -0.42501563 1.9806046 6447714
0.90676564 -0.42490962 1.9559698 6447714
-0.57932335 -0.35779366 1.9919457 3158064
0.87999874 -0.37510198 1.9812099 6447714
0.90631586 -0.37466836 1.9565918 6447714
-1.1865623 -0.31250098 1.9643779 1388362
-0.60533702 -0.31232658 1.9558554 6447714
-0.58068252 -0.32251763 1.9847648 6447714
0.87998378 -0.3249723 1.9814233 6447714
0.90634567 -0.32494286 1.9567612 6447714
-1.2000306 -0.25720787 1.9772077 1520204
-1.1679003 -0.27395234 1.9630551 1778732
-1.1464478 -0.27681234 1.9742806 2039583
-1.057578 -0.29531306 1.9878235 5865378
-1.042773 -0.29516858 1.9606066 4878225
-0.96656227 -0.29516321 1.977608 2504261
-0.92501378 -0.29509553 1.9731716 3299455
-0.88400763 -0.29502964 1.968923 2571603
-0.75628507 -0.29495582 1.9836708 3425878
-0.72514582 -0.29489028 1.9771656 5264988
-0.67504388 -0.29483274 1.976871 6381921
-0.61462736 -0.27998248 1.9812775 6447714
-0.58104616 -0.27531785 1.982662 6447714
0.88004231 -0.27494153 1.9815682 6447714
0.90692115 -0.27489212 1.9564219 6447714
-1.2001944 -0.22529158 1.9774778 1388618
-1.1670222 -0.22498812 1.9630061 1712683
-1.1477071 -0.22511755 1.9773482 2039583
-0.61075968 -0.22495988 1.98684 6447714
-0.58093703 -0.22489356 1.9831656 6447714
0.88010973 -0.22497706 1.9817048 6447714
0.90700597 -0.22496255 1.9565418 6447714
-1.2004509 -0.17535512 1.9779003 1190472
-1.1671331 -0.17500967 1.9632235 1712427
-1.1477801 -0.17499155 1.977566 2039583
-0.61079615 -0.17501763 1.9870579 6447714
-0.58091629 -0.17499195 1.9834694 6447714
0.88019949 -0.17505375 1.9818184 6447714
0.90706968 -0.17496873 1.9566804 6447714
-1.2007076 -0.12539719 1.9783235 1257033
-1.1672826 -0.1250169 1.963526 1712939
-1.1479251 -0.12503701 1.9777052 2039583
-0.61096299 -0.12506397 1.9873958 6447714
-0.58103102 -0.12507889 1.9836636 6447714
0.88078153 -0.12509207 1.9814742 6447714
0.90718502 -0.12522033 1.9567711 6447714
-1.2009684 -0.074598484 1.9787529 1454667
-1.1669862 -0.07510265 1.9639748 1778732
-1.1475873 -0.075808905 1.9783564 2039583
-0.61098862 -0.074850962 1.9876033 6447714
-0.58099455 -0.074955471 1.9839803 6447714
0.88073254 -0.074953414 1.9817203 6447714
0.9072237 -0.075337298 1.956934 6447714
-1.2012253 -0.024597611 1.9791762 1323338
-1.1669891 -0.025227796 1.9643744 1778732
-1.1472102 -0.024135008 1.9790633 2039583
-0.61105967 -0.024790185 1.9878522 6447714
-0.58123565 -0.024959285 1.9840524 6447714
0.88103455 -0.024981802 1.9816347 6447714
0.90727168 -0.025134468 1.9570897 6447714
-1.2014781 0.024604511 1.9795922 1257290
-1.1671309 0.025231907 1.9646139 1712940
-1.1472298 0.024934998 1.9793316 2039583
-0.61117184 0.024710383 1.9881376 6447714
-0.58135742 0.024841471 1.9842238 6447714
0.88109356 0.024959214 1.9817797 6447714
0.90733635 0.025136854 1.9572294 6447714
-1.2016592 0.059878055 1.9798909 1125704
-1.167305 0.075189717 1.964756 3884109
-1.147295 0.074951433 1.979556 5460819
-0.61119086 0.074800186 1.9883385 8882055
-0.58182567 0.074964784 1.9840218 8816262
0.88093704 0.074920177 1.9821235 6447714
0.90764254 0.075719625 1.9571441 6447714
-1.5615269 0.10434067 1.9784958 1059397
-1.5310763 0.10443828 1.9644426 1059398
-1.2186282 0.10467467 1.9771124 1059655
-1.1691706 0.10279855 1.9642595 6516087
-1.1446239 0.1035838 1.9721909 10000536
-1.0591366 0.10475883 1.9910609 3959446
-1.044219 0.10490985 1.9630175 4222103
-0.96744555 0.10489279 1.9815348 7767444
-0.92524219 0.10494601 1.9788917 1721713
-0.88588697 0.10499549 1.9764394 1059398
-0.75696224 0.10505962 1.9885139 1059141
-0.7247566 0.10512117 1.9821955 7765124
-0.67493522 0.10516473 1.9830164 10197915
-0.62221986 0.10424118 1.9837233 10197915
-0.57807809 0.10356506 1.9820303 10197915
-0.54713833 0.10534455 1.9711512 10197915
-0.42344436 0.10545272 1.973175 2053001
-0.39166772 0.10548051 1.9736954 1589628
-0.30929321 0.10555255 1.9750432 10000536
-0.275004 0.10558251 1.9756037 10000536
-0.22517018 0.10562611 1.9764202 10000536
-0.1752954 0.10566974 1.9772359 9934743
-0.12453128 0.10577945 1.9646734 9934743
-0.075295888 0.10582585 1.9647847 10066329
0.096572436 0.10598271 1.9662623 10197915
0.12516722 0.10600129 1.9680417 10197915
0.17497499 0.1060427 1.9693061 10197915
0.224823 0.10608856 1.9696609 10197915
0.27472007 0.10613216 1.9704715 10197915
0.32506135 0.10617512 1.9715171 10197915
0.37503895 0.10621881 1.9723289 10197915
0.42464274 0.10626332 1.9729072 10197915
0.47511247 0.10630642 1.9739555 10197915
0.52521384 0.1063503 1.9747694 10197915
0.57493633 0.10639492 1.9753492 10197915
0.62512213 0.10643885 1.9761642 10197915
0.67493099 0.10648128 1.9772022 10197915
0.72478586 0.10652602 1.9777834 10197915
0.77467465 0.10656852 1.9788231 10197915
0.82461339 0.10661343 1.9794054 10197915
0.87866652 0.10405373 1.9800954 8553090
0.90776718 0.10364462 1.9571389 8487297
0.81771392 -0.90574855 2.0373647 6447714
0.82750851 -0.87504303 2.0283239 6447714
0.85402077 -0.87318224 2.0035291 6447714
0.82768524 -0.82500714 2.0283582 6447714
0.85415149 -0.8249712 2.0035985 6447714
0.8277837 -0.77493942 2.0284655 6447714
0.85421234 -0.77486658 2.0037417 6447714
0.8278172 -0.7249307 2.0286329 6447714
0.85426134 -0.72487283 2.0038948 6447714
-0.62539399 -0.66119051 2.0263882 6447714
-0.59857243 -0.66121399 2.0012393 6447714
0.82788908 -0.67498493 2.0287662 6447714
0.85432184 -0.67499095 2.0040367 6447714
-0.76621646 -0.60457772 2.0070667 6447714
-0.62551928 -0.62498719 2.0266376 6447714
-0.59866977 -0.62520242 2.001462 6447714
0.8279525 -0.62489516 2.0289061 6447714
0.8543883 -0.62498277 2.004174 6447714
-0.6256054 -0.5750038 2.026902 6447714
-0.59876436 -0.57510793 2.0017335 6447714
0.82800418 -0.57488847 2.0290561 6447714
0.85444331 -0.57508695 2.0043206 6447714
-0.62551212 -0.5456534 2.0269208 6447714
-0.59868598 -0.54530793 2.0017684 6447714
0.82807088 -0.52501124 2.0291929 6447714
0.85494399 -0.52452141 2.0040541 6447714
0.82860708 -0.47513717 2.0288889 6447714
0.85515237 -0.4751114 2.0040557 6447714
0.82880366 -0.4250181 2.0289054 6447714
0.8552351 -0.42501646 2.004178 6447714
-0.6257472 -0.36377311 2.0278044 2894892
-0.59791863 -0.35991213 2.001725 2829099
0.82881486 -0.37500811 2.0290937 6447714
0.85526657 -0.37501615 2.004348 6447714
-0.62001526 -0.34249055 2.0225072 6447714
-0.59794879 -0.34002629 2.001826 6447714
0.82874888 -0.32514229 2.0293546 6447714
0.85514069 -0.32436779 2.0046668 6447714
-1.1613115 -0.29553089 2.0094266 2039583
-1.0780139 -0.29551789 2.0265479 6522790
-1.0062213 -0.29548132 2.0358896 2039583
-0.97473669 -0.29539916 2.0259287 3561078
-0.92503756 -0.29533967 2.0251305 2375772
-0.89413166 -0.29525825 2.0151787 2177361
-0.76454991 -0.29516602 2.026453 3228500
-0.72498769 -0.29510799 2.0235925 6381921
-0.67497021 -0.29505068 2.0232964 6381921
-0.63966656 -0.29499635 2.0201578 6447714
0.82833922 -0.27499714 2.0299368 6447714
0.85480559 -0.27496731 2.005177 6447714
0.82842416 -0.22498801 2.0300567 6447714
0.85487962 -0.22486407 2.0053077 6447714
0.82846594 -0.17501831 2.0302167 6447714
0.85495794 -0.17466249 2.0054345 6447714
0.8285135 -0.12504326 2.030371 6447714
0.85554534 -0.12444644 2.0050855 6447714
0.82914627 -0.075271241 2.0299771 6447714
0.85564178 -0.074765183 2.0051935 6447714
0.82925004 -0.025158264 2.0300801 6447714
0.85570234 -0.024923293 2.0053344 6447714
-0.56592107 0.047229141 2.0000129 6447714
0.82932556 0.025136214 2.0302091 6447714
0.85576272 0.024925644 2.0054765 6447714
-0.56595618 0.074577421 2.0001369 8750469
0.82941234 0.075135268 2.030329 6447714
0.85582304 0.074781656 2.0056193 6447714
-1.6114167 0.10398968 2.0407166 1059654
-1.5788183 0.10411098 2.0222208 1059655
-1.5495025 0.10418925 2.011919 1059399
-1.2611964 0.10432946 2.0395763 1059655
-1.2389556 0.10442532 2.0242755 1059655
-1.173382 0.10444422 2.033227 10000536
-1.0823882 0.10452354 2.0347712 3565204
-1.0022864 0.10466649 2.0211346 10000536
-0.97487533 0.1046904 2.0215962 5205647
-0.925008 0.10473389 2.0224364 1324374
-0.8959012 0.10475928 2.0229263 1125190
-0.76432151 0.10487404 2.0251424 1913420
-0.72512394 0.10490823 2.0258029 10197915
-0.67504889 0.1049519 2.0266459 10197915
-0.64080852 0.10498177 2.0272229 10197915
-0.56629682 0.10419616 2.0207808 10197915
-0.45341954 0.10518087 2.0230625 1855109
-0.42472377 0.10524276 2.0159786 2052488
-0.39516029 0.10528681 2.0127285 1523320
-0.31319767 0.10533199 2.0195091 9934743
-0.27513418 0.10537209 2.0187278 9934743
-0.22505483 0.10541821 2.0190766 9934743
-0.1749312 0.10545958 2.0204034 10066329
-0.12476127 0.10550335 2.0212424 10132122
-0.075806357 0.10554733 2.0218031 10197915
0.097672835 0.10571183 2.0220218 10197915
0.12502255 0.10572136 2.0254188 10197915
0.17501831 0.10576621 2.0260053 10197915
0.22505584 0.10580865 2.027091 10197915
0.2751362 0.10585358 2.027679 10197915
0.32525459 0.10589612 2.0287664 10197915
0.37541968 0.10594112 2.0293558 10197915
0.42477477 0.10598299 2.0304308 10197915
0.4745993 0.10602646 2.0312638 10197915
0.52488381 0.10607157 2.0318546 10197915
0.57521093 0.10611425 2.0329461 10197915
0.62515885 0.10615786 2.0337813 10197915
0.67471665 0.10620233 2.0343599 10197915
0.72132641 0.10628656 2.0262046 10197915
0.77551669 0.10636114 2.0215144 10197915
0.82772905 0.10369802 2.0294838 8026746
0.85585755 0.10303621 2.0056989 7763574
0.7723583 -0.91525841 2.0797586 6447714
0.80172825 -0.90917856 2.0523067 6447714
0.77590096 -0.87505955 2.0766048 6447714
0.80235159 -0.8740316 2.0518632 6447714
0.77602696 -0.82502478 2.0766859 6447714
0.80246425 -0.82501429 2.0519533 6447714
0.77609229 -0.77495331 2.0768237 6447714
0.80256337 -0.77491307 2.0520604 6447714
0.77614051 -0.72492039 2.0769792 6447714
0.80258363 -0.72501814 2.0522401 6447714
-0.70253533 -0.66166943 2.0987182 6447714
-0.67493665 -0.66121602 2.0728419 6447714
0.77620459 -0.67501605 2.0771165 6447714
0.80265611 -0.67511594 2.0523708 6447714
-0.70163584 -0.62757331 2.0979991 6447714
-0.67505538 -0.62498975 2.0730848 6447714
0.77624238 -0.62494594 2.0772803 6447714
0.80271345 -0.62499446 2.0525169 6447714
-0.70142287 -0.57452303 2.0979927 6447714
-0.675161 -0.57503372 2.0733662 6447714
0.77628547 -0.57493651 2.0774417 6447714
0.8027705 -0.57486558 2.0526628 6447714
-0.70147371 -0.54588044 2.098145 6447714
-0.6748696 -0.54574126 2.0732005 6447714
0.77638638 -0.52505642 2.0775461 6447714
0.80284321 -0.52494401 2.0527935 6447714
0.77686346 -0.47520769 2.0772963 6447714
0.80339348 -0.47425038 2.0524809 6447714
0.7770952 -0.42503592 2.0772803 6447714
0.80358863 -0.42482832 2.052495 6447714
-0.70177454 -0.3765403 2.0990446 2697513
-0.67649031 -0.37130597 2.0753565 2894892
-0.64982402 -0.36695915 2.0503683 2960685
0.77719122 -0.37498605 2.0773883 6447714
0.80362052 -0.37502354 2.0526643 6447714
-0.66090339 -0.3476828 2.0608273 6447714
-0.6498574 -0.34659061 2.0504739 6447714
0.77720582 -0.32497549 2.077574 6447714
0.80366063 -0.32504109 2.0528252 6447714
-1.101541 -0.29574448 2.0691652 7903151
-1.0960022 -0.29569948 2.0609014 6982570
-1.0167285 -0.29568958 2.0777349 2306110
-0.97518367 -0.29562744 2.0743973 3300228
-0.93152839 -0.2955654 2.0716174 2440275
-0.80248535 -0.29551566 2.0918174 4214875
-0.77324456 -0.29539928 2.0740294 4345432
-0.72482204 -0.29533669 2.0722551 6381921
-0.67626691 -0.29527423 2.0705593 6447714
-0.64601082 -0.29519016 2.0598898 6447714
0.77701932 -0.2751655 2.0779469 6447714
0.80346811 -0.2738114 2.0532098 6447714
0.77667785 -0.22495699 2.0784686 6447714
0.80313665 -0.22503649 2.0537138 6447714
0.77672458 -0.17497805 2.0786223 6447714
0.80325729 -0.17485934 2.0538013 6447714
0.77687722 -0.125065 2.0786786 6447714
0.80328214 -0.12508756 2.0539751 6447714
0.77722234 -0.075194404 2.0785546 6447714
0.80387139 -0.074351586 2.0536273 6447714
0.77747589 -0.024971733 2.0785158 6447714
0.80401874 -0.024673417 2.0536871 6447714
0.7775321 0.0249741 2.0786633 6447714
0.80407536 0.024675731 2.0538311 6447714
0.777686 0.075000368 2.0787208 6447714
0.80413258 0.074882865 2.0539775 6447714
-1.6235096 0.10382922 2.0712469 1059654
-1.5972618 0.10385206 2.071702 1059655
-1.2779551 0.10412975 2.0772417 1059655
-1.1995677 0.10419791 2.0786016 10000536
-1.1065619 0.10427882 2.0802155 3236498
-1.0145986 0.10441531 2.070225 8686998
-0.97490209 0.1044674 2.0673096 2314366
-0.93012398 0.10452273 2.0647268 1059655
-0.80093277 0.10454462 2.0855179 1191496
-0.77268261 0.10463759 2.0719898 5003882
-0.72508419 0.1046861 2.0713494 10197915
-0.67516106 0.10473082 2.0719466 10197915
-0.64518064 0.10483122 2.0572312 10197915
-0.57908505 0.10481317 2.0738633 10197915
-0.46041211 0.10490268 2.0787289 1986695
-0.42657205 0.10495132 2.075381 1920645
-0.31778896 0.10503697 2.0791035 10000536
-0.27475551 0.10507804 2.0791044 10066329
-0.22489011 0.10512144 2.0799627 10132122
-0.17498355 0.10516487 2.0808229 10197915
-0.1250397 0.10521095 2.081146 10197915
-0.076784194 0.10525034 2.082514 10197915
0.098618627 0.10547905 2.0699446 10197915
0.12437335 0.10550146 2.0703843 10197915
0.17505307 0.10554561 2.0712507 10197915
0.22577499 0.10558978 2.0721176 10197915
0.27567869 0.10563324 2.0729702 10197915
0.32562357 0.10567674 2.0738239 10197915
0.37560949 0.10572027 2.0746782 10197915
0.42563674 0.10576385 2.0755332 10197915
0.47570515 0.10580746 2.0763893 10197915
0.5249505 0.10585036 2.0772309 10197915
0.57423592 0.10589327 2.0780733 10197915
0.62442696 0.10593699 2.0789313 10197915
0.67465955 0.10598073 2.0797896 10197915
0.72733665 0.10609063 2.0675652 10197915
0.77638787 0.10387249 2.0735538 7895160
0.8042891 0.10359532 2.0535398 7631988
0.69798684 -0.95578533 2.1491737 6447714
0.7082898 -0.95366073 2.1395438 6447714
0.69806975 -0.92512029 2.1492183 6447714
0.7241587 -0.92388189 2.1248169 6447714
0.69839865 -0.87911826 2.1490941 6447714
0.72513688 -0.87503964 2.1240952 6447714
0.75083762 -0.87177169 2.1000655 6447714
0.69885284 -0.82437891 2.1488872 6447714
0.72515863 -0.82503051 2.1242731 6447714
0.75088751 -0.82484496 2.1002054 6447714
0.69890213 -0.77457923 2.1490395 6447714
0.72520876 -0.77494627 2.1244266 6447714
0.75094044 -0.77530444 2.100353 6447714
0.69895178 -0.72477251 2.1491911 6447714
0.72527146 -0.72494614 2.1245687 6447714
0.75099432 -0.72488761 2.1005034 6447714
-0.75307429 -0.66149414 2.1461067 6447714
-0.72688681 -0.66126472 2.1215522 6447714
0.69900113 -0.67495883 2.1493435 6447714
0.72531229 -0.67498589 2.1247268 6447714
0.75104797 -0.67446345 2.1006539 6447714
-0.75314379 -0.62509805 2.1463044 6447714
-0.725784 -0.62478477 2.1206517 6447714
0.69905049 -0.62513793 2.1494956 6447714
0.72538972 -0.62490261 2.124856 6447714
0.75110102 -0.62490177 2.1008017 6447714
-0.75323904 -0.57507986 2.1465755 6447714
-0.72576278 -0.57500619 2.1208141 6447714
0.69909996 -0.57531005 2.1496475 6447714
0.72542077 -0.57492828 2.1250243 6447714
0.75115377 -0.57533306 2.1009498 6447714
-1.6661991 -0.52213687 2.1279764 2039583
-0.75329459 -0.54607004 2.1467335 6447714
-0.72576535 -0.5459047 2.1209216 6447714
0.69914961 -0.52547514 2.1497998 6447714
0.72546923 -0.5250625 2.1251781 6447714
0.75120771 -0.52488756 2.1011004 6447714
-1.6662258 -0.49230292 2.128123 1713972
0.69919461 -0.48008376 2.1499386 6447714
0.72554559 -0.47507343 2.1253071 6447714
0.75179654 -0.47183841 2.1007612 6447714
-0.75342733 -0.40682721 2.1473663 2039583
-0.734393 -0.40391123 2.1295297 2039583
0.7251417 -0.42517024 2.1258826 6447714
0.75148726 -0.42318565 2.1012442 6447714
-1.6664107 -0.35157931 2.1287553 1783119
-0.75227672 -0.38414085 2.1463699 2039583
-0.72505087 -0.3804456 2.1208551 2236962
0.72494733 -0.37501603 2.1262636 6447714
0.75136697 -0.37524816 2.1015475 6447714
-1.6667123 -0.32499239 2.1285894 1783119
0.72501236 -0.32501981 2.1264045 6447714
0.75142074 -0.32477397 2.1016986 6447714
-1.6668257 -0.27498201 2.1287625 1717583
-1.0527885 -0.29596782 2.1283224 2039583
-1.0241326 -0.29592201 2.1254268 3429750
-0.97499728 -0.29586738 2.1255155 2376289
-0.94155174 -0.2957938 2.1178403 2243153
-0.80920756 -0.29569954 2.1293557 2900051
-0.77494204 -0.29563478 2.1237314 5527901
-0.72749609 -0.29556897 2.1210566 6381921
-0.69030648 -0.29546145 2.1070588 6447714
0.72508287 -0.27499199 2.1265342 6447714
0.7514587 -0.27486777 2.101861 6447714
-1.6669754 -0.22505355 2.1288972 1585998
0.72509402 -0.22495721 2.1267245 6447714
0.75154221 -0.22525987 2.1019819 6447714
-1.6670927 -0.17505656 2.1290691 1388363
0.72514659 -0.17498751 2.1268747 6447714
0.75158054 -0.17504932 2.1021454 6447714
-1.6671485 -0.1250553 2.1293027 1257034
0.72524917 -0.12498648 2.1269774 6447714
0.75163442 -0.1245464 2.1022959 6447714
-1.667351 -0.074839287 2.1293821 1323084
0.72518551 -0.074905373 2.1272402 6447714
0.75208437 -0.073180571 2.1020792 6447714
-1.6671553 -0.024609258 2.1298876 1257547
0.72596484 -0.025042148 2.1267054 6447714
0.75239253 -0.025253654 2.1019826 6447714
-1.6671104 0.024798632 2.1302278 1191497
0.72612935 0.024919868 2.1267509 6447714
0.75244665 0.025256064 2.1021323 6447714
-1.6672591 0.074822739 2.1303627 1125448
0.72602183 0.074875467 2.1270521 6447714
0.75249952 0.074901983 2.1022811 6447714
-1.6653802 0.10223178 2.1263111 1059655
-1.6365861 0.1036345 2.1086326 1059655
-1.3148589 0.1038327 2.1309443 1059912
-1.2902948 0.10395189 2.1113143 1125191
-1.2270898 0.10393915 2.1262915 10000536
-1.1319703 0.1040217 2.1279805 2907791
-1.0587196 0.10400523 2.1456895 10000536
-1.0252649 0.10411428 2.1298757 4877455
-0.97494012 0.10415934 2.1304808 1324374
-0.94227535 0.10423968 2.1203995 1059654
-0.81281 0.10431714 2.1298518 1125703
-0.77475178 0.10441187 2.1178758 7699074
-0.7250393 0.10445504 2.1187518 10132122
-0.68052518 0.1044937 2.1195357 10197915
-0.59227216 0.10457034 2.1210904 10197915
-0.46534407 0.10468058 2.1233263 2118793
-0.43115884 0.10471024 2.1239283 1920132
-0.32146096 0.10480551 2.1258605 10197915
-0.27488855 0.10484596 2.1266809 10197915
-0.22476138 0.10488949 2.127564 10197915
-0.17459282 0.10493305 2.1284475 10197915
-0.12526368 0.10497589 2.1293166 10197915
-0.077658363 0.10501722 2.1301553 10197915
0.12500733 0.10527293 2.1173711 10197915
0.1750889 0.10531646 2.118247 10197915
0.22476681 0.10535826 2.1193974 10197915
0.27448741 0.10540286 2.1199849 10197915
0.3251259 0.10544547 2.1211517 10197915
0.37537083 0.10548913 2.12203 10197915
0.42521048 0.10553382 2.1226192 10197915
0.4750962 0.10557581 2.1237731 10197915
0.52501988 0.10562059 2.1243632 10197915
0.57498533 0.10566262 2.1255205 10197915
0.62499338 0.10570744 2.126111 10197915
0.67503893 0.10574957 2.1272695 9605778
0.72475785 0.10344503 2.1250091 7171437
0.75252938 0.10277616 2.1023645 6908265
0.64701003 -0.96652317 2.196821 6447714
0.67046124 -0.96151245 2.1749012 6447714
0.64712179 -0.92507207 2.1968815 6447714
0.6739319 -0.92500395 2.1718009 6447714
0.64668506 -0.87618023 2.1974854 6447714
0.67384744 -0.87468791 2.1720803 6447714
0.6464904 -0.82495916 2.197871 6447714
