# .PCD v0.7 - Point Cloud Data file format
VERSION 0.7
FIELDS x y z rgb
SIZE 4 4 4 4
TYPE F F F U
COUNT 1 1 1 1
WIDTH 1160
HEIGHT 1
VIEWPOINT 0 0 0 1 0 0 0
POINTS 1160
DATA ascii
0.41130096 -0.024848757 0.90530717 6447714
0.33393151 0.024879728 0.94227207 6447714
0.37534845 0.02501392 0.92265409 6447714
0.41169205 0.025180886 0.90543795 6447714
0.33436778 0.074892782 0.94238257 7171437
0.37548238 0.075005829 0.92290688 7171437
0.41205356 0.075176425 0.90558392 7171437
-0.75230759 0.11359292 0.94874835 10197915
-0.71976745 0.11357016 0.93008989 10197915
-0.6749534 0.11344106 0.92513412 10197915
-0.6249451 0.11327767 0.92368603 10197915
-0.57433224 0.11310611 0.92354339 10197915
-0.52515852 0.11293545 0.9242444 10197915
-0.47500682 0.11275744 0.92578554 10197915
-0.42500937 0.11259391 0.92438358 10197915
-0.3748188 0.11242936 0.92305344 10197915
-0.32427242 0.11225329 0.92390531 10197915
-0.27567145 0.11208089 0.92539763 10197915
-0.22497551 0.11190971 0.92509812 10197915
-0.1749918 0.11174606 0.9237451 10197915
-0.12479141 0.11158047 0.92262626 10197915
-0.0756374 0.11140209 0.92499262 10197915
-0.024984552 0.11122596 0.92577171 10197915
0.025031125 0.11106207 0.92442036 10197915
0.075041413 0.11089823 0.92306358 10197915
0.12577273 0.11072513 0.9231661 10197915
0.17484559 0.11054373 0.92622995 10197915
0.22501405 0.11037825 0.92509919 10197915
0.27500397 0.11021449 0.92373896 10197915
0.32976881 0.10728428 0.93274939 10197915
0.37429768 0.10594238 0.9209342 10197915
0.41208708 0.10513336 0.90563995 10197915
0.22745764 -0.42150345 0.98988575 6447714
0.27393797 -0.41651502 0.96789855 6447714
0.30581167 -0.41314405 0.95282131 6447714
0.22856706 -0.37511668 0.98965251 6447714
0.27536115 -0.37500593 0.96748769 6447714
0.30624536 -0.37473056 0.95285857 6447714
0.22891304 -0.32508287 0.989806 6447714
0.27545071 -0.32500377 0.9677611 6447714
0.30661371 -0.32467878 0.95300096 6447714
0.22926128 -0.27499291 0.98995709 6447714
0.27549198 -0.27502018 0.96805763 6447714
0.30695975 -0.2746225 0.95315385 6447714
0.22969897 -0.22500087 0.99006671 6447714
0.27524263 -0.2249935 0.96849215 6381921
0.30699974 -0.22480406 0.95345086 6447714
0.23005219 -0.17507252 0.99021512 6447714
0.27533117 -0.17500482 0.96876681 6447714
0.30737698 -0.17494172 0.95358676 6447714
0.23035325 -0.1251542 0.99038899 6447714
0.27535853 -0.12497829 0.96907073 6447714
0.30777812 -0.12497376 0.95371276 6447714
0.23039818 -0.075087748 0.99068391 6447714
0.27514783 -0.07503397 0.96948618 6447714
0.30819649 -0.074798517 0.95383286 6447714
0.23069739 -0.025007181 0.99085927 6447714
0.27520025 -0.02503328 0.96977854 6447714
0.3085461 -0.024702808 0.95398349 6447714
0.23112181 0.024980726 0.9909749 6447714
0.2752859 0.025020275 0.97005379 6447714
0.30891249 0.025162488 0.9541257 6447714
0.23151982 0.074911863 0.99110222 7171437
0.27537677 0.075021513 0.97032678 7171437
0.30930585 0.075133637 0.95425564 7171437
-0.76519454 0.1134864 0.98064584 10132122
-0.7249651 0.11338091 0.9739809 10197915
-0.67419833 0.11320563 0.97450459 10197915
-0.62499702 0.11303845 0.97444969 10197915
-0.5757091 0.11287231 0.97410935 10197915
-0.52499557 0.11269566 0.97497004 10197915
-0.47502658 0.11253212 0.97358871 10197915
-0.42434683 0.11235493 0.97458172 10197915
-0.37480956 0.11218859 0.97410786 10197915
-0.3254863 0.11201643 0.97501254 10197915
-0.2749784 0.11184653 0.9745971 10197915
-0.22498471 0.11168288 0.97322077 10197915
-0.17450897 0.11150452 0.97461534 10197915
-0.12519656 0.11133975 0.97396302 10197915
-0.07496012 0.11116048 0.97571522 10197915
-0.02497383 0.11099713 0.97428262 10197915
0.025039922 0.11083366 0.9728477 10197915
0.075107634 0.11065439 0.97473073 10197915
0.12413743 0.11048687 0.97486973 10197915
0.17495689 0.11031197 0.97528088 10197915
0.22838272 0.10704188 0.98363876 10197915
0.27449462 0.10595065 0.96871257 10197915
0.30937076 0.10530746 0.95419866 10197915
0.17177315 -0.45229506 1.0160682 6447714
0.18066795 -0.42495245 1.0120257 6447714
0.20318168 -0.42344275 1.0013721 6447714
0.18074657 -0.37501115 1.0123053 6447714
0.20352577 -0.37421143 1.0015208 6447714
0.18079875 -0.32501611 1.0125986 6447714
0.20385052 -0.32439932 1.0016825 6447714
0.18047185 -0.27498794 1.0130702 6447714
0.20382787 -0.27507198 1.0020053 6447714
0.18052071 -0.22498238 1.013365 6447714
0.20426166 -0.22505268 1.002116 6447714
0.18072045 -0.17511672 1.0135825 6447714
0.20460959 -0.17466794 1.0022701 6447714
0.18100917 -0.12500979 1.0137631 6447714
0.20496631 -0.12450157 1.002419 6447714
0.18105565 -0.075001381 1.0140582 6447714
0.20532751 -0.074515902 1.0025638 6447714
0.18114339 -0.024998819 1.014336 6447714
0.2056482 -0.024845425 1.0027266 6447714
0.18119499 0.024999792 1.0146252 6447714
0.20606497 0.024929153 1.0028436 6447714
0.18120793 0.074999794 1.0149368 7171437
0.20645012 0.075130954 1.002979 7171437
-0.81225866 0.11338498 1.0361108 9868950
-0.77489215 0.11331253 1.0245117 10000536
-0.72497785 0.11315044 1.0228583 10197915
-0.67601848 0.11298064 1.0235265 10197915
-0.62411463 0.11279566 1.0252941 10197915
-0.57497412 0.11262565 1.0258768 10197915
-0.52503467 0.11246314 1.0243011 10197915
-0.47499338 0.11229941 1.022905 10197915
-0.42584583 0.11212751 1.0238973 10197915
-0.37400013 0.11194655 1.0248388 10197915
-0.3247638 0.11177418 1.0258647 10197915
-0.2749432 0.11161175 1.0243567 10197915
-0.22496168 0.11144877 1.0228416 10197915
-0.17554583 0.11127312 1.0244211 10197915
-0.12439518 0.11109985 1.0242512 10197915
-0.074987672 0.11092407 1.0258675 10197915
-0.024984052 0.11076101 1.024361 10197915
0.024995569 0.11059794 1.0228717 10197915
0.07488358 0.1104183 1.0249605 10197915
0.12521437 0.1102526 1.0237767 10197915
0.17738701 0.10637443 1.0160921 10197915
0.20646232 0.10520792 1.003094 10197915
-0.8588652 0.1132876 1.0904053 9868950
-0.82406968 0.11323274 1.0769243 9868950
-0.77492136 0.11307654 1.074581 9868950
-0.72498161 0.11291379 1.0730463 10132122
-0.67435575 0.11274521 1.0722555 10197915
-0.62589502 0.11256482 1.0755398 10197915
-0.57502389 0.11238711 1.0765072 10197915
-0.52490515 0.11222413 1.0748957 10197915
-0.47493193 0.11206131 1.0733602 10197915
-0.42495379 0.11189844 1.0718288 10197915
-0.37502006 0.1117144 1.0748127 10197915
-0.32479167 0.11153381 1.0768555 10197915
-0.27501974 0.1113717 1.0753194 10197915
-0.22501877 0.11120899 1.0737346 10197915
-0.17501523 0.11104629 1.0721518 10197915
-0.12464284 0.11086977 1.0732197 10197915
-0.074984387 0.11068136 1.0773267 10197915
-0.024962464 0.11051895 1.0756677 10197915
0.024987858 0.11035625 1.0741231 10197915
0.074937314 0.11019419 1.0724319 10197915
0.12521066 0.11002614 1.0717902 10197915
0.16047047 0.10986917 1.0796441 10197915
-0.90402395 0.11319952 1.1416764 9868950
-0.87184656 0.11316293 1.1262082 9868950
-0.82388753 0.11300216 1.1256897 9868950
-0.7749418 0.11283661 1.1254706 9868950
-0.72485942 0.11267375 1.1238635 9934743
-0.67551339 0.11251043 1.122888 10132122
-0.62494212 0.11232825 1.1250163 10197915
-0.57480019 0.11216403 1.1236563 10197915
-0.52507949 0.11198278 1.1262059 10197915
-0.47508594 0.11182018 1.1246033 10197915
-0.42500177 0.11165723 1.1230093 10197915
-0.37547773 0.1114796 1.1249338 10197915
-0.32471496 0.11131053 1.124153 10197915
-0.27388281 0.11113545 1.1245922 10197915
-0.22496711 0.11096475 1.1254854 10197915
-0.17490005 0.11080273 1.1237108 10197915
-0.12602127 0.11063452 1.1241043 10197915
-0.07494849 0.11045674 1.124945 10197915
-0.025044076 0.11029466 1.1232977 10197915
0.025630437 0.11011171 1.1255273 10197915
0.075078033 0.10994848 1.1244537 10197915
0.12456354 0.10978495 1.1234162 10197915
0.16410731 0.10963315 1.1270622 10197915
-0.91804492 0.1130834 1.1764144 9868950
-0.87399268 0.11294708 1.1735432 9868950
-0.82618546 0.11277115 1.1763369 9868950
-0.77511716 0.11259634 1.1765548 9868950
-0.72513342 0.11243457 1.1747837 9868950
-0.67509615 0.11227173 1.1732036 10066329
-0.62500322 0.11210901 1.1715442 10197915
-0.57449919 0.11192597 1.1739196 10197915
-0.5249359 0.11173917 1.1777581 10197915
-0.47486493 0.11157651 1.176123 10197915
-0.42493898 0.11141533 1.174262 10197915
-0.37476644 0.11125193 1.1727046 10197915
-0.32473698 0.11108972 1.1709924 10197915
-0.27591988 0.11090075 1.1758391 10197915
-0.22495787 0.11071981 1.1774189 10197915
-0.17504884 0.11055883 1.1755449 10197915
-0.12509041 0.11039615 1.1739788 10197915
-0.075081594 0.11023506 1.1720644 10197915
-0.024526849 0.11006724 1.1711601 10197915
0.024291351 0.10987061 1.1776136 10197915
0.074981406 0.10970119 1.1769601 10197915
0.1250148 0.10953965 1.1751064 10197915
0.16790923 0.10939672 1.174454 10197915
-0.96504962 0.11298531 1.2311381 9868950
-0.92522162 0.1128928 1.222017 9868950
-0.87634939 0.11271997 1.2233938 9868950
-0.82393402 0.11253349 1.2251122 9868950
-0.77491277 0.11235691 1.2271785 9868950
-0.72496045 0.11219524 1.2254111 9868950
-0.67514968 0.11203419 1.2236067 9934743
-0.62507176 0.11187213 1.2218403 10132122
-0.57582515 0.11169305 1.2242619 10197915
-0.52418911 0.11151587 1.2245712 10197915
-0.47504207 0.11133626 1.2271852 10197915
-0.42500764 0.11117481 1.2253145 10197915
-0.3747102 0.11101206 1.2235222 10197915
-0.324761 0.11085008 1.2218261 10197915
-0.27513555 0.11066594 1.225064 10197915
-0.22458327 0.11049961 1.2238505 10197915
-0.17498593 0.11031546 1.2270977 10197915
-0.1249819 0.11015419 1.2252113 10197915
-0.074922778 0.1099915 1.2235863 10197915
-0.02545655 0.10982966 1.2222004 10197915
0.025120884 0.10964311 1.2252617 10197915
0.075008996 0.10948209 1.2234031 10197915
0.12494561 0.1092951 1.2270123 10197915
0.17194867 0.10913907 1.2261759 9803157
-1.0105134 0.11289313 1.2834958 9868950
-0.9750908 0.11282406 1.2725827 9868950
-0.92413759 0.11263889 1.2750705 9868950
-0.87497872 0.11247386 1.2745925 9868950
-0.82594281 0.11231045 1.2738603 9868950
-0.77495694 0.11212375 1.2766509 9868950
-0.72485584 0.11196207 1.2747775 9868950
-0.67476201 0.1118003 1.2729354 9868950
-0.62357771 0.11162264 1.2736599 10132122
-0.57501 0.11145184 1.2748306 10197915
-0.52567601 0.11128828 1.2739034 10197915
-0.47509667 0.11110172 1.2769662 10197915
-0.42514524 0.11094004 1.2752045 10197915
-0.37480441 0.11077762 1.2733082 10197915
-0.32449606 0.11061374 1.2717512 10197915
-0.27507332 0.11042823 1.2754234 10197915
-0.22527482 0.11026657 1.2737594 10197915
-0.17491359 0.11007788 1.2774299 10197915
-0.12485159 0.10991618 1.2755884 10197915
-0.074934855 0.10975555 1.2736256 10197915
-0.025034271 0.10959426 1.2718202 10197915
0.02593112 0.10940859 1.2744049 10197915
0.07503923 0.10924416 1.2738396 10197915
0.12506361 0.10905484 1.2778811 10197915
0.17483431 0.10889403 1.2760612 7434609
0.20168203 0.10875885 1.2853433 6513507
-1.0569757 0.11279674 1.3374746 9868950
-1.0231982 0.1127516 1.322672 9868950
-0.97409296 0.11259171 1.3211397 9868950
-0.92647558 0.11239842 1.3277615 9868950
-0.87509811 0.11222292 1.3278913 9868950
-0.82508951 0.11206224 1.3258795 9868950
-0.77508289 0.11190068 1.3240422 9868950
-0.72493988 0.11173936 1.3220628 9868950
-0.67480463 0.11157694 1.3203216 9868950
-0.62505192 0.11138629 1.3248485 9934743
-0.57498449 0.11119748 1.3287498 10132122
-0.52509421 0.11103658 1.326864 10197915
-0.47493121 0.11087496 1.3249351 10197915
-0.4247731 0.11071384 1.3228996 10197915
-0.37462461 0.11055195 1.3210392 10197915
-0.32440212 0.11038494 1.3202065 10197915
-0.27488506 0.11017217 1.3295921 10197915
-0.22497799 0.11001047 1.3278619 10197915
-0.17508055 0.10985092 1.3256793 10197915
-0.1251902 0.10968961 1.3238801 10197915
-0.075032793 0.10952859 1.32183 10197915
-0.024887653 0.1093668 1.3199478 10197915
0.025402984 0.10916673 1.3260826 10197915
0.074991249 0.10898572 1.3286734 10197915
0.12503199 0.10882515 1.3266077 10197915
0.17506348 0.10866383 1.3247118 7895160
0.20491688 0.1085526 1.3267469 6513507
-1.1049316 0.11268912 1.3949063 9868950
-1.0715759 0.11266124 1.3767382 9868950
-1.0251052 0.11252628 1.3718286 9868950
-0.97654313 0.1123638 1.3712236 9868950
-0.92510593 0.11217374 1.3744124 9868950
-0.87409222 0.11198241 1.3781705 9868950
-0.82496566 0.11181956 1.3772496 9868950
-0.7749275 0.1116598 1.3749973 9868950
-0.72517931 0.11149909 1.3731787 9934743
-0.67513645 0.11133833 1.3711616 9868950
-0.62677354 0.11116377 1.3732762 9868950
-0.57504427 0.11098426 1.3740053 10132122
-0.52498633 0.11079324 1.3783917 10197915
-0.47504041 0.11063139 1.3766658 10197915
-0.42509323 0.11047155 1.3745131 10197915
-0.37471893 0.11030994 1.3724256 10197915
-0.3254396 0.11014878 1.3710371 10197915
-0.27518511 0.10995768 1.3752936 10197915
-0.22378977 0.10978466 1.374887 10197915
-0.17497312 0.10960526 1.3776963 10197915
-0.12484088 0.1094424 1.3760613 10197915
-0.0748524 0.10928249 1.3738852 10197915
-0.025014454 0.10912273 1.3717977 10197915
0.023081547 0.10895344 1.3729881 10197915
0.07497371 0.10876936 1.3745692 10197915
0.12676437 0.10858769 1.3757149 10197915
0.17502822 0.10841555 1.3773794 8355711
0.20907936 0.10829739 1.3778695 6513507
-1.1174972 0.11258329 1.4264197 9868950
-1.0731385 0.11243753 1.4253169 9868950
-1.0249021 0.11226886 1.4262798 9868950
-0.97521007 0.11210907 1.4242924 9868950
-0.92535353 0.11194918 1.4222193 9868950
-0.87604791 0.11176451 1.4257894 9868950
-0.82484967 0.11159264 1.4252858 9934743
-0.77492565 0.11143291 1.4231249 9934743
-0.72317678 0.11124783 1.4250245 9934743
-0.67504436 0.11107871 1.4261738 9934743
-0.62495065 0.11091772 1.4241529 9868950
-0.5750013 0.11075757 1.4220519 10000536
-0.52483517 0.11056295 1.427117 10197915
-0.47487348 0.11040266 1.425048 10197915
-0.42486167 0.11024164 1.4230918 10197915
-0.37282363 0.11005808 1.4244549 10197915
-0.32464355 0.10988662 1.4260429 10197915
-0.27491441 0.10972758 1.4238894 10197915
-0.22601719 0.10956459 1.4231844 10197915
-0.17500235 0.10937337 1.4269037 10197915
-0.12515877 0.10921247 1.4250492 10197915
-0.075064979 0.1090524 1.4228401 10197915
-0.023243248 0.10887155 1.4237927 10197915
0.025101151 0.10869683 1.425941 10197915
0.07505618 0.10853657 1.4238836 10197915
0.12320951 0.10837164 1.4241083 10197915
0.174977 0.10818172 1.427029 8816262
0.21284136 0.10805713 1.4261037 6447714
-1.1651114 0.11246841 1.4851459 9868950
-1.1250604 0.11238334 1.4742877 9868950
-1.0768983 0.1122127 1.4757049 9868950
-1.0249798 0.112027 1.4776164 10000536
-0.97523028 0.11186761 1.4755136 10132122
-0.92520106 0.11170728 1.4734026 10066329
-0.87510949 0.11154681 1.471283 9934743
-0.82336456 0.11136121 1.4732897 9934743
-0.77497613 0.11119006 1.4746655 9934743
-0.72670293 0.11102011 1.4758638 9934743
-0.67500949 0.11083394 1.4780344 9934743
-0.62512171 0.11067417 1.4759076 9868950
-0.57495964 0.11051355 1.4737651 9868950
-0.52494615 0.11035284 1.4717547 10132122
-0.47393647 0.11018202 1.4711581 10197915
-0.42502198 0.10999718 1.4750611 10197915
-0.37643957 0.10982891 1.4756759 10197915
-0.32463485 0.10963891 1.4785748 10197915
-0.27503267 0.10948082 1.4763062 10197915
-0.22516422 0.10932122 1.4741551 10197915
-0.1750291 0.10916138 1.4718674 10197915
-0.12483929 0.10899957 1.4699529 10197915
-0.074201018 0.10880502 1.474666 10197915
-0.026645269 0.10863892 1.475571 10197915
0.024911195 0.10844773 1.4789016 10197915
0.075039618 0.10828741 1.4767184 10197915
0.1252263 0.10812634 1.4746553 10197915
0.17505956 0.1079682 1.4722282 9276813
0.21633843 0.10783138 1.4714528 6447714
-1.2109908 0.11236928 1.5392768 9868950
-1.1752884 0.11228894 1.5305533 9868950
-1.1250571 0.11212576 1.5288972 10000536
-1.075168 0.11196554 1.5268664 10132122
-1.025208 0.11180514 1.5248271 10197915
-0.97538811 0.11164647 1.5225149 10197915
-0.92527592 0.11148556 1.5204698 10132122
-0.87488288 0.11132573 1.5179961 10000536
-0.82676357 0.11111698 1.5275354 9934743
-0.77503073 0.11092918 1.5300231 9934743
-0.72474885 0.11076782 1.5279486 9934743
-0.67482412 0.11060896 1.5256057 9934743
-0.62526166 0.11045057 1.5234215 9934743
-0.57519603 0.11029059 1.5212184 9868950
-0.525065 0.11012974 1.5191464 10000536
-0.47423363 0.10994314 1.5220256 10197915
-0.42498457 0.10973243 1.5311691 10197915
-0.37517267 0.1095747 1.5286647 10197915
-0.32508841 0.10941343 1.5267155 10197915
-0.27493063 0.10925392 1.5243418 10197915
-0.22491959 0.1090942 1.5221139 10197915
-0.17484708 0.10893431 1.5198833 10197915
-0.1249175 0.10877488 1.5176586 10197915
-0.075248308 0.10854706 1.5301281 10197915
-0.024935933 0.10837737 1.5297992 10197915
0.025097869 0.10821774 1.5275455 10197915
0.074981116 0.10805854 1.5252986 10197915
0.12493029 0.10789847 1.5231894 10197915
0.17514785 0.10773958 1.5206497 9671571
0.22027594 0.107591 1.5195885 6447714
-1.2557111 0.11230467 1.5852559 9934743
-1.2246113 0.11225121 1.574154 9934743
-1.1740593 0.11204823 1.5807095 10132122
-1.1249889 0.11188767 1.57934 10197915
-1.0748106 0.11172683 1.577234 10197915
-1.0247759 0.11156788 1.5748264 10197915
-0.9751094 0.11140943 1.5725857 10197915
-0.92535758 0.11125064 1.5703487 10197915
-0.87508291 0.11108948 1.5682385 10132122
-0.82423455 0.1108842 1.5750741 9934743
-0.77504838 0.11068927 1.5809156 9934743
-0.72509724 0.11052997 1.5786402 9934743
-0.67507237 0.11036905 1.5766716 9934743
-0.62474871 0.1102107 1.5739193 9934743
-0.57478559 0.11005067 1.5717952 9868950
-0.52497172 0.1098911 1.5696814 9868950
-0.47747874 0.10972609 1.5704013 10132122
-0.42287901 0.10950889 1.5770521 10197915
-0.37535834 0.10933217 1.5802351 10197915
-0.32534409 0.10917277 1.5779359 10197915
-0.27503797 0.10901177 1.5757719 10197915
-0.22510068 0.1088541 1.5731627 10197915
-0.17508802 0.10869332 1.5711673 10197915
-0.12500596 0.10853446 1.5687091 10197915
-0.076182932 0.1083431 1.5740492 10197915
-0.022621265 0.10814155 1.5781349 10197915
0.025079366 0.10797273 1.5795089 10197915
0.075137913 0.10781262 1.5773305 10197915
0.12504546 0.10765447 1.5748523 10197915
0.17502695 0.10749532 1.5725247 10132122
0.22402874 0.10733707 1.5707177 6513507
0.25050187 0.1071701 1.5870245 6513507
-1.3028867 0.11220057 1.6413785 10197915
-1.2704252 0.11216594 1.6252958 10132122
-1.2248284 0.11203881 1.6193461 10197915
-1.1763676 0.1118493 1.6245567 10197915
-1.1251984 0.11167862 1.6238182 10197915
-1.0734754 0.11147924 1.6287711 10197915
-1.0250125 0.11131522 1.6285759 10197915
-0.97527379 0.11115768 1.6260861 10197915
-0.92521358 0.11099827 1.6237593 10197915
-0.87484139 0.11083791 1.6214132 10197915
-0.82550406 0.11067841 1.6196277 10132122
-0.77502531 0.11047686 1.6259377 9934743
-0.72514391 0.11031752 1.6237282 9934743
-0.67315841 0.11011855 1.6284038 9934743
-0.62488347 0.10995503 1.6282353 9934743
-0.57503194 0.10979646 1.6258872 9934743
-0.52510053 0.10963762 1.6235349 9868950
-0.47485733 0.10947698 1.6213378 10066329
-0.42666823 0.10931487 1.6209334 10197915
-0.37517902 0.10911635 1.6258775 10197915
-0.32519627 0.10895798 1.6233845 10197915
-0.27267393 0.10875749 1.6279951 10197915
-0.22483733 0.1085943 1.6280638 10197915
-0.17489488 0.10843477 1.6258559 10197915
-0.1248704 0.1082774 1.6231327 10197915
-0.074996226 0.10811724 1.6210947 10197915
-0.027584732 0.10794942 1.6224549 10197915
0.0249133 0.10775561 1.6256735 10197915
0.074974559 0.10759716 1.6231476 10197915
0.12719303 0.10739841 1.6276028 10197915
0.17489681 0.10723461 1.6279068 10197915
0.22514161 0.10707499 1.6254843 6974058
0.25411174 0.10695825 1.6293414 6447714
-1.3140162 0.11205746 1.6797607 10197915
-1.2748219 0.11193193 1.6780903 10197915
-1.2251217 0.11177396 1.6757224 10197915
-1.1750783 0.111614 1.6735247 10197915
-1.1249442 0.11145636 1.6707659 10197915
-1.0770481 0.11127248 1.6751993 10197915
-1.0248212 0.11109099 1.6759931 10197915
-0.97518224 0.11093392 1.6734718 10197915
-0.9241221 0.11076416 1.6726201 10197915
-0.87505418 0.11056845 1.6787051 10197915
-0.82495731 0.11041111 1.6759176 10197915
-0.7750023 0.11025071 1.6738813 10066329
-0.72519141 0.11009337 1.6712946 9934743
-0.67734402 0.1099136 1.6748807 9934743
-0.62504423 0.10972846 1.6763939 9934743
-0.57489908 0.10956927 1.6739616 9868950
-0.52454948 0.10941008 1.6713806 9868950
-0.47382733 0.10920692 1.6778574 9868950
-0.42531556 0.10904813 1.6765175 10132122
-0.3754572 0.1088899 1.6740853 10197915
-0.32527339 0.10873064 1.6716418 10197915
-0.27747622 0.10855232 1.6749611 10197915
-0.22507297 0.10836534 1.676795 10197915
-0.17514904 0.10820764 1.6742038 10197915
-0.12537138 0.1080491 1.6719016 10197915
-0.072834864 0.10785212 1.6757534 10197915
-0.025018992 0.10768308 1.6770974 10197915
0.024969898 0.10752457 1.674629 10197915
0.074802525 0.10736834 1.6717958 10197915
0.1224068 0.10719182 1.6748694 10197915
0.17508577 0.10700157 1.6771971 10197915
0.22478311 0.10684406 1.6747285 7434609
0.25723299 0.10673689 1.6740359 6447714
-1.3648126 0.11197445 1.7340231 10197915
-1.3275052 0.11189694 1.7235311 10197915
-1.275207 0.1116963 1.7283369 10197915
-1.2251356 0.11153819 1.7257257 10197915
-1.1752003 0.11137909 1.7234286 10197915
-1.1250391 0.11121997 1.7209665 10197915
-1.0727488 0.11102304 1.724998 10197915
-1.0251149 0.11085394 1.726481 10197915
-0.97532958 0.11069703 1.7238164 10197915
-0.9260903 0.11053704 1.7222073 10197915
-0.87475854 0.11032867 1.7293478 10197915
-0.82485604 0.11017054 1.7268686 10197915
-0.77473277 0.11001239 1.7242278 10197915
-0.72475469 0.10985328 1.7218962 10000536
-0.67424458 0.1096897 1.7201334 9868950
-0.62496835 0.10948727 1.727491 9868950
-0.57500178 0.10932995 1.7247914 9868950
-0.52493078 0.10917133 1.7222883 9868950
-0.47660583 0.10898061 1.727854 9868950
-0.42484415 0.10880499 1.7277422 10066329
-0.3752698 0.10864729 1.7254025 10197915
-0.32547507 0.10848963 1.7228987 10197915
-0.27510568 0.10833015 1.720366 10197915
-0.22247177 0.1081337 1.7240373 10197915
-0.17494084 0.10796363 1.7257977 10197915
-0.12494689 0.10780445 1.7234737 10197915
-0.077555493 0.10763196 1.725847 10197915
-0.025076224 0.10743866 1.7289597 10197915
0.025026921 0.10728018 1.7264093 10197915
0.074982449 0.10712215 1.7238659 10197915
0.12513806 0.10696419 1.7211626 10197915
0.17549846 0.10680202 1.7192062 10197915
0.22511005 0.10659721 1.7268355 7960953
0.26172474 0.10647202 1.7269539 6447714
-1.40997 0.11188923 1.7846835 10197915
-1.3752424 0.11181427 1.775517 10197915
-1.3251778 0.11165498 1.773167 10197915
-1.274873 0.1114957 1.7706373 10197915
-1.2247354 0.11133535 1.7684519 10197915
-1.1750741 0.11112896 1.7763877 10197915
-1.1248938 0.11097014 1.7738427 10197915
-1.0776007 0.1107951 1.7768328 10197915
-1.0249144 0.11060148 1.7798574 10197915
-0.97523391 0.11044515 1.7771591 10197915
-0.92530984 0.11028716 1.7746232 10197915
-0.87515861 0.11012774 1.7722342 10197915
-0.82514334 0.10997035 1.7695243 10197915
-0.77264476 0.10978239 1.7714937 10197915
-0.72479308 0.10960069 1.7754776 10132122
-0.67526186 0.109442 1.7733849 9934743
-0.62476945 0.10923237 1.7814015 9868950
-0.57485557 0.10907385 1.7789955 9868950
-0.52508855 0.10891736 1.7762642 9868950
-0.47471917 0.10875737 1.7738345 9868950
-0.4244951 0.10859945 1.7710797 9934743
-0.37516114 0.10844275 1.7687025 10132122
-0.32271346 0.10824462 1.7728643 10197915
-0.27472356 0.10807334 1.7745563 10197915
-0.22745386 0.10790146 1.7768877 10197915
-0.17484424 0.10770431 1.7807244 10197915
-0.1244943 0.10754536 1.7780957 10197915
-0.074662022 0.10738882 1.7753271 10197915
-0.024978844 0.10723117 1.7729019 10197915
0.02492993 0.10707358 1.7702965 10197915
0.075053506 0.10691611 1.7675171 10197915
0.12672958 0.10670752 1.7744476 10197915
0.17463559 0.10654827 1.7736481 10197915
0.22448291 0.10633671 1.7825336 8487297
0.26556641 0.10620466 1.7808819 6447714
-1.4549376 0.11180124 1.8358065 10197915
-1.4227614 0.11174979 1.8234906 10197915
-1.3746715 0.11160154 1.8202223 10197915
-1.3245256 0.11144304 1.8176377 10197915
-1.2725123 0.11124294 1.8225354 10197915
-1.2256261 0.11107598 1.8241043 10197915
-1.1754658 0.11086352 1.8329571 10197915
-1.1248665 0.11070461 1.8301368 10197915
-1.0744104 0.11054447 1.8276824 10197915
-1.0248784 0.11038895 1.8249124 10197915
-0.9754886 0.11023216 1.8225182 10197915
-0.92545944 0.11007503 1.8197292 10197915
-0.87518978 0.10991464 1.8174604 10197915
-0.82258773 0.10971405 1.8220263 10197915
-0.7768724 0.1095385 1.8262646 10197915
-0.72470486 0.10933135 1.8325372 10197915
-0.67475629 0.10917296 1.830078 10132122
-0.62495798 0.10901675 1.8272641 9868950
-0.57491165 0.10885888 1.8246188 9868950
-0.52501649 0.10869983 1.8223417 9868950
-0.47526628 0.1085446 1.8193505 9868950
-0.4252705 0.10838608 1.8168869 9868950
-0.37304088 0.10818713 1.8213702 10132122
-0.32799578 0.10800032 1.8284823 10197915
-0.27520531 0.10780236 1.8323581 10197915
-0.22514883 0.10764379 1.8298608 10197915
-0.17523976 0.1074874 1.8270047 10197915
-0.1254769 0.10732971 1.8245227 10197915
-0.075100757 0.10717183 1.821647 10197915
-0.024876378 0.10701277 1.8191342 10197915
0.024827853 0.10685614 1.8164718 10197915
0.077148147 0.10665751 1.8208334 10197915
0.12264045 0.10645335 1.8312991 10197915
0.17496084 0.10627128 1.8321445 10197915
0.22510475 0.10611261 1.829604 8882055
0.26951697 0.10597062 1.8276578 6447714
-1.4709264 0.11167049 1.8750664 10197915
-1.4248378 0.11153971 1.8695397 10197915
-1.3752761 0.11138245 1.8671161 10197915
-1.3243922 0.111214 1.8661152 10197915
-1.2778264 0.1109921 1.879562 10197915
-1.2253928 0.1107963 1.8832344 10197915
-1.1753376 0.11063855 1.8805599 10197915
-1.1250315 0.11047915 1.8780602 10197915
-1.0752635 0.11032233 1.8753942 10197915
-1.0252386 0.11016561 1.8725212 10197915
-0.97535849 0.11000753 1.8700436 10197915
-0.92522001 0.10984956 1.8673576 10197915
-0.87483251 0.10969171 1.8644655 10197915
-0.82650751 0.10946086 1.8785483 10197915
-0.77537566 0.10926254 1.8837017 10197915
-0.72476029 0.10910229 1.8811525 10197915
-0.67468566 0.10894469 1.8784345 10197915
-0.62515652 0.10878972 1.8755502 10066329
-0.57497513 0.10863085 1.8730233 9868950
-0.5249415 0.10847431 1.8701127 9868950
-0.47505265 0.10831635 1.8676009 9868950
-0.42491418 0.10815856 1.8648796 9868950
-0.37546808 0.10793862 1.8758334 10132122
-0.32553333 0.10772835 1.8843849 10197915
-0.27516472 0.10757001 1.8816146 10197915
-0.22495092 0.10741397 1.8784603 10197915
-0.17488113 0.1072547 1.8760997 10197915
-0.12495428 0.10709771 1.873354 10197915
-0.075173326 0.10694122 1.8706161 10197915
-0.025156595 0.10678487 1.8676733 10197915
0.025106974 0.10662683 1.8649094 10197915
0.074658327 0.10641886 1.8732476 10197915
0.1249257 0.10619494 1.8844489 10197915
0.17464106 0.10603692 1.8820775 10197915
0.22498666 0.10587879 1.8792709 9342606
0.27368242 0.10572387 1.8769804 6447714
-1.5174694 0.11157629 1.9286397 10197915
-1.4749124 0.11146438 1.9216549 10197915
-1.424719 0.11130546 1.9191387 10197915
-1.3746722 0.11114888 1.9162149 10197915
-1.3259289 0.11099134 1.9144422 10197915
-1.2715197 0.11071485 1.9338162 10197915
-1.2245277 0.11055584 1.9336138 10197915
-1.1743791 0.11039715 1.9310681 10197915
-1.124787 0.11024126 1.9283401 10197915
-1.0749329 0.11008551 1.9253871 10197915
-1.0247983 0.10992789 1.9226307 10197915
-0.97522235 0.10977101 1.9201151 10197915
-0.92537522 0.1096143 1.9173737 10197915
-0.87526709 0.10945774 1.9144076 10197915
-0.82521218 0.10923865 1.924745 10197915
-0.77476138 0.10901956 1.9347841 10197915
-0.72522885 0.108863 1.9322382 10197915
-0.67542672 0.10870661 1.9294615 10197915
-0.62536573 0.10855038 1.9264568 10197915
-0.57544482 0.1083926 1.923888 10000536
-0.52486247 0.1082347 1.9208622 9934743
-0.47442698 0.10807534 1.918258 10066329
-0.42494118 0.10792092 1.9152862 10197915
-0.37990424 0.10775345 1.9182965 10197915
-0.32176107 0.10748646 1.9329472 10197915
-0.27472767 0.10732441 1.9333645 10197915
-0.22473867 0.10716762 1.9305391 10197915
-0.17489555 0.10701128 1.9277227 10197915
-0.12480582 0.10685512 1.9246815 10197915
-0.074851789 0.10669746 1.9220695 10197915
-0.025053425 0.10654221 1.9190457 10197915
0.025004204 0.10638516 1.9162176 10197915
0.071821615 0.10622445 1.9165117 10197915
0.12841782 0.10597718 1.9281045 10197915
0.17510527 0.10578886 1.9343467 10197915
0.22486266 0.10563193 1.9317101 9868950
0.27487192 0.10547528 1.9288447 6447714
0.30303615 0.1053659 1.9317108 6447714
-1.5646251 0.11147074 1.9850487 10197915
-1.5248536 0.11137424 1.9768112 10197915
-1.4748689 0.11121833 1.9737977 10197915
-1.4250172 0.11106071 1.9712456 10197915
-1.3753101 0.11090567 1.9682486 10197915
-1.3248945 0.11074629 1.965665 10197915
-1.2789774 0.11057144 1.9695917 10197915
-1.221031 0.11033298 1.9783413 10197915
-1.1746407 0.11014736 1.9842174 10197915
-1.1249616 0.10999263 1.9811791 10197915
-1.0749934 0.10983588 1.978356 10197915
-1.025179 0.10967742 1.9760021 10197915
-0.97549969 0.10952377 1.972734 10197915
-0.9255383 0.10936595 1.9701409 10197915
-0.87488961 0.10920814 1.9670568 10197915
-0.82626283 0.10904872 1.9657587 10197915
-0.77490658 0.1088298 1.9751217 10197915
-0.72145039 0.10861873 1.981312 10197915
-0.67537105 0.1084526 1.9832909 10197915
-0.62475157 0.10829502 1.9801641 10197915
-0.57468802 0.10813819 1.9772885 10197915
-0.52519625 0.10798204 1.9746867 10197915
-0.47542325 0.10782608 1.9718343 10197915
-0.42538214 0.10767037 1.9687424 10197915
-0.37548965 0.10751297 1.9661087 10197915
-0.32951677 0.1073382 1.9699932 10197915
-0.27478978 0.10713301 1.9740111 10197915
-0.22281741 0.10691275 1.9831965 10197915
-0.17533207 0.10675649 1.9820629 10197915
-0.12505001 0.10659914 1.9791415 10197915
-0.074927516 0.10644013 1.9766876 10197915
-0.024944426 0.10628588 1.9733253 10197915
0.024895638 0.10612991 1.9704292 10197915
0.074987672 0.10597207 1.9677472 10197915
0.12319572 0.10581418 1.9664341 10197915
0.17516403 0.1055931 1.9758021 10197915
0.2255343 0.10543138 1.973745 10197915
0.27494943 0.10521501 1.9839654 6645093
0.30689836 0.10510223 1.9848251 6447714
-1.6044314 0.11143047 2.0223203 10197915
-1.5730793 0.111273 2.0330892 10197915
-1.5248901 0.11111309 2.0322151 10197915
-1.4748232 0.11095857 2.0288503 10197915
-1.4248921 0.11080211 2.0259888 10197915
-1.3746774 0.11064363 2.0233593 10197915
-1.325031 0.11048806 2.0205147 10197915
-1.2750926 0.11033274 2.017415 10197915
-1.2270535 0.11017201 2.016829 10197915
-1.1750654 0.10995205 2.025954 10197915
-1.1256374 0.10979727 2.0231023 10197915
-1.0735203 0.1095726 2.0331261 10197915
-1.0251405 0.10941476 2.031673 10197915
-0.97535902 0.1092602 2.0285285 10197915
-0.92527896 0.10910343 2.0256279 10197915
-0.87492156 0.10894471 2.0229442 10197915
-0.825131 0.10878888 2.0200508 10197915
-0.77505767 0.10863332 2.0168998 10197915
-0.72930616 0.10846556 2.0194507 10197915
-0.675542 0.10825363 2.0255845 10197915
-0.62511909 0.10809593 2.0226336 10197915
-0.57353091 0.10786954 2.0334129 10197915
-0.52468938 0.1077143 2.0310838 10197915
-0.47477213 0.10755713 2.0283883 10197915
-0.42499819 0.1074027 2.0252087 10197915
-0.37537137 0.10724644 2.0225298 10197915
-0.325461 0.10709048 2.0195878 10197915
-0.27527884 0.10693478 2.0163846 10197915
-0.22883619 0.10674612 2.0228717 10197915
-0.1745144 0.10655067 2.0251169 10197915
-0.124832 0.10639547 2.0221674 10197915
-0.073803931 0.10617 2.0331638 10197915
-0.024829093 0.10601462 2.0307641 10197915
0.025199341 0.10585728 2.028023 10197915
0.075074822 0.10570278 2.0247903 10197915
0.12480769 0.10554637 2.0220666 10197915
0.17522438 0.10539012 2.0188107 10197915
0.22508691 0.10523217 2.0163186 10197915
0.27553165 0.10500681 2.0277064 7039851
0.31049633 0.10489774 2.0256002 6447714
-1.6532772 0.11131145 2.0828009 10197915
-1.6217409 0.11126797 2.0692651 10197915
-1.5787172 0.11109913 2.074012 10197915
-1.5252473 0.11091103 2.0753086 10197915
-1.4750072 0.11075391 2.0723684 10197915
-1.4217668 0.11052867 2.0817127 10197915
-1.3749001 0.11037171 2.0811725 10197915
-1.3251754 0.11021501 2.0785129 10197915
-1.2751421 0.11005862 2.0755637 10197915
-1.2248124 0.10990258 2.0723362 10197915
-1.1746186 0.10974445 2.0696387 10197915
-1.1245735 0.10958929 2.0664287 10197915
-1.0773081 0.10938796 2.0750072 10197915
-1.0250047 0.10920713 2.0756056 10197915
-0.97546643 0.10905241 2.0726647 10197915
-0.92120296 0.10883864 2.0788348 10197915
-0.87539655 0.10866837 2.0818784 10197915
-0.82503951 0.10851121 2.0788672 10197915
-0.774827 0.10835446 2.0758636 10197915
-0.72520739 0.10820084 2.0726326 10197915
-0.67528057 0.10804499 2.0696468 10197915
-0.62507075 0.10788701 2.0669091 10197915
-0.5774523 0.10768128 2.0761766 10197915
-0.52549285 0.10750547 2.0759561 10197915
-0.47491235 0.1073477 2.0729094 10197915
-0.42071962 0.10714726 2.0763023 10197915
-0.37524667 0.1069643 2.0822873 10197915
-0.32560325 0.10680953 2.0792747 10197915
-0.2752358 0.10665254 2.0762179 10197915
-0.22502451 0.10649851 2.0726428 10197915
-0.17495652 0.10633995 2.070133 10197915
-0.12503065 0.1061843 2.0671027 10197915
-0.077081457 0.10597645 2.0765803 10197915
-0.024950955 0.10580058 2.0762541 10197915
0.02490215 0.10564527 2.0732064 10197915
0.075399108 0.10548307 2.071161 10197915
0.12467133 0.10526203 2.0824566 10197915
0.1748787 0.10510451 2.0796292 10197915
0.22495063 0.10494988 2.0762808 10197915
0.2748591 0.1047933 2.0734713 7500402
0.31369248 0.10466573 2.07249 6447714
-1.7042023 0.11118229 2.1469564 10197915
-1.6718488 0.11113784 2.1330311 10197915
-1.6250535 0.11100972 2.1264265 10197915
-1.574809 0.11085154 2.1237035 10197915
-1.5251632 0.1106966 2.1207347 10197915
-1.4752064 0.11054195 2.1174669 10197915
-1.4292397 0.11035778 2.123353 10197915
-1.3756514 0.11015744 2.1271656 10197915
-1.3252898 0.11000031 2.1241322 10197915
-1.2750709 0.10984366 2.1211071 10197915
-1.2213253 0.10961987 2.1297755 10197915
-1.1749078 0.10945702 2.1308131 10197915
-1.1252064 0.10930342 2.1275113 10197915
-1.0747353 0.10914478 2.1247344 10197915
-1.0244079 0.10898922 2.1213953 10197915
-0.97513163 0.10883427 2.11869 10197915
-0.92953819 0.10866987 2.120646 10197915
-0.87463897 0.10844745 2.1281965 10197915
-0.82496697 0.10829268 2.12516 10197915
-0.77543753 0.1081384 2.1221325 10197915
-0.72245532 0.1079545 2.1228926 10197915
-0.67476636 0.1077494 2.1319611 10197915
-0.62484986 0.10759539 2.1285963 10197915
-0.57507151 0.10743906 2.1258209 10197915
-0.52498919 0.10728314 2.1227357 10197915
-0.47461748 0.10712766 2.1193545 10197915
-0.42784196 0.1069696 2.1191144 10197915
-0.37581548 0.10674403 2.1293929 10197915
-0.32504994 0.10658611 2.1262426 10197915
-0.27443355 0.10642865 2.1231015 10197915
-0.22485097 0.10627441 2.1200247 10197915
-0.17206299 0.10604643 2.130276 10197915
-0.12486898 0.1058883 2.1297486 10197915
-0.074897245 0.10573163 2.1269085 10197915
-0.025083266 0.1055781 2.1235099 10197915
0.025033936 0.10542231 2.1203763 10197915
0.074583121 0.10526424 2.1181362 10197915
0.1253279 0.10503332 2.1304815 10197915
0.17537759 0.10487787 2.1273279 10197915
0.22528018 0.10472286 2.1241839 10197915
0.27503464 0.1045683 2.1210487 7960953
0.31872422 0.10442518 2.1198668 6447714
-1.717575 0.11107329 2.1797271 10197915
-1.6749362 0.11094046 2.1771207 10197915
-1.6248437 0.11078443 2.1740584 10197915
-1.5748924 0.11062881 2.171005 10197915
-1.5210942 0.11042848 2.1746593 10197915
-1.4751672 0.11024247 2.1809528 10197915
-1.4247903 0.11008419 2.178158 10197915
-1.3745617 0.10992929 2.1747568 10197915
-1.3244737 0.10977192 2.1719797 10197915
-1.2745265 0.10961785 2.168596 10197915
-1.2290646 0.10943971 2.1735606 10197915
-1.1744362 0.10922833 2.1789517 10197915
-1.125006 0.10907459 2.1758838 10197915
-1.0757155 0.10892124 2.1728253 10197915
-1.0256371 0.10876545 2.1697178 10197915
-0.97182477 0.1085421 2.1782444 10197915
-0.92525965 0.10837636 2.179781 10197915
-0.87477571 0.10821804 2.1769261 10197915
-0.82489067 0.10806298 2.1738057 10197915
-0.77469134 0.10790832 2.1703668 10197915
-0.72632295 0.10775038 2.1689618 10197915
-0.67493707 0.10751916 2.1809034 10197915
-0.62524801 0.1073648 2.1777732 10197915
-0.57478571 0.10720807 2.1745934 10197915
-0.52446955 0.10705177 2.1714237 10197915
-0.4752112 0.10689878 2.1683197 10197915
-0.42363381 0.10666683 2.18028 10197915
-0.37550107 0.10650967 2.1788785 10197915
-0.32537803 0.10635406 2.1756957 10197915
-0.27495256 0.10619898 2.1721883 10197915
-0.22467117 0.10604147 2.1693008 10197915
-0.17863324 0.10585573 2.1754646 10197915
-0.12462157 0.10565209 2.1796658 10197915
-0.074846067 0.10549773 2.176481 10197915
-0.025216715 0.1053438 2.1733048 10197915
0.025166865 0.10518752 2.1700809 10197915
0.078051299 0.10500329 2.1709807 10197915
0.12512226 0.10479823 2.1804948 10197915
0.17499647 0.10464219 2.1775894 10197915
0.22518165 0.10448666 2.1743522 10197915
0.2752178 0.10433159 2.1711249 8421504
0.3212454 0.10418381 2.1692419 6447714
-1.7240295 -0.86604667 2.2385676 2039583
-1.6672732 -0.86591077 2.2185402 2039583
-1.6454813 -0.86597508 2.2402215 2039583
-1.723604 -0.82532847 2.2386246 2039583
-1.6675061 -0.82500774 2.2188091 2039583
-1.6455741 -0.82496828 2.2403243 2042162
-1.7233529 -0.77493447 2.2388246 2708090
-1.6673056 -0.77485389 2.2194426 2511486
-1.6454397 -0.77535957 2.240973 2579343
-1.723734 -0.72500879 2.2393205 3302805
-1.6673729 -0.72500992 2.2198515 2710415
-1.6454248 -0.72498149 2.2413714 2644622
-1.7229029 -0.67530656 2.2392428 3500697
-1.6675965 -0.67499787 2.2201729 3303061
-1.645748 -0.67553073 2.2410498 3237268
-1.722901 -0.62493491 2.2395604 3829146
-1.6677777 -0.62497187 2.2204671 3434390
-1.6459956 -0.62496185 2.2408917 3236754
-1.7219681 -0.57498044 2.2394357 3434392
-1.6669065 -0.57491946 2.2204957 3039635
-1.6461086 -0.57495052 2.2410188 2842000
-1.7208464 -0.52494532 2.2392237 2776209
-1.6671413 -0.52498615 2.2207985 2644367
-1.6462157 -0.5250175 2.2411573 2710672
-1.7211773 -0.47489348 2.2396951 3040150
-1.6673312 -0.47497696 2.2211037 2710672
-1.6463109 -0.47499433 2.2413204 2380939
-1.7212895 -0.42522287 2.2400622 2710417
-1.6671042 -0.42487165 2.2217915 2380682
-1.6461191 -0.42538565 2.2420895 2380939
-1.7205732 -0.37491834 2.2400424 2380940
-1.6672657 -0.37503907 2.222187 2182535
-1.6461577 -0.37512398 2.2423749 2050435
-1.7209495 -0.32494307 2.2405357 2315404
-1.6674907 -0.32505387 2.2224696 2249610
-1.646262 -0.32507226 2.2425206 2117767
-1.720708 -0.27540284 2.2407358 2843027
-1.6677215 -0.27499208 2.2227755 2645648
-1.6463681 -0.27501401 2.242661 2580110
-1.7196511 -0.22456789 2.2405586 2777490
-1.6675421 -0.22515245 2.2230215 2711440
-1.6464785 -0.22504275 2.2427928 2579597
-1.7191049 -0.1751775 2.2406135 2646161
-1.6670365 -0.17499012 2.2231262 2646160
-1.6465939 -0.17525223 2.2429123 2514317
-1.7185552 -0.12567015 2.2406666 2579598
-1.6672263 -0.12478272 2.2233546 2382219
-1.6469724 -0.12579449 2.2424722 2381448
-1.7184834 -0.075199455 2.2409518 2053258
-1.6668845 -0.074669331 2.2241681 2053000
-1.6467891 -0.075276472 2.2432294 2052486
-1.7188636 -0.025071407 2.2414477 2053000
-1.6671256 -0.024882041 2.2244899 2118535
-1.6468943 -0.0250936 2.2433722 2184069
-1.7179589 0.024866773 2.2413375 1788803
-1.6673579 0.024886683 2.2247982 1787775
-1.6469998 0.025095733 2.2435155 1720955
-1.7181668 0.075228147 2.2417533 3692420
-1.6675892 0.074669212 2.225106 3495041
-1.6471041 0.075291507 2.2436595 3297406
-1.7589165 0.11094286 2.23721 10197915
-1.7218943 0.1075009 2.2353969 10197915
-1.6687491 0.10583773 2.2233138 10197915
-1.6350015 0.10820167 2.2326295 10197915
-1.5749766 0.11039768 2.2200608 10197915
-1.527905 0.11023594 2.2203913 10197915
-1.4753742 0.11000556 2.2313373 10197915
-1.4252861 0.10984996 2.2281814 10197915
-1.3753388 0.10969483 2.2250342 10197915
-1.3255329 0.1095401 2.2218962 10197915
-1.2749139 0.10938286 2.2187068 10197915
-1.2203106 0.10916189 2.2261617 10197915
-1.1748965 0.10899094 2.2296383 10197915
-1.1247996 0.10883697 2.2261324 10197915
-1.0748426 0.10868036 2.2232852 10197915
-1.0250269 0.10852727 2.2197983 10197915
-0.97961777 0.10835206 2.2241828 10197915
-0.9251619 0.10813508 2.2308912 10197915
-0.87491429 0.10797925 2.2276759 10197915
-0.82481235 0.10782385 2.2244699 10197915
-0.77485359 0.10766888 2.2212732 10197915
-0.72503889 0.10751437 2.2180858 10197915
-0.6706813 0.10728936 2.226572 10197915
-0.6251992 0.1071222 2.2291975 10197915
-0.57542253 0.10696796 2.225987 10197915
-0.525325 0.10681423 2.2224269 10197915
-0.47537243 0.10665784 2.2195342 10197915
-0.42758247 0.1064489 2.2293594 10197915
-0.37516865 0.10626538 2.2304454 10197915
-0.3257246 0.10611226 2.2272315 10197915
-0.27549353 0.1059567 2.2239664 10197915
-0.22540945 0.10580162 2.2207105 10197915
-0.17547181 0.10564692 2.2174644 10197915
-0.12172651 0.10542054 2.2266819 10197915
-0.075251855 0.10525425 2.2284014 10197915
-0.024899196 0.10509688 2.2254257 10197915
0.02485059 0.10494299 2.2221656 10197915
0.073205493 0.10478842 2.2200375 10197915
0.12489874 0.10455001 2.2332804 10197915
0.17460366 0.10439631 2.2299976 10197915
0.2250786 0.10424025 2.2266634 10197915
0.27540374 0.10408465 2.2233396 8882055
0.32466754 0.10393234 2.2200863 6447714
0.3501609 0.10385349 2.2184021 6447714
-1.8070438 -0.8662464 2.2777026 2039583
-1.7741579 -0.86607462 2.2621984 2039583
-1.6292685 -0.86609113 2.2746105 2039583
-1.8073506 -0.82506466 2.2781074 2039583
-1.774393 -0.82498801 2.2625711 2039583
-1.7478923 -0.81381828 2.2501476 2039583
-1.6293647 -0.82500619 2.274714 2245475
-1.8077747 -0.77502805 2.2786233 3431297
-1.7748449 -0.774984 2.2630999 3037054
-1.7481942 -0.77479887 2.2505367 2707833
-1.6294961 -0.77501827 2.2747943 2644876
-1.8081971 -0.72496778 2.2791395 3828891
-1.775212 -0.72495633 2.2635891 3499927
-1.7485833 -0.72461206 2.2510371 3434391
-1.6295686 -0.72499341 2.2750053 2710669
-1.8085523 -0.67507273 2.2796218 3565207
-1.7755927 -0.67501783 2.2640836 3368086
-1.7476994 -0.67259526 2.2509494 3500184
-1.6299144 -0.67478448 2.2746398 3237267
-1.8084328 -0.62408179 2.2798872 3433879
-1.7755052 -0.62539726 2.2643561 3170964
-1.7478533 -0.6253798 2.2513201 3302806
-1.6301574 -0.62497401 2.2744875 3039376
-1.8078405 -0.57507068 2.2799184 3631514
-1.774893 -0.57500207 2.2643855 3170965
-1.7482661 -0.57560205 2.2518296 3170965
-1.6302606 -0.57501036 2.2746377 2644364
-1.8082978 -0.5251261 2.2804501 3894941
-1.7741137 -0.52467406 2.2643371 2907538
-1.7460757 -0.52679646 2.2511053 2841488
-1.6303837 -0.52503991 2.2747426 2710927
-1.8085932 -0.47500244 2.280906 3500186
-1.7741758 -0.47496715 2.264679 3237271
-1.7461041 -0.47476766 2.2514477 3105943
-1.6304674 -0.47494656 2.2749302 2579085
-1.8091464 -0.42501152 2.281482 3303321
-1.7746068 -0.42500335 2.2651989 3171992
-1.7460656 -0.42268696 2.2517588 2974357
-1.6305872 -0.42490435 2.2750404 2447243
-1.8093951 -0.37500343 2.2819157 2644111
-1.7749531 -0.37496218 2.2656794 2578318
-1.745405 -0.3750135 2.2517486 2643854
-1.6310344 -0.37498882 2.2744555 2116997
-1.8099484 -0.32496515 2.2824919 2512012
-1.775405 -0.32495436 2.2662082 2446476
-1.7457517 -0.32533726 2.2522261 2446732
-1.6311657 -0.3250702 2.2745464 2183559
-1.8101963 -0.27491584 2.2829258 3105685
-1.7757701 -0.27503425 2.2666967 2974612
-1.7454311 -0.27347219 2.2524025 2908564
-1.6312516 -0.27508402 2.2747254 2513804
-1.8094219 -0.22453237 2.2828796 2843284
-1.775062 -0.22534344 2.2666752 2843283
-1.7450945 -0.22490147 2.2525511 2711698
-1.6313673 -0.22500065 2.2748437 2513546
-1.8095626 -0.17499554 2.2832584 2777748
-1.7745894 -0.17482136 2.2667718 2711955
-1.7452151 -0.17569102 2.252919 2514320
-1.6314932 -0.17497097 2.2749436 2448010
-1.8099637 -0.1248891 2.2837644 2580370
-1.7739652 -0.12484654 2.2667952 2580113
-1.7433029 -0.12363899 2.2523463 2580111
-1.6318852 -0.12487622 2.2744808 2249606
-1.8103656 -0.074760385 2.2842703 2316686
-1.7745088 -0.075031705 2.2673659 2185100
-1.7433063 -0.075592011 2.2526515 2119050
-1.6319609 -0.075058237 2.2746842 2051971
-1.8107655 -0.02460956 2.2847767 2184329
-1.7746994 -0.025258427 2.2677703 2118794
-1.7436942 -0.025202332 2.2531531 1986695
-1.6322232 -0.025035614 2.2744942 2249604
-1.8111593 0.024616681 2.2852731 1919877
-1.7750976 0.025265938 2.2682765 1854340
-1.7427517 0.025711283 2.2530303 1788035
-1.6323283 0.025008338 2.2746363 1786490
-1.8115609 0.074811675 2.2857797 3691650
-1.7756863 0.075083286 2.2688696 3626115
-1.7429566 0.075439043 2.2534418 3692163
-1.6322719 0.075043619 2.2751238 2903420
-1.8117471 0.10607158 2.2860155 10197915
-1.776273 0.10579393 2.2674687 10197915
-1.7434567 0.10529803 2.253866 10197915
-1.6311834 0.10562934 2.2746329 10197915
-1.5750691 0.11015087 2.2724781 10197915
-1.5248977 0.10999526 2.2692676 10197915
-1.4748666 0.10984007 2.2660666 10197915
-1.4239221 0.10960469 2.2792184 10197915
-1.3751708 0.10944491 2.2779174 10197915
-1.3251797 0.10929328 2.2739925 10197915
-1.2753165 0.10913872 2.2707772 10197915
-1.229243 0.10896913 2.2734942 10197915
-1.1753813 0.10874353 2.2824605 10197915
-1.1255569 0.10858924 2.2792215 10197915
-1.0749004 0.10843237 2.275929 10197915
-1.0243905 0.10827594 2.2726455 10197915
-0.97499251 0.10812294 2.2694345 10197915
-0.92573482 0.10797043 2.2662327 10197915
-0.8722617 0.10773236 2.2781162 10197915
-0.82521796 0.1075751 2.277509 10197915
-0.77502239 0.10741971 2.2742341 10197915
-0.72449869 0.10726174 2.2712657 10197915
-0.67870271 0.1070886 2.2749269 10197915
-0.62417972 0.10686609 2.2827539 10197915
-0.57417035 0.10671148 2.2794511 10197915
-0.52430558 0.10655729 2.2761579 10197915
-0.4745847 0.10640356 2.2728736 10197915
-0.42500693 0.10625029 2.2695994 10197915
-0.37557191 0.10609742 2.2663343 10197915
-0.32144952 0.10587343 2.2747753 10197915
-0.27510688 0.1056981 2.2785115 10197915
-0.22476602 0.10554584 2.2744632 10197915
-0.17455792 0.10539073 2.271121 10197915
-0.12917687 0.10521378 2.2758973 10197915
-0.074731961 0.10499416 2.2831781 10197915
-0.024562864 0.10483929 2.2798104 10197915
0.025457533 0.10468488 2.276453 10197915
0.075331725 0.10453093 2.2731047 10197915
0.12505853 0.10437744 2.269767 10197915
0.17557405 0.1042215 2.266376 10197915
0.22899993 0.10401489 2.2716315 10197915
0.27466854 0.1038271 2.2784953 9474192
0.32467735 0.10367451 2.2747567 6447714
0.35495031 0.10355543 2.2781682 6447714
-1.6086951 -0.86621445 2.3182547 1909803
-1.5966709 -0.86680746 2.3437569 1975854
-1.608775 -0.82500142 2.3183849 1720938
-1.596998 -0.8249225 2.3433688 1257290
-1.6089005 -0.77498084 2.3184836 1984365
-1.5971081 -0.77504313 2.3434987 1257547
-1.6089923 -0.72499615 2.3186572 2049901
-1.5972193 -0.72502053 2.3436298 1389132
-1.6090959 -0.6750468 2.3188024 2181743
-1.597308 -0.67485166 2.3438079 1520974
-1.6091934 -0.62500739 2.3189621 2049902
-1.5974014 -0.6248135 2.3439765 1520718
-1.6093076 -0.57491976 2.3190839 1918317
-1.5975254 -0.57505006 2.3440776 1389390
-1.6092293 -0.52469397 2.3196175 1852268
-1.5974525 -0.52607173 2.3445897 1059657
-1.609103 -0.4749324 2.3202484 1852011
-1.5973166 -0.47495306 2.345252 1059144
-1.6092198 -0.42493451 2.3203673 1720169
-1.5974311 -0.4249427 2.3453743 1125450
-1.6097103 -0.37499118 2.3196919 1588327
-1.5975353 -0.37492675 2.3455184 1125706
-1.6098168 -0.32503816 2.3198299 1654377
-1.5976039 -0.32489988 2.3457391 1125706
-1.6098911 -0.27500215 2.3200397 1720939
-1.5980927 -0.27548137 2.3450639 994121
-1.6100174 -0.22499806 2.3201356 1720681
-1.5982372 -0.22521231 2.3451228 1059656
-1.6101305 -0.17502636 2.3202634 1655146
-1.5983276 -0.17489302 2.3452997 1059911
-1.6100228 -0.12481848 2.3208582 1588069
-1.5981728 -0.12565234 2.345988 860994
-1.6099055 -0.075016811 2.3214719 1588837
-1.5981343 -0.07485164 2.3464406 1125960
-1.6100078 -0.025007017 2.3216188 1720678
-1.5982356 -0.025275996 2.3465893 1125960
-1.6101103 0.02500915 2.3217673 1389662
-1.5983388 0.025278162 2.3467405 927812
-1.6102126 0.07503175 2.321914 1980768
-1.5984398 0.074866429 2.3468885 1388105
-1.6104821 0.10535398 2.3206844 10197915
-1.5820732 0.10824203 2.3328621 10197915
-1.5247957 0.10973817 2.3237054 10197915
-1.4750812 0.10958613 2.3200698 10197915
-1.4277118 0.10936929 2.3318622 10197915
-1.3749962 0.1091876 2.3323431 10197915
-1.3247972 0.10903239 2.3290277 10197915
-1.2747407 0.10887759 2.3257213 10197915
-1.2248263 0.10872326 2.3224249 10197915
-1.1750529 0.10856938 2.3191371 10197915
-1.1254205 0.10841591 2.3158593 10197915
-1.0710449 0.10819831 2.3227618 10197915
-1.0252157 0.10801714 2.3281107 10197915
-0.97560382 0.10786384 2.3248065 10197915
-0.92514527 0.10770796 2.3214471 10197915
-0.87833798 0.10751354 2.3288963 10197915
-0.82464159 0.10730901 2.3335161 10197915
-0.77520007 0.10715639 2.3301973 10197915
-0.72491497 0.10700117 2.326822 10197915
