# .PCD v0.7 - Point Cloud Data file format
VERSION 0.7
FIELDS x y z rgb
SIZE 4 4 4 4
TYPE F F F U
COUNT 1 1 1 1
WIDTH 705
HEIGHT 1
VIEWPOINT 0 0 0 1 0 0 0
POINTS 705
DATA ascii
-0.090432867 -0.20043132 0.44895831 2894892
-0.071099147 -0.1711733 0.43009791 2894892
-0.045187935 -0.16550303 0.40465021 2894892
-0.069498464 -0.12505855 0.42876178 2894892
-0.044999309 -0.12476748 0.40467495 2894892
-0.069427952 -0.075066231 0.42894939 2894892
-0.044893906 -0.074809447 0.4048261 2894892
-0.069331788 -0.02500614 0.42911074 2894892
-0.044788394 -0.02496762 0.40498042 2894892
-0.069192544 0.024971183 0.42923024 2894892
-0.044640336 0.024990907 0.40508848 2894892
-0.069122136 0.07493329 0.42941651 6316128
-0.044526502 0.075140841 0.40523487 6316128
-0.35242438 0.11472493 0.44622627 10197915
-0.31948125 0.11473719 0.42771301 10197915
-0.27499309 0.11467895 0.42390552 10197915
-0.22499187 0.11459836 0.42360598 10197915
-0.17499751 0.11451854 0.42330846 10197915
-0.12515567 0.11443763 0.42324561 10197915
-0.074485086 0.11082516 0.42391407 10197915
-0.044704054 0.10795031 0.40519696 10197915
-0.12502 -0.20802438 0.4829267 2894892
-0.096391842 -0.20175263 0.45481068 2894892
-0.12009843 -0.17503439 0.47825512 2894892
-0.095581278 -0.1750171 0.45415103 2894892
-0.12007417 -0.12507266 0.47849005 2894892
-0.095466703 -0.12476429 0.4542962 2894892
-0.11996832 -0.075013354 0.47864437 2894892
-0.09540002 -0.074732579 0.4544875 2894892
-0.11987267 -0.025070028 0.47880024 2894892
-0.095308013 -0.02501101 0.45465213 2894892
-0.11984871 0.024962856 0.47903585 2894892
-0.095162705 0.025109837 0.45476651 2894892
-0.11955594 0.075076334 0.4790093 6381921
-0.094967932 0.075002164 0.4548313 6381921
-0.36548349 0.11462841 0.47950175 10197915
-0.32515788 0.11458308 0.47386831 10197915
-0.2750003 0.11450092 0.47407088 10197915
-0.22500186 0.11442094 0.47373188 10197915
-0.17499083 0.11434099 0.47340667 10197915
-0.1246876 0.11070518 0.47350195 10197915
-0.094961897 0.10796687 0.45458433 10197915
-0.17267552 -0.21847728 0.52973026 2894892
-0.14640981 -0.21272333 0.50393456 2894892
-0.17082638 -0.17507213 0.52813566 2894892
-0.14614806 -0.17481077 0.50387144 2894892
-0.17041725 -0.12498818 0.52799016 2894892
-0.14586619 -0.12477376 0.50385123 2894892
-0.17035523 -0.075101569 0.52818531 2894892
-0.14573778 -0.074998483 0.50397998 2894892
-0.17030914 -0.025002638 0.52839804 2894892
-0.14563461 -0.024632955 0.50413769 2894892
-0.17019056 0.024927065 0.5285362 2894892
-0.14562084 0.025157508 0.50437999 2894892
-0.17023504 0.074995868 0.52883822 6447714
-0.14546341 0.074995026 0.50448084 6381921
-0.41234592 0.11451226 0.53381121 10197915
-0.37516379 0.11448788 0.52366352 10197915
-0.3250269 0.11440542 0.52401274 10197915
-0.27499145 0.11432552 0.52363008 10197915
-0.22476284 0.11424331 0.52384907 10197915
-0.17507033 0.11060407 0.52344054 10197915
-0.14566171 0.10784473 0.50449502 10197915
-0.2299123 -0.25612357 0.58581519 2894892
-0.22132111 -0.224999 0.57752872 2894892
-0.19671376 -0.22375335 0.55333841 2894892
-0.22117688 -0.17497395 0.57764089 2894892
-0.19654129 -0.17515105 0.5534184 2894892
-0.22086222 -0.12501083 0.57758904 2894892
-0.19624659 -0.12499071 0.55338651 2894892
-0.22088815 -0.075113066 0.57786918 2894892
-0.19620989 -0.074404009 0.55360949 2894892
-0.22079781 -0.025009392 0.57803816 2894892
-0.19617371 -0.025006784 0.553828 2894892
-0.22078227 0.024885602 0.578282 2894892
-0.19604281 0.025393164 0.55395812 2894892
-0.22052161 0.075105429 0.57828134 6513507
-0.19592679 0.074459389 0.55409575 6316128
-0.45900574 0.11439516 0.58829248 10197915
-0.42410997 0.11438619 0.57482517 10197915
-0.37508664 0.11431091 0.5736323 10197915
-0.3250888 0.1142312 0.57324505 10197915
-0.27498317 0.1141472 0.57399708 10197915
-0.22546332 0.11037818 0.5735625 10197915
-0.19562842 0.10753559 0.5537985 10197915
-0.27406371 -0.26572859 0.62917775 2894892
-0.24712327 -0.25947773 0.60272032 2894892
-0.27176416 -0.2250019 0.62712532 2894892
-0.24695842 -0.22498286 0.60273576 2894892
-0.27154729 -0.17504942 0.62716776 2894892
-0.2470234 -0.17434731 0.60305893 2894892
-0.27169532 -0.12501745 0.62757039 2894892
-0.2468942 -0.1250056 0.6031853 2894892
-0.27125433 -0.074954793 0.62739402 2894892
-0.24668682 -0.075072564 0.60323805 2894892
-0.27117604 -0.025004636 0.62757385 2894892
-0.24641095 -0.025019225 0.60322309 2894892
-0.27102312 0.024904851 0.62767935 2894892
-0.24638912 0.025729636 0.60346258 2894892
-0.2711162 0.07500039 0.62802708 6513507
-0.24634118 0.075002819 0.60366815 6513507
-0.50575835 0.11427733 0.64302546 10197915
-0.47222781 0.11428145 0.62648582 10197915
-0.42497715 0.11421463 0.62373054 10197915
-0.37491497 0.1141348 0.623321 10197915
-0.32492307 0.11405551 0.62282515 10197915
-0.27563357 0.11018889 0.62376732 10197915
-0.24653491 0.10744889 0.60389042 10197915
-0.33603856 -0.30433229 0.68991596 2894892
-0.32284698 -0.27436283 0.67709965 2894892
-0.29749554 -0.27089083 0.65219033 2894892
-0.32214597 -0.2250713 0.67666274 2894892
-0.29766825 -0.2250471 0.65259504 2894892
-0.32228863 -0.1750098 0.67706013 2894892
-0.29744062 -0.17460272 0.65263033 2894892
-0.32177454 -0.12505618 0.6768111 2894892
-0.29722139 -0.12575191 0.65266567 2894892
-0.32170212 -0.075019538 0.67699575 2894892
-0.29691422 -0.074398346 0.65262705 2894892
-0.32171586 -0.025146522 0.67726511 2894892
-0.29704335 -0.025021775 0.65300751 2894892
-0.32162887 0.024994949 0.67743945 2894892
-0.29687133 0.025679462 0.65309852 2894892
-0.32167515 0.074998081 0.67773932 6513507
-0.29690859 0.074464455 0.65338564 6447714
-0.552064 0.11416337 0.69646192 10197915
-0.51942378 0.11417577 0.67799008 10197915
-0.47500834 0.1141196 0.67351371 10197915
-0.42476174 0.11403511 0.67436236 10197915
-0.37491277 0.11395502 0.67415184 10197915
-0.32549137 0.11019012 0.67245734 10197915
-0.2967073 0.10770951 0.65306032 10197915
-0.37585086 -0.31306264 0.72901714 2894892
-0.34794843 -0.30693862 0.70161271 2894892
-0.37273619 -0.2750054 0.72614938 2894892
-0.34807131 -0.27498633 0.70189738 2894892
-0.37256801 -0.22514215 0.72623903 2894892
-0.34782815 -0.22421862 0.70191902 2894892
-0.37266296 -0.17501333 0.72659034 2894892
-0.34800196 -0.17501706 0.70234251 2894892
-0.37252396 -0.12499774 0.72671241 2894892
-0.34769645 -0.12491763 0.70229906 2894892
-0.37196779 -0.075012654 0.72642052 2894892
-0.34736645 -0.075055905 0.70223045 2894892
-0.37224346 -0.025009764 0.72694993 2894892
-0.34735969 -0.023660006 0.70248777 2894892
-0.37194398 0.024950908 0.72690892 2894892
-0.34729579 0.025038425 0.70267481 2894892
-0.37215814 0.074988917 0.72737658 6579300
-0.34742379 0.075735606 0.70306098 6710886
-0.56543869 0.11406249 0.73111194 10197915
-0.52499264 0.11402111 0.72425973 10197915
-0.47498149 0.11394167 0.72378135 10197915
-0.4252924 0.11385754 0.72477114 10197915
-0.37628782 0.10992727 0.72352213 10197915
-0.34713599 0.10707153 0.70288265 10197915
-0.44166037 -0.35254183 0.79352063 2894892
-0.42440292 -0.32297263 0.77670383 2894892
-0.39826021 -0.31798413 0.75102484 2894892
-0.42323089 -0.27512056 0.77579618 2894892
-0.3985084 -0.27505857 0.75148898 2894892
-0.42295429 -0.22500616 0.77578288 2894892
-0.39829373 -0.22314805 0.75154459 2894892
-0.42327592 -0.17499262 0.77635574 2894892
-0.39842322 -0.17506571 0.75191844 2894892
-0.4227567 -0.1249849 0.77610165 2894892
-0.39816326 -0.12531957 0.75191832 2894892
-0.4224813 -0.07501626 0.77608669 2894892
-0.39768568 -0.07494694 0.75170761 2894892
-0.42271012 -0.025076848 0.77656901 2894892
-0.39797434 -0.024928838 0.75224781 2894892
-0.42239556 0.025008183 0.77651608 2894892
-0.39764136 0.02530236 0.75217837 2894892
-0.42268381 0.075012296 0.7770561 6579300
-0.39788482 0.074919038 0.75267226 6579300
-0.61181569 0.11395109 0.78385323 10197915
-0.57528502 0.11392581 0.77424157 10197915
-0.52500123 0.11384489 0.77407408 10197915
-0.47449273 0.11375999 0.77489102 10197915
-0.42634439 0.10982897 0.77292722 10197915
-0.39765954 0.10692406 0.75252098 10197915
-0.47852013 -0.36060968 0.82972133 2894892
-0.44863018 -0.35412928 0.80036539 2894892
-0.47348011 -0.32519969 0.82494861 2894892
-0.44881636 -0.32508203 0.80069751 2894892
-0.47351867 -0.27500501 0.82524276 2894892
-0.44892874 -0.27169937 0.80108207 2894892
-0.47383735 -0.2250075 0.82581323 2894892
-0.44871512 -0.22485432 0.80111182 2894892
-0.47347465 -0.17506512 0.82571352 2894892
-0.44903868 -0.17502908 0.8016867 2894892
-0.4731048 -0.12487119 0.82560647 2894892
-0.44827223 -0.12418933 0.80119354 2894892
-0.47312641 -0.075147413 0.82588297 2894892
-0.44820073 -0.075029038 0.80137527 2894892
-0.47283837 -0.025008274 0.82585698 2894892
-0.4484157 -0.023787586 0.80185062 2894892
-0.47317609 0.024997719 0.82644629 2894892
-0.44810143 0.024915874 0.80179077 2894892
-0.472974 0.074912116 0.82650352 6513507
-0.44831443 0.073642686 0.80225039 6316128
-0.6580044 0.11383697 0.83727986 10197915
-0.62327147 0.11382381 0.8250739 10197915
-0.57501358 0.11374756 0.82450789 10197915
-0.5249939 0.11366834 0.82394689 10197915
-0.47668186 0.10967299 0.82230556 10197915
-0.4479022 0.10681936 0.80201542 10197915
-0.54836535 -0.40100896 0.89818883 2894892
-0.52654815 -0.37111813 0.87689126 2894892
-0.52388108 -0.32499066 0.87450475 2894892
-0.49909821 -0.31558952 0.85018575 2894892
-0.52427006 -0.27499571 0.87514466 2894892
-0.49938571 -0.27524066 0.8506754 2894892
-0.52440727 -0.22517368 0.87553406 2894892
-0.49974382 -0.22500508 0.85128522 2894892
-0.52343112 -0.17485018 0.87483323 2894892
-0.49873218 -0.17697969 0.850537 2894892
-0.52361649 -0.12500793 0.87527072 2894892
-0.498788 -0.12513466 0.85085821 2894892
-0.52364993 -0.075217031 0.87555909 2894892
-0.49886286 -0.071548671 0.8512069 2894892
-0.52347434 -0.025001816 0.87564504 2894892
-0.49866721 -0.025036175 0.85125321 2894892
-0.52375591 0.025070429 0.87617785 2894892
-0.49897105 0.023885796 0.85180306 2894892
-0.52289921 0.074752852 0.87559175 6513507
-0.49800503 0.07921204 0.8511371 7763574
-0.70591164 0.1137111 0.89481097 9934743
-0.67192119 0.11371835 0.87718093 10132122
-0.62567848 0.11365052 0.8751474 10197915
-0.57496846 0.11356608 0.87578899 10197915
-0.5265649 0.10947534 0.87244064 10132122
-0.4979392 0.10685255 0.85121435 10197915
-0.60077077 -0.41231602 0.94965845 2894892
-0.58110142 -0.40809882 0.93034023 2894892
-0.60093212 -0.39353749 0.9499132 2894892
-0.57473832 -0.37496185 0.92425376 2894892
-0.54998255 -0.35310745 0.90002489 2894892
-0.57417732 -0.32498136 0.92395765 2894892
-0.60004044 -0.2549679 0.9497478 2894892
-0.57440227 -0.27513108 0.92443544 2894892
-0.60014117 -0.24320452 0.94990718 2894892
-0.57401198 -0.22500701 0.92430925 2894892
-0.54926854 -0.20620857 0.90007681 2894892
-0.57441342 -0.17502925 0.92496067 2894892
-0.5495131 -0.17496084 0.90047765 2894892
-0.57458091 -0.12483407 0.92538226 2894892
-0.5498544 -0.131396 0.90103686 2894892
-0.57354623 -0.075218789 0.92462045 2894892
-0.54855144 -0.059665248 0.90012401 2894892
-0.57368737 -0.025014183 0.92501682 2894892
-0.54882205 -0.024994373 0.90056771 2894892
-0.57409108 0.025007278 0.92567062 2894892
-0.5492124 0.025018075 0.9012084 2894892
-0.57382029 0.074808896 0.92565924 6579300
-0.54899633 0.079147935 0.90127361 7697781
-0.75232428 0.11359546 0.94876951 9934743
-0.71974576 0.1136074 0.9304691 9934743
-0.67497694 0.11355079 0.92594123 10000536
-0.62500894 0.11347175 0.92536324 10132122
-0.57732016 0.10942924 0.92239922 10066329
-0.54891986 0.10679679 0.9013406 10132122
-0.6510452 -0.42340443 0.99903357 2894892
-0.62764508 -0.41829196 0.97605211 2894892
-0.65147072 -0.37770984 0.9996863 2894892
-0.62484366 -0.37478283 0.97352141 2894892
-0.62499076 -0.32501653 0.97392106 2894892
-0.65017879 -0.2690092 0.99897391 2894892
-0.62462807 -0.27522209 0.9738189 2894892
-0.65058839 -0.22486614 0.99960321 2894892
-0.62400025 -0.22477254 0.97346163 2894892
-0.65083343 -0.19843997 0.99997991 2894892
-0.62415987 -0.17499477 0.97387284 2894892
-0.62460905 -0.12501931 0.97457087 2894892
-0.62504464 -0.075007603 0.97525722 2894892
-0.59956497 -0.067710325 0.95024151 2894892
-0.6500082 -0.039356764 0.99998498 2894892
-0.62423712 -0.024908487 0.97472084 2894892
-0.59986037 -0.033083584 0.95070976 2894892
-0.62376505 0.024981726 0.97451168 2894892
-0.62419146 0.074990898 0.97518754 6645093
-0.59877396 0.08267238 0.9502359 8289918
-0.76517016 0.11350287 0.98083264 9934743
-0.72494519 0.1134596 0.97461212 9934743
-0.67492712 0.11338103 0.97390389 9934743
-0.62759179 0.10926054 0.97214568 9934743
-0.59897846 0.10672154 0.95056009 10000536
-0.70149064 -0.45955193 1.0484482 2894892
-0.68584871 -0.4560779 1.0330861 2894892
-0.7018373 -0.42501065 1.0489664 2894892
-0.67589825 -0.4249067 1.0234632 2894892
-0.70207018 -0.37521335 1.0494508 2894892
-0.67603946 -0.37501827 1.0238572 2894892
-0.70030576 -0.32475129 1.0479749 2894892
-0.67435968 -0.32502213 1.0224614 2894892
-0.70080316 -0.2750178 1.0487194 2894892
-0.67485487 -0.27497989 1.0232065 2894892
-0.70130122 -0.22521338 1.0494649 2894892
-0.67532521 -0.22499338 1.0239242 2894892
-0.70160466 -0.19486593 1.0499189 2894892
-0.67466301 -0.1749564 1.023531 2894892
-0.70001149 -0.10080861 1.048835 2894892
-0.67505181 -0.12506734 1.0241685 2894892
-0.70027101 -0.074762106 1.0492238 2894892
-0.67434639 -0.075024948 1.0237317 2894892
-0.70065635 -0.036097515 1.0498012 2894892
-0.67392004 -0.024793861 1.0235703 2894892
-0.67413628 0.02501341 1.0240393 2894892
-0.67458141 0.075005114 1.0247343 6710886
-0.81215554 0.11338321 1.0361906 9934743
-0.77486557 0.11336244 1.024965 9934743
-0.72492671 0.11328439 1.0241308 9934743
-0.67773175 0.10926348 1.0210716 9934743
-0.75189894 -0.47078773 1.0979543 2894892
-0.72889274 -0.46552527 1.0753607 2894892
-0.75239033 -0.42512247 1.0986718 2894892
-0.72653687 -0.42501599 1.0732516 2894892
-0.7517361 -0.37247875 1.0982985 2894892
-0.72581899 -0.37512809 1.0728021 2894892
-0.75107753 -0.32822111 1.0978782 2894892
-0.72496188 -0.32504234 1.0722165 2894892
-0.75121695 -0.27527642 1.0982871 2894892
-0.72543448 -0.27502096 1.0729392 2894892
-0.75175184 -0.22538599 1.0990691 2894892
-0.72592604 -0.22500198 1.0736779 2894892
-0.75220454 -0.18315195 1.0997311 2894892
-0.72539502 -0.17475624 1.0734141 2894892
-0.75015587 -0.11509258 1.098066 2894892
-0.72489858 -0.12531032 1.0731796 2894892
-0.75058311 -0.075100854 1.0986912 2894892
-0.72483498 -0.075001694 1.0733753 2894892
-0.75111765 -0.025049461 1.099474 2894892
-0.72474819 -0.024649251 1.0735483 2894892
-0.75142902 0.0041012676 1.0999296 2894892
-0.72456741 0.024981748 1.0736252 2894892
-0.72505558 0.074967295 1.0743619 6776679
-0.85871297 0.11326753 1.0902127 9934743
-0.82402289 0.11325739 1.077195 9934743
-0.77498299 0.11318362 1.0755625 9934743
-0.72833353 0.10898333 1.0718445 9934743
-0.8025583 -0.50677222 1.14758 2894892
-0.79002118 -0.50394827 1.1352677 2894892
-0.80281299 -0.47512007 1.1479931 2894892
-0.77664858 -0.47417364 1.1222714 2894892
-0.8021456 -0.42758948 1.1475809 2894892
-0.77658689 -0.42500108 1.1224631 2894892
-0.8024357 -0.37529132 1.1481342 2894892
-0.77709883 -0.37498847 1.1232238 2894892
-0.80211329 -0.32086557 1.1480966 2894892
-0.77590102 -0.32509822 1.1223017 2894892
-0.80182433 -0.27763325 1.1480346 2894892
-0.77536803 -0.27497816 1.1220362 2894892
-0.8011207 -0.22488126 1.1476134 2894892
-0.77588487 -0.22499415 1.1228002 2894892
-0.80168968 -0.1750842 1.1484283 2894892
-0.77600259 -0.17464255 1.1231741 2894892
-0.8022595 -0.12521608 1.1492445 2894892
-0.77554911 -0.12501046 1.1229825 2894892
-0.80196601 -0.080124862 1.1491876 2894892
-0.7758795 -0.075220592 1.1235629 2894892
-0.80036926 -0.02520173 1.1478995 2894892
-0.7752223 -0.025008403 1.1231755 2894892
-0.80094308 0.025225826 1.1487226 2894892
-0.77454478 0.025215164 1.1227664 2894892
-0.8015126 0.075248882 1.1495392 6908265
-0.77485651 0.074984953 1.1233287 6842472
-0.9040457 0.11316088 1.141143 9934743
-0.87186205 0.11316106 1.1263386 9934743
-0.82464963 0.11292972 1.1238072 9868950
-0.7783553 0.10890611 1.1211349 9868950
-0.85317618 -0.51783341 1.1972928 2894892
-0.83020312 -0.51274985 1.174731 2894892
-0.85359454 -0.4756929 1.1979208 2894892
-0.8276853 -0.47500998 1.1724489 2894892
-0.85260427 -0.42505914 1.1972071 2894892
-0.82688642 -0.42480928 1.1719214 2894892
-0.85240799 -0.37049222 1.1972939 2894892
-0.82678682 -0.37531465 1.1720769 2894892
-0.85217333 -0.32489339 1.1972977 2894892
-0.82624406 -0.32495835 1.1718013 2894892
-0.85252857 -0.27758175 1.1978896 2894892
-0.82650352 -0.2746731 1.1723161 2894892
-0.85173178 -0.22520745 1.1973748 2894892
-0.82588649 -0.22502492 1.1719635 2894892
-0.85233867 -0.17523026 1.1982284 2894892
-0.82648456 -0.17501016 1.1728078 2894892
-0.85294664 -0.12518205 1.1990829 2894892
-0.82705623 -0.12498907 1.1736273 2894892
-0.8514812 -0.077880822 1.1978846 2894892
-0.82521647 -0.074687995 1.1720767 2894892
-0.85086495 -0.024803646 1.1975514 2894892
-0.82512385 -0.024991537 1.1722411 2894892
-0.85146528 0.024826981 1.1983963 2894892
-0.82568169 0.024982776 1.1730455 2894892
-0.85207283 0.075025201 1.1992514 6908265
-0.82624012 0.074993342 1.1738514 6908265
-0.91784817 0.11305936 1.1761647 9868950
-0.87387836 0.11271008 1.1721489 9868950
-0.82831317 0.10916956 1.1691186 9868950
-0.90470672 -0.55409205 1.2477742 2894892
-0.89583093 -0.55211729 1.2390573 2894892
-0.90446591 -0.52818018 1.2476709 2894892
-0.87960273 -0.52297968 1.2232509 2894892
-0.9023034 -0.47183609 1.2458332 2894892
-0.87780744 -0.47533336 1.2217301 2894892
-0.90253741 -0.42520031 1.2463028 2894892
-0.87622893 -0.42501855 1.2204365 2894892
-0.9032023 -0.37512448 1.2472136 2894892
-0.87683266 -0.3751142 1.2212864 2894892
-0.90340215 -0.32832929 1.2476501 2894892
-0.87744945 -0.32509956 1.2221495 2894892
-0.90269917 -0.27488893 1.2472333 2894892
-0.87766731 -0.27469561 1.222622 2894892
-0.90298295 -0.22255959 1.2477808 2894892
-0.87681234 -0.225225 1.2220349 2894892
-0.9021793 -0.17490724 1.2472353 2894892
-0.87591314 -0.17503877 1.2214096 2894892
-0.90237916 -0.1286706 1.247669 2894892
-0.8765437 -0.12503234 1.2222856 2894892
-0.9016912 -0.074922614 1.2472688 2894892
-0.87635243 -0.074555822 1.2223563 2894892
-0.90233421 -0.024817737 1.2481581 2894892
-0.87609941 -0.025028275 1.222362 2894892
-0.90297145 0.024841102 1.2490396 2894892
-0.87668973 0.025015812 1.2231988 2894892
-0.90182877 0.074967362 1.2481735 7303023
-0.8763445 0.074566081 1.2231128 6842472
-0.96468234 0.11294245 1.230672 9868950
-0.92389232 0.11260544 1.2233036 9868950
-0.87881237 0.10919722 1.218438 9868950
-0.95296323 -0.56473613 1.2951674 2894892
-0.93150872 -0.56001985 1.2740963 2894892
-0.95346981 -0.52504849 1.2958695 2894892
-0.92809343 -0.52457774 1.2709212 2894892
-0.95415449 -0.47492397 1.2967994 2894892
-0.92748696 -0.47506544 1.2705781 2894892
-0.95471352 -0.4259856 1.2976005 2894892
-0.92812783 -0.42505488 1.2714652 2894892
-0.95335597 -0.37357521 1.2965348 2894892
-0.92872387 -0.37509355 1.2723078 2894892
-0.95231539 -0.32530761 1.2957596 2894892
-0.92697126 -0.32441911 1.2708446 2894892
-0.9529987 -0.27504405 1.2966897 2894892
-0.92638999 -0.27498651 1.2705278 2894892
-0.953659 -0.22497608 1.2975951 2894892
-0.9271251 -0.22500907 1.2715063 2894892
-0.95249385 -0.17564279 1.2967031 2894892
-0.92772764 -0.17500441 1.2723557 2894892
-0.95309514 -0.12524864 1.2975531 2894892
-0.92768174 -0.12450694 1.2725687 2894892
-0.95280927 -0.070728391 1.297552 2894892
-0.9265337 -0.075490721 1.2716922 2894892
-0.95250291 -0.024994804 1.2974854 2894892
-0.92602098 -0.025017936 1.2714474 2894892
-0.95173401 0.022464223 1.2969728 2894892
-0.92668259 0.024997786 1.2723554 2894892
-0.95194644 0.07525558 1.2974529 7039851
-0.9264915 0.075515591 1.2724262 7105644
-1.0101728 0.11283156 1.2828803 9868950
-0.9733572 0.11242662 1.2741045 9868950
-0.92886752 0.10874286 1.2692502 9868950
-1.0059028 -0.60130835 1.3470323 2894892
-1.0052316 -0.57513011 1.3465067 2894892
-0.98029912 -0.57073903 1.322015 2894892
-1.0057751 -0.52477533 1.3472995 2894892
-0.97910833 -0.52514136 1.3210775 2894892
-1.0024662 -0.47478649 1.344303 2894892
-0.97788876 -0.47499174 1.3201361 2894892
-1.0032082 -0.42468706 1.3452892 2894892
-0.97834527 -0.42478967 1.3208432 2894892
-1.0039238 -0.37479404 1.3462491 2894892
-0.97731549 -0.37505543 1.3200855 2894892
-1.0046407 -0.32482967 1.3472105 2894892
-0.97789484 -0.32507256 1.3209121 2894892
-1.0040896 -0.27874473 1.3469052 2894892
-0.97872943 -0.27502075 1.3219893 2894892
-1.0032712 -0.22144984 1.3463949 2894892
-0.97890389 -0.22538239 1.322415 2894892
-1.0026088 -0.17509004 1.3459811 2894892
-0.97607529 -0.17492451 1.3198929 2894892
-1.0033246 -0.1249931 1.3469422 2894892
-0.97671354 -0.12500545 1.3207769 2894892
-1.0033457 -0.07904055 1.3471991 2894892
-0.97743338 -0.075015798 1.3217403 2894892
-1.0026633 -0.025105445 1.3468049 2894892
-0.97813588 -0.025005285 1.3226899 2894892
-1.0033796 0.025129352 1.347767 2894892
-0.97711599 0.025237313 1.3219435 2894892
-1.0029455 0.079344034 1.3476185 7960953
-0.97674549 0.074459359 1.321833 6908265
-1.0568985 0.11271649 1.3368181 10066329
-1.0206486 0.11193133 1.3254185 9868950
-0.97896785 0.10898705 1.3174156 9934743
-1.0549684 -0.61205018 1.3952209 2894892
-1.032782 -0.60723972 1.373431 2894892
-1.0539925 -0.57734752 1.3944398 2894892
-1.0287222 -0.57502496 1.3696052 2894892
-1.0537179 -0.5248456 1.3944391 2894892
-1.0293304 -0.5249685 1.3704596 2894892
-1.0545231 -0.47492239 1.3954873 2894892
-1.0280145 -0.47507867 1.3694217 2894892
-1.055226 -0.42493299 1.3964351 2894892
-1.0287465 -0.42506033 1.3703974 2894892
-1.0557756 -0.3769936 1.3972214 2894892
-1.0293791 -0.37497017 1.371278 2894892
-1.0530277 -0.32098877 1.3948061 2894892
-1.0291624 -0.32563207 1.3713175 2894892
-1.0530152 -0.27509758 1.3950301 2894892
-1.0271827 -0.27452567 1.369632 2894892
-1.0537384 -0.22526518 1.3959969 2894892
-1.0273488 -0.22499122 1.3700502 2894892
-1.0545444 -0.1750741 1.3970468 2894892
-1.0280766 -0.17499764 1.3710227 2894892
-1.0538694 -0.12857158 1.3966217 2894892
-1.0288029 -0.12504596 1.371994 2894892
-1.0537797 -0.074647024 1.3968102 2894892
-1.0285614 -0.074437089 1.3720162 2894892
-1.0529393 -0.021050541 1.396259 2894892
-1.0268806 -0.025580799 1.3706145 2894892
-1.0530349 0.024882309 1.3965884 2894892
-1.0267071 0.024990052 1.370703 2894892
-1.0533733 0.071756154 1.3971624 6579300
-1.0274075 0.075012907 1.3716484 7105644
-1.104561 0.11259247 1.3937098 10197915
-1.0699391 0.11210427 1.377737 10197915
-1.0302563 0.10891755 1.3679523 10066329
-1.1051248 -0.62563747 1.4444674 2894892
-1.0812432 -0.61776775 1.4210255 2894892
-1.1041605 -0.57511789 1.4437788 2894892
-1.0789291 -0.57420087 1.4189745 2894892
-1.1049832 -0.52495241 1.4448447 2894892
-1.0789069 -0.52497786 1.4192057 2894892
-1.1057733 -0.47501105 1.445878 2894892
-1.0796789 -0.47508022 1.4202205 2894892
-1.1065649 -0.42499804 1.4469131 2894892
-1.0804999 -0.42504519 1.4212847 2894892
-1.1037242 -0.37398991 1.444382 2894892
-1.0792861 -0.37532917 1.4203464 2894892
-1.1033247 -0.32489014 1.4442408 2894892
-1.0773048 -0.32508451 1.4186558 2894892
-1.1041135 -0.27482668 1.4452735 2894892
-1.0780883 -0.27493247 1.4196833 2894892
-1.10487 -0.22498988 1.4462729 2894892
-1.0788696 -0.22490256 1.4207088 2894892
-1.1053592 -0.17742209 1.4469982 2894892
-1.0796975 -0.17499699 1.4217789 2894892
-1.1040697 -0.12460169 1.4460012 2894892
-1.0786327 -0.12456543 1.4209902 2894892
-1.1031401 -0.07109616 1.4453621 2894892
-1.0776132 -0.075712278 1.4202393 2894892
-1.1032341 -0.025152158 1.4456904 2894892
-1.0772872 -0.025036465 1.4201787 2894892
-1.1040236 0.025176162 1.4467247 2894892
-1.0780532 0.024994792 1.421189 2894892
-1.1036842 0.070702098 1.4466246 5921370
-1.0781808 0.075570524 1.4215739 7237230
-1.115347 0.11170202 1.4278432 10197915
-1.0799178 0.10843086 1.4186122 10197915
-1.1558455 -0.65893966 1.4941673 2894892
-1.1361603 -0.65516382 1.4748312 2894892
-1.1557813 -0.62484866 1.4942787 2894892
-1.1292974 -0.62420839 1.4682416 2894892
-1.154209 -0.5754438 1.4929866 2894892
-1.1286876 -0.57499236 1.4678953 2894892
-1.1548901 -0.52483296 1.4939159 2894892
-1.1295035 -0.52496827 1.4689547 2894892
-1.1557136 -0.47503966 1.4949815 2894892
-1.130373 -0.47494912 1.4700663 2894892
-1.1565381 -0.42517522 1.4960481 2894892
-1.1311662 -0.42500916 1.4711024 2894892
-1.1568059 -0.37616968 1.4965627 2894892
-1.1297072 -0.3746033 1.4699262 2894892
-1.1530689 -0.32506409 1.4931504 2894892
-1.1277463 -0.32482144 1.4682539 2894892
-1.1538272 -0.27515012 1.4941525 2894892
-1.1285557 -0.27506301 1.4693048 2894892
-1.1547135 -0.22517252 1.4952806 2894892
-1.1293627 -0.22500362 1.4703554 2894892
-1.1554745 -0.17512016 1.4962856 2894892
-1.1295792 -0.17443205 1.4708273 2894892
-1.1555685 -0.12909976 1.4966146 2894892
-1.1285114 -0.12504734 1.4700317 2894892
-1.1545759 -0.074985519 1.4959162 2894892
-1.1293015 -0.075025797 1.471065 2894892
-1.1530733 -0.023062974 1.4947052 2894892
-1.1280518 -0.025408449 1.4700911 2894892
-1.15365 0.024785915 1.4955182 2894892
-1.1285077 0.024985641 1.4707979 2894892
-1.1544366 0.074716508 1.4965477 7171437
-1.1275866 0.075688064 1.4701519 7368816
-1.163916 0.11097251 1.4869248 10197915
-1.1298394 0.10876646 1.4659932 10197915
-1.2058771 -0.670039 1.5433034 2894892
-1.1831414 -0.66521704 1.5209733 2894892
-1.2065699 -0.62503058 1.5442153 2894892
-1.1820669 -0.62501341 1.5201235 2894892
-1.2073967 -0.57522064 1.5452843 2894892
-1.1803796 -0.57488734 1.5187225 2894892
-1.2065719 -0.52256674 1.5447438 2894892
-1.1797303 -0.5259183 1.5183343 2894892
-1.2045784 -0.47703755 1.5430169 2894892
-1.1793227 -0.47504422 1.5181949 2894892
-1.2044817 -0.42483902 1.5431898 2894892
-1.1802044 -0.42503011 1.5193192 2894892
-1.2053763 -0.37491632 1.5443259 2894892
-1.1804603 -0.37471631 1.5198284 2894892
-1.2062321 -0.32524285 1.5454223 2894892
-1.1791698 -0.32514903 1.5188141 2894892
-1.2070597 -0.27517846 1.5464931 2894892
-1.179988 -0.2749308 1.519877 2894892
-1.2053064 -0.22513577 1.5450258 2894892
-1.1804394 -0.2254059 1.5205747 2894892
-1.2032894 -0.17486843 1.5433005 2894892
-1.1789994 -0.17499638 1.5194172 2894892
-1.204183 -0.12476618 1.5444367 2894892
-1.178597 -0.12420638 1.5192819 2894892
-1.205038 -0.074911676 1.5455337 2894892
-1.1781279 -0.075042278 1.519073 2894892
-1.2058942 -0.024986325 1.5466312 2894892
-1.1788986 -0.025031127 1.5200877 2894892
-1.2044784 0.022882817 1.545485 2894892
-1.1797121 0.024976015 1.5211434 2894892
-1.2048584 0.074946307 1.5461255 7237230
-1.1806171 0.074971735 1.5222906 7237230
-1.2112992 0.11101203 1.5399603 10197915
-1.1827577 0.10779549 1.5214021 10197915
-1.2567149 -0.706137 1.5931045 2894892
-1.2426382 -0.70317936 1.5792786 2894892
-1.2569883 -0.67470086 1.5935345 2894892
-1.2313884 -0.67430103 1.5683656 2894892
-1.2578852 -0.62497282 1.5946716 2894892
-1.2318078 -0.62504804 1.5690299 2894892
-1.2570709 -0.57259929 1.5941397 2894892
-1.2313405 -0.57600123 1.5688224 2894892
-1.2558998 -0.52721393 1.5932215 2894892
-1.2307483 -0.52514535 1.5685015 2894892
-1.2547123 -0.4749642 1.5923221 2894892
-1.2294425 -0.47436169 1.5674789 2894892
-1.2555751 -0.4248068 1.5934278 2894892
-1.2296644 -0.4250972 1.5679487 2894892
-1.2565151 -0.37457177 1.59461 2894892
-1.2305449 -0.3749789 1.5690732 2894892
-1.2574127 -0.32459569 1.595749 2894892
-1.2313608 -0.32496995 1.5701319 2894892
-1.2577022 -0.27779779 1.5962735 2894892
-1.232281 -0.27507785 1.571292 2894892
-1.2533898 -0.22461089 1.5923063 2894892
-1.2281573 -0.22453646 1.5674973 2894892
-1.2542384 -0.17492895 1.5933959 2894892
-1.228322 -0.17501441 1.567915 2894892
-1.2550892 -0.12518026 1.5944877 2894892
-1.2292403 -0.12499227 1.5690732 2894892
-1.2560182 -0.075358041 1.595657 2894892
-1.2301568 -0.074991755 1.5702305 2894892
-1.2565299 -0.027468497 1.5964055 2894892
-1.2309482 -0.025014522 1.5712645 2894892
-1.2548854 0.025113909 1.5950588 2894892
-1.2292676 0.025254488 1.5698712 2894892
-1.2540578 0.079587556 1.5945246 8224125
-1.2287633 0.074096434 1.5696254 7105644
-1.253811 0.10795892 1.591028 10197915
-1.2301911 0.10756376 1.5690608 10197915
-1.3015689 -0.71623474 1.6371551 2894892
-1.2821535 -0.71206462 1.618086 2894892
-1.302335 -0.67525661 1.6381186 2894892
-1.2808542 -0.67514813 1.6169977 2894892
-1.3032655 -0.6254828 1.6392889 2894892
-1.2817892 -0.62502027 1.6181756 2894892
-1.3042097 -0.57496375 1.6404767 2894892
-1.282732 -0.57515258 1.6193579 2894892
-1.3051554 -0.52437156 1.6416661 2894892
-1.2823911 -0.5242756 1.6192845 2894892
-1.3045484 -0.47042394 1.6413461 2894892
-1.2805282 -0.47589096 1.617699 2894892
-1.303858 -0.42522717 1.6408992 2894892
-1.2793404 -0.42501181 1.616793 2894892
-1.304827 -0.3755244 1.6421075 2894892
-1.2802703 -0.37492731 1.617965 2894892
-1.3057616 -0.32541466 1.6432835 2894892
-1.2814015 -0.32488948 1.6193339 2894892
-1.3066975 -0.27523303 1.6444613 2894892
-1.2811308 -0.27409369 1.6193271 2894892
-1.3076344 -0.22497955 1.6456406 2894892
-1.2800083 -0.22500683 1.6184783 2894892
-1.3077071 -0.17855828 1.6459502 2894892
-1.2808955 -0.17512931 1.6196065 2894892
-1.3039382 -0.12178803 1.6425357 2894892
-1.2798824 -0.12588798 1.6188629 2894892
-1.3041602 -0.075215399 1.6429931 2894892
-1.2797698 -0.074895255 1.6190132 2894892
-1.3051308 -0.025200438 1.6442043 2894892
-1.2799575 -0.024264883 1.6194581 2894892
-1.3060672 0.025224527 1.6453834 2894892
-1.2785424 0.025003077 1.618319 2894892
-1.3066741 0.07316003 1.6462265 7039851
-1.2795415 0.074956037 1.6195568 7303023
-1.3037744 0.10719772 1.6429266 10197915
-1.2788401 0.10726627 1.6179078 10197915
-1.3119669 -0.15997887 1.6502341 2894892
-1.3126175 -0.12517101 1.6510522 2894892
-1.3135499 -0.075291798 1.652225 2894892
-1.3144834 -0.025341351 1.6533992 2894892
-1.3154187 0.02467984 1.6545758 2894892
-1.3155357 0.07769347 1.6549629 7697781
-1.3138099 0.10617348 1.6534123 10197915
