# .PCD v0.7 - Point Cloud Data file format
VERSION 0.7
FIELDS x y z rgb
SIZE 4 4 4 4
TYPE F F F U
COUNT 1 1 1 1
WIDTH 1166
HEIGHT 1
VIEWPOINT 0 0 0 1 0 0 0
POINTS 1166
DATA ascii
-1.6250868 0.11005316 2.1772239 9934743
-1.575065 0.11002505 2.1766677 9934743
-1.5250685 0.10999695 2.1761117 9934743
-1.4751122 0.10996701 2.1761675 9934743
-1.425172 0.10994083 2.1750009 9934743
-1.3752524 0.10991276 2.1744461 9934743
-1.3249153 0.10988352 2.1741917 9934743
-1.2750493 0.1098555 2.1736372 9934743
-1.2252086 0.1098275 2.1730831 10000536
-1.1749511 0.10980017 2.172219 10197915
-1.1251591 0.1097722 2.1716652 10197915
-1.0749488 0.10974304 2.171412 10197915
-1.0247563 0.10971576 2.1705492 10197915
-0.9745999 0.10968664 2.1702964 10197915
-0.92491227 0.10965871 2.1697435 10197915
-0.87525016 0.10963082 2.1691916 10197915
-0.82517207 0.1096036 2.1683297 10197915
-0.77510685 0.10957452 2.1680777 10197915
-0.72507769 0.10954735 2.167217 10197915
-0.67592013 0.10951687 2.1675947 10197915
-0.62497628 0.10943848 2.1831439 10197915
-0.57508415 0.10941045 2.182585 10197915
-0.52521753 0.10938245 2.1820257 10197915
-0.47537664 0.10935444 2.1814673 10197915
-0.42465565 0.10932596 2.1808989 10197915
-0.37486607 0.10929799 2.1803408 10197915
-0.32510203 0.10927003 2.1797833 10197915
-0.27445927 0.10924159 2.1792157 10197915
-0.22474645 0.10921366 2.1786585 10197915
-0.17505924 0.10918575 2.1781018 10197915
-0.1244946 0.10915735 2.1775351 10197915
-0.07485842 0.10912946 2.1769793 10197915
-0.02524774 0.10910159 2.1764228 10197915
0.025238995 0.10907324 2.1758573 9803157
0.056780901 0.10905551 2.175504 6513507
-1.7622931 0.10997004 2.230617 9934743
-1.725001 0.10994913 2.2301929 9934743
-1.6746778 0.10992087 2.22962 9934743
-1.6243806 0.10989266 2.2290473 9934743
-1.5750397 0.10986495 2.2284853 9934743
-1.5257239 0.10983729 2.2279246 9934743
-1.4755031 0.10980909 2.2273526 9934743
-1.4253081 0.10978093 2.2267811 9934743
-1.3751388 0.10975276 2.2262101 9934743
-1.3249952 0.10972463 2.2256393 9934743
-1.2748773 0.1096965 2.2250688 9934743
-1.2247851 0.1096684 2.2244985 10132122
-1.1747185 0.1096403 2.2239285 10197915
-1.1246777 0.10961223 2.2233591 10197915
-1.0746623 0.10958414 2.2227895 10197915
-1.0246727 0.1095561 2.2222207 10197915
-0.97470862 0.10952806 2.221652 10197915
-0.9247703 0.10950003 2.2210834 10197915
-0.87485725 0.10947201 2.2205153 10197915
-0.82496977 0.10944401 2.2199473 10197915
-0.77510798 0.10941605 2.2193799 10197915
-0.72527152 0.10938808 2.2188129 10197915
-0.67546046 0.10936012 2.2182455 10197915
-0.62567514 0.10933218 2.217679 10197915
-0.57499391 0.10930373 2.2171018 10197915
-0.52433884 0.10927533 2.2165253 10197915
-0.47463053 0.1092474 2.2159593 10197915
-0.42494768 0.10921954 2.2153943 10197915
-0.37529007 0.10919166 2.2148285 10197915
-0.32304952 0.10911428 2.2298017 10197915
-0.27501565 0.10908148 2.2311516 10197915
-0.2245751 0.1090522 2.2308958 10197915
-0.17508748 0.10902547 2.2299926 10197915
-0.12562549 0.10899668 2.2297604 10197915
-0.075262092 0.10896943 2.2288597 10197915
-0.024929747 0.10894021 2.228605 10197915
0.024921224 0.10891224 2.2280328 9868950
0.05721933 0.10889412 2.2276623 6513507
-1.801908 -1.0071144 2.2676795 11711154
-1.7726121 -1.0110385 2.2843683 11711154
-1.7474964 -1.0142149 2.298677 11711154
-1.8014387 -0.97274303 2.2680414 11711154
-1.7747988 -0.9751696 2.2832193 11711154
-1.7475533 -0.97520161 2.2987516 11711154
-1.8014007 -0.92497158 2.2681942 11711154
-1.7747114 -0.92503297 2.2834091 11711154
-1.7476095 -0.92507899 2.2988575 11711154
-1.8014598 -0.87488717 2.2682977 11711154
-1.7747643 -0.87503117 2.2835157 11711154
-1.7477164 -0.87464809 2.2989352 11711154
-1.8015189 -0.82479823 2.2684023 8092539
-1.7748233 -0.8250255 2.2836192 8092539
-1.7477725 -0.82483429 2.2990401 8092539
-1.801626 -0.77503198 2.2684777 2039583
-1.7749043 -0.77499098 2.2837119 2039583
-1.7478446 -0.77533811 2.299135 2039583
-1.8016688 -0.72492969 2.2685907 2039583
-1.7749913 -0.72500086 2.283798 2039583
-1.7481071 -0.72763896 2.2991168 2039583
-1.8017758 -0.67515582 2.2686667 2039583
-1.7750704 -0.67503262 2.2838907 2039583
-1.7486682 -0.67480123 2.2989416 2039583
-1.8018351 -0.62504977 2.2687709 2039583
-1.7750876 -0.62503529 2.2840178 2039583
-1.7487289 -0.62481809 2.2990441 2039583
-1.8018939 -0.57493871 2.2688746 2039583
-1.7752334 -0.57500941 2.2840717 2039583
-1.7488005 -0.57531345 2.2991395 2039583
-1.8020016 -0.52515376 2.2689502 2039583
-1.7752792 -0.52502722 2.2841864 2039583
-1.7488745 -0.52485269 2.2992363 2039583
-1.8020607 -0.47472122 2.2690551 2039583
-1.7753394 -0.47501785 2.2842851 2039583
-1.748948 -0.47438765 2.2993331 2039583
-1.8021359 -0.4249166 2.2691495 2039583
-1.775425 -0.4249534 2.2843761 2039583
-1.7490202 -0.42487082 2.2994277 2039583
-1.8022103 -0.37510788 2.2692437 2039583
-1.7754939 -0.37498519 2.2844739 2039583
-1.7490921 -0.37534979 2.2995229 2039583
-1.8022692 -0.3249751 2.2693477 2039583
-1.7756615 -0.32503653 2.2845161 2039583
-1.7493705 -0.3290838 2.2994912 2039583
-1.8023767 -0.27517122 2.2694232 2039583
-1.7755365 -0.2750344 2.284725 2039583
-1.749904 -0.27434522 2.2993376 2039583
-1.8024367 -0.22471678 2.2695279 2039583
-1.7756133 -0.22488034 2.2848167 2039583
-1.7499697 -0.22958218 2.2994232 2039583
-1.8025113 -0.17489144 2.2696223 2039583
-1.7751473 -0.17497645 2.2852223 2040873
-1.8022547 -0.12325142 2.2699103 6316128
-1.774992 -0.12531309 2.2854462 4870746
-1.8020139 -0.075240515 2.27018 6710886
-1.7744874 -0.074933425 2.2858717 4871005
-1.802088 -0.025394604 2.2702742 6710886
-1.7747968 -0.024800619 2.2858336 4805212
-1.8021647 0.025396029 2.2703702 7829367
-1.7748706 0.024802012 2.2859261 6844019
-1.8022389 0.075250283 2.2704647 10066329
-1.7750714 0.074795552 2.2859502 10000536
-1.8021939 0.10490927 2.2701921 9934743
-1.7753023 0.10567289 2.283498 9934743
-1.7255023 0.10983876 2.2660387 9934743
-1.6753169 0.10981063 2.2654588 9934743
-1.6251576 0.1097825 2.2648785 9934743
-1.5750235 0.10975441 2.2642987 9934743
-1.5249152 0.1097263 2.2637191 9934743
-1.4709436 0.10966995 2.2715421 9934743
-1.4249804 0.10961317 2.2810397 9934743
-1.3750145 0.10958628 2.280108 9934743
-1.3250848 0.1095572 2.2798748 9934743
-1.2751678 0.10953031 2.2789435 10066329
-1.225292 0.10950129 2.2787108 10197915
-1.1749549 0.10947309 2.2781241 10197915
-1.1246438 0.10944489 2.2775369 10197915
-1.0748416 0.10941808 2.2766082 10197915
-1.0250552 0.10938908 2.2763758 10197915
-0.97530115 0.10936229 2.2754476 10197915
-0.92509019 0.10933416 2.2748625 10197915
-0.87491614 0.10930387 2.2749727 10197915
-0.82476646 0.10927794 2.2736928 10197915
-0.77463311 0.10924985 2.2731085 10197915
-0.72500706 0.10922095 2.2728772 10197915
-0.67539811 0.10919425 2.2719512 10197915
-0.62488127 0.10916486 2.2717097 10197915
-0.57485306 0.10913681 2.2711263 10197915
-0.52532566 0.10911015 2.2702017 10197915
-0.47488144 0.10908081 2.2699604 10197915
-0.42446014 0.10905363 2.2690256 10197915
-0.37501222 0.10902485 2.268796 10197915
-0.32855907 0.1089627 2.2799451 10197915
-0.27464828 0.10891184 2.2859929 10197915
-0.22534408 0.10888423 2.2854135 10197915
-0.17511743 0.10885611 2.2848229 10197915
-0.12491667 0.10882799 2.2842329 10197915
-0.0747419 0.10879989 2.2836428 10197915
-0.024592923 0.1087718 2.2830534 10197915
0.024584621 0.10874427 2.2824755 10000536
0.057671785 0.10872573 2.2820864 6513507
-1.6584914 -1.0501833 2.3493152 2039583
-1.7214565 -1.0175476 2.3135114 5658198
-1.6777803 -1.0230743 2.3383942 2039583
-1.7228369 -0.97492653 2.3128436 6052956
-1.6785965 -0.97506058 2.3380604 2039583
-1.7228943 -0.92494202 2.3129463 6118749
-1.6787629 -0.92510217 2.3381028 2039583
-1.7229694 -0.87500978 2.3130407 6118749
-1.6794653 -0.87501377 2.3378398 2039583
-1.7230169 -0.82498878 2.3131514 4605510
-1.6794989 -0.82500684 2.3379586 2039583
-1.7231258 -0.77496415 2.3132257 2039583
-1.6795894 -0.7750271 2.3380437 2039583
-1.7234592 -0.72477776 2.3131762 2039583
-1.6796945 -0.72504479 2.3381219 2039583
-1.7239077 -0.67494899 2.3130567 2039583
-1.6797055 -0.67502522 2.3382535 2039583
-1.7239982 -0.62495285 2.3131435 2039583
-1.6797919 -0.62500119 2.33834 2039583
-1.7240894 -0.57498044 2.3132262 2039583
-1.6799017 -0.57500577 2.3384156 2039583
-1.7241398 -0.5250048 2.3133373 2039583
-1.6799307 -0.52500623 2.3385379 2039583
-1.7242093 -0.47505167 2.3134334 2039583
-1.6806775 -0.47496375 2.3382487 2039583
-1.7242786 -0.42506596 2.31353 2039583
-1.6808114 -0.42494386 2.3383088 2039583
-1.7241315 -0.37487343 2.3137543 2039583
-1.6805788 -0.37517256 2.3385789 2039583
-1.7241162 -0.3248449 2.313899 2039583
-1.6802229 -0.32488653 2.3389196 2039583
-1.7244521 -0.27503726 2.3138444 2039583
-1.6802939 -0.27489126 2.3390169 2039583
-1.7245356 -0.22506981 2.3139341 2039583
-1.6803448 -0.2249627 2.3391252 2039583
-1.7246459 -0.17502098 2.3140075 1909029
-1.6803405 -0.17495747 2.3392649 2039583
-1.7248271 -0.12484077 2.3140459 1909029
-1.6804808 -0.1250536 2.3393226 2039583
-1.7247322 -0.074783072 2.3142333 1974049
-1.6813253 -0.075364806 2.3389771 2039583
-1.7248077 -0.024928588 2.3143287 1909028
-1.6813031 -0.025195714 2.339129 2039583
-1.7248797 0.024929997 2.3144262 3685182
-1.6813725 0.025197135 2.339226 2039583
-1.750428 0.084805764 2.3000257 9934743
-1.7249486 0.074792743 2.3145211 6316128
-1.6815935 0.075311273 2.3392377 2763306
-1.7504572 0.10481781 2.3000638 9934743
-1.725104 0.10518192 2.313086 9934743
-1.6791735 0.10605109 2.3338397 9934743
-1.6249142 0.10960907 2.320976 9934743
-1.5749965 0.10958228 2.3200095 9934743
-1.5251045 0.10955319 2.3197923 9934743
-1.4784752 0.10951752 2.3223486 9934743
-1.4256078 0.10943857 2.3377042 9934743
-1.3748904 0.10941021 2.3370986 9934743
-1.3251735 0.10938239 2.3365045 10000536
-1.2754821 0.10935458 2.3359103 10197915
-1.2248422 0.10932626 2.3353052 10197915
-1.1752017 0.10929848 2.334712 10197915
-1.1255863 0.10927073 2.3341191 10197915
-1.0750241 0.10924244 2.3335149 10197915
-1.0244881 0.10921416 2.332911 10197915
-0.97494918 0.10918646 2.3323188 10197915
-0.92543548 0.10915875 2.331727 10197915
-0.87497699 0.10913051 2.3311241 10197915
-0.82454419 0.10910232 2.3305216 10197915
-0.77510667 0.10907465 2.3299308 10197915
-0.72569442 0.10904701 2.32934 10197915
-0.6753391 0.10901884 2.3287382 10197915
-0.6250096 0.10899068 2.3281369 10197915
-0.57470614 0.10896254 2.3275359 10197915
-0.52442873 0.10893441 2.3269351 10197915
-0.47417721 0.10890628 2.3263345 10197915
-0.42491713 0.10887875 2.3257461 10197915
-0.37568223 0.1088512 2.3251574 10197915
-0.32550737 0.10882313 2.324558 10197915
-0.2753585 0.10879509 2.3239584 10197915
-0.22523545 0.10876702 2.3233593 10197915
-0.17513822 0.10873901 2.3227613 10197915
-0.12506682 0.10871099 2.3221624 10197915
-0.075021192 0.10868299 2.3215644 10197915
-0.025001338 0.10865502 2.3209662 10197915
0.024992764 0.10862704 2.3203692 10000536
0.058629088 0.10860822 2.3199673 6513507
-1.6531615 -1.0512152 2.3523505 2039583
-1.619375 -1.055539 2.3715982 2039583
-1.5832797 -1.0601813 2.3921611 2039583
-1.6536833 -1.02494 2.3521256 2039583
-1.6249455 -1.0249915 2.3685079 2039583
-1.5843729 -1.0249932 2.3916345 2039583
-1.6536977 -0.97489119 2.3522549 2039583
-1.6249835 -0.97498947 2.3686218 2039583
-1.5846119 -0.97527468 2.3916361 2039583
-1.6538746 -0.92467535 2.3522923 2039583
-1.6250921 -0.92495632 2.3686974 2039583
-1.5851941 -0.92505866 2.3914421 2039583
-1.6545632 -0.87502873 2.3520348 2039583
-1.6251528 -0.87496996 2.3688009 2039583
-1.5853015 -0.87501419 2.3915191 2039583
-1.6546146 -0.82504255 2.3521445 2039583
-1.6251867 -0.824983 2.3689198 2039583
-1.5852993 -0.82501245 2.3916571 2039583
-1.6547196 -0.7750538 2.3522208 2039583
-1.62529 -0.77496397 2.3689976 2039583
-1.5853679 -0.77500814 2.3917549 2039583
-1.6547933 -0.7248981 2.3523178 2039583
-1.6253465 -0.72499371 2.3691027 2039583
-1.5854812 -0.72500002 2.3918288 2039583
-1.6547989 -0.67489517 2.3524511 2039583
-1.6253823 -0.67502153 2.3692207 2039583
-1.5855085 -0.67498744 2.3919492 2039583
-1.6542355 -0.62511808 2.3529098 2039583
-1.6248227 -0.62500322 2.3696764 2039583
-1.5856112 -0.6249696 2.3920283 2039583
-1.6543045 -0.57501066 2.3530085 2039583
-1.6248413 -0.5750137 2.3698022 2039583
-1.5857127 -0.57504451 2.3921072 2039583
-1.6543036 -0.52489352 2.3531454 2039583
-1.6248879 -0.52499402 2.3699141 2039583
-1.5864353 -0.52507579 2.3918326 2039583
-1.655145 -0.47507173 2.3528023 2039583
-1.6250354 -0.47494045 2.3699675 2039583
-1.5864776 -0.47513217 2.3919463 2039583
-1.655183 -0.42500654 2.3529179 2039583
-1.6250374 -0.42502284 2.3701029 2039583
-1.5865948 -0.42497841 2.3920178 2039583
-1.6551982 -0.37481573 2.3530483 2039583
-1.6250786 -0.37504664 2.3702168 2039583
-1.5865983 -0.37492296 2.3921523 2039583
-1.6553761 -0.32512298 2.3530846 2039583
-1.6251976 -0.32495236 2.370286 2039583
-1.5866965 -0.32501879 2.3922336 2039583
-1.6553903 -0.27492395 2.3532109 2039583
-1.6252797 -0.27505165 2.3703771 2039583
-1.5868559 -0.27495617 2.3922803 2039583
-1.6554177 -0.22496395 2.353334 2039583
-1.6253265 -0.2250329 2.3704884 2039583
-1.5868504 -0.22504522 2.392421 2039583
-1.6555685 -0.17525923 2.3533862 2039583
-1.6252916 -0.17492701 2.3706441 2039583
-1.5868164 -0.17528291 2.3925769 2039583
-1.6555972 -0.12480366 2.3535066 2039583
-1.6256267 -0.12507167 2.3705928 2039583
-1.5874964 -0.12526406 2.3923268 2039583
-1.6563118 -0.074867696 2.3532379 2039583
-1.6252598 -0.074977838 2.370939 2039583
-1.5878561 -0.074669555 2.3922606 2039583
-1.6564301 -0.025348449 2.3533072 2039583
-1.625277 -0.024746424 2.3710668 2039583
-1.587329 -0.025091879 2.3926973 2039583
-1.6565001 0.025349861 2.353404 2039583
-1.6251239 0.02489485 2.3712902 2039583
-1.5871563 0.024784252 2.3929329 2039583
-1.6565685 0.075077318 2.3535032 2631720
-1.6247481 0.074991129 2.3716412 2763306
-1.5873237 0.074652866 2.3929753 2697513
-1.6566089 0.10433056 2.3535609 9934743
-1.6253608 0.10504916 2.3712852 9934743
-1.5838394 0.10559683 2.3898633 9934743
-1.5243083 0.10937176 2.3783724 9934743
-1.4746678 0.10934401 2.3777692 9934743
-1.4250523 0.10931629 2.3771663 9934743
-1.3754619 0.10928859 2.3765635 9934743
-1.3249055 0.10926033 2.3759491 10132122
-1.2743754 0.10923209 2.375335 10197915
-1.2248615 0.10920443 2.3747332 10197915
-1.1753726 0.10917678 2.3741322 10197915
-1.1249198 0.10914858 2.3735192 10197915
-1.0744929 0.10912041 2.372906 10197915
-1.0250802 0.10909277 2.3723059 10197915
-0.97470486 0.10906465 2.3716934 10197915
-0.92435539 0.10903649 2.3710818 10197915
-0.87501872 0.10900892 2.3704822 10197915
-0.8247208 0.10898082 2.3698709 10197915
-0.77444875 0.10895273 2.3692598 10197915
-0.72518778 0.10892519 2.3686612 10197915
-0.67496717 0.10889714 2.3680511 10197915
-0.62477225 0.10886908 2.3674412 10197915
-0.57460338 0.10884105 2.3668313 10197915
-0.5244602 0.10881302 2.3662221 10197915
-0.47532541 0.10878557 2.3656249 10197915
-0.42523342 0.10875758 2.3650165 10197915
-0.37516716 0.10872961 2.364408 10197915
-0.32512671 0.10870164 2.3637998 10197915
-0.27511191 0.10867368 2.3631921 10197915
-0.22512293 0.10864576 2.3625846 10197915
-0.1751595 0.10861783 2.3619773 10197915
-0.12522191 0.10858993 2.3613706 10197915
-0.075309828 0.10856203 2.3607643 10197915
-0.025423519 0.10853414 2.360158 10197915
0.029402144 0.10846877 2.3707473 10066329
0.059634298 0.10842079 2.3804491 6513507
-1.5593904 -1.0632609 2.4057717 2039583
-1.523694 -1.0677979 2.4261055 2039583
-1.4907694 -1.0719435 2.4448662 2039583
-1.5597553 -1.025161 2.4056678 2039583
-1.5252661 -1.0250291 2.4253292 2039583
-1.4909604 -1.0250392 2.4448843 2039583
-1.5600634 -0.97474194 2.4056311 2039583
-1.5253114 -0.97491866 2.4254425 2039583
-1.4910021 -0.97511125 2.4449973 2039583
-1.5606154 -0.92508602 2.405453 2039583
-1.5254002 -0.92492205 2.4255292 2039583
-1.4911128 -0.92509437 2.4450743 2039583
-1.5606591 -0.87501043 2.4055653 2039583
-1.5254666 -0.87498152 2.425626 2039583
-1.4911647 -0.87498981 2.4451787 2039583
-1.5607263 -0.8250016 2.4056652 2039583
-1.5255166 -0.82500774 2.4257355 2039583
-1.4916306 -0.82540041 2.4450519 2039583
-1.5607955 -0.77505952 2.4057622 2039583
-1.5255811 -0.7749995 2.4258351 2039583
-1.4920515 -0.77497494 2.4449501 2039583
-1.5608426 -0.7250421 2.4058733 2039583
-1.5256081 -0.72498608 2.4259601 2039583
-1.4920695 -0.72509617 2.445075 2039583
-1.5607206 -0.67465979 2.4060812 2039583
-1.5255312 -0.67518234 2.4261398 2039583
-1.4921645 -0.6749354 2.4451594 2039583
-1.5602595 -0.62496984 2.4064798 2039583
-1.5250274 -0.62505025 2.4265649 2039583
-1.4922272 -0.62495637 2.445261 2039583
-1.560402 -0.57481867 2.4065371 2039583
-1.5250834 -0.57499152 2.4266686 2039583
-1.492239 -0.57506555 2.4453933 2039583
-1.5611277 -0.52486086 2.4062603 2039583
-1.5251622 -0.52499044 2.4267623 2039583
-1.4923514 -0.52498513 2.4454641 2039583
-1.5611683 -0.47484908 2.4063747 2039583
-1.5252649 -0.47504634 2.4268389 2039583
-1.4924634 -0.47490209 2.4455392 2039583
-1.5612423 -0.42495751 2.4064693 2039583
-1.5252407 -0.42503685 2.4269924 2039583
-1.4925212 -0.42527765 2.4456427 2039583
-1.5613004 -0.37499988 2.4065733 2039583
-1.5245806 -0.37499937 2.4275057 2039583
-1.4925572 -0.37513176 2.4457605 2039583
-1.5613749 -0.32497597 2.4066687 2039583
-1.5246809 -0.32499555 2.4275861 2039583
-1.4926121 -0.3251583 2.4458652 2039583
-1.5614519 -0.27494824 2.4067619 2039583
-1.5247942 -0.27507696 2.427659 2039583
-1.4926212 -0.27472568 2.4459987 2039583
-1.5615519 -0.22479273 2.4068427 2039583
-1.5247318 -0.22509332 2.4278307 2039583
-1.4927371 -0.22508624 2.4460688 2039583
-1.561619 -0.1746327 2.4069426 2039583
-1.5248154 -0.17501651 2.4279218 2039583
-1.4927719 -0.1753225 2.446187 2039583
-1.5622503 -0.12443592 2.4067211 2039583
-1.5250003 -0.12514478 2.4279518 2039583
-1.4928347 -0.12465648 2.4462893 2039583
-1.5624241 -0.074781626 2.4067578 2039583
-1.52507 -0.07529968 2.4280512 2039583
-1.4928963 -0.07499963 2.4463916 2039583
-1.5624901 -0.024928128 2.4068575 2039583
-1.5250056 -0.025149463 2.4282258 2039583
-1.4929579 -0.025338635 2.4464931 2039583
-1.5625546 0.024929503 2.4069576 2039583
-1.5250695 0.025150858 2.4283283 2039583
-1.4935762 0.024775065 2.4462783 2039583
-1.5626192 0.07479132 2.407057 2697513
-1.5252799 0.07528019 2.4283428 2829099
-1.4938358 0.074996188 2.4462681 2697513
-1.5626583 0.10471018 2.4071176 9934743
-1.5245723 0.10520487 2.4273322 9934743
-1.4867754 0.10619988 2.4359334 9934743
-1.4254885 0.10919052 2.4179983 9934743
-1.3750463 0.10916235 2.4173748 10000536
-1.3246303 0.1091342 2.4167516 10197915
-1.2742401 0.10910607 2.4161289 10197915
-1.224883 0.10907853 2.415519 10197915
-1.1755508 0.109051 2.4149091 10197915
-1.1252377 0.1090229 2.4142871 10197915
-1.0749502 0.10899485 2.4136655 10197915
-1.0246888 0.1089668 2.4130442 10197915
-0.97445321 0.10893874 2.4124234 10197915
-0.92424363 0.10891073 2.4118025 10197915
-0.87506294 0.10888327 2.4111946 10197915
-0.82590729 0.10885584 2.4105873 10197915
-0.77577382 0.10882784 2.4099674 10197915
-0.72566634 0.10879987 2.4093482 10197915
-0.6755845 0.10877194 2.4087288 10197915
-0.62226427 0.10872051 2.415082 10197915
-0.57545173 0.10865102 2.4285247 10197915
-0.52501029 0.10862292 2.4278958 10197915
-0.47511178 0.10859639 2.4268448 10197915
-0.42522201 0.10856725 2.4266517 10197915
-0.37537166 0.10854076 2.4256015 10197915
-0.32553601 0.10851163 2.4254091 10197915
-0.27522385 0.10848356 2.4247816 10197915
-0.22494893 0.10845811 2.423315 10197915
-0.1746951 0.10842748 2.423528 10197915
-0.12446101 0.10839947 2.4229019 10197915
-0.074756153 0.10837306 2.421854 10197915
-0.02508273 0.10834401 2.4216628 10197915
0.021400211 0.10830189 2.4263251 10197915
0.060690321 0.10823138 2.4415579 6513507
-1.4549744 -1.1014231 2.4651883 2039583
-1.4202518 -1.105889 2.4849691 2039583
-1.3970771 -1.1089319 2.4981716 2039583
-1.4657738 -1.0746338 2.4591053 2039583
-1.4253088 -1.0750017 2.4821715 2039583
-1.3972164 -1.0750751 2.4981849 2039583
-1.465994 -1.0250336 2.4591172 2039583
-1.4253426 -1.0250409 2.4822891 2039583
-1.3972915 -1.024924 2.4982805 2039583
-1.4660908 -0.97505909 2.4591982 2039583
-1.425379 -0.97498095 2.4824066 2039583
-1.3973254 -0.97502309 2.4983985 2039583
-1.4661356 -0.92507762 2.4593093 2039583
-1.4254551 -0.92494756 2.482501 2039583
-1.3973591 -0.92511743 2.4985161 2039583
-1.4662249 -0.87504429 2.4593968 2039583
-1.425557 -0.87497461 2.4825804 2039583
-1.397458 -0.87520939 2.4985969 2039583
-1.4666901 -0.82477248 2.4592717 2039583
-1.4255459 -0.82499731 2.4827235 2039583
-1.3982854 -0.82489496 2.4982634 2039583
-1.4671272 -0.77498955 2.4591572 2039583
-1.4256592 -0.77504778 2.4827967 2039583
-1.3983657 -0.77456355 2.4983561 2039583
-1.4671011 -0.72495872 2.4593115 2039583
-1.4256463 -0.72503114 2.4829414 2039583
-1.3984021 -0.72456092 2.498472 2039583
-1.4672357 -0.67497224 2.4593704 2039583
-1.4250087 -0.67499888 2.4834423 2039583
-1.3976754 -0.67502528 2.499023 2039583
-1.4672763 -0.62497759 2.4594851 2039583
-1.425051 -0.62498462 2.4835551 2039583
-1.3977332 -0.62535614 2.4991262 2039583
-1.4673142 -0.57498282 2.4596 2039583
-1.4250925 -0.57496613 2.483669 2039583
-1.3977913 -0.57568282 2.4992297 2039583
-1.4674225 -0.52502739 2.459676 2039583
-1.4252059 -0.52500641 2.4837425 2039583
-1.3978502 -0.52497035 2.4993353 2039583
-1.4674219 -0.47502252 2.4598136 2039583
-1.4251468 -0.47504085 2.4839122 2039583
-1.3979092 -0.47425362 2.4994414 2039583
-1.4677081 -0.42487547 2.4597876 2039583
-1.4253355 -0.42497945 2.483942 2039583
-1.3981695 -0.42836219 2.4994192 2039583
-1.4677798 -0.37475938 2.4598849 2039583
-1.4247173 -0.37510869 2.4844317 2039583
-1.3988104 -0.3748107 2.4992008 2039583
-1.4676452 -0.32499385 2.460099 2039583
-1.424686 -0.32492116 2.4845867 2039583
-1.3988686 -0.32512543 2.4993043 2039583
-1.4676359 -0.27506569 2.4602399 2039583
-1.4246522 -0.27494484 2.4847445 2039583
-1.3989264 -0.2754361 2.499408 2039583
-1.4678775 -0.22492102 2.4602427 2039583
-1.4247885 -0.22505946 2.4848039 2039583
-1.3989843 -0.22574268 2.4995115 2039583
-1.4676476 -0.17498052 2.4605091 2039583
-1.4248474 -0.17514062 2.4849074 2039583
-1.3990434 -0.17500968 2.4996171 2039583
-1.4680294 -0.12500349 2.4604294 2039583
-1.4246311 -0.12514842 2.4851682 2039583
-1.3991027 -0.12427246 2.499723 2039583
-1.4677393 -0.075046092 2.460731 2039583
-1.4251076 -0.074777178 2.4850359 2039583
-1.3991605 -0.074566491 2.4998264 2039583
-1.4681511 -0.02511153 2.4606352 2039583
-1.4249301 -0.024710687 2.4852738 2039583
-1.3992186 -0.024856413 2.4999301 2039583
-1.4688045 0.025270283 2.4603999 2039583
-1.4249889 0.024712041 2.4853766 2039583
-1.3992524 0.0041428688 2.4999905 2039583
-1.4686706 0.075017072 2.460613 2763306
-1.4252918 0.07475476 2.4853406 2829099
-1.4691221 0.10487197 2.4600201 9934743
-1.423896 0.10523923 2.4825244 9934743
-1.3756404 0.10903215 2.4596224 10066329
-1.325369 0.10900413 2.4589903 10197915
-1.2751235 0.10897612 2.4583585 10197915
-1.2249038 0.10894812 2.4577265 10197915
-1.1747099 0.10892015 2.4570951 10197915
-1.1216747 0.10886359 2.4651654 10197915
-1.0751525 0.10879858 2.4772367 10197915
-1.0251044 0.10876933 2.4770472 10197915
-0.97509032 0.10874285 2.4759674 10197915
-0.92509675 0.1087136 2.4757788 10197915
-0.87513119 0.10868715 2.4746993 10197915
-0.82519174 0.10865795 2.4745109 10197915
-0.77527398 0.10863151 2.4734323 10197915
-0.72538894 0.10860234 2.4732444 10197915
-0.67551911 0.10857591 2.4721665 10197915
-0.62735188 0.10853854 2.4749718 10197915
-0.57427436 0.1084509 2.4931097 10197915
-0.5245629 0.10842323 2.4924734 10197915
-0.47487679 0.10839555 2.4918373 10197915
-0.42521608 0.10836789 2.4912024 10197915
-0.37558064 0.10834026 2.4905665 10197915
-0.32493731 0.10831206 2.4899185 10197915
-0.27432019 0.10828388 2.4892704 10197915
-0.22476166 0.10825627 2.4886363 10197915
-0.17522848 0.10822869 2.4880021 10197915
-0.12572046 0.10820114 2.4873688 10197915
-0.075207137 0.108173 2.4867213 10197915
-0.024719881 0.10814491 2.4860756 10197915
0.024711495 0.10811736 2.4854431 10197915
0.060740173 0.10809731 2.4849815 6842472
-1.3701698 -1.1123073 2.5135005 2039583
-1.3266817 -1.1178406 2.5382764 2039583
-1.3719424 -1.0750251 2.5125945 2039583
-1.3278263 -1.0750238 2.5377417 2039583
-1.372017 -1.0249915 2.5126884 2039583
-1.3279142 -1.0250299 2.5378299 2039583
-1.3720853 -0.97499132 2.5127866 2039583
-1.328341 -0.97525251 2.5377212 2039583
-1.3721093 -0.92498654 2.5129108 2039583
-1.3288163 -0.92501265 2.5375886 2039583
-1.3722248 -0.87494069 2.5129812 2039583
-1.3289241 -0.87499243 2.5376644 2039583
-1.3730129 -0.82498163 2.51267 2039583
-1.3289438 -0.82500786 2.5377905 2039583
-1.3730842 -0.77501178 2.5127666 2039583
-1.328987 -0.77497804 2.5379028 2039583
-1.3731292 -0.72503817 2.5128775 2039583
-1.3290503 -0.72494417 2.5380056 2039583
-1.3732195 -0.67506015 2.5129621 2039583
-1.3291464 -0.67494714 2.5380874 2039583
-1.373298 -0.62504166 2.5130572 2039583
-1.3291316 -0.62494516 2.538234 2039583
-1.3733202 -0.57494831 2.5131819 2039583
-1.3291965 -0.57502061 2.5383346 2039583
-1.3733349 -0.5249207 2.5133104 2039583
-1.3298309 -0.52529007 2.5381091 2039583
-1.3734202 -0.47496161 2.5133984 2039583
-1.3301079 -0.47506386 2.5380898 2039583
-1.3738168 -0.42478818 2.5133097 2039583
-1.3302259 -0.42507294 2.5381582 2039583
-1.3743335 -0.37502807 2.5131531 2039583
-1.3302569 -0.37507859 2.5382791 2039583
-1.374395 -0.32506552 2.5132558 2039583
-1.3302797 -0.32499352 2.5384042 2039583
-1.3745288 -0.27506438 2.5133166 2039583
-1.3304198 -0.27494717 2.5384619 2039583
-1.3746138 -0.225025 2.5134048 2039583
-1.3304994 -0.22489901 2.5385528 2039583
-1.3745595 -0.17498146 2.5135748 2039583
-1.3303049 -0.17480041 2.5388017 2039583
-1.3745847 -0.12496727 2.5136974 2039583
-1.3304271 -0.12495095 2.5388684 2039583
-1.3746426 -0.074983373 2.513803 2039583
-1.33152 -0.075371303 2.5383816 2039583
-1.3744274 -0.024812758 2.5140624 2039583
-1.3311567 -0.025478173 2.5387263 2039583
-1.3746226 0.025105996 2.5140886 2039583
-1.3306676 0.02524667 2.5391436 2039583
-1.3748084 0.074993171 2.5141191 2894892
-1.3309171 0.075292051 2.5391388 2894892
-1.375042 0.1049313 2.5123603 10132122
-1.327947 0.10562277 2.5333731 10197915
-1.27493 0.10877106 2.5247309 10197915
-1.2249376 0.1087447 2.5236025 10197915
-1.1749715 0.10871539 2.5234392 10197915
-1.1277947 0.10868062 2.5255902 10197915
-1.075359 0.10859007 2.5447814 10197915
-1.0244869 0.10856178 2.5441182 10197915
-0.97470033 0.10853408 2.5434697 10197915
-0.92493922 0.1085064 2.5428209 10197915
-0.87520331 0.10847876 2.5421727 10197915
-0.82549316 0.10845112 2.5415249 10197915
-0.77475113 0.10842288 2.5408635 10197915
-0.72509176 0.10839529 2.5402164 10197915
-0.67545778 0.10836768 2.5395694 10197915
-0.62479389 0.10833953 2.5389094 10197915
-0.57521093 0.10831192 2.5382631 10197915
-0.52565336 0.10828435 2.5376172 10197915
-0.47506726 0.10825623 2.536958 10197915
-0.4245075 0.10822812 2.5362995 10197915
-0.37502638 0.1082006 2.5356543 10197915
-0.32557061 0.10817309 2.5350099 10197915
-0.27508843 0.10814501 2.5343521 10197915
-0.22463246 0.10811696 2.533694 10197915
-0.17420267 0.10808891 2.5330369 10197915
-0.12484873 0.10806148 2.5323942 10197915
-0.075520031 0.10803404 2.5317514 10197915
-0.025167542 0.10800605 2.5310948 10197915
0.02515885 0.10797805 2.5304391 10197915
0.061839592 0.10795765 2.5299609 6842472
-1.2564619 -1.1517911 2.5782113 2039583
-1.2312686 -1.1549535 2.5925641 2039583
-1.3025573 -1.1207073 2.5520201 2039583
-1.2738202 -1.1240202 2.5683925 2039583
-1.2343371 -1.1250082 2.5908971 2039583
-1.3025724 -1.0747545 2.5521376 2039583
-1.274598 -1.0750304 2.5680838 2039583
-1.2344391 -1.0750229 2.5909762 2039583
-1.3026961 -1.0251092 2.5522037 2039583
-1.2746544 -1.024996 2.5681889 2039583
-1.234444 -1.0250335 2.5911105 2039583
-1.3031378 -0.97363746 2.5520926 2039583
-1.2747006 -0.97495896 2.5683005 2039583
-1.2345175 -0.97503966 2.5912061 2039583
-1.3035746 -0.92488158 2.5519781 2039583
-1.2747378 -0.92502552 2.5684149 2039583
-1.2346216 -0.92498052 2.5912843 2039583
-1.3036845 -0.87501925 2.5520527 2039583
-1.2747948 -0.87501383 2.5685205 2039583
-1.2346148 -0.87497813 2.5914254 2039583
-1.3036696 -0.82493353 2.5521986 2039583
-1.2748398 -0.825001 2.5686324 2039583
-1.23469 -0.82502908 2.5915198 2039583
-1.3037515 -0.77506137 2.5522892 2039583
-1.2749289 -0.77501726 2.5687203 2039583
-1.2347338 -0.77496052 2.5916326 2039583
-1.3038332 -0.72518551 2.5523789 2039583
-1.274909 -0.7249943 2.5688677 2039583
-1.2347877 -0.7250613 2.5917392 2039583
-1.3038328 -0.67487454 2.5525174 2039583
-1.2750438 -0.67503971 2.568928 2039583
-1.2356919 -0.67502367 2.5913606 2039583
-1.3039143 -0.62499088 2.5526087 2039583
-1.2750771 -0.62500852 2.569047 2039583
-1.2357779 -0.62503523 2.5914495 2039583
-1.3039963 -0.57510376 2.5526986 2039583
-1.275088 -0.57497382 2.5691786 2039583
-1.2357318 -0.57510209 2.5916131 2039583
-1.3045822 -0.52393496 2.5525053 2039583
-1.2752002 -0.525042 2.5692506 2039583
-1.2358515 -0.52497947 2.5916834 2039583
-1.3049427 -0.47515401 2.5524342 2039583
-1.2752491 -0.47496188 2.569361 2039583
-1.2358807 -0.47491494 2.5918028 2039583
-1.3049505 -0.42511407 2.5525665 2039583
-1.2752093 -0.42491555 2.5695207 2039583
-1.2359499 -0.42503282 2.5919003 2039583
-1.3049527 -0.3748914 2.5527039 2039583
-1.27543 -0.37504134 2.5695326 2039583
-1.2360687 -0.37502274 2.5919709 2039583
-1.3051115 -0.32521477 2.5527501 2039583
-1.2753135 -0.32501939 2.569736 2039583
-1.2359326 -0.32500812 2.5921845 2039583
-1.3051137 -0.27498373 2.5528872 2039583
-1.2754161 -0.27499729 2.5698142 2039583
-1.2361343 -0.27510452 2.5922079 2039583
-1.3051213 -0.224924 2.5530205 2039583
-1.2756085 -0.22500192 2.5698438 2039583
-1.2371119 -0.22482555 2.5917883 2039583
-1.3052683 -0.17523631 2.5530729 2039583
-1.2753327 -0.17496914 2.570138 2039583
-1.237028 -0.17503303 2.5919733 2039583
-1.3052766 -0.12481582 2.5532062 2039583
-1.2758117 -0.12504327 2.5700023 2039583
-1.2369545 -0.1252996 2.5921514 2039583
-1.3061188 -0.074945644 2.5528629 2039583
-1.2753521 -0.074955635 2.5704029 2039583
-1.237254 -0.074845247 2.5921192 2039583
-1.3062032 -0.025383592 2.5529511 2039583
-1.2759125 -0.024925927 2.570219 2039583
-1.237183 -0.024700873 2.5922985 2039583
-1.3062589 0.025385033 2.5530591 2039583
-1.2759655 0.024927298 2.5703266 2039583
-1.2372338 0.024702227 2.5924048 2039583
-1.306313 0.075100131 2.553165 2829099
-1.2755104 0.074965358 2.5707235 2960685
-1.2374082 0.074854888 2.5924432 2960685
-1.306344 0.10366155 2.5532258 10197915
-1.2757949 0.10436866 2.5706429 10197915
-1.2331166 0.10533323 2.5927484 10197915
-1.174165 0.10850006 2.5930219 10197915
-1.1244631 0.10847247 2.5923622 10197915
-1.0747864 0.10844487 2.5917034 10197915
-1.0251349 0.1084173 2.5910439 10197915
-0.97550863 0.10838972 2.5903852 10197915
-0.92482978 0.1083616 2.5897124 10197915
-0.87417692 0.10833345 2.5890403 10197915
-0.82462752 0.10830595 2.5883825 10197915
-0.77510309 0.10827844 2.5877254 10197915
-0.725604 0.10825094 2.5870686 10197915
-0.67505473 0.10822286 2.5863976 10197915
-0.62453145 0.10819482 2.585727 10197915
-0.57510871 0.10816738 2.5850711 10197915
-0.525711 0.10813993 2.5844152 10197915
-0.47526547 0.10811194 2.5837457 10197915
-0.42484573 0.10808393 2.583077 10197915
-0.37552422 0.10805654 2.5824218 10197915
-0.32515636 0.10802853 2.5817535 10197915
-0.27481449 0.1080006 2.5810852 10197915
-0.22556892 0.10797324 2.5804317 10197915
-0.17527865 0.1079453 2.5797641 10197915
-0.12501428 0.10791737 2.5790973 10197915
-0.074776024 0.10788951 2.5784304 10197915
-0.024563579 0.1078616 2.577764 10197915
0.024555299 0.10783434 2.5771122 10197915
0.061912466 0.10781357 2.576616 7105644
-1.2084844 -1.1578598 2.6055439 2039583
-1.1741092 -1.1622102 2.6251266 2039583
-1.2097422 -1.1249012 2.6049161 2039583
-1.1762676 -1.1249131 2.6240003 2039583
-1.2098392 -1.0750072 2.6049993 2039583
-1.1762892 -1.0749518 2.6241236 2039583
-1.2098299 -1.0250134 2.6051419 2039583
-1.1763413 -1.0249859 2.6242316 2039583
-1.2098933 -0.97501433 2.6052427 2039583
-1.1763698 -0.97497702 2.6243522 2039583
-1.2099566 -0.92501223 2.6053429 2039583
-1.176417 -0.92500287 2.6244633 2039583
-1.210054 -0.87490875 2.6054254 2039583
-1.1764703 -0.87502396 2.6245706 2039583
-1.2100521 -0.82489735 2.6055653 2039583
-1.1765671 -0.82500273 2.6246529 2039583
-1.2101091 -0.77507812 2.6056709 2039583
-1.1765739 -0.77497774 2.6247883 2039583
-1.2102191 -0.72506297 2.6057441 2039583
-1.1766546 -0.72494751 2.6248775 2039583
-1.2110652 -0.67506361 2.6053984 2039583
-1.1759236 -0.67484564 2.6254325 2039583
-1.2106872 -0.62438643 2.6057532 2039583
-1.1754061 -0.62520194 2.6258619 2039583
-1.2102909 -0.57488668 2.6061161 2039583
-1.1750644 -0.57505018 2.6261964 2039583
-1.2103417 -0.52499348 2.6062236 2039583
-1.1751126 -0.52506232 2.6263061 2039583
-1.2104151 -0.47501361 2.6063199 2039583
-1.1751115 -0.47507069 2.6264439 2039583
-1.2105101 -0.42494726 2.6064019 2039583
-1.1751767 -0.4250358 2.6265454 2039583
-1.2105725 -0.37487754 2.6065042 2039583
-1.1752399 -0.37495792 2.6266456 2039583
-1.2105603 -0.32505086 2.6066499 2039583
-1.1753279 -0.32487625 2.6267326 2039583
-1.210656 -0.27514803 2.6067324 2039583
-1.1753715 -0.27482909 2.6268475 2039583
-1.2114427 -0.22528696 2.6064222 2039583
-1.1754239 -0.22493348 2.6269548 2039583
-1.2115512 -0.17500857 2.6064959 2039583
-1.1754977 -0.17511238 2.6270487 2039583
-1.2117329 -0.12457876 2.6065316 2039583
-1.1754448 -0.12516858 2.6272156 2039583
-1.2116646 -0.074514836 2.6067066 2039583
-1.1754936 -0.075104177 2.6273246 2039583
-1.2117153 -0.024839189 2.6068139 2039583
-1.1755426 -0.025035659 2.6274357 2039583
-1.2117661 0.024840562 2.6069207 2039583
-1.1755921 0.025037067 2.6275454 2039583
-1.2118162 0.074524403 2.6070304 2829099
-1.1756409 0.075113989 2.6276546 2960685
-1.211846 0.10368846 2.6070943 10197915
-1.1754434 0.10454259 2.6278398 10197915
-1.1248006 0.10832214 2.6410685 10197915
-1.0752908 0.1082947 2.6403992 10197915
-1.0247066 0.10826664 2.6397152 10197915
-0.97524703 0.1082392 2.6390464 10197915
-0.92581326 0.1082118 2.6383779 10197915
-0.87530607 0.10818376 2.6376946 10197915
-0.82482553 0.10815578 2.6370122 10197915
-0.77437085 0.1081278 2.6363301 10197915
-0.72503829 0.10810046 2.6356628 10197915
-0.67573088 0.10807311 2.6349964 10197915
-0.62535334 0.10804515 2.6343153 10197915
-0.5750019 0.10801724 2.6336343 10197915
-0.5246765 0.10798933 2.6329541 10197915
-0.4743771 0.10796142 2.6322739 10197915
-0.42410356 0.10793354 2.6315937 10197915
-0.37494805 0.10790629 2.6309292 10197915
-0.32581758 0.10787904 2.6302648 10197915
-0.27562082 0.10785119 2.629586 10197915
-0.22544993 0.10782336 2.6289077 10197915
-0.17530499 0.10779555 2.6282296 10197915
-0.12518586 0.10776776 2.6275523 10197915
-0.075092584 0.10773998 2.6268744 10197915
-0.025025124 0.10771222 2.6261976 10197915
0.025016535 0.10768448 2.6255212 10197915
0.063075215 0.10766336 2.6250062 7105644
-1.162171 0.10818674 2.6921539 10197915
-1.1251529 0.10816624 2.6916435 10197915
-1.074695 0.10813828 2.6909482 10197915
-1.0253835 0.10811099 2.6902685 10197915
-0.97497714 0.10808306 2.6895738 10197915
-0.92459679 0.10805516 2.68888 10197915
-0.87536108 0.10802791 2.6882014 10197915
-0.82503217 0.10800002 2.6875076 10197915
-0.77472913 0.10797217 2.6868148 10197915
-0.72556913 0.10794494 2.686137 10197915
-0.67531741 0.1079171 2.6854446 10197915
-0.62509161 0.10788929 2.6847522 10197915
-0.57489181 0.1078615 2.6840608 10197915
-0.52471763 0.10783371 2.6833689 10197915
-0.47456953 0.10780594 2.6826782 10197915
-0.42444706 0.10777818 2.6819875 10197915
-0.37546349 0.10775106 2.6813118 10197915
-0.32539222 0.10772332 2.6806223 10197915
-0.27534649 0.10769561 2.6799324 10197915
-0.22532675 0.1076679 2.6792433 10197915
-0.17533252 0.10764022 2.6785545 10197915
-0.1253642 0.10761255 2.6778657 10197915
-0.075421356 0.10758488 2.6771774 10197915
-0.025504382 0.10755725 2.6764901 10197915
0.025495455 0.10752902 2.6757867 10197915
0.064282551 0.10750752 2.6752522 7105644
-1.1735548 0.10803063 2.7448649 10197915
-1.1255172 0.10800407 2.74419 10197915
-1.0752174 0.10797627 2.7434831 10197915
-1.0249432 0.10794847 2.7427771 10197915
-0.97469521 0.10792068 2.7420709 10197915
-0.92447299 0.1078929 2.7413652 10197915
-0.8742764 0.10786515 2.74066 10197915
-0.82410586 0.10783742 2.7399549 10197915
-0.77396107 0.10780969 2.7392507 10197915
-0.72498071 0.10778259 2.7385623 10197915
-0.67602521 0.10775553 2.7378747 10197915
-0.62595648 0.10772784 2.7371712 10197915
-0.57591349 0.10770016 2.7364678 10197915
-0.52589625 0.10767251 2.7357657 10197915
-0.47590467 0.10764487 2.7350631 10197915
-0.42593873 0.10761724 2.7343609 10197915
-0.37599847 0.10758962 2.7336595 10197915
-0.32494983 0.1075614 2.7329423 10197915
-0.27392769 0.10753319 2.7322252 10197915
-0.22406536 0.10750559 2.7315245 10197915
-0.17422865 0.10747804 2.7308245 10197915
-0.12441743 0.10745051 2.7301245 10197915
-0.074631758 0.10742297 2.729425 10197915
-0.024871586 0.10739546 2.7287259 10197915
0.0248631 0.10736797 2.7280273 10197915
0.064407282 0.1073461 2.7274716 7303023
-1.2028993 0.10787814 2.7999361 10197915
-1.1748922 0.10786267 2.7995343 10197915
-1.1247312 0.10783498 2.7988157 10197915
-1.0745962 0.10780731 2.7980969 10197915
-1.024487 0.10777962 2.797379 10197915
-0.97440338 0.10775198 2.7966614 10197915
-0.92550915 0.10772497 2.7959607 10197915
-0.87547642 0.10769736 2.7952435 10197915
-0.82546908 0.10766974 2.7945273 10197915
-0.77548754 0.10764214 2.7938111 10197915
-0.72553152 0.10761458 2.7930951 10197915
-0.67560118 0.107587 2.7923796 10197915
-0.62453622 0.10755882 2.7916481 10197915
-0.57465732 0.10753126 2.7909331 10197915
-0.52480429 0.10750375 2.7902186 10197915
-0.47497669 0.10747623 2.7895048 10197915
-0.42517459 0.10744875 2.7887912 10197915
-0.37539789 0.10742126 2.7880778 10197915
-0.32564682 0.10739379 2.7873652 10197915
-0.27476496 0.10736571 2.7866361 10197915
-0.22506511 0.10733827 2.785924 10197915
-0.17539087 0.10731085 2.7852118 10197915
-0.12458758 0.10728279 2.7844839 10197915
-0.074964441 0.10725539 2.7837729 10197915
-0.025366871 0.10722801 2.7830622 10197915
0.02535804 0.10720002 2.7823355 10197915
0.065689199 0.10717773 2.7817574 7303023
-1.2134042 0.10788392 2.800086 10197915
-0.71780813 0.10743499 2.849719 10197915
-0.67397451 0.10741085 2.8490777 10197915
-0.62424093 0.10738341 2.8483508 10197915
-0.57453275 0.10735603 2.8476238 10197915
-0.52484995 0.10732864 2.8468976 10197915
-0.4751924 0.10730127 2.8461716 10197915
-0.42556024 0.10727391 2.8454461 10197915
-0.37595332 0.10724656 2.8447208 10197915
-0.32519162 0.10721859 2.8439784 10197915
-0.27445614 0.10719062 2.8432367 10197915
-0.22492626 0.10716332 2.8425126 10197915
-0.1754216 0.10713603 2.841789 10197915
-0.12476442 0.10710811 2.841048 10197915
-0.0741335 0.1070802 2.840308 10197915
-0.024705578 0.10705296 2.8395851 10197915
0.024697205 0.10702573 2.8388631 10197915
0.065847568 0.10700304 2.8382614 7566195
-1.2227246 0.10771332 2.8571012 10197915
-1.1750916 0.10768704 2.8564045 10197915
-1.1251019 0.1076595 2.8556736 10197915
-1.0751379 0.10763196 2.8549428 10197915
-1.0251993 0.10760442 2.854213 10197915
-0.97528636 0.10757694 2.8534832 10197915
-0.92539877 0.10754941 2.8527539 10197915
-0.87553686 0.10752194 2.8520248 10197915
-0.82570028 0.10749446 2.8512962 10197915
-0.77588916 0.10746702 2.8505676 10197915
-0.74388033 0.10744936 2.8500998 10197915
-0.1141288 0.10692038 2.8998005 10197915
-0.07567133 0.10689922 2.8992267 10197915
-0.025217954 0.10687146 2.8984737 10197915
0.025209228 0.10684372 2.8977211 10197915
0.067212477 0.1068206 2.8970945 7566195
-1.2604029 0.10755114 2.9169073 10000536
-1.2251379 0.10753174 2.9163811 10000536
-1.1753012 0.10750431 2.915637 10000536
-1.1254895 0.1074769 2.9148939 10132122
-1.0757036 0.10744951 2.9141507 10197915
-1.0247294 0.10742147 2.9133902 10197915
-0.97499466 0.10739408 2.9126477 10197915
-0.92528534 0.10736674 2.911906 10197915
-0.87438965 0.10733873 2.9111464 10197915
-0.82473123 0.10731141 2.9104056 10197915
-0.7750985 0.10728409 2.9096649 10197915
-0.72428125 0.10725614 2.9089065 10197915
-0.67469949 0.10722885 2.9081664 10197915
-0.62514293 0.1072016 2.9074268 10197915
-0.5744037 0.10717367 2.9066699 10197915
-0.52489805 0.1071464 2.905931 10197915
-0.47541773 0.1071192 2.9051921 10197915
-0.4247565 0.10709132 2.9044361 10197915
-0.37412173 0.10706344 2.9036808 10197915
-0.32471776 0.10703627 2.9029431 10197915
-0.27533916 0.10700911 2.9022069 10197915
-0.22478199 0.10698128 2.9014516 10197915
-0.17425112 0.10695347 2.9006975 10197915
-0.13817285 0.10693362 2.9001591 10197915
-1.2736019 0.10736752 2.9788682 10000536
-1.223927 0.10734028 2.978112 10000536
-1.1742767 0.107313 2.9773555 10000536
-1.1246516 0.10728574 2.976599 10000536
-1.0750517 0.10725851 2.9758432 10000536
-1.0254769 0.10723127 2.9750879 10000536
-0.97592753 0.10720406 2.9743328 10000536
-0.92516565 0.10717618 2.9735591 10132122
-0.8744297 0.10714829 2.9727855 10197915
-0.82495677 0.10712111 2.9720314 10197915
-0.77550906 0.10709397 2.9712787 10197915
-0.72485125 0.10706613 2.9705062 10197915
-0.67421949 0.10703832 2.9697347 10197915
-0.62484801 0.1070112 2.968982 10197915
-0.57550174 0.1069841 2.96823 10197915
-0.52494782 0.10695633 2.9674597 10197915
-0.47441977 0.10692859 2.9666901 10197915
-0.42514959 0.10690151 2.9659393 10197915
-0.37467363 0.1068738 2.9651697 10197915
-0.32422361 0.10684607 2.9644005 10197915
-0.27502939 0.10681906 2.9636512 10197915
-0.22463126 0.10679137 2.9628825 10197915
-0.17425904 0.10676371 2.9621155 10197915
-0.12514064 0.10673672 2.9613669 10197915
-0.074820153 0.10670909 2.9606001 10197915
-0.024525503 0.10668147 2.9598336 10197915
0.024517251 0.10665452 2.9590859 10197915
0.067409791 0.10663095 2.958432 7697781
-1.3127609 0.10718989 3.0439148 3421236
-1.2746818 0.107169 3.0433216 5460819
-1.2251999 0.10714189 3.0425515 8816262
-1.1744772 0.10711423 3.0417666 10000536
-1.1250461 0.10708716 3.0409975 10000536
-1.07564 0.10706007 3.0402281 10000536
-1.0249928 0.1070323 3.0394397 10000536
-0.97437203 0.10700455 3.0386515 10000536
-0.92504179 0.1069775 3.0378838 10000536
-0.87573671 0.10695048 3.0371158 10000536
-0.82519329 0.10692277 3.036329 10000536
-0.77467579 0.10689507 3.0355425 10066329
-0.72418469 0.10686739 3.0347564 10197915
-0.674981 0.10684039 3.0339906 10197915
-0.62580222 0.10681343 3.0332246 10197915
-0.57538807 0.1067858 3.0324397 10197915
-0.5250001 0.10675816 3.0316556 10197915
-0.47463816 0.10673056 3.0308709 10197915
-0.42430225 0.10670297 3.0300872 10197915
-0.37399241 0.10667539 3.029304 10197915
-0.32496524 0.1066485 3.0285408 10197915
-0.27596292 0.10662164 3.0277777 10197915
-0.22572975 0.1065941 3.0269959 10197915
-0.17552248 0.10656656 3.0262139 10197915
-0.12534115 0.10653906 3.0254328 10197915
-0.075185701 0.10651155 3.0246515 10197915
-0.025056148 0.10648406 3.0238712 10197915
0.025047535 0.1064566 3.0230916 10197915
0.068867527 0.10643258 3.0224087 7697781
-0.60489321 0.10659476 3.0999546 10000536
-0.57526863 0.10657859 3.099484 10132122
-0.52505404 0.1065511 3.0986848 10197915
-0.47486553 0.10652362 3.0978863 10197915
-0.42470264 0.10649617 3.0970881 10197915
-0.37456584 0.10646875 3.0962901 10197915
-0.32445467 0.10644132 3.0954926 10197915
-0.27565336 0.10641462 3.0947161 10197915
-0.2255933 0.10638722 3.0939193 10197915
-0.17555885 0.10635985 3.0931232 10197915
-0.12555031 0.10633248 3.0923276 10197915
-0.075567305 0.10630512 3.0915318 10197915
-0.025610229 0.10627779 3.0907369 10197915
0.025601232 0.10624977 3.0899222 10197915
0.070389599 0.10622526 3.0892093 7697781
-1.3536713 0.1070045 3.1118708 2039583
-1.325116 0.10698886 3.1114154 2039583
-1.2745141 0.10696116 3.1106102 2039583
-1.2252349 0.10693418 3.1098263 9737364
-1.174685 0.10690653 3.1090217 10000536
-1.1241611 0.10687891 3.1082182 10000536
-1.074958 0.10685199 3.1074362 10000536
-1.0257792 0.10682508 3.1066532 10000536
-0.97533238 0.10679749 3.1058502 10000536
-0.92491132 0.1067699 3.1050479 10000536
-0.8758083 0.10674304 3.1042671 10000536
-0.8254388 0.10671546 3.1034651 10000536
-0.77509516 0.10668791 3.1026638 10000536
-0.7247777 0.10666039 3.1018634 10000536
-0.67448598 0.10663287 3.1010633 10000536
-0.62937433 0.10660818 3.1003449 9934743
-1.3685615 0.10679521 3.1824703 2039583
-1.3247558 0.10677128 3.1817572 2039583
-1.2743369 0.10674375 3.1809368 6381921
-1.2239441 0.10671623 3.1801169 10000536
-1.1749021 0.10668946 3.1793187 10000536
-1.125885 0.10666269 3.1785212 10000536
-1.0755696 0.10663531 3.177705 10000536
-1.0252801 0.10660795 3.1768901 10000536
-0.97501522 0.1065805 3.1760719 10000536
-0.92477638 0.10655306 3.1752543 10000536
-0.8745634 0.10652564 3.1744373 10000536
-0.82437629 0.10649822 3.1736207 10000536
-0.77421498 0.10647085 3.1728044 10000536
-0.72407937 0.10644346 3.1719885 10000536
-0.67396969 0.10641608 3.1711726 10000536
-0.62388569 0.10638876 3.1703577 10000536
-0.57382751 0.10636143 3.1695435 10000536
-0.52379495 0.1063341 3.1687291 9934743
-0.47378811 0.10630678 3.1679151 10000536
-0.42380694 0.10627948 3.1671021 10197915
-0.37385139 0.10625221 3.1662891 10197915
-0.32392156 0.10622492 3.1654763 10197915
-0.2740173 0.10619769 3.1646645 10197915
-0.22413871 0.10617044 3.1638527 10197915
-0.17428561 0.10614322 3.1630414 10197915
-0.12445813 0.10611602 3.1622307 10197915
-0.074656144 0.10608882 3.1614199 10197915
-0.024879718 0.10606164 3.1606097 10197915
0.024871225 0.10603447 3.1598003 10197915
0.070672221 0.10600945 3.159055 7895160
-1.0003912 0.1063673 3.249965 10000536
-0.97468197 0.10635331 3.2495372 10000536
-0.9246338 0.10632604 3.2487042 10000536
-0.87461114 0.10629877 3.2478712 10000536
-0.82461435 0.10627153 3.2470386 10000536
-0.77464294 0.1062443 3.2462063 10000536
-0.72469747 0.10621709 3.2453754 10000536
-0.67477721 0.10618988 3.2445438 10000536
-0.62488276 0.10616269 3.2437129 10000536
-0.5750137 0.10613552 3.2428827 10000536
-0.52517027 0.10610835 3.2420526 9934743
-0.47535223 0.10608122 3.2412233 9934743
-0.42555985 0.10605408 3.2403944 9934743
-0.37444815 0.10602622 3.2395434 9934743
-0.32470718 0.10599911 3.2387152 10132122
-0.27499181 0.10597203 3.2378876 10197915
-0.22530167 0.10594495 3.2370598 10197915
-0.1756371 0.10591788 3.2362332 10197915
-0.12465655 0.1058901 3.235384 10197915
-0.075043172 0.10586306 3.2345586 10197915
-0.025455346 0.10583606 3.2337322 10197915
0.025446462 0.10580831 3.2328854 10197915
0.072306424 0.10578276 3.232105 7895160
-1.4099627 0.10659046 3.2567832 2039583
-1.3746347 0.1065712 3.2561951 2039583
-1.3243811 0.10654382 3.2553585 3092271
-1.2755107 0.1065172 3.2545445 10000536
-1.2253083 0.10648984 3.2537086 10000536
-1.1751313 0.10646251 3.2528737 10000536
-1.1249804 0.10643517 3.2520385 10000536
-1.074855 0.10640785 3.2512035 10000536
-1.0261092 0.1063813 3.2503927 10000536
-1.4519502 0.10637504 3.3346219 2039583
-1.4255097 0.10636061 3.3341701 2039583
-1.3754305 0.1063334 3.3333168 2039583
-1.325377 0.10630618 3.3324633 7960953
-1.2753489 0.10627897 3.3316107 10000536
-1.2253464 0.10625179 3.3307586 10000536
-1.1753696 0.10622463 3.3299067 10000536
-1.1254183 0.10619747 3.3290555 10000536
-1.0754926 0.10617032 3.3282042 10000536
-1.0255924 0.10614319 3.327354 10000536
-0.97571766 0.10611607 3.3265038 10000536
-0.92586994 0.10608914 3.3256598 10000536
-0.87604624 0.10606208 3.3248115 10000536
-0.82624775 0.106035 3.3239627 10000536
-0.77509278 0.10600719 3.323091 10000536
-0.72396421 0.1059794 3.3222196 10000536
-0.67424339 0.10595237 3.321372 10000536
-0.62454784 0.10592534 3.3205252 10000536
-0.57487768 0.10589834 3.3196783 9934743
-0.52523285 0.10587135 3.3188319 9934743
-0.47561339 0.10584436 3.3179865 9934743
-0.42601913 0.10581739 3.3171413 9934743
-0.3750737 0.1057897 3.3162727 10000536
-0.32415473 0.10576202 3.3154051 10000536
-0.27463764 0.10573509 3.3145609 10000536
-0.22514574 0.10570818 3.3137174 10000536
-0.17567903 0.10568129 3.3128743 10197915
-0.12486458 0.10565367 3.3120081 10197915
-0.074076451 0.10562603 3.3111424 10197915
-0.024686567 0.10559919 3.3103006 10197915
0.024678208 0.10557235 3.3094594 10197915
0.072647795 0.10554627 3.3086414 8026746
-0.55636811 0.1056395 3.3998725 9934743
