# .PCD v0.7 - Point Cloud Data file format
VERSION 0.7
FIELDS x y z rgb
SIZE 4 4 4 4
TYPE F F F U
COUNT 1 1 1 1
WIDTH 1169
HEIGHT 1
VIEWPOINT 0 0 0 1 0 0 0
POINTS 1169
DATA ascii
0.1752923 0.11033169 2.4889388 10197915
0.22472833 0.11030296 2.4882901 10197915
0.27516764 0.11027361 2.487628 10197915
0.32558027 0.11024433 2.4869666 10197915
0.37493792 0.11021557 2.4863188 10197915
0.42529735 0.11018631 2.4856584 10197915
0.47563016 0.11015701 2.4849975 10197915
0.52490979 0.11012834 2.4843512 10197915
0.57518953 0.11009911 2.4836917 10197915
0.62372583 0.10755324 2.4803505 5921370
0.63863236 -1.1153735 2.5278099 2894892
0.638345 -1.0752952 2.5258708 2894892
0.63841343 -1.025637 2.5262296 2894892
0.63844776 -0.97545332 2.526365 2894892
0.63848197 -0.92526418 2.5265005 2894892
0.63851625 -0.87506944 2.5266364 2894892
0.63851565 -0.82539922 2.5265453 2894892
0.63858414 -0.77571464 2.5269046 2894892
0.63861829 -0.7255041 2.5270402 2894892
0.63865274 -0.6752879 2.5271757 2894892
0.6386869 -0.62506646 2.5273116 2894892
0.63868636 -0.57536966 2.527221 2894892
0.63875479 -0.52565843 2.52758 2894892
0.63878906 -0.47542095 2.5277154 2894892
-0.25499415 -0.41978541 2.5227377 3223857
0.63882357 -0.42517796 2.5278518 2894892
-0.25500247 -0.37501279 2.5226023 2039583
0.63885766 -0.37492979 2.5279872 2894892
-0.25498375 -0.32501459 2.522635 2039583
0.63885719 -0.32520622 2.5278969 2894892
-0.25500047 -0.27501974 2.5224364 2039583
0.63892567 -0.2754685 2.5282557 2894892
-0.25499889 -0.22502767 2.522357 2039583
0.63896 -0.22520415 2.5283916 2894892
-0.25496745 -0.17486396 2.5224729 2039583
0.63899428 -0.17493439 2.5285277 2894892
-0.25497526 -0.12487427 2.5223334 2039583
0.63899374 -0.12518516 2.5284374 2894892
-0.25497863 -0.075065322 2.5222218 2039583
0.63906223 -0.075430587 2.5287964 2894892
-0.25495133 -0.025079228 2.5223134 2039583
0.63909656 -0.025144732 2.5289323 2894892
-0.25494587 0.02507852 2.5222595 2039583
0.63913089 0.025146531 2.5290682 2894892
-0.25496256 0.075060368 2.5220609 2697513
0.63916522 0.075443186 2.5292044 2894892
-2.0014598 0.11159781 2.5175002 10197915
-1.9751157 0.1115825 2.5171547 10197915
-1.9245524 0.1115531 2.5164914 10197915
-1.8750687 0.11152432 2.515842 10197915
-1.8256102 0.11149555 2.515193 10197915
-1.775126 0.11146618 2.5145304 10197915
-1.7246685 0.11143681 2.5138683 10197915
-1.6742371 0.11140749 2.5132067 10197915
-1.6248821 0.11137877 2.5125592 10197915
-1.5755529 0.11135008 2.5119121 10197915
-1.5252002 0.11132079 2.5112512 10197915
-1.4748739 0.11129152 2.5105908 10197915
-1.424574 0.11126228 2.5099308 10197915
-1.3743008 0.11123305 2.5092711 10197915
-1.3470792 0.11121719 2.5089135 10197915
-0.25482541 0.10535518 2.5227401 10132122
-0.22513638 0.11046356 2.5393777 10197915
-0.1745923 0.1104342 2.5387027 10197915
-0.1251272 0.11040544 2.5380423 10197915
-0.075688004 0.11037672 2.5373814 10197915
-0.025223374 0.11034739 2.5367072 10197915
0.025214441 0.11031809 2.5360334 10197915
0.075625479 0.11028878 2.5353601 10197915
0.12496044 0.11026012 2.5347011 10197915
0.17426957 0.11023146 2.5340424 10197915
0.22460146 0.11020222 2.5333698 10197915
0.27490669 0.11017296 2.5326979 10197915
0.32518527 0.11014377 2.5320261 10197915
0.37543705 0.11011454 2.5313547 10197915
0.42566231 0.11008536 2.530684 10197915
0.47586098 0.11005621 2.5300133 10197915
0.52498806 0.11002766 2.5293574 10197915
0.57408947 0.10999911 2.5287011 10197915
0.62542355 0.1084762 2.5281036 7171437
0.64660859 -1.1521389 2.5797858 2894892
0.64502543 -1.1239382 2.5694349 2894892
0.64498264 -1.0749601 2.5690706 2894892
0.64501715 -1.0249912 2.5692077 2894892
0.64505142 -0.97501689 2.5693452 2894892
0.64508599 -0.92503738 2.5694828 2894892
0.64508444 -0.87558627 2.5693858 2894892
0.64515501 -0.82506657 2.5697572 2894892
0.64518946 -0.77507079 2.5698946 2894892
0.64522392 -0.72506958 2.5700319 2894892
0.64525855 -0.67506331 2.5701694 2894892
0.64525694 -0.62558591 2.5700724 2894892
0.64532751 -0.57503903 2.5704439 2894892
0.64536196 -0.52501661 2.5705814 2894892
0.64539647 -0.47498879 2.570719 2894892
-0.25056121 -0.4197166 2.5518968 3289650
-0.24667415 -0.41987237 2.577467 3158064
0.64543092 -0.4249557 2.5708563 2894892
-0.25055653 -0.37530625 2.5518486 2039583
-0.24667735 -0.37501475 2.5773668 2039583
0.64542937 -0.37545183 2.5707598 2894892
-0.25055113 -0.32561085 2.5517943 2039583
-0.24667209 -0.32481802 2.5773096 2039583
0.6455 -0.32487789 2.571131 2894892
-0.25054571 -0.27486041 2.551739 2039583
-0.2466332 -0.27484396 2.5774767 2039583
0.64553452 -0.27482873 2.5712688 2894892
-0.25054038 -0.2251693 2.5516849 2039583
-0.24665032 -0.22486705 2.5772734 2039583
0.64556909 -0.22477417 2.5714066 2894892
-0.2505351 -0.17548038 2.5516307 2039583
-0.24664529 -0.17489116 2.5772178 2039583
0.64560372 -0.1747143 2.5715442 2894892
-0.25052968 -0.12473639 2.5515759 2039583
-0.24665129 -0.12513544 2.5770893 2039583
0.64560199 -0.12518394 2.5714481 2894892
-0.25052443 -0.075051695 2.551522 2039583
-0.24660145 -0.074947976 2.5773263 2039583
0.64570802 -0.075108856 2.5720503 2894892
-0.25051913 -0.025369117 2.5514686 2039583
-0.24664074 -0.024774579 2.5769792 2039583
0.64567113 -0.025046539 2.5717227 2894892
-0.25051376 0.025368392 2.5514138 2039583
-0.24663559 0.024773888 2.5769253 2039583
0.64570576 0.025048329 2.5718601 2894892
-0.25050849 0.075046778 2.5513597 2631720
-0.24658583 0.074943028 2.5771623 2763306
0.64581168 0.075121358 2.5724635 2894892
-2.0198615 0.1115065 2.5633533 10197915
-1.9747952 0.11148032 2.5627515 10197915
-1.9243885 0.11145102 2.562078 10197915
-1.8750802 0.11142237 2.5614195 10197915
-1.8247262 0.1113931 2.5607469 10197915
-1.7743984 0.11136384 2.5600746 10197915
-1.7251672 0.11133523 2.5594165 10197915
-1.6748919 0.11130603 2.5587451 10197915
-1.6246427 0.11127682 2.5580735 10197915
-1.5754886 0.11124826 2.5574172 10197915
-1.5252918 0.1112191 2.5567465 10197915
-1.475121 0.11118995 2.5560765 10197915
-1.4249772 0.11116081 2.5554063 10197915
-1.3844531 0.11113726 2.5548651 10197915
-0.25050533 0.10464146 2.5513275 10132122
-0.23508099 0.10775857 2.5808942 10132122
-0.17460006 0.11032943 2.5855429 10197915
-0.12529422 0.11030081 2.5848722 10197915
-0.074942991 0.11027157 2.5841873 10197915
-0.024618289 0.11024234 2.5835023 10197915
0.024609778 0.11021378 2.5828323 10197915
0.074881576 0.11018459 2.5821488 10197915
0.12512693 0.11015542 2.5814652 10197915
0.1753455 0.11012628 2.5807817 10197915
0.22553767 0.11009714 2.5800989 10197915
0.27463615 0.11006862 2.5794311 10197915
0.32477564 0.11003951 2.5787487 10197915
0.37488875 0.11001041 2.5780668 10197915
0.42497531 0.10998134 2.5773854 10197915
0.47503543 0.10995227 2.576704 10197915
0.525069 0.10992324 2.5760233 10197915
0.5750764 0.10989418 2.5753431 10197915
0.62951511 0.10844681 2.5736482 7434609
0.65443861 -1.1634048 2.6307676 2894892
0.65353721 -1.124716 2.6248338 2894892
0.65352035 -1.0751179 2.6246369 2894892
0.65360665 -1.025512 2.625113 2894892
0.65364164 -0.97553653 2.6252532 2894892
0.65362686 -0.92519587 2.6250691 2894892
0.65371203 -0.87485158 2.6255357 2894892
0.65369499 -0.8252269 2.6253388 2894892
0.65378129 -0.77559447 2.6258142 2894892
0.6538164 -0.72559243 2.6259546 2894892
0.65380168 -0.67522484 2.6257713 2894892
0.6538868 -0.62485379 2.6262374 2894892
0.65386963 -0.57520241 2.6260407 2894892
0.65395617 -0.52554345 2.6265168 2894892
0.65399128 -0.47551468 2.626657 2894892
-0.23934256 -0.41972396 2.6256933 3092271
0.65397638 -0.42512026 2.6264732 2894892
-0.23933196 -0.37511733 2.6256838 2039583
0.6540615 -0.37472218 2.6269395 2894892
-0.23930191 -0.32525259 2.6257913 2039583
0.65363359 -0.32694253 2.6240709 2894892
-0.2392967 -0.27520639 2.6257358 2039583
0.65237182 -0.27525035 2.6157699 2894892
-0.23930633 -0.22498275 2.6255822 2039583
0.65240669 -0.22541296 2.6159089 2894892
-0.23930141 -0.17494179 2.6255255 2039583
0.65240479 -0.17502622 2.6158087 2894892
-0.23933071 -0.1250876 2.6252432 2039583
0.65247685 -0.12464327 2.6161904 2894892
-0.23927636 -0.075052619 2.6255121 2039583
0.65251172 -0.074789859 2.6163297 2894892
-0.2392713 -0.025017072 2.6254556 2039583
0.65254635 -0.024931133 2.6164696 2894892
-0.23926625 0.025016367 2.6254008 2039583
0.65258116 0.024932897 2.6166086 2894892
-0.23926114 0.075047694 2.625345 2829099
0.65261602 0.074802272 2.6167479 2894892
-2.0640931 0.11142641 2.6112502 10197915
-2.0258267 0.11140418 2.6107295 10197915
-1.9755555 0.111375 2.6100459 10197915
-1.9253112 0.11134583 2.6093619 10197915
-1.8750929 0.11131669 2.6086786 10197915
-1.8249004 0.11128754 2.6079957 10197915
-1.7747346 0.11125841 2.6073129 10197915
-1.7245951 0.11122929 2.6066313 10197915
-1.6744817 0.1112002 2.6059494 10197915
-1.624395 0.11117112 2.605268 10197915
-1.5743337 0.11114205 2.6045866 10197915
-1.5242991 0.11111302 2.6039059 10197915
-1.4742906 0.11108398 2.6032257 10197915
-1.4243079 0.11105496 2.6025457 10197915
-1.3971531 0.11103918 2.6021757 10197915
-0.23187827 0.10706688 2.6280856 10132122
-0.17570052 0.11022136 2.6341591 10197915
-0.12546749 0.11019222 2.6334629 10197915
-0.075261042 0.11016311 2.632767 10197915
-0.025081122 0.110134 2.632071 10197915
0.025072295 0.11010491 2.6313758 10197915
0.075199224 0.11007584 2.6306813 10197915
0.12529969 0.11004679 2.629987 10197915
0.1753737 0.11001773 2.629293 10197915
0.22542131 0.10998872 2.6285987 10197915
0.27544254 0.10995971 2.6279061 10197915
0.32543731 0.10993071 2.6272128 10197915
0.37540573 0.10990173 2.6265202 10197915
0.42534789 0.10987276 2.6258278 10197915
0.47526368 0.10984381 2.6251359 10197915
0.52515322 0.10981486 2.6244447 10197915
0.57501638 0.10978596 2.6237531 10197915
0.62485337 0.10975704 2.6230626 10000536
0.65234989 0.10555554 2.6168671 2894892
0.66425794 -1.2023627 2.6947434 2894892
0.66253436 -1.1737573 2.6834757 2894892
0.6624406 -1.1254262 2.6827817 2894892
0.66251707 -1.0749106 2.683192 2894892
0.6625526 -1.0249432 2.6833348 2894892
0.66258788 -0.97496969 2.6834786 2894892
0.66262329 -0.92499143 2.6836216 2894892
0.6626178 -0.87556535 2.6834989 2894892
0.66269422 -0.82502317 2.6839087 2894892
0.66272968 -0.77502859 2.6840522 2894892
0.66276503 -0.72502857 2.684196 2894892
0.66280055 -0.6750235 2.6843393 2894892
0.66279477 -0.62557095 2.6842163 2894892
0.66287142 -0.57500172 2.6846263 2894892
0.66290671 -0.52498031 2.6847696 2894892
0.66294223 -0.47495377 2.6849132 2894892
-0.23169135 -0.41994393 2.6760242 3158064
0.66297764 -0.42492163 2.6850564 2894892
-0.23171192 -0.37492779 2.6758084 2039583
0.66297197 -0.37544283 2.6849339 2894892
-0.2316819 -0.32481214 2.6759169 2039583
0.66233236 -0.32268795 2.6806788 2894892
-0.23167716 -0.27491921 2.6758575 2039583
0.66121852 -0.2750653 2.6733453 2894892
-0.23169725 -0.22525363 2.6756351 2039583
0.66130781 -0.224858 2.673842 2894892
-0.23166701 -0.17514302 2.6757445 2039583
0.66128933 -0.17465211 2.6736329 2894892
-0.23169973 -0.12481573 2.6754401 2039583
0.66137803 -0.12518124 2.6741245 2894892
-0.23161936 -0.07492619 2.6758792 2039583
0.66141397 -0.075331584 2.6742704 2894892
-0.23168994 -0.025058411 2.6753263 2039583
0.66139537 -0.025118276 2.6740632 2894892
-0.23168504 0.025057711 2.6752691 2039583
0.66143107 0.025120074 2.6742063 2894892
-0.23160462 0.074921302 2.6757092 2829099
0.66152042 0.075344145 2.6747007 2894892
-2.1088948 0.11134259 2.6609552 10197915
-2.0754626 0.11132322 2.6604917 10197915
-2.0253339 0.11129413 2.6597972 10197915
-1.9752316 0.11126508 2.6591029 10197915
-1.9251553 0.11123603 2.6584084 10197915
-1.8751056 0.111207 2.6577146 10197915
-1.825081 0.11117799 2.6570215 10197915
-1.7750834 0.11114899 2.6563282 10197915
-1.7251118 0.11112002 2.6556356 10197915
-1.6751661 0.11109103 2.6549435 10197915
-1.6252462 0.11106208 2.6542516 10197915
-1.5753525 0.11103314 2.6535597 10197915
-1.5243772 0.11100359 2.652853 10197915
-1.4745357 0.11097468 2.6521623 10197915
-1.4357877 0.11095221 2.6516254 10197915
-0.22576459 0.10685542 2.6783471 10132122
-0.17461666 0.11010785 2.684607 10197915
-0.1245347 0.11007884 2.6838999 10197915
-0.074479319 0.11004984 2.6831927 10197915
-0.024450125 0.11002087 2.6824861 10197915
0.025552526 0.1099919 2.6817794 10197915
0.075529031 0.10996293 2.6810732 10197915
0.12547907 0.10993398 2.6803677 10197915
0.17540298 0.10990506 2.6796625 10197915
0.22530048 0.10987616 2.6789577 10197915
0.27517188 0.10984726 2.6782532 10197915
0.32501689 0.10981838 2.6775491 10197915
0.37483588 0.10978951 2.6768451 10197915
0.42462844 0.10976066 2.6761417 10197915
0.47550067 0.1097312 2.6754227 10197915
0.52524054 0.10970235 2.6747205 10197915
0.57495421 0.10967356 2.6740181 10197915
0.62464195 0.10964477 2.673316 10197915
0.6595428 0.10647331 2.6741488 4276545
0.670376 -1.212016 2.7345793 2894892
0.66986066 -1.1751399 2.7311614 2894892
0.66993886 -1.1248515 2.7315826 2894892
0.66997433 -1.0751156 2.7317281 2894892
0.67001015 -1.0253743 2.7318733 2894892
0.67004585 -0.9756279 2.7320189 2894892
0.67003965 -0.92530817 2.7318912 2894892
0.67011791 -0.87499315 2.7323129 2894892
0.67015356 -0.82523054 2.7324584 2894892
0.6701892 -0.77546269 2.7326035 2894892
0.67022491 -0.72568965 2.7327492 2894892
0.67021888 -0.6753431 2.7326217 2894892
0.67029703 -0.62500101 2.7330434 2894892
0.67033273 -0.57521176 2.7331889 2894892
0.67036843 -0.52541739 2.7333343 2894892
0.67040396 -0.47561762 2.7334797 2894892
-0.22448629 -0.4201459 2.7234194 3092271
0.67039794 -0.4252443 2.7333522 2894892
-0.22452475 -0.37523478 2.7230866 2039583
0.6704762 -0.37487525 2.7337737 2894892
-0.22449383 -0.3249107 2.7232003 2039583
0.67051196 -0.3250595 2.7339194 2894892
-0.22448885 -0.27481309 2.7231414 2039583
0.6705476 -0.27523842 2.7340651 2894892
-0.22451033 -0.22494698 2.7229106 2039583
0.67058337 -0.22541207 2.7342107 2894892
-0.22447936 -0.17485341 2.7230256 2039583
0.67061901 -0.1755804 2.7343564 2894892
-0.2244878 -0.12476329 2.7228799 2039583
0.67061299 -0.12517957 2.7342291 2894892
-0.22449607 -0.074680001 2.7227368 2039583
0.67069125 -0.074773371 2.7346511 2894892
-0.22446503 -0.024817079 2.7228522 2039583
0.67072695 -0.024925636 2.7347965 2894892
-0.22446029 0.024816377 2.7227948 2039583
0.67076284 0.024927406 2.7349424 2894892
-0.22448173 0.074675098 2.7225649 2829099
0.67079854 0.074785754 2.7350879 2894892
-2.154299 0.11125489 2.7125733 10197915
-2.125891 0.11123843 2.7121723 10197915
-2.0759113 0.11120947 2.7114661 10197915
-2.0259571 0.11118054 2.7107604 10197915
-1.9760296 0.11115161 2.7100551 10197915
-1.9249939 0.11112202 2.7093339 10197915
-1.8739849 0.11109247 2.7086136 10197915
-1.8241363 0.11106359 2.7079093 10197915
-1.7743134 0.11103474 2.7072058 10197915
-1.7245166 0.11100586 2.7065022 10197915
-1.6747454 0.11097702 2.7057989 10197915
-1.6250004 0.11094821 2.7050965 10197915
-1.5752808 0.11091941 2.7043939 10197915
-1.5255871 0.11089062 2.703692 10197915
-1.4759194 0.11086183 2.7029903 10197915
-1.4499656 0.11084679 2.7026234 10197915
-0.22036166 0.10644857 2.7272019 10132122
-0.17462532 0.10999057 2.7370415 10197915
-0.12469992 0.10996168 2.7363226 10197915
-0.07480073 0.10993281 2.735604 10197915
-0.02492776 0.10990394 2.7348857 10197915
0.024919035 0.10987509 2.7341678 10197915
0.074739665 0.10984626 2.7334502 10197915
0.12453414 0.10981743 2.7327325 10197915
0.17430253 0.10978863 2.7320161 10197915
0.22404478 0.10975985 2.7312999 10197915
0.27489048 0.10973042 2.7305675 10197915
0.32570913 0.10970102 2.7298355 10197915
0.37537205 0.10967226 2.7291203 10197915
0.42500886 0.10964353 2.7284055 10197915
0.47461978 0.10961482 2.7276907 10197915
0.52420467 0.10958612 2.7269764 10197915
0.57488954 0.10955679 2.7262466 10197915
0.62554747 0.10952747 2.725517 10197915
0.66528952 0.1070283 2.7296741 5658198
0.67563409 -1.2193534 2.768815 2894892
0.67566651 -1.1746728 2.7689471 2894892
0.67570287 -1.1242592 2.7690964 2894892
0.67573857 -1.0749861 2.7692425 2894892
0.67577416 -1.0257081 2.7693884 2894892
0.67581058 -0.97527814 2.7695379 2894892
0.67584705 -0.92484301 2.7696874 2894892
0.67588347 -0.87440246 2.7698367 2894892
0.67591918 -0.82510304 2.7699826 2894892
0.67595476 -0.77579838 2.770129 2894892
0.67599118 -0.72534174 2.7702782 2894892
0.67602772 -0.67487979 2.7704275 2894892
0.67606413 -0.62441212 2.7705772 2894892
0.67792004 -0.57273197 2.7825649 2894892
0.67806017 -0.52530289 2.7833941 2894892
0.67814231 -0.47515374 2.7838411 2894892
-0.21709055 -0.42011946 2.7720692 2960685
0.67813277 -0.42500493 2.7836924 2894892
-0.21705149 -0.37486485 2.7722452 2039583
0.67821479 -0.37486112 2.7841399 2894892
-0.21704699 -0.32501268 2.772186 2039583
0.67829722 -0.32469591 2.7845879 2894892
-0.21704219 -0.27516264 2.7721269 2039583
0.67824131 -0.27512643 2.7841387 2894892
-0.21705137 -0.22485706 2.771976 2039583
0.67832369 -0.22495046 2.784586 2894892
-0.21704702 -0.17501459 2.7719152 2039583
0.67831421 -0.17477475 2.7844372 2894892
-0.21702826 -0.12516913 2.77195 2039583
0.67844194 -0.12517832 2.785182 2894892
-0.21706587 -0.075335324 2.7716131 2039583
0.67838609 -0.075576663 2.7847323 2894892
-0.21701913 -0.025263499 2.7718315 2039583
0.67846841 -0.025384841 2.7851801 2894892
-0.21701446 0.025262767 2.7717721 2039583
0.67850512 0.02538668 2.7853317 2894892
-0.21705201 0.075330369 2.771436 2960685
0.67849571 0.075589322 2.7851822 2894892
-2.1748402 0.11114828 2.7658498 10197915
-2.1250169 0.11111944 2.7651317 10197915
-2.0752201 0.11109062 2.7644148 10197915
-2.0254481 0.11106183 2.7636981 10197915
-1.9757023 0.11103301 2.7629817 10197915
-1.924826 0.11100357 2.7622492 10197915
-1.8751321 0.11097483 2.761533 10197915
-1.8254642 0.11094607 2.7608182 10197915
-1.7746676 0.11091666 2.7600861 10197915
-1.7250515 0.11088794 2.759372 10197915
-1.6754615 0.11085925 2.7586577 10197915
-1.6247444 0.1108299 2.7579269 10197915
-1.575206 0.11080121 2.7572134 10197915
-1.5256934 0.11077256 2.7565005 10197915
-1.4888623 0.11075125 2.75597 10197915
-0.21446292 0.10617935 2.7771075 10066329
-0.17463438 0.10986865 2.7915654 10197915
-0.12487172 0.10983987 2.7908344 10197915
-0.075134955 0.10981113 2.7901034 10197915
-0.025424423 0.10978239 2.7893732 10197915
0.02541535 0.10975299 2.7886264 10197915
0.075073481 0.10972426 2.7878971 10197915
0.12470543 0.10969558 2.7871683 10197915
0.17546484 0.10966624 2.7864225 10197915
0.22504447 0.10963758 2.7856936 10197915
0.27459809 0.10960891 2.7849665 10197915
0.32527736 0.10957964 2.7842219 10197915
0.37477869 0.10955102 2.7834947 10197915
0.42425403 0.10952239 2.7827678 10197915
0.4748534 0.10949314 2.7820244 10197915
0.52542567 0.10946391 2.7812815 10197915
0.57482255 0.10943536 2.7805562 10197915
0.62419343 0.1094068 2.7798307 10197915
0.66935337 0.10763502 2.7817817 6710886
0.68604189 -0.57037765 2.8354216 2894892
0.6861335 -0.52516699 2.8359389 2894892
0.68612254 -0.47525117 2.8357806 2894892
-0.20935367 -0.42033035 2.8229625 2960685
0.68625462 -0.42476726 2.8365524 2894892
-0.20934653 -0.37518135 2.8229291 2039583
0.68624389 -0.37484068 2.836395 2894892
-0.2093271 -0.32511842 2.8229666 2039583
0.68623281 -0.32492527 2.8362365 2894892
-0.20932281 -0.27482313 2.822906 2039583
0.68549597 -0.27919668 2.8313606 2894892
-0.20934767 -0.22500153 2.8226509 2039583
0.68430877 -0.22459342 2.8235388 2894892
-0.20932862 -0.17517728 2.8226874 2039583
0.68434548 -0.17430319 2.8236911 2894892
-0.2093091 -0.12512472 2.822726 2039583
0.68438148 -0.12517726 2.8238392 2894892
-0.20930499 -0.074838094 2.8226638 2039583
0.68441832 -0.074876294 2.8239913 2894892
-0.20932993 -0.024796128 2.8224101 2039583
0.6844551 -0.024569971 2.8241429 2894892
-0.20932552 0.024795424 2.8223515 2039583
0.68449104 0.024571685 2.8242912 2894892
-0.20929174 0.074833155 2.8224843 2960685
0.68452787 0.074888758 2.8244433 2894892
-2.2222185 0.11105242 2.8216431 10197915
-2.1749241 0.11102509 2.8209484 10197915
-2.1252899 0.1109964 2.8202193 10197915
-2.0756817 0.1109677 2.8194904 10197915
-2.0249183 0.11093836 2.8187449 10197915
-1.9741819 0.11090903 2.8179996 10197915
-1.9246515 0.1108804 2.8172717 10197915
-1.8751464 0.11085178 2.816545 10197915
-1.825667 0.11082317 2.8158178 10197915
-1.775036 0.1107939 2.8150742 10197915
-1.7244318 0.11076464 2.8143308 10197915
-1.6750301 0.11073607 2.8136051 10197915
-1.625654 0.11070754 2.8128796 10197915
-1.5751286 0.11067832 2.8121378 10197915
-1.528152 0.11065117 2.8114479 10197915
-0.20860425 0.1054083 2.8256376 10066329
-0.17582496 0.10974243 2.8483229 10197915
-0.12505053 0.1097131 2.8475616 10197915
-0.074303001 0.10968381 2.8468006 10197915
-0.024761921 0.10965519 2.8460586 10197915
0.024753317 0.10962658 2.8453166 10197915
0.074242748 0.10959803 2.8445747 10197915
0.12488367 0.10956877 2.8438158 10197915
0.17549777 0.10953955 2.8430569 10197915
0.22490862 0.10951101 2.8423166 10197915
0.27429384 0.10948249 2.8415763 10197915
0.32482803 0.10945331 2.8408189 10197915
0.37533554 0.10942415 2.8400619 10197915
0.42464238 0.10939568 2.8393228 10197915
0.47509643 0.10936654 2.8385668 10197915
0.52552396 0.10933742 2.837811 10197915
0.57475257 0.109309 2.8370728 10197915
0.62512678 0.10927989 2.836318 10197915
0.67184055 0.10842553 2.8333249 8158332
0.69231141 -0.57076955 2.8762262 2894892
0.69234502 -0.52551454 2.8763652 2894892
0.69238198 -0.47549108 2.8765194 2894892
-0.20296091 -0.42017421 2.8650143 2763306
-0.19890226 -0.4199166 2.8917115 2763306
0.69241905 -0.42546204 2.8766725 2894892
-0.20295715 -0.37506321 2.8649578 2039583
-0.19887349 -0.3749887 2.8918207 2039583
0.69245613 -0.37542778 2.8768268 2894892
-0.20295276 -0.32481009 2.8648977 2039583
-0.19886926 -0.32466379 2.8917584 2039583
0.69249314 -0.3253881 2.8769808 2894892
-0.20294842 -0.27495477 2.8648367 2039583
-0.19884491 -0.27493694 2.8918297 2039583
0.69101739 -0.27139476 2.8672822 2894892
-0.20294404 -0.22510152 2.8647738 2039583
-0.19886073 -0.22521618 2.8916352 2039583
0.69048291 -0.22541142 2.8637233 2894892
-0.20296504 -0.17485844 2.8645473 2039583
-0.19885647 -0.1748977 2.891573 2039583
0.69051969 -0.17559169 2.8638759 2894892
-0.20293541 -0.12461313 2.8646522 2039583
-0.1988724 -0.12519036 2.8913796 2039583
0.69050837 -0.12517625 2.8637149 2894892
-0.20293112 -0.07476633 2.8645921 2039583
-0.19884811 -0.075467385 2.8914509 2039583
0.6905942 -0.074755423 2.8641851 2894892
-0.20292681 -0.024921646 2.8645308 2039583
-0.19884384 -0.025155317 2.8913891 2039583
0.69063091 -0.024919657 2.8643374 2894892
-0.20292251 0.024920942 2.8644707 2039583
-0.19883958 0.0251546 2.8913276 2039583
0.69066781 0.024921427 2.8644905 2894892
-0.20291822 0.07476142 2.8644094 2960685
-0.19883533 0.075462371 2.8912663 3158064
0.69070446 0.074767791 2.8646419 2894892
-2.27034 0.11095195 2.8797157 10197915
-2.2244742 0.11092547 2.8790281 10197915
-2.1750109 0.1108969 2.8782866 10197915
-2.1255739 0.11086835 2.8775456 10197915
-2.0749569 0.11083911 2.8767872 10197915
-2.0243671 0.11080991 2.876029 10197915
-1.9750071 0.11078139 2.875289 10197915
-1.9256728 0.11075293 2.8745494 10197915
-1.8751615 0.11072373 2.8737924 10197915
-1.8246765 0.11069458 2.8730359 10197915
-1.7742182 0.11066545 2.8722796 10197915
-1.7249867 0.11063702 2.871542 10197915
-1.675781 0.1106086 2.8708043 10197915
-1.6254009 0.11057951 2.8700492 10197915
-1.5750475 0.11055043 2.8692944 10197915
-1.5438887 0.11053244 2.8688271 10197915
-0.20291565 0.10442746 2.8643734 10066329
-0.19883284 0.10540654 2.8912292 10066329
0.33035672 0.10931829 2.8996735 10197915
0.37591544 0.10929202 2.8989766 10197915
0.42504674 0.1092637 2.8982246 10197915
0.47415239 0.10923535 2.8974736 10197915
0.52442944 0.10920636 2.8967044 10197915
0.57467985 0.10917737 2.8959353 10197915
0.62490338 0.1091484 2.8951669 10197915
0.67804873 0.10773405 2.8856344 7697781
0.69655699 -0.57144123 2.9038601 2894892
0.70088762 -0.56969881 2.9320421 2894892
0.69659108 -0.52575159 2.9040022 2894892
0.70092142 -0.52477968 2.9321826 2894892
0.69662869 -0.47524729 2.9041591 2894892
0.70095867 -0.47499949 2.932339 2894892
0.6966663 -0.4247376 2.9043155 2894892
0.70099592 -0.42521399 2.9324951 2894892
0.69670397 -0.37422243 2.9044728 2894892
0.70103335 -0.37542316 2.9326515 2894892
0.69674075 -0.32490474 2.9046259 2894892
0.70107162 -0.32441244 2.9328115 2894892
0.69677746 -0.27558184 2.904779 2894892
0.70110887 -0.27461091 2.9329679 2894892
0.69681501 -0.22505058 2.9049358 2894892
0.70114625 -0.22480401 2.9331243 2894892
0.69685274 -0.17451385 2.905093 2894892
0.70118362 -0.17499188 2.9332805 2894892
0.6968894 -0.12517509 2.9052463 2894892
0.70122093 -0.1251744 2.9334366 2894892
0.69692624 -0.075831115 2.9053993 2894892
0.70125824 -0.075351626 2.933593 2894892
0.69696391 -0.025278259 2.9055562 2894892
0.70129567 -0.025523527 2.9337494 2894892
0.69700158 0.025280075 2.9057136 2894892
0.70133388 0.025525382 2.9339094 2894892
0.69703931 0.075843893 2.9058712 2894892
0.70137084 0.075364143 2.9340639 2894892
-2.3192508 0.11084653 2.9402096 10197915
-2.2748749 0.11082093 2.9395306 10197915
-2.2255912 0.1107925 2.9387767 10197915
-2.175102 0.11076339 2.938004 10197915
-2.1246388 0.11073427 2.9372325 10197915
-2.0754323 0.1107059 2.9364796 10197915
-2.0250223 0.11067683 2.9357083 10197915
-1.9746382 0.11064776 2.9349372 10197915
-1.9255081 0.11061943 2.9341855 10197915
-1.8751768 0.1105904 2.9334159 10197915
-1.8248713 0.11056137 2.9326463 10197915
-1.7745924 0.11053239 2.9318767 10197915
-1.7243398 0.1105034 2.931108 10197915
-1.675338 0.11047514 2.9303584 10197915
-1.6251377 0.11044618 2.9295907 10197915
-1.584751 0.11042289 2.9289725 10197915
-0.17344803 0.10960887 2.9073808 10197915
-0.12523654 0.10958105 2.9066429 10197915
-0.075845219 0.10955258 2.9058876 10197915
-0.02527575 0.10952342 2.9051144 10197915
0.025266789 0.10949427 2.9043412 10197915
0.075782433 0.10946514 2.9035683 10197915
0.1250695 0.10943671 2.9028141 10197915
0.17433077 0.10940829 2.9020603 10197915
0.22476713 0.1093792 2.9012885 10197915
0.27517664 0.10935012 2.900517 10197915
0.30517071 0.10933282 2.9000587 10197915
0.697061 0.10473973 2.905961 2894892
0.70139241 0.1045403 2.9341536 2894892
0.707551 -0.57071751 2.9754121 2894892
0.70758545 -0.52513397 2.975558 2894892
0.70756841 -0.47522447 2.9753585 2894892
0.70771652 -0.42472041 2.976234 2894892
0.707699 -0.37480018 2.9760363 2894892
0.70768219 -0.32489279 2.975837 2894892
0.70777488 -0.27496785 2.9763534 2894892
0.70775753 -0.22503157 2.9761553 2894892
0.70785028 -0.17511408 2.9766707 2894892
0.70794314 -0.12517314 2.9771879 2894892
0.70787156 -0.07461939 2.976634 2894892
0.70796406 -0.024667736 2.97715 2894892
0.70800143 0.024669472 2.9773071 2894892
0.70798421 0.074631721 2.9771078 2894892
-2.155082 0.11061262 2.999938 10197915
-2.1249211 0.11059525 2.9994669 10197915
-2.0746722 0.11056632 2.9986818 10197915
-2.0244498 0.11053737 2.9978976 10197915
-1.9742534 0.11050846 2.9971128 10197915
-1.9240834 0.11047956 2.9963295 10197915
-1.8739395 0.11045067 2.9955459 10197915
-1.823822 0.11042179 2.9947629 10197915
-1.7749825 0.11039367 2.994 10197915
-1.7261679 0.11036555 2.9932375 10197915
-1.6761274 0.11033674 2.9924555 10197915
-1.6273636 0.11030862 2.9916933 10197915
-0.20052059 0.1094867 2.9694018 10132122
-0.17466393 0.10947181 2.9689977 10132122
-0.12543063 0.10944345 2.9682288 10197915
-0.074993059 0.10941438 2.9674404 10197915
-0.024582036 0.10938535 2.9666533 10197915
0.024573553 0.10935704 2.9658849 10197915
0.074931532 0.10932802 2.9650986 10197915
0.12526301 0.10929902 2.9643118 10197915
0.17434104 0.10927075 2.9635453 10197915
0.2246196 0.10924179 2.9627597 10197915
0.27487168 0.10921284 2.9619744 10197915
0.32509702 0.10918392 2.96119 10197915
0.37529594 0.109155 2.9604061 10197915
0.425468 0.10912609 2.9596214 10197915
0.47561377 0.10909722 2.9588387 10197915
0.52451074 0.10906903 2.9580741 10197915
0.57460386 0.10904019 2.9572914 10197915
0.62467068 0.10901135 2.9565094 10197915
0.67471075 0.10898253 2.9557276 10197915
0.70713621 0.10527365 2.9742389 3684408
0.71439356 -0.57051373 3.0199447 2894892
0.71442795 -0.52549839 3.0200901 2894892
0.71446609 -0.47547632 3.0202518 2894892
0.71450424 -0.42544895 3.0204129 2894892
0.71454245 -0.37541619 3.020575 2894892
0.71458066 -0.32537809 3.0207362 2894892
0.71461892 -0.2753346 3.0208979 2894892
0.71465725 -0.2252858 3.0210598 2894892
0.71469563 -0.17523161 3.0212212 2894892
0.71473384 -0.12517205 3.021383 2894892
0.71477211 -0.075107172 3.0215447 2894892
0.71481031 -0.025036916 3.0217063 2894892
0.71484846 0.025038699 3.0218685 2894892
0.71488595 0.075119592 3.0220265 2894892
-2.3690014 0.11073585 3.0032799 10197915
-2.3249209 0.11071047 3.0025916 10197915
-2.275826 0.11068217 3.0018249 10197915
-2.2254977 0.1106532 3.0010386 10197915
-2.1802249 0.11062711 3.0003314 10197915
-0.20360744 0.10934474 3.0337253 10000536
-0.17593253 0.10932879 3.0332828 10132122
-0.12563312 0.10929986 3.0324798 10197915
-0.075360373 0.10927095 3.0316777 10197915
-0.025114214 0.10924202 3.0308752 10197915
0.025105361 0.10921314 3.0300741 10197915
0.075298384 0.10918428 3.0292728 10197915
0.12546489 0.1091554 3.0284724 10197915
0.17560485 0.10912655 3.0276718 10197915
0.22571835 0.10909773 3.0268719 10197915
0.27580535 0.10906892 3.0260725 10197915
0.32586586 0.10904012 3.0252738 10197915
0.37590003 0.10901133 3.0244749 10197915
0.4259077 0.10898255 3.0236766 10197915
0.47588912 0.10895381 3.0228789 10197915
0.52584398 0.10892507 3.0220816 10197915
0.57577264 0.10889634 3.0212843 10197915
0.62567502 0.10886763 3.0204883 10197915
0.675551 0.10883894 3.0196919 10197915
0.7102741 0.10718631 3.0201561 7303023
0.72153866 -0.57092953 3.0664496 2894892
0.72144043 -0.5252496 3.0657301 2894892
0.72154015 -0.47508979 3.0662932 2894892
0.72151768 -0.42493147 3.0660591 2894892
0.72161764 -0.37478048 3.066622 2894892
0.72171766 -0.32460466 3.0671861 2894892
0.72163337 -0.27508825 3.0665503 2894892
0.72173321 -0.22490168 3.0671136 2894892
0.7217108 -0.17471643 3.0668793 2894892
0.72187161 -0.12517075 3.0678394 2894892
0.7217871 -0.075619869 3.0672042 2894892
0.72188723 -0.025418555 3.0677681 2894892
0.72192633 0.025420401 3.0679345 2894892
0.72190362 0.075632498 3.0676987 2894892
-2.420933 0.11062034 3.0691161 10197915
-2.3745871 0.11059366 3.0683765 10197915
-2.3244038 0.1105648 3.0675755 10197915
-2.275532 0.11053669 3.0667951 10197915
-2.2254004 0.11050786 3.0659952 10197915
-2.1752949 0.11047902 3.0651953 10197915
-2.1252155 0.11045021 3.0643959 10197915
-2.0751619 0.11042142 3.0635972 10197915
-2.025135 0.11039263 3.0627987 10197915
-1.975134 0.11036387 3.0620008 10197915
-1.9251589 0.1103351 3.0612028 10197915
-1.8752096 0.11030637 3.0604055 10197915
-1.8252863 0.11027765 3.0596087 10197915
-1.7753894 0.11024895 3.0588121 10197915
-1.7255182 0.11022027 3.0580163 10197915
-1.6743956 0.11019087 3.0572007 10197915
-1.6437337 0.11017321 3.0567107 10197915
-0.15026097 0.10916395 3.0999732 10197915
-0.12455951 0.10914917 3.0995536 10197915
-0.074459776 0.10912041 3.0987365 10197915
-0.024386231 0.10909162 3.0979195 10197915
0.024377886 0.10906361 3.0971234 10197915
0.074399106 0.10903488 3.0963082 10197915
0.12439423 0.10900617 3.0954924 10197915
0.17436276 0.10897745 3.0946767 10197915
0.22558531 0.10894801 3.0938411 10197915
0.2755008 0.10891933 3.0930266 10197915
0.3253898 0.10889069 3.0922132 10197915
0.37525281 0.10886203 3.0913994 10197915
0.4250893 0.10883341 3.0905867 10197915
0.47489989 0.10880479 3.0897737 10197915
0.52468401 0.10877619 3.0889616 10197915
0.57571757 0.10874687 3.0881293 10197915
0.62544888 0.10871828 3.0873177 10197915
0.67515397 0.10868975 3.0865066 10197915
0.71657419 0.10699749 3.0791283 7171437
0.7312243 -0.57045031 3.1294863 2894892
0.7312597 -0.52509797 3.129638 2894892
0.73123479 -0.47519538 3.1293898 2894892
0.7314021 -0.42466897 3.1303897 2894892
0.7313773 -0.3747558 3.130141 2894892
0.73135245 -0.32485723 3.1298926 2894892
0.73145521 -0.27493981 3.130475 2894892
0.73149383 -0.22566876 3.1306403 2894892
0.73146904 -0.17574081 3.1303918 2894892
0.73163623 -0.12516908 3.131393 2894892
0.73154819 -0.074591927 3.1307302 2894892
0.73165101 -0.024647828 3.1313126 2894892
0.73168963 0.024649557 3.1314778 2894892
0.73166466 0.074604258 3.1312287 2894892
-2.472559 0.11049811 3.1378598 10197915
-2.4238453 0.11047013 3.1370652 10197915
-2.3738418 0.11044141 3.1362491 10197915
-2.3238633 0.11041269 3.1354344 10197915
-2.2739115 0.110384 3.1346197 10197915
-2.2239854 0.11035532 3.1338046 10197915
-2.1740851 0.11032664 3.1329906 10197915
-2.1242108 0.11029801 3.1321771 10197915
-2.0743623 0.11026936 3.1313636 10197915
-2.0245395 0.11024072 3.1305504 10197915
-1.9747431 0.11021212 3.1297386 10197915
-1.9249719 0.11018353 3.1289268 10197915
-1.8752273 0.11015496 3.1281149 10197915
-1.8255079 0.1101264 3.1273036 10197915
-1.7758144 0.11009783 3.126493 10197915
-1.7248399 0.11006854 3.1256611 10197915
-1.6869528 0.1100468 3.1250432 10197915
-0.20554492 0.10919571 3.1008749 10000536
-0.17597145 0.10917871 3.1003921 10066329
0.73210764 0.10442549 3.1340606 3355443
0.73879731 -0.57154709 3.1787772 2894892
0.73883373 -0.52548051 3.1789336 2894892
0.7388733 -0.47546014 3.1791039 2894892
0.73891276 -0.42543441 3.1792738 2894892
0.73895234 -0.37540334 3.1794438 2894892
0.73899186 -0.32536691 3.1796141 2894892
0.73903143 -0.27532521 3.1797841 2894892
0.73907095 -0.22527808 3.1799541 2894892
0.73911047 -0.17522562 3.1801243 2894892
0.73915011 -0.12516779 3.1802945 2894892
0.73918957 -0.075104609 3.180465 2894892
0.73922914 -0.025036061 3.1806352 2894892
0.73926795 0.025037818 3.1808021 2894892
0.73930752 0.075117022 3.1809721 2894892
-1.9207598 0.11002277 3.1996472 10197915
-1.8752457 0.10999667 3.1988883 10197915
-1.8244015 0.10996749 3.1980395 10197915
-1.7749217 0.10993911 3.1972144 10197915
-1.7321484 0.10991456 3.1965008 10197915
-0.20757014 0.10903995 3.1710651 10000536
-0.17469753 0.1090211 3.1705167 10066329
-0.12475147 0.10899244 3.1696832 10197915
-0.07483165 0.1089638 3.1688507 10197915
-0.024938058 0.10893518 3.1680176 10197915
0.02492933 0.10890657 3.167186 10197915
0.074770547 0.10887799 3.1663551 10197915
0.12458558 0.1088494 3.1655235 10197915
0.17437446 0.10882084 3.1646929 10197915
0.22413726 0.10879228 3.1638627 10197915
0.2738739 0.10876375 3.163033 10197915
0.32489222 0.10873449 3.1621819 10197915
0.37588334 0.10870523 3.1613309 10197915
0.42554042 0.10867675 3.1605027 10197915
0.47517148 0.10864829 3.1596744 10197915
0.52477664 0.10861982 3.1588471 10197915
0.57435572 0.10859138 3.15802 10197915
0.62521243 0.10856219 3.1571712 10197915
0.67604208 0.10853303 3.1563237 10197915
0.72177887 0.10768475 3.1603985 8816262
0.74672711 -0.57066375 3.2303879 2894892
0.74660647 -0.52521861 3.229522 2894892
0.74671799 -0.47505254 3.2301614 2894892
-1.7735465 -0.4200992 3.2462521 6513507
-1.7445959 -0.42036831 3.2417781 6513507
0.74668652 -0.42488876 3.2298684 2894892
-1.7726176 -0.37529716 3.2462132 6513507
-1.7446585 -0.37471861 3.2418938 6513507
0.74679816 -0.37473369 3.2305079 2894892
-1.7729058 -0.32495216 3.2463748 6513507
-1.7447264 -0.32503739 3.2420201 6513507
0.74691004 -0.32455167 3.2311482 2894892
-1.77238 -0.27522653 3.2464092 6513507
-1.7447947 -0.27535227 3.2421465 6513507
0.74680614 -0.27506608 3.2303858 2894892
-1.7721492 -0.22501221 3.2464914 6513507
-1.7448642 -0.22432031 3.2422762 6513507
0.74691796 -0.22487332 3.2310264 2894892
-1.7713447 -0.17484716 3.2464845 6513507
-1.7449321 -0.17462736 3.2424023 6513507
0.74688625 -0.17468251 3.2307329 2894892
-1.7714137 -0.12508784 3.2466114 6513507
-1.7450005 -0.12493054 3.2425292 6513507
0.74706924 -0.12516633 3.2318368 2894892
-1.7714833 -0.075324558 3.2467363 6513507
-1.7440047 -0.073761038 3.2424946 6513507
0.74696523 -0.075644948 3.2310743 2894892
-1.770328 -0.025796194 3.2466733 6513507
-1.7436712 -0.025523517 3.2425559 6513507
0.74707705 -0.025438124 3.2317142 2894892
-1.770153 0.025557004 3.2467659 6513507
-1.7437415 0.025524879 3.2426853 6513507
0.74711752 0.025439959 3.2318895 2894892
-1.7702223 0.075328469 3.2468939 7303023
-1.7438096 0.075233817 3.2428117 7303023
0.74708587 0.075657576 3.231596 2894892
-2.5521543 0.11038499 3.2101812 10197915
-2.5252028 0.11036954 3.2097316 10197915
-2.4753602 0.11034093 3.2089002 10197915
-2.4255438 0.11031236 3.2080691 10197915
-2.374408 0.11028302 3.2072155 10197915
-2.3246436 0.11025448 3.2063856 10197915
-2.2749052 0.11022593 3.2055554 10197915
-2.2251921 0.11019742 3.2047265 10197915
-2.1755056 0.11016892 3.2038975 10197915
-2.1245022 0.11013965 3.2030466 10197915
-2.0748672 0.11011118 3.2022183 10197915
-2.0252583 0.11008272 3.2013907 10197915
-1.9743347 0.11005352 3.2005413 10197915
-1.9448639 0.11003661 3.2000496 10197915
-1.7702633 0.10492407 3.246968 10197915
-1.7438494 0.10479216 3.2428865 10197915
-0.20968921 0.10887699 3.2445068 10000536
-0.17470969 0.10885695 3.2439096 10000536
-0.12495232 0.10882846 3.2430604 10197915
-0.075220741 0.10879996 3.2422111 10197915
-0.025515441 0.10877149 3.2413628 10197915
0.025506303 0.10874226 3.2404919 10197915
0.075159147 0.10871383 3.2396441 10197915
0.12478579 0.1086854 3.2387967 10197915
0.17572679 0.10865621 3.2379274 10197915
0.2253011 0.10862781 3.2370813 10197915
0.27484924 0.10859942 3.2362359 10197915
0.32570973 0.1085703 3.2353673 10197915
0.37520573 0.10854195 3.2345228 10197915
0.42467558 0.10851362 3.2336779 10197915
0.47545567 0.10848453 3.2328112 10197915
0.5248735 0.10845622 3.2319679 10197915
0.57426524 0.10842793 3.2311249 10197915
0.62496525 0.10839888 3.2302597 10197915
0.67563814 0.10836985 3.2293942 10197915
0.72976553 0.10732396 3.2295108 8421504
-2.104851 -0.62011814 3.2969797 6513507
-2.0743334 -0.61948574 3.2922652 6513507
-2.0252519 -0.61973763 3.2846808 6513507
-1.9749016 -0.6196382 3.2769003 6513507
-1.924987 -0.6196472 3.2691877 6513507
-1.8737075 -0.61985397 3.2612638 6513507
-1.8209785 -0.61963332 3.265383 6513507
-2.1049254 -0.57506382 3.297096 6513507
-2.0749609 -0.57520294 3.2924662 6513507
-2.024596 -0.57487279 3.2846837 6513507
-1.9757318 -0.57507753 3.2771332 6513507
-1.9242771 -0.57499307 3.2691817 6513507
-1.8744211 -0.57495266 3.2614772 6513507
-1.8207697 -0.57506174 3.2653849 6513507
0.75471312 -0.57113403 3.2823622 2894892
-2.1050088 -0.52454448 3.2972269 6513507
-2.0744658 -0.52477121 3.2925069 6513507
-2.0249968 -0.52529907 3.2848613 6513507
-1.9751447 -0.52488309 3.2771587 6513507
-1.9250094 -0.525042 3.2694111 6513507
-1.8738158 -0.52499866 3.2615001 6513507
-1.8210119 -0.52488804 3.265352 6513507
0.75475043 -0.52492529 3.2825241 2894892
-2.1050901 -0.47538665 3.297354 6513507
-2.0748341 -0.47471309 3.2926795 6513507
-2.0251498 -0.47504786 3.2850025 6513507
-1.9755533 -0.47521663 3.2773383 6513507
-1.9244592 -0.47496432 3.2694423 6513507
-1.8745685 -0.47500196 3.2617328 6513507
-1.8207486 -0.4749558 3.2654564 6513507
0.75479096 -0.47463408 3.2827008 2894892
-2.1051733 -0.42485955 3.2974846 6513507
-2.0751178 -0.42537341 3.2928391 6513507
-2.0250771 -0.42471543 3.2851086 6513507
-1.9756309 -0.42499605 3.277467 6513507
-1.924922 -0.42525056 3.2696304 6513507
-1.8739624 -0.42504346 3.2617559 6513507
-1.8237919 -0.4257158 3.2561214 6513507
0.75483155 -0.42433754 3.2828774 2894892
-2.1052566 -0.37432843 3.2976155 6510166
-2.0747972 -0.37492755 3.2929065 6511194
-2.0254812 -0.37529638 3.2852859 6512993
-1.975708 -0.37477162 3.277596 6513507
-1.9248464 -0.37515163 3.2697351 6513507
-1.8747143 -0.37495601 3.2619901 6513507
-1.8239945 -0.37487069 3.2541523 6513507
-1.7975278 -0.37431651 3.2500646 6513507
0.75487113 -0.37539509 3.2830491 2894892
-2.1053379 -0.32515913 3.2977421 6504255
-2.0750766 -0.32469812 3.293067 6504255
-2.0250728 -0.32497036 3.2853398 6504512
-1.9760954 -0.32501015 3.2777715 6509395
-1.924996 -0.32512081 3.2698758 6513507
-1.8741089 -0.3249926 3.2620108 6513507
-1.8241422 -0.32491943 3.2542918 6513507
-1.7975982 -0.32451007 3.2501919 6513507
0.75491166 -0.32508785 3.2832253 2894892
-2.1054747 -0.27505964 3.2978799 6513507
-2.0751562 -0.27559486 3.2931933 6513507
-2.0253935 -0.27495134 3.285506 6513507
-1.9755456 -0.27480242 3.2778034 6513507
-1.9250708 -0.27500877 3.2700036 6513507
-1.8748612 -0.2749736 3.2622449 6513507
-1.8242137 -0.27504626 3.2544196 6513507
-1.7976687 -0.27469975 3.2503188 6513507
0.75495237 -0.27477524 3.2834024 2894892
-2.1054497 -0.22454822 3.2979946 6513507
-2.0752394 -0.22512354 3.2933254 6513507
-2.0257142 -0.22492671 3.2856731 6513507
-1.97594 -0.22543253 3.2779808 6513507
-1.9251469 -0.22489288 3.2701325 6513507
-1.8742565 -0.22500576 3.2622681 6513507
-1.8242866 -0.22516918 3.2545464 6513507
-1.7968719 -0.22048856 3.2503219 6513507
0.75499177 -0.22581714 3.2835748 2894892
-2.1055865 -0.17489606 3.2981322 4805985
-2.0753222 -0.17464811 3.2934558 4410452
-2.0245495 -0.17420964 3.2856119 4342338
-1.9753304 -0.17557637 3.2780023 5658198
-1.9252236 -0.17477295 3.2702622 6513507
-1.874999 -0.1748967 3.2625017 6513507
-1.824357 -0.17528829 3.2546742 6513507
-1.7963361 -0.1750551 3.2503448 6513507
0.75503236 -0.17549378 3.283751 2894892
-2.1056681 -0.12571134 3.2982593 2379383
-2.0754013 -0.12553303 3.2935829 4413807
-2.0241287 -0.12523113 3.28566 6513507
-1.9745979 -0.12493946 3.278007 6513507
-1.9252986 -0.12464914 3.27039 6513507
-1.8744118 -0.12492338 3.2625277 6513507
-1.8244287 -0.12540339 3.2548003 6513507
-1.7964061 -0.12523657 3.2504721 6513507
0.75507295 -0.12516505 3.2839277 2894892
-2.1057513 -0.07515642 3.2983897 1853042
-2.0754826 -0.075049877 3.2937133 3756651
-2.0242083 -0.074869297 3.2857904 6513507
-1.9746757 -0.074694909 3.2781358 6513507
-1.925374 -0.074521318 3.2705183 6513507
-1.8751457 -0.074883096 3.2627563 6513507
-1.8244998 -0.075514629 3.2549298 6513507
-1.7964766 -0.075414158 3.2505991 6513507
0.75511378 -0.074830838 3.2841043 2894892
-2.1058347 -0.024597514 3.2985213 1721198
-2.0755668 -0.02456264 3.2938435 3362665
-2.0242879 -0.024503561 3.2859192 6513507
-1.9747535 -0.024446467 3.2782652 6513507
-1.9254497 -0.024389662 3.270648 6513507
-1.8745593 -0.024904978 3.2627816 6513507
-1.8245715 -0.025621913 3.2550564 6513507
-1.7952406 -0.024389425 3.2505269 6513507
0.75515389 -0.024491273 3.2842796 2894892
-2.105916 0.024598779 3.2986479 3626101
-2.0756459 0.024563896 3.2939703 4676723
-2.0243659 0.024504811 3.286046 8026746
-1.974829 0.02444772 3.2783916 7237230
-1.9255232 0.024390893 3.270772 6513507
-1.8746499 0.024825843 3.2629108 6513507
-1.8246454 0.025623292 3.2551863 6513507
-1.7951467 0.025587404 3.2506287 6513507
0.755193 0.024492957 3.2844493 2894892
-2.1059997 0.075165607 3.2987783 10197915
-2.0757279 0.075058997 3.294101 10197915
-2.0244458 0.074878462 3.2861755 10197915
-1.9749066 0.074704006 3.2785203 8684676
-1.9255987 0.0745304 3.2709012 7368816
-1.8753458 0.074813686 3.2631366 7303023
-1.8247156 0.075523891 3.2553139 7368816
-1.7952166 0.0754181 3.2507555 7368816
0.75523359 0.074843206 3.2846265 2894892
-2.6065261 0.11024994 3.2854202 10197915
-2.5747974 0.11023174 3.2848783 10197915
-2.5251534 0.11020331 3.2840316 10197915
-2.4755354 0.11017489 3.2831838 10197915
-2.4259436 0.11014649 3.2823381 10197915
-2.3750005 0.11011729 3.2814677 10197915
-2.3240843 0.11008814 3.2805986 10197915
-2.2745697 0.11005978 3.2797534 10197915
-2.2250812 0.11003144 3.2789087 10197915
-2.1756182 0.11000309 3.278064 10197915
-2.1187778 0.10845046 3.2841589 10197915
-2.0753191 0.10635269 3.2895222 10197915
-2.0245309 0.10615844 3.2834451 10197915
-1.9750413 0.10603342 3.277519 10197915
-1.9256412 0.10569975 3.2709725 10197915
-1.8750821 0.10544752 3.2631669 10197915
-1.8247582 0.10519622 3.2553899 10197915
-1.7952586 0.10504889 3.2508314 10197915
0.75525779 0.10478351 3.2847311 4079166
-1.8035808 -0.62027198 3.3214865 6513507
-1.7996016 -0.61778075 3.3472116 6513507
-1.803614 -0.575068 3.320828 6513507
-1.7996368 -0.57469821 3.3465624 6513507
0.76025093 -0.57053179 3.3184054 2894892
-1.8035638 -0.5251475 3.3206615 6513507
-1.7995692 -0.52406597 3.3465064 6513507
0.76028782 -0.52518952 3.3185663 2894892
-1.8035544 -0.47584099 3.3202481 6513507
-1.7995142 -0.47691312 3.3464034 6513507
0.76032805 -0.47572035 3.3187418 2894892
-1.8057768 -0.44836321 3.3055949 6513507
0.76036936 -0.42487159 3.3189225 2894892
0.76041073 -0.3740173 3.3191028 2894892
0.76045102 -0.32453215 3.3192785 2894892
0.76049119 -0.27504179 3.319454 2894892
0.76053137 -0.2255462 3.3196297 2894892
0.76057172 -0.1760453 3.3198054 2894892
0.76061308 -0.12516393 3.3199859 2894892
0.76065439 -0.074277073 3.3201668 2894892
0.7606948 -0.024760194 3.3203433 2894892
0.76073527 0.024761941 3.3205194 2894892
0.76077557 0.074289329 3.3206952 2894892
-0.21328628 0.10870707 3.3214545 10000536
-0.1760996 0.10868581 3.3208046 10000536
-0.12516268 0.10865668 3.3199141 10132122
-0.074252814 0.10862756 3.319025 10197915
-0.024745204 0.10859924 3.3181598 10197915
0.024736615 0.10857095 3.3172956 10197915
0.074192651 0.10854266 3.316431 10197915
0.12499549 0.10851359 3.3155434 10197915
0.1757714 0.10848456 3.314656 10197915
0.22514875 0.10845633 3.3137929 10197915
0.27450046 0.1084281 3.3129308 10197915
0.32519615 0.10839912 3.3120449 10197915
0.37586498 0.10837014 3.3111601 10197915
0.42513821 0.10834196 3.3102987 10197915
0.47438589 0.10831378 3.309438 10197915
0.5249747 0.10828486 3.3085539 10197915
0.57553697 0.10825595 3.3076706 10197915
0.62470627 0.10822782 3.3068113 10197915
0.67521495 0.10819894 3.3059289 10197915
0.7256968 0.10817005 3.3050466 10197915
0.75756836 0.10566809 3.3126719 6513507
0.7688058 -0.571702 3.3740845 2894892
0.76884377 -0.52559894 3.3742516 2894892
0.76888508 -0.47529972 3.3744323 2894892
0.7689265 -0.42499512 3.3746142 2894892
0.76896793 -0.37468505 3.3747957 2894892
0.76892596 -0.32508039 3.3744364 2894892
0.76904941 -0.27545434 3.3751543 2894892
0.76909089 -0.2251281 3.3753352 2894892
0.7691322 -0.17479652 3.3755171 2894892
0.76909029 -0.1251626 3.3751578 2894892
0.76921391 -0.075523354 3.3758755 2894892
0.76925445 -0.025175633 3.3760538 2894892
0.76929557 0.02517743 3.3762345 2894892
0.76933724 0.075535923 3.3764164 2894892
-2.6635082 0.11010838 3.3642704 10197915
-2.6253564 0.11008657 3.3636038 10197915
-2.5745101 0.11005749 3.3627157 10197915
-2.5251021 0.11002923 3.3618522 10197915
-2.4757195 0.11000099 3.3609891 10197915
-2.4249523 0.10997194 3.3601015 10197915
-2.3742118 0.10994294 3.3592153 10197915
-2.3249063 0.10991472 3.3583536 10197915
-2.2756264 0.10988655 3.3574924 10197915
-2.2249646 0.10985759 3.3566072 10197915
-2.1743298 0.10982862 3.3557227 10197915
-2.1476152 0.10981333 3.3552554 10197915
-0.074646756 0.1084476 3.3995926 10197915
-0.025345931 0.10841945 3.39871 10197915
0.025336917 0.10839052 3.3978028 10197915
0.075992726 0.10836159 3.3968956 10197915
0.1252156 0.10833348 3.3960149 10197915
0.17441276 0.1083054 3.3951347 10197915
0.22498901 0.10827652 3.3942289 10197915
0.27553836 0.10824767 3.3933249 10197915
0.32606068 0.1082188 3.3924196 10197915
0.37515405 0.10819078 3.3915417 10197915
0.42422169 0.10816275 3.3906629 10197915
0.47466484 0.10813396 3.38976 10197915
0.52508122 0.10810518 3.3888581 10197915
0.57547057 0.1080764 3.3879559 10197915
0.62583333 0.10804765 3.3870552 10197915
0.67616922 0.10801891 3.3861537 10197915
0.72508126 0.10799098 3.3852782 10197915
0.76337981 0.10653376 3.3800752 7631988
0.77762043 -0.57006532 3.4314523 2894892
0.77765822 -0.52459925 3.4316192 2894892
0.77769953 -0.4748657 3.4318016 2894892
0.77774096 -0.42512691 3.4319837 2894892
0.77778232 -0.37538284 3.4321666 2894892
0.77782488 -0.32421196 3.4323545 2894892
0.77786636 -0.27445719 3.4325368 2894892
0.77790761 -0.22469705 3.4327195 2894892
0.77794904 -0.17493166 3.4329021 2894892
0.7779904 -0.12516095 3.4330852 2894892
0.77803189 -0.075384967 3.4332678 2894892
0.77807355 -0.025603652 3.4334517 2894892
0.77811623 0.02560552 3.4336398 2894892
0.77815759 0.075397559 3.4338224 2894892
-2.7203958 0.10995822 3.4469466 10197915
-2.6740553 0.10993177 3.4461172 10197915
-2.6248431 0.10990367 3.4452364 10197915
-2.5756557 0.10987557 3.4443567 10197915
-2.5250485 0.10984668 3.4434502 10197915
-2.4744668 0.1098178 3.4425454 10197915
-2.4253569 0.10978977 3.4416664 10197915
-2.3748281 0.10976092 3.4407618 10197915
-2.324326 0.10973208 3.4398577 10197915
-2.2752924 0.10970409 3.4389803 10197915
-2.2248425 0.10967528 3.438077 10197915
-0.21564721 0.10852811 3.4021158 8553090
