# .PCD v0.7 - Point Cloud Data file format
VERSION 0.7
FIELDS x y z rgb
SIZE 4 4 4 4
TYPE F F F U
COUNT 1 1 1 1
WIDTH 1162
HEIGHT 1
VIEWPOINT 0 0 0 1 0 0 0
POINTS 1162
DATA ascii
0.81991708 -0.024585072 2.9671996 2894892
-0.24900004 0.024531737 2.9607453 993862
0.82000279 0.024588501 2.967509 2894892
-0.24898174 0.07481686 2.9605274 1388105
0.82005417 0.074596249 2.9675505 2894892
-0.45573193 0.10686971 2.9650569 2039583
-0.42487359 0.10683177 2.964004 6710886
-0.37554228 0.10677116 2.9623222 10000536
-0.33611596 0.10672269 2.9609776 10000536
-0.22756737 0.10626266 2.957495 10132122
-0.17509505 0.10652481 2.9554875 10197915
-0.12482101 0.10646302 2.9537733 10197915
-0.074605748 0.10640129 2.9520605 10197915
-0.03178348 0.10634867 2.9506004 10197915
0.38772169 0.10562946 2.999603 10197915
0.4248178 0.10558395 2.9983103 10197915
0.47423187 0.10552335 2.9965892 10197915
0.52482235 0.10546128 2.9948268 10197915
0.5753538 0.10539929 2.9930665 10197915
0.62459528 0.10533891 2.9913514 10197915
0.67500907 0.10527706 2.9895954 10197915
0.72536427 0.10521529 2.9878414 10197915
0.77443397 0.1051551 2.9861321 10197915
0.81455278 0.10411721 2.9785323 6513507
0.82685286 -0.57253146 3.0240138 2894892
0.82693642 -0.52497774 3.0243204 2894892
0.82702494 -0.47491074 3.0246427 2894892
0.82711285 -0.42483312 3.0249648 2894892
0.82720107 -0.37474471 3.0252881 2894892
0.82728946 -0.32464573 3.0256104 2894892
0.82737696 -0.27453583 3.0259309 2894892
0.82654047 -0.2227248 3.0191803 2894892
0.8264091 -0.17503525 3.0178406 2894892
0.82649702 -0.12503837 3.0181618 2894892
0.82658511 -0.075030841 3.0184827 2894892
0.82667285 -0.02501265 3.0188034 2894892
0.82676089 0.025016192 3.0191252 2894892
0.82684892 0.075055689 3.0194461 2894892
-0.46056393 0.10667 3.0291514 2039583
-0.42399421 0.10662515 3.027878 8289918
-0.37485978 0.10656489 3.0261657 10000536
-0.3396166 0.10652166 3.0249386 10000536
-0.25163719 0.10641374 3.0218742 10000536
-0.22528067 0.1063814 3.0209558 10132122
-0.17511748 0.10631987 3.0192084 10197915
-0.12501231 0.10625841 3.0174632 10197915
-0.074964993 0.10619702 3.0157199 10197915
-0.024975501 0.10613569 3.0139785 10197915
0.024956301 0.10607444 3.012239 10197915
0.07483051 0.10601328 3.0105014 10197915
0.12464722 0.10595217 3.0087667 10197915
0.17440651 0.10589112 3.0070329 10197915
0.22410855 0.10583016 3.005302 10197915
0.27499351 0.10576774 3.0035291 10197915
0.32581893 0.1057054 3.0017591 10197915
0.36297196 0.10565983 3.0004649 10197915
0.82736295 0.10290917 3.0239551 3158064
0.83274317 -0.57250059 3.0690045 2894892
0.83278269 -0.52508885 3.0689747 2894892
0.83283097 -0.47514197 3.0689924 2894892
0.83296055 -0.42474091 3.0696294 2894892
0.83300829 -0.37475389 3.069644 2894892
0.83317709 -0.32519877 3.0705862 2894892
0.83318508 -0.27519417 3.0702975 2894892
0.83331394 -0.22518285 3.0709326 2894892
0.83336234 -0.17515901 3.0709507 2894892
0.83353144 -0.12512648 3.0718915 2894892
0.83353859 -0.07551489 3.0715976 2894892
0.83366805 -0.025455359 3.0722375 2894892
0.83375823 0.025459029 3.0725696 2894892
0.83380628 0.075539991 3.0725856 2894892
-0.4656097 0.10646149 3.0960793 2039583
-0.42436424 0.106411 3.0946109 9868950
-0.37543449 0.1063511 3.0928688 10000536
-0.34327182 0.10631172 3.0917237 10000536
-0.25463191 0.10620323 3.0885687 10000536
-0.22512791 0.10616708 3.0875175 10066329
-0.17514093 0.1061059 3.0857384 10197915
-0.125212 0.10604478 3.0839603 10197915
-0.075340092 0.10598372 3.082185 10197915
-0.025526058 0.10592274 3.0804117 10197915
0.025505995 0.10586028 3.0785947 10197915
0.075204581 0.10579942 3.0768254 10197915
0.12484555 0.10573865 3.075058 10197915
0.17570044 0.10567641 3.0732477 10197915
0.2252266 0.10561578 3.0714846 10197915
0.27469543 0.10555521 3.0697234 10197915
0.32537407 0.10549319 3.067919 10197915
0.37472868 0.10543276 3.0661623 10197915
0.42402625 0.10537241 3.0644066 10197915
0.47452956 0.10531057 3.062609 10197915
0.52497369 0.10524883 3.060813 10197915
0.57535857 0.10518716 3.0590191 10197915
0.6256845 0.10512556 3.0572274 10197915
0.67595148 0.105064 3.055438 10197915
0.72615969 0.10500254 3.0536504 10197915
0.77505636 0.10494268 3.0519094 10197915
0.8199091 0.10410952 3.0582223 7566195
0.83998424 -0.57246292 3.1243138 2894892
0.83998132 -0.52463543 3.1239557 2894892
0.84011203 -0.47506613 3.1246083 2894892
0.84015983 -0.42504653 3.1246223 2894892
0.84033442 -0.37461945 3.1256008 2894892
0.84038049 -0.32500941 3.1256063 2894892
0.84042656 -0.27540433 3.1256118 2894892
0.84055823 -0.22535485 3.1262665 2894892
0.84060556 -0.17529276 3.1262777 2894892
0.84078008 -0.12522198 3.1272581 2894892
0.84078592 -0.074716382 3.1269505 2894892
0.84091735 -0.024618415 3.1276028 2894892
0.84100556 0.024621844 3.1279311 2894892
0.84105361 0.074741066 3.1279452 2894892
-0.015658313 0.10568728 3.1494544 10197915
0.024776898 0.10563789 3.1479826 10197915
0.074292853 0.10557739 3.1461799 10197915
0.12505268 0.10551538 3.1443317 10197915
0.17575343 0.10545345 3.1424863 10197915
0.22509663 0.10539317 3.1406898 10197915
0.27438352 0.10533295 3.138896 10197915
0.32490867 0.10527124 3.1370566 10197915
0.37537512 0.1052096 3.1352189 10197915
0.42449042 0.1051496 3.1334312 10197915
0.47483984 0.10508808 3.1315982 10197915
0.52513093 0.10502665 3.1297677 10197915
0.57536262 0.10496528 3.127939 10197915
0.62553632 0.104904 3.1261125 10197915
0.67436683 0.10484435 3.1243351 10197915
0.72442448 0.10478318 3.1225126 10197915
0.7744242 0.1047221 3.1206923 10197915
0.82446086 0.10412381 3.1212993 7895160
0.84616637 -0.57286876 3.1715357 2894892
0.84625167 -0.52562016 3.171854 2894892
0.84634161 -0.47573626 3.1721916 2894892
0.84643131 -0.42584193 3.1725292 2894892
0.8465212 -0.37593693 3.1728654 2894892
0.84657955 -0.32535768 3.1729577 2894892
0.84670275 -0.2747848 3.1735463 2894892
0.8467927 -0.22484776 3.1738834 2894892
0.84688276 -0.17490008 3.1742208 2894892
0.84697282 -0.12494179 3.1745577 2894892
0.84706289 -0.074972875 3.1748955 2894892
0.84715289 -0.024993321 3.1752331 2894892
0.84724307 0.024996862 3.1755705 2894892
0.84733319 0.074997671 3.1759083 2894892
-0.4722017 0.10624499 3.1660743 3355443
-0.42606792 0.10618865 3.1643944 10000536
-0.37603447 0.10612752 3.1625731 10000536
-0.3470917 0.10609218 3.16152 10000536
-0.25776139 0.10598304 3.1582677 10000536
-0.22496796 0.10594298 3.1570737 10066329
-0.17385559 0.10588054 3.1552129 10197915
-0.12411198 0.10581976 3.1534021 10197915
-0.074425414 0.10575907 3.1515934 10197915
-0.040460121 0.10571756 3.1503568 10197915
0.58722067 0.1047189 3.1995995 10197915
0.62406653 0.10467399 3.1982274 10197915
0.67402375 0.1046131 3.1963665 10197915
0.72392279 0.10455227 3.1945078 10197915
0.77507454 0.10448994 3.1926033 10197915
0.82895225 0.10410281 3.1880851 8487297
0.84997618 -0.58344686 3.2007103 2894892
0.85316402 -0.57031679 3.2249668 2894892
0.85273468 -0.5248552 3.221369 2894892
0.85273039 -0.47554785 3.2209897 2894892
0.85286826 -0.42576078 3.221694 2894892
0.85295999 -0.37508228 3.2220418 2894892
0.8530038 -0.32483596 3.2220266 2894892
0.85314131 -0.27503213 3.2227256 2894892
0.85323226 -0.22476597 3.2230697 2894892
0.85332245 -0.17493421 3.2234101 2894892
0.85341334 -0.12509172 3.2237527 2894892
0.85345662 -0.075249158 3.2237322 2894892
0.8535943 -0.02538061 3.224437 2894892
0.85368651 0.025384262 3.2247853 2894892
0.85372955 0.075274117 3.2247648 2894892
-0.50204337 0.1060466 3.2401659 2039583
-0.47505105 0.1060137 3.2391613 5000268
-0.42515528 0.1059529 3.2373033 10000536
-0.37531617 0.10589214 3.2354465 10000536
-0.25969329 0.10575122 3.2311411 7436416
-0.22480045 0.10570867 3.2298415 10066329
-0.17519128 0.10564822 3.2279935 10197915
-0.12430014 0.10558618 3.2260983 10197915
-0.074805357 0.10552585 3.2242546 10197915
-0.025367614 0.1054656 3.2224135 10197915
0.025347805 0.10540377 3.220525 10197915
0.076003812 0.10534202 3.2186387 10197915
0.12527001 0.10528198 3.2168036 10197915
0.17447959 0.105222 3.2149706 10197915
0.22496106 0.10516047 3.2130907 10197915
0.27538353 0.105099 3.2112129 10197915
0.3257471 0.10503762 3.2093372 10197915
0.3760519 0.1049763 3.2074637 10197915
0.42497665 0.10491665 3.2056417 10197915
0.47384542 0.10485709 3.2038219 10197915
0.52397752 0.10479599 3.2019548 10197915
0.56219864 0.1047494 3.200531 10197915
0.85434741 0.10194287 3.2292964 2894892
0.85922366 -0.5732615 3.2712727 2894892
0.85927522 -0.52521628 3.2713294 2894892
0.85943973 -0.47509277 3.2722347 2894892
0.85945851 -0.42501676 3.2720273 2894892
0.8595503 -0.37486863 3.2723768 2894892
0.85971445 -0.3247605 3.2732801 2894892
0.85973328 -0.27460474 3.2730734 2894892
0.85989797 -0.22445838 3.2739794 2894892
0.85991687 -0.1742983 3.273772 2894892
0.86004388 -0.1248015 3.2743952 2894892
0.86013573 -0.074617356 3.274745 2894892
0.86022747 -0.024422564 3.275094 2894892
0.86031699 0.024425946 3.2754345 2894892
0.8604089 0.074641988 3.2757843 2894892
-0.057414796 0.10525999 3.2996676 10197915
-0.024599228 0.10522008 3.2984166 10197915
0.024580603 0.10516028 3.2965419 10197915
0.075068057 0.10509888 3.2946177 10197915
0.12549712 0.10503755 3.2926948 10197915
0.17450649 0.10497795 3.2908258 10197915
0.22481911 0.10491677 3.2889082 10197915
0.27507359 0.10485567 3.2869933 10197915
0.32526901 0.10479462 3.2850792 10197915
0.37540662 0.10473365 3.2831678 10197915
0.42548531 0.10467275 3.2812591 10197915
0.47550642 0.10461192 3.2793522 10197915
0.52546889 0.10455115 3.2774475 10197915
0.57537383 0.10449047 3.2755451 10197915
0.62522036 0.10442986 3.2736449 10197915
0.67500955 0.10436931 3.2717466 10197915
0.72474062 0.10430883 3.269851 10197915
0.77575606 0.1042468 3.2679064 10197915
0.82537091 0.10418646 3.2660146 10197915
0.85671711 0.10336364 3.2685852 5921370
0.86607438 -0.57278275 3.323596 2894892
0.86616206 -0.52510285 3.3239315 2894892
0.86620551 -0.47467563 3.3239079 2894892
0.86634821 -0.42421505 3.3246458 2894892
0.8664391 -0.37466943 3.324995 2894892
0.86653024 -0.3251133 3.3253434 2894892
0.86657208 -0.2750923 3.3253126 2894892
0.86671484 -0.22505781 3.3260517 2894892
0.86680681 -0.17501114 3.3264039 2894892
0.86689943 -0.12495386 3.3267605 2894892
0.86694133 -0.074896798 3.3267291 2894892
0.86708403 -0.024813119 3.3274689 2894892
0.86717552 0.024816606 3.3278203 2894892
0.86726707 0.074456796 3.3281724 2894892
-0.50843048 0.10580846 3.3168612 2039583
-0.47527218 0.10576815 3.3155968 6776679
-0.42557883 0.10570771 3.3137026 10000536
-0.38007575 0.10565238 3.3119681 10000536
-0.26309088 0.10551012 3.3075085 6647416
-0.22462551 0.10546333 3.306042 10000536
-0.17521814 0.10540326 3.3041587 10132122
-0.12586699 0.10534324 3.3022776 10197915
-0.083414041 0.1052916 3.3006587 10197915
0.69807714 0.10408705 3.3499091 10197915
0.72422242 0.10405529 3.3488874 10197915
0.77509612 0.10399357 3.3469014 10197915
0.82590991 0.10393193 3.3449171 10197915
0.86293966 0.10294872 3.3354626 6513507
0.87308699 -0.57299507 3.3771608 2894892
0.87322015 -0.52476943 3.3778398 2894892
0.8733139 -0.47444195 3.3782015 2894892
-0.11124014 -0.42242602 3.3988116 6513507
-0.07594157 -0.42185181 3.3941917 6513507
-0.03363936 -0.42233777 3.3886523 6513507
0.87340742 -0.42410368 3.3785639 2894892
-0.10983096 -0.37454852 3.3987901 6513507
-0.076232485 -0.37443826 3.3943927 6513507
-0.033515062 -0.37521711 3.3887961 6513507
0.87345803 -0.3744413 3.3786058 2894892
-0.10990509 -0.32503662 3.3989675 6513507
-0.075654238 -0.32526028 3.3944838 6513507
-0.033700045 -0.32573169 3.388988 6513507
0.87359113 -0.32479799 3.3792753 2894892
-0.10870107 -0.27658874 3.3989739 6513507
-0.075952739 -0.2756502 3.3946896 6513507
-0.033701751 -0.27520111 3.389158 6513507
0.87372452 -0.2751306 3.379946 2894892
-0.1084329 -0.22531372 3.3991127 6513507
-0.075956561 -0.22503179 3.3948586 6513507
-0.033703461 -0.22466518 3.3893313 6513507
0.87377602 -0.22544159 3.3799894 2894892
-0.10756791 -0.17592107 3.3991668 6513507
-0.075960383 -0.17440851 3.3950326 6513507
-0.033705153 -0.17412433 3.3895001 6513507
0.87386966 -0.17504993 3.3803511 2894892
-0.1070909 -0.12496929 3.399277 6513507
-0.075964145 -0.12518644 3.3952007 6513507
-0.033706818 -0.12498239 3.3896687 6513507
0.87392092 -0.12535827 3.3803959 2894892
-0.10642835 -0.077457145 3.3993518 6513507
-0.075967886 -0.075959422 3.39537 6513507
-0.033708472 -0.075835697 3.3898342 6513507
0.87405443 -0.075639278 3.3810663 2894892
-0.10562571 -0.025349911 3.3994231 6513507
-0.07597173 -0.025320966 3.3955395 6513507
-0.033710185 -0.025279697 3.3900073 6513507
0.87414831 -0.025215494 3.3814294 2894892
-0.10527731 0.023238368 3.3995419 6513507
-0.075975597 0.025322666 3.3957143 6513507
-0.033711892 0.025281414 3.3901803 6513507
0.87424207 0.0252191 3.3817928 2894892
-0.10418168 0.075369872 3.3995755 6842472
-0.075979471 0.075971417 3.3958864 6908265
-0.033713602 0.075847641 3.3903501 6908265
0.87433589 0.075664513 3.3821554 2894892
-0.51512754 0.10555878 3.3972747 2039583
-0.47550404 0.1055107 3.3957279 8553090
-0.42461026 0.10544895 3.3937404 10000536
-0.38365424 0.10539927 3.3921411 10000536
-0.266653 0.10525734 3.3875735 7173245
-0.22444218 0.10520614 3.3859255 10000536
-0.17524625 0.10514646 3.3840046 10132122
-0.12304803 0.10462861 3.3846068 10197915
-0.075801201 0.10386509 3.3880453 10197915
-0.02860214 0.10399354 3.3830643 10197915
0.025174364 0.10490332 3.3761802 10197915
0.075484008 0.10484229 3.3742158 10197915
0.12573516 0.10478134 3.3722537 10197915
0.17592792 0.10472044 3.3702939 10197915
0.22606236 0.10465962 3.3683367 10197915
0.2761386 0.10459887 3.3663814 10197915
0.32615674 0.10453819 3.3644288 10197915
0.3761169 0.1044776 3.362478 10197915
0.42601916 0.10441707 3.3605299 10197915
0.47586358 0.10435659 3.3585835 10197915
0.52565038 0.10429618 3.3566401 10197915
0.57537949 0.10423587 3.3546982 10197915
0.62505126 0.1041756 3.3527594 10197915
0.67328835 0.10411709 3.3508759 10197915
0.87438524 0.1022924 3.3823466 2894892
0.87899333 -0.57343143 3.4222755 2894892
0.87899661 -0.5253033 3.4219644 2894892
0.87913281 -0.47501272 3.4226518 2894892
-0.20787008 -0.42199776 3.4114642 6513507
-0.17481554 -0.42323712 3.4071326 6513507
-0.13530417 -0.42281741 3.4019604 6513507
-0.012759279 -0.42284808 3.4251325 4342338
0.8791849 -0.42470321 3.4226973 2894892
-0.20767166 -0.37541354 3.4115958 6513507
-0.17504843 -0.375489 3.4073253 6513507
-0.13389444 -0.37489554 3.4019396 6513507
-0.012810232 -0.37503472 3.4244075 4342338
0.87936121 -0.37514305 3.4236987 2894892
-0.2077792 -0.32509556 3.4117811 6513507
-0.17505732 -0.32468748 3.4074974 6513507
-0.13390124 -0.32417428 3.4021111 6513507
-0.012756579 -0.32488027 3.4244661 4079166
0.87941319 -0.32481205 3.4237435 2894892
-0.20778988 -0.274225 3.4119554 6513507
-0.17536324 -0.27488649 3.4077077 6513507
-0.13272418 -0.2745502 3.4021258 6513507
-0.012755743 -0.27519795 3.424124 3881787
0.87946534 -0.27448454 3.4237883 2894892
-0.47411916 -0.22277538 3.4469967 6513507
-0.42477 -0.22235826 3.4405389 6513507
-0.38570416 -0.2220277 3.4354246 6513507
-0.26779076 -0.22244674 3.4199858 5133661
-0.22438702 -0.22369741 3.4142983 6513507
-0.17478506 -0.22551297 3.4077995 6513507
-0.13249825 -0.22552243 3.4022624 6513507
-0.012754051 -0.22552557 3.4237874 3881787
0.87964237 -0.22486487 3.4247937 2894892
-0.47353989 -0.17564359 3.4470813 6513507
-0.42478994 -0.17532904 3.440701 6513507
-0.38572255 -0.17506844 3.4355855 6513507
-0.26780331 -0.17569856 3.4201465 5002332
-0.22492884 -0.17541024 3.4145336 6513507
-0.17508347 -0.17507502 3.4080083 6513507
-0.13153613 -0.17433755 3.4023089 6513507
-0.012805132 -0.17539042 3.4230456 3947580
0.87965113 -0.17523117 3.4245114 2894892
-0.47246984 -0.12530702 3.4471126 6513507
-0.42481104 -0.12544489 3.440872 6513507
-0.38574162 -0.12525842 3.4357574 6513507
-0.26781702 -0.12469559 3.4203205 4870747
-0.2249404 -0.12449098 3.4147072 6513507
-0.17509244 -0.12425305 3.4081838 6513507
-0.13109553 -0.12404308 3.4024227 6513507
-0.012751703 -0.12479755 3.4230988 3750201
0.87978733 -0.12487324 3.4252 2894892
-0.47237587 -0.075681157 3.4472682 6513507
-0.42483231 -0.075555749 3.4410443 6513507
-0.38576099 -0.075443394 3.4359291 6513507
-0.26783028 -0.07510446 3.42049 4805211
-0.22495157 -0.074981131 3.4148772 6513507
-0.17510107 -0.074837893 3.4083514 6513507
-0.13040949 -0.074266568 3.4025021 6513507
-0.012750444 -0.075154848 3.422761 3552822
0.87988043 -0.075215563 3.4255619 2894892
-0.47106829 -0.025314882 3.4472682 6513507
-0.42485356 -0.025661564 3.4412141 6513507
-0.3857801 -0.025623413 3.4361007 6513507
-0.26784354 -0.025508281 3.4206603 4871003
-0.22496267 -0.025466412 3.4150469 6513507
-0.17510982 -0.025417745 3.4085181 6513507
-0.12969241 -0.025373412 3.4025743 6513507
-0.012749181 -0.025522068 3.4224224 3552822
0.87997329 -0.025547288 3.4259238 2894892
-0.47082558 0.024981905 3.4474068 6513507
-0.42487553 0.025663326 3.4413915 6513507
-0.38579991 0.025625177 3.4362772 6513507
-0.26785725 0.025510015 3.4208355 4870746
-0.22497419 0.025468145 3.4152215 6513507
-0.17511873 0.025419483 3.4086945 6513507
-0.12920508 0.025767744 3.402683 6513507
-0.012747888 0.025518613 3.4220753 3552822
0.8800689 0.025550989 3.4262967 2894892
-0.47012797 0.075240299 3.447485 6974058
-0.42489648 0.075567558 3.4415646 6908265
-0.38581917 0.075455204 3.4364481 6908265
-0.2678706 0.07511612 3.421005 5067869
-0.22498538 0.074992806 3.4153907 6842472
-0.17512743 0.074849479 3.4088616 6776679
-0.12828931 0.07471478 3.4027293 6776679
-0.012746629 0.075131588 3.4217367 3881787
0.88016194 0.075240456 3.4266586 2894892
-0.46990821 0.10283608 3.4475503 10000536
-0.42490828 0.10266033 3.4416585 10066329
-0.38582963 0.1025077 3.4365416 10066329
-0.26787779 0.10204703 3.4210978 7370880
-0.22499137 0.10187954 3.4154813 10066329
-0.17513213 0.10168479 3.4089537 10132122
-0.12829281 0.10150186 3.4028203 10197915
-0.012745947 0.10206059 3.4215527 10197915
0.28437978 0.10432057 3.4494095 10197915
0.32566461 0.10427062 3.4477575 10197915
0.37544063 0.1042104 3.4457657 10197915
0.42515868 0.10415024 3.4437766 10197915
0.47481987 0.10409015 3.4417896 10197915
0.5244233 0.10403012 3.439805 10197915
0.57538456 0.10396846 3.4377661 10197915
0.62487268 0.10390859 3.4357865 10197915
0.67430317 0.10384876 3.4338086 10197915
0.72508693 0.10378732 3.4317763 10197915
0.77581072 0.10372594 3.4297473 10197915
0.82506818 0.10366634 3.4277766 10197915
0.86770993 0.10319294 3.4255354 8092539
0.8849228 -0.57318658 3.4675653 2894892
0.88505673 -0.5251013 3.468251 2894892
0.88506496 -0.47489482 3.4679608 2894892
-0.0057600462 -0.42224908 3.4785872 2105376
0.88520151 -0.42535362 3.4686568 2894892
-0.0057595009 -0.37465602 3.4782581 2039583
0.88529539 -0.37509757 3.4690249 2894892
-0.0057995808 -0.32490316 3.477603 2039583
0.88539004 -0.32483116 3.4693961 2894892
-0.0057177027 -0.27445799 3.477875 2039583
0.88544017 -0.27526906 3.4694312 2894892
-0.51897234 -0.22251756 3.4528711 2039583
-0.49885765 -0.2229849 3.4502358 4276545
-0.0057577835 -0.22472495 3.4772198 2039583
0.88562149 -0.22498786 3.470464 2894892
-0.51930064 -0.17452917 3.4530766 2039583
-0.49777853 -0.17059234 3.4502723 5066061
-0.0057978504 -0.17501508 3.4765644 2039583
0.88562965 -0.17469239 3.4701746 2894892
-0.51932675 -0.12446549 3.453249 2039583
-0.49744987 -0.12436226 3.4503863 5395026
-0.0057566389 -0.12530519 3.4765308 2039583
0.88576639 -0.1251004 3.470871 2894892
-0.51935279 -0.074396797 3.4534225 2039583
-0.4966816 -0.071734339 3.4504633 5592405
-0.0057560611 -0.074887745 3.4761815 2039583
0.88586122 -0.074780427 3.4712424 2894892
-0.51937902 -0.024323126 3.4535961 2039583
-0.49604288 -0.024301609 3.4505401 6118749
-0.0057554836 -0.024480326 3.4758327 2039583
0.88595611 -0.024449797 3.4716139 2894892
-0.51940417 0.024324711 3.453764 2039583
-0.49574387 0.025414577 3.4506714 6118749
-0.0057549244 0.024477147 3.4754934 2039583
0.8860482 0.024453187 3.4719751 2894892
-0.51943028 0.074408337 3.4539373 2039583
-0.49463511 0.074338384 3.4506915 6645093
-0.0057543451 0.074864522 3.4751444 2829099
0.88614315 0.07480517 3.4723468 2894892
-0.51944506 0.10302957 3.454037 2039583
-0.49464926 0.10293271 3.4507897 9474192
-0.0048825527 0.10368749 3.4665577 10197915
0.02436482 0.10463519 3.4598124 10197915
0.074488908 0.10457454 3.4578068 10197915
0.12455546 0.10451397 3.4558034 10197915
0.17456348 0.10445346 3.4538031 10197915
0.2245142 0.10439301 3.4518044 10197915
0.25873443 0.10435162 3.4504356 10197915
0.88619465 0.10214312 3.472549 2894892
0.89105719 -0.57364744 3.5144243 2894892
0.89110529 -0.52494049 3.5144496 2894892
0.89124501 -0.47474536 3.5151641 2894892
-0.0014547589 -0.42188048 3.5114675 2039583
0.0014639987 -0.42309591 3.5337703 2039583
0.89133853 -0.42527613 3.5155339 2894892
-0.0014546202 -0.37383774 3.5111325 2039583
0.0014638623 -0.37621298 3.5334408 2039583
0.89143187 -0.37579641 3.5159011 2894892
-0.0014544768 -0.32434872 3.5107865 2039583
0.001463713 -0.32494473 3.5330803 2039583
0.89148271 -0.32557046 3.5159383 2894892
-0.0014543337 -0.27486944 3.5104406 2039583
0.0014635636 -0.27368683 3.5327201 2039583
0.8916223 -0.27535504 3.5166531 2894892
-0.0014541904 -0.22539991 3.5100951 2039583
0.0014634179 -0.22390334 3.5323684 2039583
0.8917622 -0.22511426 3.517369 2894892
-0.0014540472 -0.1759401 3.5097489 2039583
0.0014632728 -0.17412987 3.5320179 2039583
0.8918131 -0.17486094 3.5174055 2894892
-0.0014538997 -0.12503582 3.509393 2039583
0.0014631277 -0.12436627 3.5316677 2039583
0.89186406 -0.12461141 3.517442 2894892
-0.0014537522 -0.074141763 3.5090375 2039583
0.0014629827 -0.074612528 3.5313177 2039583
0.89200383 -0.074333623 3.5181575 2894892
-0.0014536091 -0.024711758 3.5086918 2039583
0.0014628378 -0.024868654 3.530968 2039583
0.89209795 -0.024780199 3.5185282 2894892
-0.001453466 0.024708521 3.5083466 2039583
0.0014626929 0.02486537 3.5306184 2039583
0.89219183 0.024783675 3.5188997 2894892
-0.0014533229 0.074119061 3.5080011 2500134
0.0014625479 0.074589536 3.5302682 2631720
0.892286 0.074358016 3.5192704 2894892
-0.0014532431 0.10172701 3.5078082 10197915
0.02367612 0.10413037 3.5456338 10197915
0.074911296 0.1042916 3.5455904 10197915
0.12478171 0.10423142 3.5435445 10197915
0.1745946 0.10417131 3.5415013 10197915
0.22435008 0.10411127 3.5394599 10197915
0.27404818 0.1040513 3.537421 10197915
0.32514799 0.10398963 3.5353243 10197915
0.37618789 0.10392804 3.533231 10197915
0.4257113 0.10386829 3.531199 10197915
0.47517776 0.10380858 3.5291698 10197915
0.52458739 0.10374897 3.5271428 10197915
0.5739404 0.10368941 3.5251179 10197915
0.62468547 0.10362818 3.523036 10197915
0.67537123 0.10356701 3.5209572 10197915
0.7245512 0.10350766 3.5189388 10197915
0.77511859 0.10344663 3.5168643 10197915
0.82562691 0.10338568 3.5147924 10197915
0.87410873 0.10300192 3.5134091 8684676
0.89735967 -0.57413077 3.5625665 2894892
0.90219957 -0.57263529 3.5995216 2894892
0.89745265 -0.52547967 3.5629358 2894892
0.90228248 -0.52943814 3.5998533 2894892
0.89754832 -0.47534359 3.5633163 2894892
0.0059170914 -0.42272896 3.56778 2039583
0.89764392 -0.42519665 3.5636957 2894892
0.0059165331 -0.37539476 3.5674441 2039583
0.89773953 -0.37503913 3.5640752 2894892
0.0059159412 -0.32511202 3.5670867 2039583
0.89783549 -0.32487094 3.5644557 2894892
0.0059153475 -0.27483922 3.5667303 2039583
0.89793134 -0.27469215 3.5648365 2894892
0.0059147552 -0.2245765 3.5663724 2039583
0.89802736 -0.22450256 3.5652173 2894892
0.0058688307 -0.17507054 3.5656745 2039583
0.8980732 -0.17504735 3.5652225 2894892
0.0059135901 -0.12556361 3.5656683 2039583
0.89821637 -0.12557328 3.5659678 2894892
0.0072332737 -0.074238703 3.5753896 2039583
0.89831227 -0.075351827 3.5663488 2894892
0.0074211699 -0.0251892 3.5764804 2039583
0.89773369 -0.029408144 3.5616081 2894892
0.9000271 -0.014827309 3.5790226 2894892
0.0074204234 0.025185835 3.5761216 2039583
0.89690489 0.025037199 3.5548947 2894892
0.90010375 0.025209285 3.5793278 2894892
0.007419677 0.07555075 3.5757623 2894892
0.89700043 0.075118713 3.5552731 2894892
0.90020025 0.075635061 3.5797117 2894892
0.0074192821 0.10221086 3.5755723 10197915
0.89705098 0.10163631 3.5554733 2894892
0.90025127 0.10233499 3.5799146 2894892
0.9063828 -0.57718939 3.6315076 2894892
0.90508956 -0.5213446 3.6212382 2894892
0.90397918 -0.47522637 3.612433 2894892
0.013532713 -0.4221012 3.6259429 2039583
0.90412456 -0.42511493 3.6131949 2894892
0.013468472 -0.37499201 3.625123 2039583
0.90422213 -0.37426066 3.6135857 2894892
0.013591809 -0.32540372 3.6257162 2039583
0.90431744 -0.32489169 3.6139648 2894892
0.013466791 -0.2753149 3.6244106 2039583
0.90441239 -0.27551225 3.6143453 2894892
0.013527676 -0.22523333 3.6245241 2039583
0.90445912 -0.2253757 3.6143506 2894892
0.013464109 -0.17516313 3.6236877 2039583
0.90460545 -0.17523038 3.6151166 2894892
0.013586388 -0.12510151 3.6242704 2039583
0.90470332 -0.12432206 3.6155088 2894892
0.014668758 -0.077156812 3.632201 2039583
0.90479845 -0.074900553 3.6158891 2894892
0.015063696 -0.025600351 3.6348562 2039583
0.90489352 -0.025468545 3.6162686 2894892
0.015062159 0.02559687 3.6344852 2039583
0.90499151 0.025472224 3.6166608 2894892
0.015060665 0.075278349 3.6341252 2763306
0.9050867 0.074925229 3.6170413 2894892
0.029446263 0.10358749 3.637774 10197915
0.075355686 0.10399392 3.6379476 10197915
0.12501971 0.10393415 3.6358569 10197915
0.17462732 0.10387446 3.6337688 10197915
0.22417739 0.10381484 3.6316831 10197915
0.27516976 0.10375349 3.6295371 10197915
0.32460511 0.103694 3.6274562 10197915
0.37398314 0.1036346 3.6253777 10197915
0.42479873 0.10357345 3.6232388 10197915
0.47555429 0.10351235 3.6211019 10197915
0.52476019 0.10345316 3.6190302 10197915
0.57390922 0.10339402 3.6169617 10197915
0.62448925 0.10333315 3.6148324 10197915
0.67500973 0.10327237 3.6127062 10197915
0.72547066 0.10321164 3.6105819 10197915
0.77587235 0.103151 3.6084604 10197915
0.82621491 0.10309041 3.6063409 10197915
0.8750205 0.10303169 3.6042867 10197915
0.90337831 0.10170222 3.6102026 4671303
0.91092891 -0.57034016 3.6661832 2894892
0.91059446 -0.52510673 3.6633122 2894892
0.91069144 -0.47507435 3.6637015 2894892
0.021331957 -0.42372853 3.6855245 2171169
0.91078764 -0.42503095 3.6640892 2894892
0.021429833 -0.37486219 3.6859293 2039583
0.91088468 -0.37497732 3.6644788 2894892
0.021379311 -0.32518932 3.6851954 2039583
0.91098177 -0.32491285 3.6648698 2894892
0.021328794 -0.27554137 3.6844623 2039583
0.91107875 -0.27483794 3.6652603 2894892
0.021423448 -0.22514552 3.6848309 2039583
0.91112328 -0.22551283 3.6652539 2894892
0.021324508 -0.17476198 3.683722 2039583
0.91132283 -0.17541339 3.6664276 2894892
0.021370793 -0.12514259 3.6837265 2039583
0.91131741 -0.12532048 3.6660354 2894892
0.021368645 -0.074773014 3.683358 2039583
0.91151714 -0.075178266 3.6672091 2894892
0.021366507 -0.024413481 3.6829882 2039583
0.91151178 -0.025085356 3.6668174 2894892
0.021364424 0.024410317 3.6826296 2039583
0.91160899 0.025088925 3.6672087 2894892
0.021362282 0.074749865 3.6822605 2894892
0.91180867 0.075203203 3.6683822 2894892
0.021361111 0.10220401 3.6820588 10197915
0.89666843 0.10269537 3.6997607 10197915
0.909661 0.10243468 3.6903689 7566195
0.91729653 -0.57334858 3.7148409 2894892
0.91744733 -0.52491254 3.715652 2894892
0.91754293 -0.475703 3.7160401 2894892
0.027860709 -0.42401803 3.7353933 2171169
0.91764152 -0.42494467 3.7164397 2894892
0.027808283 -0.37522238 3.7346509 2039583
0.91774076 -0.37417585 3.7168407 2894892
0.027855216 -0.32491729 3.7346568 2039583
0.91783696 -0.32493493 3.7172303 2894892
0.02785247 -0.27537903 3.7342877 2039583
0.91788208 -0.27491036 3.7172236 2894892
0.027899379 -0.22507355 3.7342942 2039583
0.91803235 -0.22488809 3.7180219 2894892
0.02784688 -0.17477916 3.7335396 2039583
0.91812861 -0.17561583 3.7184117 2894892
0.027794397 -0.12451041 3.7327867 2039583
0.91827905 -0.12555064 3.7192106 2894892
0.027841305 -0.074230045 3.7327917 2039583
0.91827297 -0.074742012 3.7188072 2894892
0.02783856 -0.024741177 3.7324228 2039583
0.91842359 -0.024655385 3.7196064 2894892
0.027835818 0.024737934 3.7320557 2039583
0.91851979 0.024658833 3.7199962 2894892
0.027833072 0.074207276 3.7316871 2697513
0.91856503 0.074766703 3.71999 2894892
0.035277493 0.10302694 3.7339835 10132122
0.074277289 0.10368199 3.7353055 10197915
0.12527026 0.10362081 3.7331014 10197915
0.17620374 0.10355971 3.7308998 10197915
0.22553611 0.10350055 3.7287681 10197915
0.27481216 0.10344141 3.7266383 10197915
0.32403195 0.10338236 3.7245111 10197915
0.37473074 0.10332154 3.7223196 10197915
0.42537051 0.10326079 3.7201312 10197915
0.47441858 0.10320195 3.7180114 10197915
0.52494061 0.10314135 3.7158277 10197915
0.57540393 0.10308081 3.7136471 10197915
0.62428117 0.10302216 3.7115343 10197915
0.67462754 0.10296177 3.7093585 10197915
0.72491527 0.10290143 3.7071846 10197915
0.77514344 0.10284118 3.7050138 10197915
0.82531369 0.10278098 3.7028456 10197915
0.8708722 0.10272635 3.7008767 10197915
0.92040807 0.10054878 3.733886 2894892
0.92445928 -0.57383341 3.7695546 2894892
0.92449826 -0.52470672 3.7695074 2894892
0.92453653 -0.47558662 3.7694595 2894892
0.034514103 -0.42351162 3.786207 2105376
0.92469078 -0.4264164 3.770292 2894892
0.034510754 -0.37484941 3.7858403 2039583
0.9247365 -0.37567762 3.7702861 2894892
0.034507312 -0.32462737 3.7854621 2039583
0.92489046 -0.32496309 3.7711074 2894892
0.034503862 -0.27441522 3.7850847 2039583
0.92498887 -0.27499792 3.7715082 2894892
0.034446105 -0.22500063 3.7842963 2039583
0.92508715 -0.22502215 3.7719095 2894892
0.034497071 -0.17559473 3.784339 2039583
0.92518562 -0.17503574 3.7723105 2894892
0.034493633 -0.12541239 3.7839611 2039583
0.92528409 -0.1250387 3.7727115 2894892
0.034490176 -0.075240076 3.7835829 2039583
0.92538249 -0.075031027 3.773113 2894892
0.034486726 -0.025077794 3.7832041 2039583
0.92548078 -0.025012711 3.7735145 2894892
0.034483284 0.025074456 3.7828259 2039583
0.92557949 0.025016258 3.7739158 2894892
0.034479834 0.075216696 3.7824481 2960685
0.92567796 0.075055867 3.7743177 2894892
0.034478009 0.10185109 3.7822475 10197915
0.92573029 0.10164331 3.7745314 4671303
0.9316594 -0.57356989 3.824548 2894892
0.93175656 -0.52450627 3.8249471 2894892
0.93185622 -0.47384876 3.8253567 2894892
0.039618257 -0.42312339 3.8251901 2105376
0.93195355 -0.42476442 3.8257558 2894892
0.039614391 -0.3739602 3.8248155 2039583
0.932051 -0.37566963 3.8261561 2894892
0.039610505 -0.32480654 3.8244417 2039583
0.93215156 -0.32498053 3.8265684 2894892
0.039606642 -0.27566266 3.8240676 2039583
0.93219125 -0.27506864 3.8265209 2894892
0.039987337 -0.22263411 3.8266029 2039583
0.93234956 -0.22516023 3.8273816 2894892
0.041330602 -0.17483747 3.8365273 2039583
0.93245029 -0.17443861 3.8277943 2894892
0.041382331 -0.12474353 3.8365717 2039583
0.93260884 -0.12448511 3.828656 2894892
0.041266564 -0.075497776 3.8353419 2039583
0.93258733 -0.075355135 3.8281479 2894892
0.041318297 -0.025423694 3.8353856 2039583
0.93274587 -0.025380546 3.8290088 2894892
0.041314103 0.025420269 3.8349969 2039583
0.93284661 0.025384195 3.829422 2894892
0.041254148 0.075474247 3.8341877 2960685
0.9328863 0.075380154 3.8293753 2894892
0.044198565 0.10269599 3.8373005 10132122
0.074728698 0.10335119 3.837954 10197915
0.12394832 0.10329232 3.835768 10197915
0.17469722 0.10323164 3.833514 10197915
0.22538653 0.10317102 3.8312631 10197915
0.27601632 0.10311048 3.8290148 10197915
0.32500762 0.10305189 3.8268392 10197915
0.3739427 0.10299337 3.824666 10197915
0.42439839 0.10293304 3.8224254 10197915
0.47479495 0.10287277 3.8201876 10197915
0.52513254 0.10281257 3.8179522 10197915
0.5754112 0.10275245 3.8157191 10197915
0.62563121 0.10269238 3.8134887 10197915
0.67579257 0.1026324 3.8112617 10197915
0.72589517 0.10257249 3.8090365 10197915
0.7759394 0.10251265 3.8068142 10197915
0.82592535 0.10245287 3.8045945 10197915
0.87585294 0.10239317 3.8023775 10197915
0.91682196 0.10214509 3.8049934 9079434
-0.071045339 -0.6232115 3.8971393 7237230
-0.023924774 -0.6235314 3.8909676 7368816
0.023873428 -0.62313795 3.8847103 7368816
-0.069751494 -0.575073 3.8971324 6513507
-0.024442311 -0.57517165 3.8912003 6513507
0.024388961 -0.57490474 3.8848078 6513507
0.93913215 -0.57408404 3.8816309 2894892
-0.069431931 -0.52958262 3.8972437 6513507
-0.022599865 -0.52921677 3.8911152 6513507
0.024136191 -0.52470124 3.8850102 6513507
0.93916875 -0.52510881 3.8815677 2894892
-0.0026850894 -0.49672735 3.8886173 6513507
0.02978907 -0.48135725 3.8844178 6447714
0.93933088 -0.47448725 3.882452 2894892
0.044898849 -0.42356542 3.8656321 2171169
0.93943048 -0.42467034 3.8828642 2894892
0.044836402 -0.37465253 3.8647058 2039583
0.93953025 -0.3748427 3.883276 2894892
0.044831969 -0.32498637 3.8643236 2039583
0.93962973 -0.32500464 3.8836875 2894892
0.044770807 -0.27452692 3.8635027 2039583
0.93972951 -0.27515578 3.8840997 2894892
0.04500483 -0.22631395 3.8649518 2039583
0.93976951 -0.22449414 3.8840506 2894892
0.046574634 -0.17505676 3.8765824 2039583
0.93999177 -0.17462024 3.8853981 2894892
0.046570018 -0.12525772 3.8761981 2039583
0.93983096 -0.1262278 3.8838313 2894892
0.046565399 -0.075468436 3.8758137 2039583
0.93823087 -0.07537882 3.8712525 2894892
0.046560775 -0.02568914 3.8754289 2039583
0.93833005 -0.025663264 3.8716617 2894892
0.046556011 0.025685631 3.8750322 2039583
0.93843251 0.025666999 3.8720844 2894892
0.046551391 0.075444967 3.8746479 2960685
0.93853182 0.075403817 3.872494 2894892
0.046549004 0.1011237 3.8744495 10066329
0.93858308 0.10107818 3.8727055 2894892
-0.46283516 -0.62301487 3.948432 7105644
-0.42663512 -0.62388909 3.9436901 7171437
-0.3751449 -0.62305397 3.9369521 7105644
-0.32360765 -0.62288237 3.9302049 7171437
-0.27511209 -0.6236648 3.9238517 7237230
-0.22559255 -0.62320125 3.9173744 7171437
-0.17456852 -0.62317681 3.9106936 7237230
-0.12494989 -0.62334257 3.9041944 7303023
-0.096956618 -0.62375355 3.9005282 7303023
0.051925875 -0.62297785 3.9205942 4408131
-0.46295068 -0.57418787 3.9486136 6513507
-0.42626885 -0.57491672 3.9438083 6513507
-0.37542564 -0.57546073 3.93715 6513507
-0.32404393 -0.57479972 3.9304242 6513507
-0.27439308 -0.57495534 3.923924 6513507
-0.22590679 -0.57495576 3.917577 6513507
-0.17499374 -0.57518589 3.9109068 6513507
-0.12417501 -0.57487959 3.9042554 6513507
-0.095555931 -0.57387286 3.9005136 6513507
0.051983252 -0.57499611 3.920697 3750201
0.94487894 -0.57408273 3.9255245 2894892
-0.46130881 -0.52510554 3.948565 6447714
-0.42646882 -0.52449912 3.9440045 6513507
-0.37492239 -0.52494234 3.9372556 6513507
-0.32444304 -0.52530217 3.9306462 6513507
-0.27475408 -0.52510881 3.924139 6513507
-0.22608103 -0.52977699 3.9177547 6513507
-0.17500044 -0.53146011 3.9110572 6513507
-0.12455947 -0.530563 3.9044597 6513507
-0.095343433 -0.53004348 3.9006348 6513507
0.051978044 -0.52459031 3.9203038 3750201
0.94497669 -0.52534801 3.92593 2894892
-0.45781294 -0.49706909 3.9482019 4674139
-0.42188731 -0.48778313 3.9435301 5790815
-0.37369099 -0.47644761 3.937259 6185057
-0.32369229 -0.47488046 3.9307179 6513507
-0.27476624 -0.47473222 3.9243119 6513507
-0.24852876 -0.47594056 3.9208732 6513507
0.051972821 -0.47419459 3.9199107 3750201
0.94507748 -0.47497818 3.9263489 2894892
-0.35648629 -0.44615039 3.9351091 3556692
-0.31853724 -0.42789233 3.9302027 5002075
-0.27477822 -0.42435133 3.9244859 6513507
-0.24853967 -0.42560378 3.9210463 6513507
0.051967777 -0.42543411 3.9195302 2105376
0.94517881 -0.42459795 3.92677 2894892
-0.45970961 -0.3697302 3.9488831 6185057
-0.4397881 -0.36948606 3.9462752 6184801
-0.31443116 -0.37497932 3.9298446 4213591
-0.27478984 -0.37559119 3.9246547 6513507
-0.24855064 -0.37526253 3.9212179 6513507
0.051962566 -0.37505829 3.9191372 2039583
0.94527692 -0.37583259 3.9271772 2894892
-0.45972732 -0.32557133 3.9490349 6513507
-0.43980509 -0.32535633 3.9464271 6513507
-0.31402025 -0.32456517 3.9299622 4542554
-0.27480206 -0.32520151 3.9248252 6513507
-0.24856153 -0.32491684 3.9213905 6513507
0.051957354 -0.32469246 3.9187441 2039583
0.94537842 -0.32543096 3.9275992 2894892
-0.45841178 -0.29153779 3.9489777 6513507
-0.43981823 -0.29103115 3.9465449 6513507
-0.31424445 -0.28981909 3.9301088 4608090
-0.27593118 -0.29024199 3.9250925 6513507
-0.24856894 -0.29080939 3.9215074 6513507
0.051893979 -0.27514672 3.9179134 2039583
0.94547975 -0.27501869 3.9280205 2894892
0.052005287 -0.22480544 3.9184105 2039583
0.9455812 -0.2245954 3.9284418 2894892
0.051883578 -0.17447682 3.9171281 2039583
0.9456827 -0.17416145 3.9288633 2894892
0.051936712 -0.12495934 3.917187 2039583
0.94533271 -0.12276319 3.9258301 2894892
0.051931508 -0.074643776 3.9167943 2039583
0.94395572 -0.074608199 3.9149764 2894892
0.051926307 -0.024338167 3.9164016 2039583
0.94405675 -0.0243311 3.9153945 2894892
0.051921263 0.024335021 3.9160211 2039583
0.94415456 0.024334459 3.9157999 2894892
0.051916048 0.074620686 3.9156289 3092271
0.94425553 0.074632838 3.916219 2894892
0.075152591 0.10289718 3.9423993 10132122
0.12581493 0.10294139 3.944092 10197915
0.17473562 0.10288307 3.9418581 10197915
0.22522849 0.1028229 3.9395525 10197915
0.27566293 0.10276279 3.9372489 10197915
0.3244141 0.10270468 3.9350233 10197915
0.37473211 0.10264473 3.9327259 10197915
0.42499197 0.10258482 3.9304307 10197915
0.47519258 0.102525 3.9281385 10197915
0.52533525 0.10246522 3.9258487 10197915
0.57541895 0.10240554 3.9235618 10197915
0.62544495 0.10234591 3.9212773 10197915
0.67541212 0.10228637 3.9189956 10197915
0.72532183 0.10222689 3.9167171 10197915
0.77517277 0.10216746 3.9144404 10197915
0.82496643 0.10210811 3.9121664 10197915
0.87470174 0.10204885 3.9098954 10197915
0.922692 0.10198217 3.9073412 9671571
-0.60997558 -0.62394661 3.9676938 2039583
-0.57632864 -0.6239382 3.9632883 4079166
-0.52619803 -0.62290531 3.9567285 6974058
-0.48787192 -0.62211609 3.9517136 6974058
0.059385739 -0.62362224 3.9775765 2500134
-0.60928541 -0.58480281 3.9677355 2039583
-0.57510221 -0.57786179 3.9632838 4013373
-0.5262199 -0.57539159 3.956892 6513507
-0.48789212 -0.57466251 3.9518771 6513507
0.059315871 -0.57496613 3.9767013 2039583
0.94878483 -0.57516962 3.9553671 2894892
0.95275462 -0.57462466 3.9856846 2894892
-0.55896217 -0.54813015 3.9612718 3753558
-0.52161157 -0.5385496 3.9564145 5856352
-0.4853797 -0.52894002 3.9517031 6185057
0.059249982 -0.52468717 3.9758465 2039583
0.94888341 -0.52606452 3.9557776 2894892
0.95285439 -0.52514279 3.9861009 2894892
0.059304032 -0.47437972 3.9759073 2039583
0.94898558 -0.47531179 3.9562039 2894892
0.95295793 -0.47400105 3.9865339 2894892
0.059298202 -0.42492285 3.9755166 2039583
0.94908816 -0.42454854 3.9566314 2894892
0.9530583 -0.42449871 3.9869545 2894892
-0.60997188 -0.36828431 3.9685597 2039583
-0.57637894 -0.36963207 3.9641569 3881787
-0.52631402 -0.37054643 3.9575999 6185057
-0.48465192 -0.37003583 3.952147 6185057
0.059292365 -0.37547562 3.9751251 2039583
0.9491874 -0.37541217 3.9570456 2894892
0.95315874 -0.37498575 3.9873743 2894892
-0.6099956 -0.32390535 3.9687138 2039583
-0.57622486 -0.32487458 3.9642894 3947580
-0.52671975 -0.32528511 3.9578073 6513507
-0.48467052 -0.32584047 3.9522998 6513507
0.059226487 -0.32520625 3.9742694 2039583
0.9492901 -0.32462722 3.9574733 2894892
0.95325935 -0.32546243 3.9877946 2894892
-0.6100139 -0.28938624 3.9688334 2039583
-0.57680482 -0.29058167 3.9644811 3947580
-0.52523816 -0.29094458 3.9577286 6513507
-0.48327762 -0.29132479 3.9522333 6513507
0.059280511 -0.27496877 3.9743295 2039583
0.94939256 -0.27383131 3.9579005 2894892
0.9533596 -0.27592862 3.9882152 2894892
0.059274673 -0.22555108 3.9739387 2039583
0.94949204 -0.2246635 3.9583147 2894892
0.95346016 -0.22638442 3.9886363 2894892
0.059328668 -0.17531046 3.9739985 2039583
0.9495914 -0.17548539 3.958729 2894892
0.95356417 -0.17517765 3.9890707 2894892
0.059202798 -0.12428447 3.9726796 2039583
0.94969422 -0.12465711 3.9591575 2894892
0.953668 -0.12395989 3.9895053 2894892
0.059256796 -0.074064039 3.9727407 2039583
0.94979674 -0.073817968 3.9595857 2894892
0.95376861 -0.074383609 3.9899256 2894892
0.059250962 -0.024685856 3.9723499 2039583
0.94989616 -0.024608284 3.9600003 2894892
0.95386922 -0.024796862 3.9903467 2894892
0.059245136 0.024682615 3.9719584 2039583
0.94997251 0.013125819 3.9603176 2894892
0.95271373 0.028917009 3.9811449 2894892
0.059239302 0.074041374 3.9715674 2894892
0.95208287 0.074125014 3.9760087 2894892
0.059236187 0.10036248 3.9713588 10066329
0.95213616 0.10048562 3.9762321 3815994
0.066867508 -0.62347746 4.0347204 2236962
0.066861063 -0.57494736 4.0343313 2039583
0.95876133 -0.57379925 4.031559 2894892
0.066854388 -0.52475375 4.0339284 2039583
0.95893151 -0.52456886 4.0325174 2894892
0.066847712 -0.47457018 4.0335259 2039583
0.95903367 -0.47450072 4.0329466 2894892
0.066841058 -0.4243966 4.033124 2039583
0.95913601 -0.42442197 4.0333767 2894892
0.066834375 -0.37423292 4.0327215 2039583
0.95923817 -0.37433249 4.0338068 2894892
0.066827707 -0.32407942 4.0323186 2039583
0.95910835 -0.32651401 4.0324802 2894892
0.066755205 -0.27476892 4.0314198 2039583
0.95739394 -0.27473 4.019022 2894892
0.066814594 -0.22547926 4.031528 2039583
0.95749551 -0.22480284 4.0194492 2894892
0.066807941 -0.17535536 4.0311255 2039583
0.95759732 -0.17486517 4.019876 2894892
0.066801272 -0.12524144 4.0307231 2039583
0.95769906 -0.12491684 4.0203037 2894892
0.066794612 -0.075137548 4.0303211 2039583
0.95780092 -0.074957885 4.0207305 2894892
0.066787943 -0.025043624 4.0299191 2039583
0.95790279 -0.024988329 4.0211582 2894892
0.066781282 0.025040289 4.0295167 2039583
0.95800459 0.024991864 4.0215855 2894892
0.066774599 0.075114205 4.0291142 3158064
0.95810646 0.07498268 4.0220132 2894892
0.066771045 0.10181661 4.0288992 10066329
0.33047211 0.10232933 4.0491881 10197915
0.3738983 0.10227775 4.0471473 10197915
0.42395228 0.10221832 4.0447955 10197915
0.47394812 0.10215895 4.0424457 10197915
0.52388591 0.10209964 4.0400987 10197915
0.57376575 0.10204041 4.037755 10197915
0.62358773 0.10198124 4.0354142 10197915
0.67500973 0.10192019 4.0329981 10197915
0.72637063 0.1018592 4.0305843 10197915
0.7760157 0.10180023 4.0282507 10197915
0.8256036 0.10174133 4.0259209 10197915
0.87513411 0.10168252 4.0235934 10197915
0.9246074 0.10162377 4.0212684 10197915
0.95426613 0.10158855 4.019875 8355711
0.072665155 -0.62525856 4.0790153 2697513
0.072658069 -0.57619578 4.0786176 2039583
0.96503341 -0.57462549 4.0794711 2894892
0.072650738 -0.52545106 4.0782061 2039583
0.96513337 -0.52566761 4.0798931 2894892
0.072643399 -0.47471666 4.0777946 2039583
0.96523744 -0.47501129 4.0803328 2894892
0.072636075 -0.42399237 4.077383 2039583
0.96534157 -0.42434406 4.0807734 2894892
0.07262899 -0.37496868 4.0769858 2039583
0.96544558 -0.37366587 4.0812135 2894892
0.072621912 -0.32595459 4.0765882 2039583
0.96481997 -0.32096627 4.0760651 2894892
0.072614573 -0.27526036 4.0761766 2039583
0.96356946 -0.27458507 4.0661888 2894892
0.072607264 -0.22457637 4.0757656 2039583
0.96374303 -0.22491187 4.0671663 2894892
0.072599933 -0.17390259 4.0753546 2039583
0.96377301 -0.17522566 4.0670485 2894892
0.072592854 -0.12492763 4.0749574 2039583
0.96380323 -0.12554896 4.0669308 2894892
0.072585776 -0.07596229 4.0745602 2039583
0.96397704 -0.075837411 4.0679088 2894892
0.072578467 -0.025318492 4.0741496 2039583
0.96408069 -0.025281556 4.068346 2894892
0.072571151 0.025315097 4.0737386 2039583
0.96418452 0.025285184 4.0687838 2894892
0.07256379 0.075938441 4.0733266 3223857
0.96428812 0.075862795 4.069222 2894892
0.085796088 0.1026199 4.0606856 10066329
0.1261107 0.10257203 4.0587912 10197915
0.17645305 0.10251225 4.0564256 10197915
0.22506189 0.10245451 4.054141 10197915
0.27361539 0.10239685 4.0518599 10197915
0.30539918 0.10235911 4.0503664 10197915
0.078605585 -0.62366205 4.1243758 2434341
0.078666903 -0.57489085 4.1245027 2039583
0.97132784 -0.57378012 4.1275439 2894892
0.078521267 -0.5253284 4.1230421 2039583
0.97150201 -0.52508634 4.1285353 2894892
0.078582324 -0.47486642 4.1231551 2039583
0.97160441 -0.47553489 4.1289701 2894892
0.078574575 -0.4252874 4.1227484 2039583
0.9717105 -0.42426363 4.1294217 2894892
0.078566819 -0.37571827 4.1223426 2039583
0.97181314 -0.37469092 4.1298566 2894892
0.078490034 -0.32529548 4.1214023 2039583
0.97191548 -0.32510766 4.1302938 2894892
0.078551084 -0.27490711 4.1215162 2039583
0.97194594 -0.27465412 4.1301713 2894892
0.078612119 -0.22450957 4.1216297 2039583
0.9721967 -0.22505908 4.1317382 2894892
0.078466579 -0.17498776 4.1201701 2039583
0.97215104 -0.17544845 4.131043 2894892
0.0785276 -0.1246103 4.1202836 2039583
0.97232974 -0.12496532 4.1320519 2894892
0.078519858 -0.075100288 4.1198778 2039583
0.97243243 -0.075329386 4.1324892 2894892
0.078512117 -0.025600148 4.1194715 2039583
0.97253495 -0.025682859 4.132925 2894892
0.078504115 0.025596673 4.1190515 2039583
0.97264117 0.025686594 4.1333761 2894892
0.078496374 0.075077042 4.1186442 3092271
0.97059542 0.075055234 4.1174049 2894892
0.078492343 0.10066687 4.118434 10066329
0.77690774 0.10141081 4.14887 10197915
0.82457608 0.10135442 4.1465631 10197915
0.87389076 0.10129607 4.144176 10197915
0.92484653 0.10123578 4.1417098 10197915
0.96323639 0.10112357 4.1371188 9276813
1.0312304 -1.8642207 4.1975913 4013373
1.0742103 -1.8628286 4.1919699 4210752
1.124346 -1.8612878 4.18541 4473924
1.1637864 -1.8599833 4.1802506 7631988
1.0310483 -1.8253691 4.1977468 6447714
1.0751911 -1.8249183 4.1919694 6447714
1.1257677 -1.8249426 4.1853476 6447714
1.1637148 -1.8251725 4.1803794 8750469
1.033265 -1.7748793 4.1976285 6447714
1.0750481 -1.7749691 4.1921582 6447714
1.1249604 -1.7749481 4.1856227 6447714
1.1639624 -1.7750317 4.1805162 8882055
1.0330279 -1.7251965 4.1978278 6447714
1.0749053 -1.7250149 4.1923461 6447714
1.1257308 -1.724854 4.1856923 6447714
1.1639097 -1.725083 4.1806936 8882055
1.0334101 -1.6757581 4.1979456 6447714
1.075523 -1.6749531 4.1924338 6447714
1.125295 -1.6749701 4.1859183 6447714
1.1639552 -1.6749209 4.1808572 8882055
1.0349793 -1.6247684 4.1979127 6447714
1.0747544 -1.6250961 4.1927037 6447714
1.1255119 -1.624977 4.1860595 6447714
1.1640013 -1.6247538 4.1810212 9079434
1.0345995 -1.5751405 4.1981311 6447714
1.0756307 -1.5748017 4.19276 6447714
1.1258384 -1.575099 4.1861863 6447714
1.1638765 -1.5750022 4.1812062 9013641
1.036229 -1.525407 4.1980858 6447714
1.0750526 -1.524938 4.193006 6447714
1.1251864 -1.5251957 4.1864405 6447714
1.164268 -1.5248556 4.1813254 9079434
1.0366018 -1.4748993 4.1982083 6447714
1.0751624 -1.4750835 4.1931596 6447714
1.1260623 -1.4749748 4.1864958 6447714
1.1639065 -1.4750763 4.1815419 9013641
1.0364259 -1.4251492 4.1984005 6447714
1.0756879 -1.4250052 4.1932592 6447714
1.1252687 -1.4250594 4.186769 6447714
1.1644138 -1.4249328 4.1816444 9276813
1.038568 -1.3748226 4.1982913 6447714
1.0749507 -1.3751227 4.1935272 6447714
1.1261451 -1.3748335 4.1868258 6447714
1.1641247 -1.375368 4.1818509 9211020
1.0384082 -1.3254073 4.1984797 6447714
1.0758587 -1.3248161 4.1935782 6447714
1.1255703 -1.3250295 4.1870699 6447714
1.1643721 -1.3251952 4.1819897 9211020
1.038954 -1.2758644 4.198576 6447714
1.0752628 -1.2750432 4.1938248 6447714
1.12582 -1.2750111 4.1872058 6447714
1.1643196 -1.2752091 4.1821656 9342606
1.0401753 -1.2245556 4.1985908 6447714
1.0755116 -1.224943 4.1939626 6447714
1.1260693 -1.2249902 4.1873441 6447714
1.1643654 -1.2250111 4.1823297 9408399
1.0400587 -1.1752957 4.198772 6513507
1.0757592 -1.1748395 4.1941004 6447714
1.1254946 -1.1751698 4.1875882 6447714
1.1644112 -1.1748095 4.1824937 9408399
1.0413861 -1.1260278 4.1987653 6513507
1.0751611 -1.1251676 4.1943464 6447714
1.126371 -1.1249313 4.1876431 6447714
1.164358 -1.1248107 4.1826706 9408399
1.0419824 -1.0750345 4.1988602 6513507
1.0760691 -1.0748481 4.1943984 6447714
1.1256062 -1.0750958 4.1879125 6447714
1.1659313 -1.0740947 4.1826372 9737364
1.0420235 -1.0246279 4.1990261 6513507
1.0756787 -1.0252903 4.1946182 6447714
1.126421 -1.0248492 4.1879768 6447714
1.1659855 -1.0252612 4.182796 9671571
1.0436015 -0.97456759 4.1989889 6513507
1.0756162 -0.97504425 4.194797 6447714
1.1260839 -0.97513545 4.1881886 6447714
1.1664922 -0.9750852 4.1828995 9868950
1.0437895 -0.9254936 4.199132 6513507
1.0758752 -0.92469174 4.1949334 6447714
1.1260231 -0.92496473 4.1883674 6447714
1.1663095 -0.92542422 4.1830921 9868950
1.0441906 -0.8764345 4.199245 6513507
