# .PCD v0.7 - Point Cloud Data file format
VERSION 0.7
FIELDS x y z rgb
SIZE 4 4 4 4
TYPE F F F U
COUNT 1 1 1 1
WIDTH 1163
HEIGHT 1
VIEWPOINT 0 0 0 1 0 0 0
POINTS 1163
DATA ascii
-0.29849204 -0.12500915 2.0354803 2039583
0.59114373 -0.12477018 2.0239446 2894892
-0.30176565 -0.075025961 2.0121832 2039583
-0.29852378 -0.075263843 2.0354047 2039583
0.5911122 -0.074956886 2.0238757 2894892
-0.30177683 -0.02500947 2.0122573 2039583
-0.29852432 -0.025299035 2.0355556 2039583
0.59105903 -0.024986584 2.0236547 2894892
-0.301788 0.025010701 2.0123317 2039583
-0.29853541 0.025300283 2.0356314 2039583
0.59101677 0.024984187 2.023509 2894892
-0.30179903 0.075034574 2.0124056 2039583
-0.29855686 0.075272478 2.0356302 2039583
0.590985 0.07494016 2.0234396 2894892
-1.6040281 0.10464692 2.020757 10197915
-1.5754323 0.10463814 2.0205872 10197915
-1.5222174 0.10455261 2.0328116 10197915
-1.474743 0.10452682 2.0345569 10197915
-1.4252267 0.10451023 2.0345118 10197915
-1.377897 0.10450646 2.0322719 10197915
-1.3459934 0.10456754 2.0192237 10197915
-0.30188379 0.10234595 2.0114508 2039583
-0.27819684 0.10384886 2.0283859 3815994
-0.22508121 0.1041413 2.0273297 10000536
-0.17508417 0.10412728 2.0267804 10197915
-0.12510246 0.10411055 2.0267315 10197915
-0.075133033 0.1040966 2.0261824 10197915
-0.025182707 0.10407985 2.0261335 10197915
0.025177717 0.10406436 2.0258324 10197915
0.075098485 0.10405039 2.0252833 10197915
0.12500882 0.10403369 2.0252345 10197915
0.17490207 0.10401973 2.0246859 10197915
0.22478102 0.104003 2.0246379 10197915
0.27506718 0.10398754 2.0243371 10197915
0.32491186 0.1039736 2.0237887 10197915
0.37475094 0.10395692 2.0237403 10197915
0.42456821 0.10394297 2.0231922 10197915
0.47437599 0.10392629 2.023144 10197915
0.52500236 0.10391206 2.0225992 10197915
0.57467735 0.10350233 2.0230482 5789784
0.59845716 -0.91357595 2.0732813 2894892
0.60157347 -0.91841966 2.0953329 2894892
0.59821814 -0.87457311 2.0717106 2894892
0.6015355 -0.8749609 2.095201 2894892
0.59817499 -0.82473326 2.0715613 2894892
0.60149264 -0.82542521 2.0950518 2894892
0.5980944 -0.77490306 2.071146 2894892
0.60144931 -0.77502781 2.0949004 2894892
0.59808964 -0.7250824 2.071265 2894892
0.60140568 -0.72463775 2.0947487 2894892
0.5980469 -0.6752643 2.0711176 2894892
0.60136312 -0.67512369 2.0946002 2894892
0.59800428 -0.62545347 2.0709698 2894892
0.60132039 -0.62561643 2.0944512 2894892
0.59794253 -0.57536077 2.0706892 2894892
0.60127693 -0.57524806 2.0943003 2894892
0.59791797 -0.52499747 2.0706704 2894892
0.60123354 -0.52488673 2.0941489 2894892
0.59787506 -0.47492206 2.0705225 2894892
0.60119015 -0.47453269 2.0939977 2894892
-0.29256147 -0.4230361 2.0770438 2039583
0.59781361 -0.42485398 2.0702417 2894892
0.60114747 -0.42505407 2.0938489 2894892
-0.29257473 -0.37486163 2.0770988 2039583
0.59778929 -0.3747955 2.0702255 2894892
0.6011048 -0.37558237 2.0937002 2894892
-0.29259136 -0.32507181 2.0771325 2039583
0.59774655 -0.32502747 2.0700774 2894892
0.6010614 -0.32524994 2.0935495 2894892
-0.29279506 -0.27440974 2.075829 2039583
0.59770375 -0.27526653 2.0699294 2894892
0.60101807 -0.27492487 2.0933983 2894892
-0.29302832 -0.22495635 2.0743098 2039583
0.59764236 -0.22522692 2.069649 2894892
0.60097462 -0.22460698 2.0932472 2894892
-0.29304224 -0.17492948 2.0743632 2039583
0.59761775 -0.17491151 2.0696306 2894892
0.60093129 -0.17429639 2.093096 2894892
-0.29305333 -0.12499518 2.074439 2039583
0.59757495 -0.12488616 2.069483 2894892
0.60088867 -0.12486025 2.0929475 2894892
-0.29309338 -0.074963167 2.074307 2039583
0.59751344 -0.074871339 2.0692027 2894892
0.60084599 -0.07543119 2.0927992 2894892
-0.29306179 -0.024925856 2.0746868 2039583
0.59748918 -0.024860229 2.0691867 2894892
0.60080266 -0.025142113 2.092648 2894892
-0.29307243 0.024927072 2.0747626 2039583
0.59744644 0.024857864 2.0690384 2894892
0.60075933 0.025139695 2.0924973 2894892
-0.29312548 0.074971765 2.0745356 2039583
0.59738499 0.07485462 2.0687582 2894892
0.60071599 0.075414248 2.0923462 2894892
-1.6528983 0.10433004 2.0812376 10197915
-1.6215565 0.10438494 2.0693519 10197915
-1.5748481 0.10439173 2.0652366 10197915
-1.5283066 0.10432458 2.0745399 10197915
-1.4745057 0.10427533 2.0801463 10197915
-1.4243122 0.10425996 2.079839 10197915
-1.3905692 0.10424961 2.0796328 10197915
-0.28143725 0.10305344 2.0741291 2565927
-0.22495723 0.10389214 2.0725021 10000536
-0.17427295 0.10387661 2.0721922 10132122
-0.12446254 0.10386134 2.0718875 10197915
-0.074666791 0.10384607 2.071583 10197915
-0.024885677 0.1038308 2.0712781 10197915
0.0248808 0.10381554 2.0709739 10197915
0.074632652 0.10380028 2.0706694 10197915
0.12436987 0.10378504 2.0703652 10197915
0.17494959 0.10376953 2.0700555 10197915
0.22551431 0.103754 2.0697463 10197915
0.27520722 0.10373878 2.0694423 10197915
0.32488555 0.10372353 2.0691385 10197915
0.3776814 0.10368201 2.0734143 10197915
0.42521921 0.10360807 2.0838947 10197915
0.47523066 0.10359278 2.0835772 10197915
0.5247854 0.1035761 2.0835462 10197915
0.57653904 0.10338271 2.082114 6842472
0.60072941 0.10267722 2.0944118 2894892
0.60798401 -0.95410049 2.1406147 2894892
0.60593325 -0.92426503 2.1261864 2894892
0.60581005 -0.87523937 2.1254685 2894892
0.60576671 -0.82498819 2.1253178 2894892
0.60571539 -0.77496696 2.1251092 2894892
0.60566455 -0.7249527 2.1249044 2894892
0.60560596 -0.67472661 2.1246443 2894892
0.60559309 -0.62494582 2.1247067 2894892
0.60551935 -0.57516968 2.124341 2894892
0.60551381 -0.52518761 2.1244566 2894892
0.60545528 -0.47498867 2.1241975 2894892
-0.28599831 -0.42314553 2.124058 2039583
0.60539621 -0.42479676 2.1239355 2894892
-0.28600293 -0.37501165 2.1241724 2039583
0.60537559 -0.37483186 2.1239436 2894892
-0.28601781 -0.32486331 2.1242216 2039583
0.60530949 -0.32487914 2.1236312 2894892
-0.28603297 -0.27483535 2.1242654 2039583
0.60525882 -0.2749227 2.1234262 2894892
-0.28603011 -0.2250571 2.12444 2039583
0.60525316 -0.22498439 2.1235418 2894892
-0.28604043 -0.17502266 2.1245189 2039583
0.60517973 -0.17526843 2.1231754 2894892
-0.28605998 -0.12485941 2.1245337 2039583
0.60515141 -0.12511918 2.1231315 2894892
-0.2860572 -0.074816562 2.1247065 2039583
0.6051228 -0.074977189 2.1230848 2894892
-0.28609017 -0.024901537 2.124625 2039583
0.60504174 -0.025068229 2.1226652 2894892
-0.28610072 0.024902763 2.1247025 2039583
0.60499811 0.025065828 2.1225119 2894892
-0.28608871 0.074825116 2.1249409 2039583
0.60499281 0.074960448 2.1226282 2894892
-1.7029994 0.10399318 2.1454411 10197915
-1.6711217 0.10405099 2.1329896 10197915
-1.6248298 0.10406026 2.1284523 10197915
-1.5747664 0.10404336 2.1284235 10197915
-1.5247301 0.10402963 2.127826 10197915
-1.4746981 0.10401275 2.1277974 10197915
-1.4301593 0.10402747 2.1223819 10197915
-0.27274457 0.10315001 2.1205621 2171169
-0.22482704 0.10363042 2.119976 9605778
-0.17518164 0.1036168 2.1193821 10066329
-0.12510642 0.1036015 2.1190691 10197915
-0.075059406 0.10358306 2.1193221 10197915
-0.025017869 0.10357089 2.1184425 10197915
0.02501294 0.10355556 2.1181297 10197915
0.075024903 0.10353716 2.1183829 10197915
0.12501283 0.103525 2.1175039 10197915
0.17499928 0.1035097 2.1171913 10197915
0.22497098 0.10349441 2.1168785 10197915
0.27491581 0.103476 2.1171317 10197915
0.32485285 0.10346387 2.1162534 10197915
0.37275451 0.1034408 2.117476 10197915
0.4248533 0.10334285 2.1320245 10197915
0.47512919 0.10332748 2.1317074 10197915
0.52450854 0.1033124 2.1313961 10197915
0.57475466 0.10329704 2.1310794 8158332
0.6044153 0.10202997 2.1247866 2894892
0.61356175 -0.96266842 2.1800852 2894892
0.61290282 -0.92524803 2.1755376 2894892
0.61289179 -0.87515271 2.1756139 2894892
0.61281472 -0.82507402 2.1752248 2894892
0.612804 -0.77499896 2.175302 2894892
0.6127432 -0.72493398 2.1750295 2894892
0.6126833 -0.67532641 2.1747577 2894892
0.61267221 -0.62527329 2.174835 2894892
0.61260343 -0.57499939 2.1745045 2894892
0.61257619 -0.52496552 2.1744654 2894892
0.61252379 -0.47515878 2.1742504 2894892
-0.27912015 -0.42329246 2.1733265 2236962
0.61249632 -0.42513552 2.1742113 2894892
-0.27913719 -0.37491196 2.1733537 2039583
0.61241949 -0.37512025 2.1738217 2894892
-0.27914572 -0.32483783 2.1734469 2039583
0.61240852 -0.32511091 2.1738987 2894892
-0.27914745 -0.27487218 2.173588 2039583
0.61233974 -0.27487987 2.1735682 2894892
-0.27915993 -0.22501689 2.1736519 2039583
0.61231244 -0.22488934 2.1735294 2894892
-0.27916583 -0.17504402 2.1737633 2039583
0.61226052 -0.17512543 2.1733146 2894892
-0.27917835 -0.12495638 2.1738274 2039583
0.61223286 -0.1251453 2.1732752 2894892
-0.27919486 -0.075088359 2.1738617 2039583
0.61215609 -0.075172588 2.1728866 2894892
-0.27920097 -0.025107829 2.1739731 2039583
0.61214495 -0.025206828 2.1729634 2894892
-0.27921131 0.025109073 2.1740532 2039583
0.61210066 0.025204396 2.172806 2894892
-0.27922571 0.07509698 2.1741025 2039583
0.61202401 0.075155802 2.1724179 2894892
-1.7169777 0.10381304 2.1789722 10197915
-1.6752473 0.1038003 2.178705 10197915
-1.6253656 0.10378509 2.1783857 10197915
-1.575498 0.10376988 2.178066 10197915
-1.524739 0.10375439 2.1777413 10197915
-1.4749011 0.10373919 2.1774218 10197915
-1.4486284 0.10373117 2.1772537 10197915
-0.27173555 0.10257458 2.1719427 2039583
-0.22469142 0.10335777 2.1694162 8355711
-0.17433475 0.10334239 2.1690936 10000536
-0.12489185 0.10332733 2.1687772 10197915
-0.075463474 0.10331224 2.1684601 10197915
-0.025151169 0.10329688 2.1681385 10197915
0.025146186 0.10328154 2.1678164 10197915
0.075428598 0.1032662 2.1674941 10197915
0.12569609 0.10325087 2.1671727 10197915
0.17505144 0.10323581 2.1668561 10197915
0.22439237 0.10322076 2.1665404 10197915
0.27461559 0.10320545 2.1662192 10197915
0.32482389 0.10319011 2.1658976 10197915
0.37607458 0.10308726 2.1813965 10197915
0.42491776 0.10306509 2.1824 10197915
0.47502977 0.10305156 2.1817648 10197915
0.52511477 0.10303456 2.1817532 10197915
0.57519931 0.103021 2.1811185 9211020
0.60858369 0.10251283 2.181102 2894892
0.62329346 -1.0034186 2.2488685 2894892
0.62060446 -0.97310269 2.2299228 2894892
0.6203599 -0.92498028 2.2283418 2894892
0.62031561 -0.87506592 2.2281826 2894892
0.62024504 -0.82493156 2.227838 2894892
0.62019998 -0.77503598 2.227674 2894892
0.62017345 -0.72514409 2.2276416 2894892
0.62011147 -0.67480135 2.2273588 2894892
0.62009305 -0.62469316 2.2273831 2894892
0.62004864 -0.57482213 2.2272229 2894892
0.61995155 -0.52495962 2.2266912 2894892
0.61996001 -0.47510973 2.2269053 2894892
-0.27192768 -0.4234809 2.2248476 3881787
0.61990666 -0.42502853 2.2266831 2894892
-0.27192056 -0.37503609 2.2250473 2039583
0.61984456 -0.37472919 2.2264001 2894892
-0.27194086 -0.32500878 2.2250555 2039583
0.61982626 -0.32466456 2.2264242 2894892
-0.27194571 -0.27497596 2.2251747 2039583
0.61978191 -0.27483636 2.2262657 2894892
-0.27194548 -0.22494031 2.2253308 2039583
0.61971152 -0.22478704 2.2259212 2894892
-0.2719866 -0.17503533 2.2251892 2039583
0.61966664 -0.17497714 2.2257576 2894892
-0.2719706 -0.12512261 2.2254572 2039583
0.61964011 -0.12517148 2.2257252 2894892
-0.27200109 -0.074946307 2.2253931 2039583
0.61957806 -0.074914932 2.2254436 2894892
-0.2719855 -0.02489558 2.2256587 2039583
0.61955959 -0.024893876 2.2254672 2894892
-0.27199548 0.024896793 2.2257407 2039583
0.6195153 0.024891507 2.2253087 2894892
-0.27203113 0.07495489 2.2256391 2039583
0.61944491 0.07489825 2.2249644 2894892
-1.7665204 0.10348521 2.2415011 10197915
-1.7248484 0.1035271 2.2313342 10197915
-1.6751517 0.10351381 2.2306721 10197915
-1.6254685 0.10349686 2.2306824 10197915
-1.5753325 0.10348159 2.2303538 10197915
-1.5247564 0.10346801 2.2296987 10197915
-1.486421 0.10352168 2.2175961 10197915
-0.26484376 0.10261913 2.2213936 2039583
-0.22546966 0.10307094 2.2215023 6842472
-0.17528842 0.10305744 2.2208507 10000536
-0.12512268 0.10304041 2.220844 10132122
-0.074968971 0.10302693 2.2201934 10197915
-0.024835112 0.10300989 2.2201865 10197915
0.024830259 0.10299478 2.219861 10197915
0.074934535 0.10298131 2.2192101 10197915
0.12502903 0.1029643 2.2192039 10197915
0.17510584 0.10295083 2.2185538 10197915
0.22516853 0.10293384 2.2185473 10197915
0.27521789 0.10292038 2.2178972 10197915
0.32524875 0.1029034 2.2178912 10197915
0.37281433 0.10281084 2.2317364 10197915
0.42498985 0.10277547 2.234931 10197915
0.47491857 0.1027603 2.2346008 10197915
0.52483255 0.10274512 2.2342708 10197915
0.57473183 0.10272995 2.2339413 10197915
0.61322808 0.10225222 2.2306483 3158064
0.62762356 -1.0099026 2.2795105 2894892
0.62719518 -0.97520661 2.2765858 2894892
0.62714994 -0.92515272 2.276422 2894892
0.62707967 -0.87478858 2.2760801 2894892
0.62706006 -0.82507026 2.2760954 2894892
0.62701529 -0.77503771 2.2759328 2894892
0.62697005 -0.72501254 2.275769 2894892
0.62690043 -0.67531395 2.2754297 2894892
0.62688029 -0.62498754 2.2754426 2894892
0.62683547 -0.57498372 2.27528 2894892
0.62676585 -0.52530229 2.2749419 2894892
0.62674552 -0.47500166 2.2749543 2894892
-0.26486814 -0.42351428 2.2754157 3750201
0.62670034 -0.42501938 2.2747898 2894892
-0.26489952 -0.37491393 2.2753396 2039583
0.6266309 -0.37536302 2.2744513 2894892
-0.26489854 -0.32509977 2.2755015 2039583
0.62661082 -0.32508036 2.2744648 2894892
-0.26490799 -0.27514502 2.2755873 2039583
0.62654042 -0.27480176 2.2741234 2894892
-0.26491797 -0.22492009 2.2756708 2039583
0.62654537 -0.22485547 2.2743125 2894892
-0.26493886 -0.17495842 2.2756746 2039583
0.62645084 -0.17490959 2.273797 2894892
-0.26494312 -0.12512805 2.2757962 2039583
0.62640601 -0.12497027 2.2736356 2894892
-0.26491946 -0.075159676 2.2761207 2039583
0.62641108 -0.075037889 2.2738259 2894892
-0.26497909 -0.025058959 2.2758477 2039583
0.62631625 -0.025121039 2.2733099 2894892
-0.26498884 0.025060192 2.2759311 2039583
0.62627125 0.025118629 2.2731466 2894892
-0.26494858 0.075168304 2.2763727 2039583
0.62627614 0.07502117 2.2733366 2894892
-1.8092734 0.10325172 2.2864854 10197915
-1.7749938 0.10324132 2.2862549 10197915
-1.7254899 0.10322631 2.2859223 10197915
-1.6750493 0.10321101 2.2855835 10197915
-1.6246229 0.10319571 2.2852449 10197915
-1.5751628 0.1031807 2.2849126 10197915
-1.5342739 0.1031683 2.2846379 10197915
-0.26204535 0.10206111 2.2748845 2039583
-0.22534306 0.10277124 2.2758448 5460819
-0.17534582 0.10275607 2.2755091 10000536
-0.12536341 0.10274091 2.2751734 10132122
-0.075395636 0.10272574 2.2748377 10197915
-0.025442712 0.10271059 2.2745018 10197915
0.025437616 0.10269517 2.2741601 10197915
0.075360879 0.10268001 2.2738249 10197915
0.12526935 0.10266488 2.2734895 10197915
0.17516318 0.10264974 2.2731543 10197915
0.22504224 0.10263461 2.2728193 10197915
0.27490661 0.10261948 2.2724845 10197915
0.32475629 0.10260435 2.2721498 10197915
0.37553144 0.10258894 2.2718084 10197915
0.42535144 0.10257384 2.2714739 10197915
0.47515675 0.10255872 2.2711391 10197915
0.52494746 0.10254363 2.2708049 10197915
0.57472354 0.10252853 2.2704701 10197915
0.61600065 0.10219656 2.2700701 4276545
0.63749081 -1.0501566 2.3492553 2894892
0.6347115 -1.0209683 2.3296671 2894892
0.63426983 -0.97480333 2.3266835 2894892
0.63425362 -0.92436767 2.3267255 2894892
0.63416785 -0.87466162 2.3262715 2894892
0.63416326 -0.82497084 2.3263934 2894892
0.63411778 -0.77479798 2.3262262 2894892
0.63404208 -0.72487652 2.325846 2894892
0.63402689 -0.67496014 2.3258934 2894892
0.6339516 -0.62457514 2.3255169 2894892
0.6338948 -0.57466668 2.3252714 2894892
0.63389069 -0.52501965 2.3253934 2894892
0.63384503 -0.47488964 2.3252268 2894892
-0.25804532 -0.42367521 2.3242888 3750201
0.63376927 -0.42501056 2.3248453 2894892
-0.25805458 -0.37490052 2.3243723 2039583
0.63372475 -0.37489951 2.3246841 2894892
-0.25806746 -0.32499886 2.3244326 2039583
0.63370836 -0.32455173 2.3247254 2894892
-0.25810111 -0.27509779 2.3243458 2039583
0.6336329 -0.27468938 2.3243442 2894892
-0.25808322 -0.22502941 2.32463 2039583
0.63360786 -0.22508445 2.3243227 2894892
-0.2580927 -0.17495643 2.3247147 2039583
0.6335727 -0.17523885 2.3242269 2894892
-0.25812963 -0.1248836 2.3246038 2039583
0.63349742 -0.12492087 2.3238504 2894892
-0.258129 -0.074966654 2.3247619 2039583
0.63345098 -0.074852817 2.3236778 2894892
-0.25812101 -0.025043253 2.3249719 2039583
0.63343626 -0.025030278 2.3237259 2894892
-0.25813058 0.025044486 2.3250573 2039583
0.63339078 0.025027888 2.3235595 2894892
-0.25815758 0.0749752 2.3250184 2039583
0.63331509 0.07483615 2.3231792 2894892
-1.8249919 0.10304701 2.324605 10197915
-1.7756188 0.10303206 2.3242679 10197915
-1.7252916 0.10301682 2.3239243 10197915
-1.6749796 0.10300159 2.3235805 10197915
-1.6246827 0.10298637 2.3232369 10197915
-1.5744002 0.10297115 2.3228939 10197915
-1.5463643 0.10296265 2.3227022 10197915
-0.25678962 0.10175453 2.3203354 2039583
-0.22429599 0.10256242 2.3136735 4605510
-0.17442687 0.10254732 2.313333 10000536
-0.12457248 0.10253222 2.3129921 10132122
-0.074732728 0.10251713 2.3126519 10197915
-0.02490765 0.10250203 2.3123114 10197915
0.024902765 0.10248698 2.3119714 10197915
0.07469853 0.1024719 2.3116314 10197915
0.12447964 0.10245681 2.3112912 10197915
0.17886326 0.10237233 2.3232563 10197915
0.22491084 0.10232286 2.3293846 10197915
0.27505833 0.10230356 2.3297904 10197915
0.32520071 0.1022884 2.3294446 10197915
0.37532827 0.10227323 2.3290997 10197915
0.42495146 0.10226034 2.3283753 10197915
0.47456756 0.10224322 2.3284163 10197915
0.52512705 0.10222997 2.3276997 10197915
0.57567376 0.10221265 2.3277197 10197915
0.61957705 0.10202365 2.3277948 5526612
0.64247656 -1.0585494 2.3845346 2894892
0.64172739 -1.0248888 2.3793344 2894892
0.64170939 -0.97487354 2.3793635 2894892
0.64166415 -0.92552114 2.3791955 2894892
0.64161789 -0.87518877 2.3790243 2894892
0.6415717 -0.82486326 2.3788521 2894892
0.64149743 -0.77520883 2.3784814 2894892
0.64147961 -0.72522563 2.3785112 2894892
0.64140558 -0.67525607 2.3781409 2894892
0.64135957 -0.62527978 2.3779702 2894892
0.64136988 -0.57500589 2.3781991 2894892
0.64126712 -0.52471727 2.3776274 2894892
0.64124948 -0.4747746 2.3776569 2894892
-0.25259739 -0.42394096 2.3633125 3750201
-0.24867171 -0.42403281 2.391432 3684408
0.64117509 -0.42483637 2.3772874 2894892
-0.25260666 -0.37499985 2.3633966 2039583
-0.2486956 -0.37517145 2.3914113 2039583
0.64115804 -0.37523678 2.3773189 2894892
-0.25262123 -0.32483372 2.3634465 2039583
-0.24868988 -0.32498461 2.3916063 2039583
0.64111179 -0.32498369 2.3771474 2894892
-0.25263613 -0.27466166 2.3634939 2039583
-0.24869905 -0.27512375 2.3916953 2039583
0.6410656 -0.27473778 2.3769765 2894892
-0.25264007 -0.22497497 2.3636191 2039583
-0.24872313 -0.22525902 2.3916759 2039583
0.64099169 -0.22515628 2.3766057 2894892
-0.2526384 -0.17504232 2.3637841 2039583
-0.24905017 -0.17754939 2.3894799 2039583
0.64097404 -0.17525703 2.3766363 2894892
-0.25267497 -0.12486131 2.3636768 2039583
-0.249284 -0.12513648 2.3879662 2039583
0.64092815 -0.12503283 2.3764665 2894892
-0.25264069 -0.074913338 2.3640759 2039583
-0.24931549 -0.074699096 2.3878963 2039583
0.64088166 -0.074815847 2.3762939 2894892
-0.2526935 -0.024980342 2.3638508 2039583
-0.24931353 -0.024733502 2.3880634 2039583
0.64080751 -0.024942817 2.3759232 2894892
-0.25270277 0.024981566 2.3639376 2039583
-0.24932261 0.0247347 2.3881502 2039583
0.64076161 0.024940437 2.3757534 2894892
-0.25266859 0.074921906 2.3643367 2039583
-0.24934284 0.074707627 2.3881581 2039583
0.64074403 0.074799202 2.3757834 2894892
-1.864875 0.10284238 2.3641787 10197915
-1.8245014 0.10283016 2.3638985 10197915
-1.775278 0.10281529 2.3635566 10197915
-1.7250845 0.10280013 2.3632078 10197915
-1.674906 0.10278497 2.3628595 10197915
-1.6247425 0.10276982 2.3625112 10197915
-1.584425 0.10275765 2.3622315 10197915
-0.25259116 0.10151126 2.3593123 2039583
-0.22604623 0.10218402 2.3735862 2829099
-0.1754477 0.10222265 2.3722754 9934743
-0.12481075 0.10220519 2.3723168 10066329
-0.074675672 0.10219004 2.3719659 10197915
-0.025056472 0.10217725 2.371222 10197915
0.025051527 0.10216214 2.3708711 10197915
0.07464157 0.10214499 2.3709204 10197915
0.12471749 0.10212987 2.3705692 10197915
0.1710795 0.10208445 2.3759429 10197915
0.22476971 0.10198829 2.3900702 10197915
0.27522764 0.10197309 2.3897138 10197915
0.32567066 0.10195787 2.3893573 10197915
0.37510991 0.10194297 2.3890083 10197915
0.42453471 0.10192807 2.388659 10197915
0.47493315 0.10191289 2.3883033 10197915
0.5253166 0.10189769 2.3879471 10197915
0.57469755 0.1018828 2.387598 10197915
0.62345678 0.10173028 2.3858817 6381921
0.64607948 -0.96262854 2.4103453 2894892
0.64604515 -0.92563242 2.4102173 2894892
0.6459989 -0.87564331 2.4100449 2894892
0.64595276 -0.82566154 2.4098725 2894892
0.64590639 -0.7756868 2.4096994 2894892
0.64586014 -0.72571939 2.4095268 2894892
0.64581382 -0.67575914 2.4093542 2894892
0.64576757 -0.62580603 2.4091818 2894892
0.64681655 -0.57525402 2.4167662 2894892
0.65022391 -0.57438165 2.4408977 2894892
0.64679319 -0.52564102 2.4167557 2894892
0.65017784 -0.52479386 2.4407244 2894892
0.64672446 -0.47504485 2.4164255 2894892
0.65013152 -0.47521305 2.440551 2894892
-0.24349299 -0.42408538 2.4285283 3684408
0.64669919 -0.42445824 2.4164052 2894892
0.65008539 -0.42563939 2.4403775 2894892
-0.24348553 -0.37479836 2.4287333 2039583
0.64665306 -0.37437689 2.4162316 2894892
0.65003812 -0.37506121 2.4402008 2894892
-0.24351045 -0.32483843 2.4287076 2039583
0.64746344 -0.32229757 2.4221315 2894892
0.65000713 -0.34168339 2.4400837 2894892
-0.24386659 -0.27594733 2.4263074 2039583
0.64765787 -0.27446371 2.4236567 2894892
-0.24409698 -0.22501974 2.4248147 2039583
0.64764243 -0.22491664 2.4237022 2894892
-0.24454357 -0.17399712 2.4217718 2039583
0.647596 -0.17503329 2.4235277 2894892
-0.24470584 -0.12485953 2.4207611 2039583
0.64754945 -0.12482235 2.423353 2894892
-0.24472268 -0.075054839 2.4207931 2039583
0.64747262 -0.074957922 2.4229634 2894892
-0.2447121 -0.025074866 2.4210231 2039583
0.64745653 -0.025095863 2.4230063 2894892
-0.24472111 0.025076104 2.4211125 2039583
0.64741015 0.025093453 2.4228315 2894892
-0.24474972 0.075063437 2.421061 2039583
0.64733326 0.074941203 2.4224427 2894892
-1.9193486 0.1024568 2.4374826 10197915
-1.8747511 0.10250757 2.4255123 10197915
-1.8252579 0.10248797 2.4260182 10197915
-1.7752455 0.10247526 2.4252326 10197915
-1.7252737 0.10246259 2.4244473 10197915
-1.675292 0.10244519 2.4245203 10197915
-1.6294631 0.10247207 2.4168067 10197915
-1.5987961 0.10253798 2.4029522 10197915
-0.22622328 0.10168816 2.4320171 2039583
-0.17450435 0.1018779 2.4347603 9276813
-0.12506013 0.10186303 2.4344051 10132122
-0.075630449 0.10184817 2.4340496 10197915
-0.025206814 0.10183302 2.4336872 10197915
0.025201812 0.10181784 2.4333248 10197915
0.075595424 0.10180268 2.4329624 10197915
0.12496667 0.10178784 2.4326079 10197915
0.17432341 0.10177298 2.4322529 10197915
0.22467265 0.10175785 2.431891 10197915
0.27500689 0.10174271 2.431529 10197915
0.3253262 0.10172756 2.4311674 10197915
0.3756305 0.10171244 2.4308062 10197915
0.42491424 0.10169762 2.4304516 10197915
0.47418353 0.1016828 2.4300978 10197915
0.52444363 0.10166768 2.4297366 10197915
0.57468873 0.10165256 2.4293752 10197915
0.62651718 0.10153294 2.4283044 6776679
0.65482622 -0.5742262 2.4734876 2894892
0.65484536 -0.5250051 2.4737759 2894892
0.65473425 -0.4751009 2.4731433 2894892
-0.23692021 -0.42419559 2.4756107 3552822
0.65471923 -0.42520157 2.473192 2894892
-0.23690845 -0.37498111 2.4758456 2039583
0.65464056 -0.37531528 2.4727895 2894892
-0.23694712 -0.32494116 2.4757226 2039583
0.65462512 -0.32474715 2.472837 2894892
-0.23735605 -0.27385703 2.4729497 2039583
0.65457797 -0.27452844 2.4726586 2894892
-0.23755664 -0.22493005 2.471664 2039583
0.65449941 -0.22500055 2.4722564 2894892
-0.23758195 -0.17510602 2.4716365 2039583
0.65448451 -0.17514196 2.4723051 2894892
-0.23757805 -0.12510349 2.4718182 2039583
0.65443772 -0.1249449 2.4721296 2894892
-0.23756243 -0.074926555 2.472085 2039583
0.65439063 -0.074755013 2.4719498 2894892
-0.23761648 -0.024925528 2.4718506 2039583
0.65431166 -0.024923023 2.4715476 2894892
-0.2376252 0.024926739 2.4719417 2039583
0.65426487 0.02492065 2.4713705 2894892
-0.23758863 0.074935116 2.4723573 2039583
0.65428144 0.075079508 2.4716427 2894892
-1.9661219 0.10217641 2.4912255 10197915
-1.9256419 0.10216426 2.4909289 10197915
-1.8758335 0.10214931 2.4905655 10197915
-1.825002 0.10213406 2.4901927 10197915
-1.7741861 0.10211881 2.4898217 10197915
-1.7244216 0.10210388 2.4894569 10197915
-1.6767445 0.10208958 2.4891088 10197915
-0.22208972 0.10148419 2.4765379 2039583
-0.17453192 0.10163883 2.4781182 8289918
-0.12523426 0.10162403 2.4777577 10132122
-0.074924417 0.10160893 2.4773898 10197915
-0.024629408 0.10159385 2.4770219 10197915
0.024624636 0.10157906 2.4766614 10197915
0.074889973 0.10156398 2.4762936 10197915
0.12514049 0.10154891 2.4759259 10197915
0.175376 0.10153383 2.4755585 10197915
0.22559667 0.10151877 2.4751911 10197915
0.27477795 0.10150401 2.4748309 10197915
0.32496899 0.10148894 2.4744642 10197915
0.37514532 0.1014739 2.474097 10197915
0.42530659 0.10145885 2.4737303 10197915
0.47545311 0.1014438 2.4733632 10197915
0.52456182 0.10142905 2.4730039 10197915
0.57467878 0.101414 2.4726374 10197915
0.62478107 0.101399 2.472271 8026746
0.65220636 0.10120528 2.4675479 2894892
0.66203529 -0.57417154 2.5245337 3092271
0.66198844 -0.52497804 2.5243559 2894892
0.66190666 -0.47509947 2.5239317 2960685
-0.23259147 -0.42419952 2.506618 3618615
0.66189367 -0.42522144 2.5239944 2894892
-0.23198642 -0.37520611 2.5111024 2039583
0.66184616 -0.37500265 2.523813 2894892
-0.23199494 -0.32528269 2.5111949 2039583
0.66176486 -0.32445264 2.5233943 2894892
-0.23200348 -0.27535564 2.5112877 2039583
0.66171604 -0.27458715 2.5232034 2894892
-0.23202927 -0.22507793 2.5112584 2039583
0.66170388 -0.22509654 2.5232713 2894892
-0.23202068 -0.17479943 2.5114744 2039583
0.6616562 -0.17490667 2.5230892 2894892
-0.23202923 -0.12486129 2.5115664 2039583
0.6615746 -0.12507257 2.522665 2894892
-0.23203775 -0.074919462 2.5116596 2039583
0.66156167 -0.075250119 2.5227287 2894892
-0.23204631 -0.024973966 2.5117519 2039583
0.66151404 -0.025081763 2.522547 2894892
-0.23205477 0.024975197 2.5118434 2039583
0.66146642 0.025079357 2.5223656 2894892
-0.23206335 0.074928038 2.5119362 2039583
0.66141903 0.075233273 2.5221851 2894892
-2.0093799 0.10194029 2.5367153 10197915
-1.9755545 0.10193017 2.5364637 10197915
-1.9248279 0.10191498 2.5360854 10197915
-1.8751729 0.10190013 2.5357156 10197915
-1.8255324 0.10188526 2.5353458 10197915
-1.7748505 0.1018701 2.5349684 10197915
-1.7252393 0.10185527 2.5345988 10197915
-1.6925243 0.10184545 2.5343554 10197915
-0.21830146 0.10132267 2.5213461 2039583
-0.17560637 0.10139138 2.5230567 8224125
-0.12541468 0.10137638 2.5226824 10066329
-0.075237907 0.10136136 2.5223091 10197915
-0.025076004 0.10134634 2.5219357 10197915
0.025071053 0.10133135 2.5215619 10197915
0.075203247 0.10131633 2.5211883 10197915
0.1253206 0.10130133 2.5208149 10197915
0.1754231 0.10128632 2.5204418 10197915
0.22551082 0.10127133 2.5200689 10197915
0.27558368 0.10125635 2.519696 10197915
0.32564172 0.10124136 2.5193231 10197915
0.37568495 0.10122638 2.5189505 10197915
0.4257133 0.1012114 2.5185778 10197915
0.47572693 0.10119644 2.5182049 10197915
0.52572584 0.10118148 2.5178325 10197915
0.57570988 0.10116652 2.5174606 10197915
0.62567902 0.10115155 2.5170882 8882055
0.65637892 0.10106216 2.5148633 2894892
0.66951251 -0.57482803 2.5774798 5921370
0.66946501 -0.52531517 2.5772963 2894892
0.66941708 -0.475097 2.5771124 2894892
0.66936845 -0.42488602 2.5769248 2894892
0.6692847 -0.37504408 2.5764852 2894892
0.66927338 -0.32555893 2.5765591 2894892
0.66922516 -0.2753695 2.5763738 2894892
0.66914058 -0.22483177 2.5759306 2894892
0.66912884 -0.17501728 2.5760019 2894892
0.66904485 -0.1252055 2.5755627 2894892
0.66906875 -0.075044669 2.5758865 2894892
0.66894871 -0.024901606 2.575192 2894892
0.66890091 0.024899235 2.5750074 2894892
0.66892487 0.075027928 2.5753322 2894892
-2.0531728 0.10169521 2.5838928 10197915
-2.0251741 0.10168684 2.5836802 10197915
-1.9745728 0.10167174 2.5832961 10197915
-1.9250623 0.10165694 2.5829208 10197915
-1.8755661 0.10164216 2.5825455 10197915
-1.825009 0.10162708 2.5821617 10197915
-1.7744668 0.10161198 2.581778 10197915
-1.7325388 0.10159948 2.5814602 10197915
-0.21720023 0.10114705 2.5699649 2039583
-0.17459042 0.10113432 2.5696414 8882055
-0.1245371 0.10111938 2.5692616 10066329
-0.074498646 0.10110442 2.5688827 10197915
-0.024474891 0.1010895 2.5685027 10197915
0.024470175 0.10107488 2.5681314 10197915
0.074464597 0.10105994 2.5677521 10197915
0.12550753 0.10104471 2.5673649 10197915
0.17547221 0.1010298 2.5669858 10197915
0.22542204 0.10101489 2.5666072 10197915
0.27535728 0.10099997 2.5662284 10197915
0.3252776 0.10098507 2.5658498 10197915
0.37518331 0.10097017 2.5654709 10197915
0.42507419 0.10095527 2.5650928 10197915
0.47495049 0.10094039 2.5647142 10197915
0.52481198 0.10092548 2.5643361 10197915
0.57465875 0.10091061 2.5639579 10197915
0.62449092 0.10089574 2.5635798 10000536
0.65929097 0.10085808 2.5626225 2894892
0.67597938 -0.57490438 2.6232712 6118749
0.67593104 -0.52487433 2.6230826 2894892
0.67588246 -0.47485161 2.6228948 2894892
0.67583394 -0.42483604 2.6227067 2894892
0.67575681 -0.37537953 2.6223135 2894892
0.67573816 -0.32591704 2.6223347 2894892
0.67566127 -0.27537206 2.6219466 2894892
0.67564029 -0.22485289 2.6219542 2894892
0.6763016 -0.17226818 2.6268013 2894892
0.67683405 -0.12498075 2.6307175 2894892
0.67682487 -0.075204216 2.6308074 2894892
0.67677623 -0.025066465 2.6306171 2894892
0.67672741 0.025064062 2.6304281 2894892
0.67667884 0.075187385 2.6302392 2894892
-2.0722842 0.10143284 2.6326509 10197915
-2.0251052 0.10141882 2.6322863 10197915
-1.9746482 0.10140377 2.6318965 10197915
-1.9242066 0.10138875 2.6315064 10197915
-1.8748757 0.10137407 2.6311252 10197915
-1.8255594 0.10135937 2.6307442 10197915
-1.7751617 0.10134437 2.6303546 10197915
-1.7488723 0.10133652 2.6301508 10197915
-0.21911827 0.10088101 2.6183286 2039583
-0.17462116 0.10086776 2.6179841 9539985
-0.1247112 0.10085291 2.6175988 10066329
-0.074815921 0.10083805 2.6172128 10197915
-0.024935378 0.10082319 2.6168275 10197915
0.024930483 0.10080834 2.6164422 10197915
0.074781664 0.1007935 2.6160569 10197915
0.12461817 0.10077866 2.6156716 10197915
0.17443997 0.10076382 2.6152866 10197915
0.22424714 0.10074899 2.6149015 10197915
0.27403963 0.10073415 2.614517 10197915
0.32489941 0.10071901 2.6141236 10197915
0.37574396 0.10070388 2.6137307 10197915
0.42549187 0.10068907 2.6133461 10197915
0.47522512 0.10067426 2.6129615 10197915
0.52494383 0.10065947 2.6125777 10197915
0.57464778 0.10064464 2.6121933 10197915
0.62433732 0.10062986 2.6118095 10197915
0.66213512 0.10061859 2.6115172 4671303
0.68265569 -0.57498282 2.6705463 6250335
0.6826877 -0.52516192 2.6709268 2894892
0.6825583 -0.47497204 2.6701658 2894892
0.6825496 -0.42478666 2.67026 2894892
0.68245989 -0.37461558 2.6697817 2894892
0.68245202 -0.32518244 2.6698775 2894892
0.68240321 -0.27538842 2.6696866 2894892
0.68231338 -0.2248643 2.6692085 2894892
0.68277693 -0.1772096 2.6726382 2894892
0.68358719 -0.1248503 2.6785369 2894892
0.68359917 -0.07489647 2.6787779 2894892
0.68348926 -0.024974966 2.6781533 2894892
0.68344027 0.024972584 2.6779613 2894892
0.68345267 0.074879818 2.6782033 2894892
-2.1178589 0.10116805 2.6834877 10197915
-2.0753543 0.10115542 2.6831527 10197915
-2.025033 0.10114048 2.6827564 10197915
-1.9747273 0.10112555 2.6823602 10197915
-1.9244351 0.10111061 2.6819639 10197915
-1.8752761 0.10109601 2.6815765 10197915
-1.8250142 0.10108108 2.681181 10197915
-1.7903972 0.1010708 2.6809077 10197915
-0.2211099 0.10060479 2.6685472 2302755
-0.17465307 0.100591 2.6681809 10000536
-0.12489197 0.10057621 2.6677892 10000536
-0.075145386 0.10056145 2.6673968 10132122
-0.025413528 0.10054666 2.6670055 10197915
0.025408445 0.10053157 2.6666055 10197915
0.075110897 0.10051682 2.6662135 10197915
0.12479863 0.10050206 2.665822 10197915
0.17557554 0.10048699 2.6654222 10197915
0.22523385 0.10047223 2.665031 10197915
0.27487758 0.10045748 2.6646399 10197915
0.32560945 0.10044243 2.6642404 10197915
0.37522376 0.10042769 2.6638496 10197915
0.42482343 0.10041298 2.6634588 10197915
0.47551036 0.10039791 2.6630597 10197915
0.52508068 0.10038318 2.6626692 10197915
0.57463652 0.10036848 2.6622789 10197915
0.62527853 0.10035343 2.6618798 10197915
0.66600168 0.10034134 2.6615589 5723991
0.68964392 -0.57469875 2.7200301 6250335
0.68959492 -0.52507883 2.719837 2894892
0.69016397 -0.47235018 2.7240293 2894892
0.69088233 -0.42479971 2.7292643 2894892
0.6908775 -0.37539831 2.729382 2894892
0.6908282 -0.32562208 2.729188 2894892
0.690736 -0.27547076 2.7286916 2894892
0.69072825 -0.22496554 2.7287922 2894892
0.69067883 -0.17483388 2.7285981 2894892
0.69062954 -0.12508623 2.7284038 2894892
0.69053733 -0.074974626 2.7279069 2894892
0.69053024 -0.024864309 2.7280107 2894892
0.69048107 0.024861945 2.7278168 2894892
0.69038886 0.074957877 2.7273204 2894892
-2.1629491 0.10089227 2.736311 10197915
-2.1241643 0.10088079 2.7359998 10197915
-2.0739858 0.10086593 2.7355971 10197915
-2.024961 0.10085141 2.735203 10197915
-1.9759506 0.1008369 2.7348096 10197915
-1.9258151 0.10082205 2.7344067 10197915
-1.8756943 0.10080721 2.734004 10197915
-1.8335586 0.10079474 2.7336662 10197915
-0.22430757 0.10031821 2.7207425 2697513
-0.17581409 0.10030386 2.7203526 10000536
-0.12507999 0.10028884 2.7199454 10000536
-0.074360952 0.1002738 2.719538 10132122
-0.02478376 0.10025912 2.7191398 10197915
0.024778927 0.10024446 2.7187419 10197915
0.074327104 0.10022978 2.718344 10197915
0.12498631 0.10021478 2.7179368 10197915
0.17563049 0.10019979 2.7175303 10197915
0.22513451 0.10018511 2.7171326 10197915
0.27462408 0.10017049 2.7167354 10197915
0.32522336 0.10015549 2.7163291 10197915
0.37580758 0.10014052 2.7159224 10197915
0.42525309 0.10012588 2.7155254 10197915
0.47468406 0.10011124 2.7151287 10197915
0.52522355 0.10009627 2.7147226 10197915
0.57574803 0.1000813 2.7143171 10197915
0.62513512 0.10006668 2.7139204 10197915
0.66889811 0.10005373 2.7135689 6710886
0.69984496 -0.60036284 2.7921841 11711154
0.69682485 -0.57477605 2.7708783 6513507
0.69682091 -0.52499902 2.7710052 2894892
0.69713342 -0.47719455 2.7733641 2894892
0.69818789 -0.42513284 2.7809937 2894892
0.69813716 -0.37441179 2.7807915 2894892
0.69808763 -0.32485056 2.7805943 2894892
0.69803798 -0.27529645 2.7803962 2894892
0.69798714 -0.22459722 2.7801938 2894892
0.69790262 -0.17448153 2.7797503 2894892
0.69792187 -0.12494827 2.7800407 2894892
0.69780344 -0.075431742 2.7793555 2894892
0.69778776 -0.025332687 2.7793994 2894892
0.69773716 0.02533024 2.7791975 2894892
-0.15402046 0.099998355 2.7744136 10197915
-0.12527521 0.099989846 2.7741778 10197915
-0.075843923 0.099975258 2.7737732 10197915
-0.025277954 0.099960335 2.7733586 10197915
0.025272924 0.099945404 2.7729449 10197915
0.075808711 0.099930502 2.7725306 10197915
0.12518145 0.099915922 2.7721264 10197915
0.17453967 0.099901348 2.7717221 10197915
0.2250309 0.099886425 2.7713087 10197915
0.27550703 0.099871539 2.7708948 10197915
0.32482156 0.09985698 2.7704906 10197915
0.37412155 0.099842422 2.7700875 10197915
0.42455322 0.099827521 2.7696741 10197915
0.47496986 0.099812634 2.7692614 10197915
0.52537155 0.099797755 2.7688482 10197915
0.5757581 0.099782892 2.7684357 10197915
0.6249851 0.099768355 2.7680326 10197915
0.68947613 0.083141163 2.7752125 4342338
-2.2098472 0.10060529 2.7912526 10197915
-2.1749332 0.10059498 2.7909665 10197915
-2.1249022 0.10058021 2.7905567 10197915
-2.0748854 0.10056545 2.7901468 10197915
-2.024883 0.10055068 2.7897377 10197915
-1.9748958 0.10053593 2.7893283 10197915
-1.9249233 0.10052118 2.7889192 10197915
-1.8761269 0.10050676 2.7885194 9671571
-0.25179267 0.10002723 2.7752147 2039583
-0.22533168 0.1000194 2.7749975 3421236
-0.1793212 0.10000581 2.7746205 10197915
0.70438123 -0.60023999 2.8243053 11711154
0.70435512 -0.57447749 2.8242016 6645093
0.70430565 -0.52529895 2.824002 2894892
0.70421976 -0.4755429 2.8235488 2894892
0.70423996 -0.42520657 2.823848 2894892
0.70411825 -0.37488925 2.8231411 2894892
0.70410341 -0.32514864 2.8231916 2894892
0.70405269 -0.27483541 2.8229883 2894892
0.7040019 -0.22452939 2.8227849 2894892
0.70391625 -0.17481579 2.8223319 2894892
0.70390147 -0.12511313 2.8223825 2894892
0.70385081 -0.074828766 2.8221781 2894892
0.7037999 -0.024551608 2.8219748 2894892
0.70375043 0.024549302 2.8217759 2894892
-0.25457087 0.099716701 2.8316956 2039583
-0.2252236 0.099708073 2.8314505 4144959
-0.17475693 0.099693216 2.8310289 10197915
-0.12547852 0.099678718 2.8306172 10197915
-0.075041689 0.099663876 2.8301954 10197915
-0.024619769 0.099649034 2.8297744 10197915
0.024614999 0.099634543 2.8293626 10197915
0.075007133 0.099619716 2.8289411 10197915
0.12538441 0.099604882 2.8285205 10197915
0.17457554 0.099590406 2.8281093 10197915
0.22492307 0.099575594 2.8276882 10197915
0.27525565 0.099560782 2.8272679 10197915
0.32440329 0.099546321 2.8268573 10197915
0.37470624 0.099531509 2.826437 10197915
0.42499429 0.099516712 2.8260162 10197915
0.47526729 0.099501915 2.8255963 10197915
0.52552557 0.099487126 2.825176 10197915
0.57460046 0.099472679 2.8247659 10197915
0.62482893 0.09945789 2.8243463 10197915
0.67504263 0.099443115 2.8239267 8092539
0.7035861 0.075352564 2.8214295 2894892
-2.2574792 0.1003062 2.8484356 10197915
-2.224221 0.10029641 2.8481576 10197915
-2.1743443 0.10028173 2.8477409 10197915
-2.1244826 0.10026706 2.8473241 10197915
-2.0746353 0.10025237 2.8469074 10197915
-2.0248027 0.10023771 2.8464909 10197915
-1.9749842 0.10022304 2.8460746 10066329
-1.9251809 0.10020841 2.8456585 6513507
-1.895542 0.10019967 2.8454108 6579300
-2.1231713 -0.62465918 2.8859649 2039583
-2.074487 -0.6244235 2.8790488 5395026
-2.0241237 -0.62421936 2.8718944 6513507
-1.9744878 -0.62454951 2.8648369 6513507
-1.9246012 -0.62459296 2.8577497 6513507
0.71058607 -0.60007155 2.868243 11711154
-2.123688 -0.57516247 2.8863142 2039583
-2.0743995 -0.57502228 2.879312 5460819
-2.0240283 -0.57472116 2.8721545 6513507
-1.9739875 -0.57529217 2.8650408 6513507
-1.9238353 -0.57468534 2.8579171 6513507
0.71052164 -0.574494 2.8678656 6974058
-2.1239171 -0.52499729 2.8866265 2039583
-2.0746167 -0.52504116 2.8796201 5460819
-2.0242457 -0.52480161 2.8724647 6447714
-1.9741739 -0.52524734 2.8653467 6447714
-1.9241776 -0.52463716 2.8582435 6447714
0.71050984 -0.52515852 2.8679349 2894892
-2.1241462 -0.47482103 2.8869371 2039583
-2.0748327 -0.47511208 2.8799286 5395026
-2.0244639 -0.47487158 2.8727722 6447714
-1.9743679 -0.47512928 2.8656514 6447714
-1.9244423 -0.4748905 2.8585587 6447714
0.71045893 -0.47522205 2.8677299 2894892
-2.1243761 -0.42463377 2.8872497 2039583
-2.0750217 -0.42523631 2.880233 5395026
-2.0246806 -0.42493054 2.8730803 6447714
-1.9745215 -0.4249391 2.8659523 6447714
-1.9246501 -0.42519701 2.8588641 6447714
0.71040809 -0.42529297 2.8675244 2894892
-2.1246047 -0.37443587 2.8875611 2039583
-2.0751703 -0.37547666 2.8805318 5395026
-2.0248983 -0.37497884 2.8733902 6447714
-1.9746368 -0.3746773 2.8662491 6447714
-1.9248544 -0.37549257 2.8591704 6447714
0.71035707 -0.37537083 2.8673191 2894892
-2.1248951 -0.32429123 2.8878815 6241608
-2.0753989 -0.32570398 2.8808401 4864837
-2.0251155 -0.32501671 2.8736994 6505283
-1.9748112 -0.32440349 2.8665535 6508881
-1.9252181 -0.32558534 2.859499 6447714
0.71030635 -0.32545584 2.8671141 2894892
-2.1252594 -0.27446485 2.8882101 5660788
-2.0757358 -0.27572861 2.8811655 3490905
-2.0253339 -0.27504358 2.8740079 6507596
-1.9751805 -0.27436191 2.8668838 6444116
-1.9254053 -0.27523649 2.8598058 6447714
0.7102555 -0.27554813 2.8669088 2894892
-2.124413 -0.2253883 2.8883615 5335168
-2.0757766 -0.22578129 2.8814487 3360861
-2.0255506 -0.22505964 2.8743153 6447714
-1.9753915 -0.22450188 2.8671916 6447714
-1.9251907 -0.22451799 2.8600571 6447714
0.71020478 -0.22564748 2.8667037 2894892
-2.1227267 -0.1757766 2.8883982 4020340
-2.0748513 -0.17548978 2.881597 2637139
-2.0257685 -0.17506506 2.874625 5592405
-1.9756031 -0.17463119 2.8674984 6513507
-1.9256864 -0.17419946 2.8604078 6513507
-1.8995379 -0.1656916 2.8567388 6513507
0.71011668 -0.17516032 2.8662367 2894892
-2.1230686 -0.12565975 2.8887255 2838646
-2.0750749 -0.12536326 2.8819072 2244187
-2.0259867 -0.12505983 2.874934 4150119
-1.9758155 -0.12474978 2.8678057 5528934
-1.9258946 -0.12444124 2.8607137 6513507
-1.8997068 -0.12427946 2.8569934 6513507
0.71031785 -0.12371359 2.867821 2894892
-2.1232975 -0.075403847 2.8890381 2313334
-2.074337 -0.074949242 2.8820825 2310495
-2.0252717 -0.075319782 2.8751085 3952999
-1.9760273 -0.074857764 2.8681114 5727346
-1.9260346 -0.074613161 2.8610108 6513507
-1.8999054 -0.075759076 2.8572912 6513507
0.71164232 -0.075099528 2.8773491 2894892
-2.1235273 -0.025137017 2.8893495 1918834
-2.0741932 -0.025076045 2.8823392 2113373
-2.0246418 -0.024711952 2.8753002 3558499
-1.975684 -0.025135729 2.8683422 5398896
-1.9248763 -0.024999369 2.8611217 6513507
0.71159124 -0.025031574 2.8771427 2894892
-2.1237569 0.025140654 2.8896618 1720941
-2.0744174 0.025079643 2.8826501 2112603
-2.023993 0.02501731 2.8754849 3755878
-1.973817 0.02495528 2.8683546 5727346
-1.923889 0.024893539 2.861258 6513507
0.7115401 0.025029184 2.876936 2894892
-2.1239867 0.075429268 2.8899746 9606809
-2.0746408 0.075246215 2.8829615 9343124
-2.0242097 0.075059123 2.8757949 9869208
-1.9740288 0.074872963 2.8686624 8816519
-1.9240955 0.074687727 2.8615646 6513507
-0.25626624 0.099392958 2.8905144 2039583
-0.22511092 0.099383816 2.8902488 4737096
-0.17599222 0.099369414 2.8898296 10197915
-0.12569025 0.099354655 2.8894002 10197915
-0.075403206 0.099339902 2.8889716 10197915
-0.025131086 0.099325165 2.8885427 10197915
0.025126114 0.09931042 2.888114 10197915
0.075368389 0.099295683 2.8876851 10197915
0.12559576 0.099280946 2.8872566 10197915
0.17580822 0.099266209 2.8868284 10197915
0.22600578 0.099251486 2.8864002 10197915
0.27499387 0.099237122 2.885982 10197915
0.32396761 0.099222749 2.8855641 10197915
0.37412125 0.099208035 2.8851366 10197915
0.42426005 0.09919332 2.8847089 10197915
0.47438386 0.099178635 2.8842812 10197915
0.52449292 0.099163927 2.8838534 10197915
0.57458717 0.099149227 2.8834264 10197915
0.62466639 0.099134527 2.8829992 10197915
0.67473096 0.099119842 2.8825719 9276813
0.71101093 0.076508611 2.8768108 2894892
0.71860516 -0.57559609 2.9251013 7303023
0.71850014 -0.5250662 2.9245145 2894892
0.71850187 -0.4749518 2.9246814 2894892
0.7183969 -0.42484024 2.9240947 2894892
0.7184509 -0.37473312 2.9246333 2894892
0.71829343 -0.32505381 2.9236724 2894892
0.71829551 -0.27495542 2.923842 2894892
0.71819037 -0.22487216 2.9232521 2894892
0.71819246 -0.17480154 2.9234211 2894892
0.71825188 -0.12545794 2.9239967 2894892
0.7197625 -0.07475926 2.9348497 2894892
0.71963078 -0.024931487 2.9340715 2894892
0.7195794 0.02492911 2.9338617 2894892
-2.3071041 0.099994585 2.9080105 10197915
-2.2755704 0.099985346 2.9077418 10197915
-2.2246432 0.0999704 2.9073071 10197915
-2.1785789 0.099956885 2.9069142 10197915
-0.023219699 0.098986976 2.9497869 10197915
0.0244372 0.098973036 2.9493718 10197915
0.074523576 0.098958388 2.9489353 10197915
0.12459524 0.098943748 2.9484992 10197915
0.17465201 0.09892913 2.9480631 10197915
0.22469406 0.098914497 2.9476268 10197915
0.27472121 0.098899856 2.947191 10197915
0.32473364 0.098885246 2.9467554 10197915
0.37473121 0.09887062 2.9463198 10197915
0.42471415 0.09885601 2.9458842 10197915
0.47468218 0.098841414 2.9454491 10197915
0.52463549 0.098826781 2.9450135 10197915
0.57457399 0.098812215 2.9445786 10197915
0.62449789 0.098797597 2.9441438 10197915
0.67440689 0.098783031 2.9437089 10197915
0.71797961 0.078664392 2.9356751 3026478
0.72691095 -0.57548916 2.9839146 5329233
0.72694129 -0.52477992 2.9842868 2894892
0.72684735 -0.47466937 2.9837782 2894892
0.72675365 -0.42458096 2.9832692 2894892
0.7267431 -0.37449294 2.9833493 2894892
0.72669142 -0.32503128 2.9831378 2894892
0.72663993 -0.27557665 2.9829264 2894892
0.72654623 -0.2255062 2.9824173 2894892
0.72657657 -0.17483911 2.98279 2894892
0.72648281 -0.12478317 2.9822812 2894892
0.72638917 -0.074749298 2.9817731 2894892
0.72637856 -0.024707217 2.981854 2894892
0.72632706 0.024704881 2.9816422 2894892
-2.356374 0.099669077 2.9701135 10197915
-2.3254015 0.099660031 2.9698439 10197915
-2.2758555 0.09964554 2.9694123 10197915
-2.2275622 0.099631421 2.9689915 10197915
-0.2592577 0.099055976 2.951843 2039583
-0.22499387 0.099045977 2.9515448 5592405
-0.17483366 0.099031299 2.951108 10197915
-0.12468819 0.099016644 2.9506707 10197915
-0.074557699 0.099001989 2.9502339 10197915
-0.047663841 0.098994128 2.95 10197915
0.7262755 0.074109986 2.9814308 2894892
0.73388636 -0.57554191 3.0333095 4737096
0.73383343 -0.5252375 3.0330904 2894892
0.73378074 -0.47494039 3.0328717 2894892
0.73368329 -0.4252851 3.0323362 2894892
0.73367614 -0.37562987 3.0324399 2894892
0.73362339 -0.32535434 3.0322216 2894892
0.7335704 -0.27508599 3.0320029 2894892
0.73351753 -0.22482488 3.0317845 2894892
0.73346472 -0.17457101 3.0315661 2894892
0.73336738 -0.12495793 3.0310299 2894892
0.73336029 -0.075346053 3.0311351 2894892
0.73330748 -0.025113747 3.0309162 2894892
0.73325479 0.025111333 3.0306976 2894892
-2.4065249 0.099328868 3.0349112 10197915
-2.3748717 0.099319637 3.0346293 10197915
-2.3255036 0.099305272 3.0341902 10197915
-2.27615 0.099290892 3.0337505 10197915
-0.26237848 0.098704241 3.0158262 2039583
-0.22487144 0.098693311 3.0154922 6381921
-0.17487434 0.098678753 3.0150473 10197915
-0.12489197 0.098664187 3.0146024 10197915
-0.074924372 0.098649636 3.0141578 10197915
-0.024971522 0.098635092 3.0137134 10197915
0.024966611 0.098620534 3.0132689 10197915
0.074890003 0.09860599 3.0128241 10197915
0.12479868 0.098591447 3.0123799 10197915
0.17469266 0.098576918 3.0119359 10197915
0.22457194 0.098562397 3.011492 10197915
0.27443647 0.098547846 3.0110481 10197915
0.32428631 0.098533332 3.0106046 10197915
0.37412143 0.098518811 3.0101609 10197915
0.42394194 0.098504297 3.0097175 10197915
0.47499266 0.098489434 3.009263 10197915
0.52602816 0.098474555 3.0088086 10197915
0.57580382 0.098460063 3.0083656 10197915
0.62556493 0.098445579 3.0079226 10197915
0.67531145 0.098431073 3.0074801 10197915
0.72885793 0.079916812 3.0248785 3618615
0.74108052 -0.60180217 3.0841689 6513507
0.74105203 -0.57494795 3.0840497 4802889
0.74099904 -0.52508068 3.0838294 2894892
0.74094611 -0.4752205 3.0836098 2894892
0.7408458 -0.42473465 3.0830555 2894892
0.74088615 -0.3748765 3.0834963 2894892
0.74073988 -0.32506093 3.0826149 2894892
0.74073309 -0.27457902 3.0827224 2894892
0.7406801 -0.22475466 3.0825019 2894892
0.74062711 -0.17493749 3.0822816 2894892
0.74052697 -0.1244945 3.0817287 2894892
0.74056733 -0.074680254 3.0821693 2894892
0.74042118 -0.02490654 3.0812886 2894892
0.74041426 0.025531402 3.0813956 2894892
-0.26563761 0.098336913 3.0826447 2039583
-0.2247436 0.098325036 3.0822725 7105644
-0.17491682 0.098310575 3.0818193 10197915
-0.12510481 0.098296128 3.0813661 10197915
-0.075307317 0.098281667 3.0809128 10197915
-0.025524596 0.098267235 3.0804601 10197915
0.02551947 0.098252416 3.0799956 10197915
0.075272672 0.098237969 3.0795429 10197915
0.12501112 0.098223545 3.0790901 10197915
0.17473511 0.098209098 3.0786381 10197915
0.22444434 0.098194681 3.0781858 10197915
0.27541307 0.098179892 3.0777221 10197915
0.32509288 0.098165467 3.0772705 10197915
0.37475789 0.098151036 3.076818 10197915
0.42568141 0.098136283 3.0763547 10197915
0.47531706 0.098121859 3.0759032 10197915
0.52493799 0.098107472 3.0754523 10197915
0.57581627 0.09809269 3.0749891 10197915
0.62540781 0.098078303 3.0745378 10197915
0.67498481 0.098063931 3.0740867 10197915
0.734299 0.081422247 3.0787683 4079166
0.74660635 -0.60168451 3.1232984 6513507
0.7503745 -0.60160458 3.1499801 6513507
0.74657869 -0.5757845 3.1231823 4934475
0.75034642 -0.57548338 3.1498623 4934475
0.74652463 -0.52528447 3.1229568 2894892
0.75029302 -0.52585775 3.1496379 2894892
0.74647063 -0.47479177 3.1227303 2894892
0.75023824 -0.47493368 3.1494081 2894892
0.74641788 -0.4256008 3.1225102 2894892
0.75018352 -0.42401704 3.1491783 2894892
0.74636394 -0.37512261 3.1222842 2894892
