# .PCD v0.7 - Point Cloud Data file format
VERSION 0.7
FIELDS x y z rgb
SIZE 4 4 4 4
TYPE F F F U
COUNT 1 1 1 1
WIDTH 1146
HEIGHT 1
VIEWPOINT 0 0 0 1 0 0 0
POINTS 1146
DATA ascii
-0.34961626 -0.18484566 0.70266163 11711154
-0.36339393 -0.12502053 0.72551578 11711154
-0.34822792 -0.12109964 0.70103854 11711154
-0.36438158 -0.075443618 0.72759539 9342606
-0.34935647 -0.075159661 0.70331079 9539985
-0.36282843 -0.024967566 0.72557706 6513507
-0.34774801 -0.023593731 0.7012133 6513507
-0.36389771 0.024679957 0.72778869 9145227
-0.34886098 0.025079019 0.70348668 9211020
-0.36283728 0.075719818 0.72657174 10197915
-0.34793815 0.070952602 0.70244181 10197915
-0.56477857 0.11289537 0.73013777 10197915
-0.52499264 0.11282042 0.72425377 10197915
-0.47550318 0.11268777 0.72424155 10197915
-0.42499763 0.11255109 0.72445387 10197915
-0.37658158 0.11133052 0.72188491 10197915
-0.34806955 0.10764282 0.70258689 10197915
-0.40753832 -0.3526836 0.79465401 11711154
-0.40597335 -0.32729247 0.79237157 9671571
-0.39065275 -0.32149398 0.76766396 10197915
-0.40450177 -0.27381155 0.79051417 5987163
-0.38932726 -0.27465686 0.76597691 6447714
-0.40540802 -0.22621992 0.79244268 11184810
-0.38914773 -0.22504094 0.76617116 9934743
-0.40470406 -0.17302811 0.79182327 11711154
-0.38973275 -0.17497998 0.76760375 11711154
-0.4047578 -0.12506045 0.79237771 11711154
-0.38838252 -0.12500536 0.76590836 11711154
-0.40437818 -0.075289778 0.7922489 8618883
-0.38941348 -0.074395314 0.76806778 8750469
-0.40449044 -0.02272247 0.79294282 6513507
-0.38833073 -0.02590593 0.76679033 6513507
-0.40390104 0.023070583 0.79243624 8816262
-0.38875946 0.025412811 0.76798379 9145227
-0.4048121 0.07488884 0.79441398 10197915
-0.38856789 0.074983217 0.76815706 10197915
-0.6119405 0.11272971 0.78416038 10197915
-0.57534456 0.11268904 0.77351928 10197915
-0.52485299 0.11254992 0.774207 10197915
-0.47499284 0.11241066 0.77521431 10197915
-0.42424619 0.11194438 0.77501357 10197915
-0.39033225 0.10974617 0.76375258 10197915
-0.4282136 -0.36018386 0.82800156 11711154
-0.4256936 -0.32421085 0.82427841 7829367
-0.42545131 -0.27558538 0.82436055 6579300
-0.42510122 -0.22444002 0.82429314 11711154
-0.42487955 -0.17503464 0.82441652 11711154
-0.42452425 -0.12530507 0.82432663 11711154
-0.42386752 -0.07497514 0.82375556 8224125
-0.42415297 -0.025817679 0.82469606 6513507
-0.42314744 0.02549742 0.82357055 9145227
-0.42373624 0.074338689 0.82499874 10197915
-0.65829682 0.11256294 0.83798927 10197915
-0.62390411 0.1125454 0.82416999 10197915
-0.57486212 0.11241154 0.82459706 10197915
-0.52519435 0.11228164 0.82397199 10197915
-0.47502744 0.11214016 0.8252492 10197915
-0.43226761 0.11061155 0.82105482 10197915
-0.4612124 -0.37184197 0.88122863 10461087
-0.44473708 -0.36589721 0.85465473 11579568
-0.46186391 -0.32531455 0.88273478 6513507
-0.44591394 -0.32518238 0.85695404 6579300
-0.46041271 -0.27372625 0.8808921 8816262
-0.4461455 -0.27563009 0.85781127 7631988
-0.46057826 -0.22513039 0.88163316 11711154
-0.44464356 -0.22513798 0.85587549 11711154
-0.46094778 -0.17637156 0.88270628 11711154
-0.44619486 -0.17505565 0.85887158 11711154
-0.46016097 -0.1236399 0.88194847 11711154
-0.44471106 -0.12695749 0.85694134 11711154
-0.46056592 -0.075615786 0.88307053 7631988
-0.44493148 -0.075149253 0.85780287 7895160
-0.46010333 -0.025038335 0.8828153 6513507
-0.44507006 -0.022757702 0.8585372 6513507
-0.46005407 0.026114246 0.88323432 9145227
-0.44449371 0.022724932 0.85804927 8684676
-0.45958045 0.073579848 0.88293189 10197915
-0.44456613 0.077282034 0.85869783 10197915
-0.70483136 0.11239635 0.89186639 10197915
-0.67136455 0.11239405 0.87570268 10197915
-0.62499213 0.11227761 0.87421733 10197915
-0.5751431 0.11213537 0.87579018 10197915
-0.52499229 0.11200551 0.8749252 10197915
-0.47551587 0.11124936 0.87327147 10197915
-0.44475946 0.10813172 0.85721838 10197915
-0.50006455 -0.40153733 0.94374168 11711154
-0.49062493 -0.40802437 0.92841941 11711154
-0.50102389 -0.37487128 0.94555217 7763574
-0.48510164 -0.37502003 0.91981238 8882055
-0.50264871 -0.32971799 0.94861877 6513507
-0.48661521 -0.32470053 0.92275017 6316128
-0.50003791 -0.2506063 0.94516933 11711154
-0.48590907 -0.27512646 0.92209196 9934743
-0.50095809 -0.22476868 0.94690865 11711154
-0.4851197 -0.22503251 0.92130429 11711154
-0.50222534 -0.18916763 0.94930428 11711154
-0.48527324 -0.1739541 0.92204988 11711154
-0.48596996 -0.12505965 0.92365241 11711154
-0.50086445 -0.075017169 0.94821662 6842472
-0.48489308 -0.074549653 0.92240429 7171437
-0.50177401 -0.049193498 0.9499386 6513507
-0.48434177 -0.025004555 0.9219963 6513507
-0.48602533 0.024993733 0.92520511 8882055
-0.50052243 0.068025656 0.94905794 10197915
-0.48367739 0.075720817 0.92190385 10197915
-0.75046301 0.11223704 0.94395638 10197915
-0.71849722 0.11223178 0.9290725 10197915
-0.67546505 0.11214187 0.92435366 10197915
-0.62501025 0.1119987 0.92579281 10197915
-0.57501566 0.11186997 0.92479861 10197915
-0.52503854 0.11174195 0.92367309 10197915
-0.48756808 0.10959525 0.91787344 10197915
-0.52110398 -0.41845354 0.97758603 11250603
-0.51804829 -0.37525013 0.97306806 6842472
-0.51910508 -0.32426709 0.97527301 6316128
-0.51816845 -0.27559394 0.97423208 11645361
-0.51765019 -0.2248866 0.97388971 11711154
-0.51778901 -0.17385738 0.97461033 11711154
-0.51723653 -0.12607224 0.97418326 11645361
-0.51746118 -0.07503695 0.97504348 6645093
-0.51653975 -0.024871871 0.97404313 6513507
-0.51627821 0.02406634 0.97409779 8750469
-0.51613063 0.076083682 0.97436661 10197915
-0.76543874 0.11207528 0.98128474 10197915
-0.7256574 0.11200273 0.97496992 10197915
-0.67495912 0.11186776 0.97477841 10197915
-0.62503266 0.11173955 0.97371227 10197915
-0.57422793 0.11160243 0.97386551 10197915
-0.52836323 0.11033034 0.97118938 10197915
-0.55944884 -0.4573839 1.0391889 11711154
-0.54518795 -0.45214796 1.016188 11711154
-0.55783492 -0.42766392 1.0368698 9342606
-0.54308826 -0.42493618 1.0130593 10000536
-0.55792654 -0.37502277 1.0375305 6513507
-0.54199982 -0.37469059 1.0117896 6513507
-0.55777705 -0.32243967 1.0378014 8816262
-0.54225302 -0.32768819 1.0126566 7237230
-0.55691516 -0.27752751 1.036846 11711154
-0.54183352 -0.273325 1.0125086 11711154
-0.557356 -0.22512461 1.0380695 11711154
-0.54149967 -0.22508347 1.0124388 11711154
-0.55796999 -0.17252606 1.0395741 11711154
-0.54255027 -0.17724867 1.0146033 11711154
-0.55598259 -0.12726696 1.0368032 11184810
-0.54061431 -0.12242101 1.0120083 11316396
-0.55678487 -0.075070389 1.0386087 6513507
-0.54108202 -0.074843101 1.0132284 6513507
-0.55841208 -0.024084391 1.0417362 6513507
-0.54277438 -0.025639601 1.0164441 6513507
-0.55500007 0.023266779 1.0366819 8553090
-0.53946042 0.026876014 1.0115982 9013641
-0.55617738 0.074923679 1.0390885 10197915
-0.54064363 0.075067855 1.0139805 10197915
-0.81080461 0.11191863 1.0327588 10197915
-0.77491331 0.11185589 1.0265539 10197915
-0.72480816 0.11172753 1.0254353 10197915
-0.67481649 0.11160003 1.0242059 10197915
-0.6249398 0.11147226 1.0230926 10197915
-0.57549787 0.11097714 1.0235885 10197915
-0.54299438 0.10833906 1.0140136 10197915
-0.58297241 -0.46573094 1.0771325 11711154
-0.58136743 -0.42361292 1.0749483 7171437
-0.58064288 -0.37628135 1.0742381 6381921
-0.58039099 -0.32510144 1.0743294 9737364
-0.58020443 -0.27380192 1.0745288 11711154
-0.57992065 -0.22635558 1.0745325 11711154
-0.57956392 -0.17514521 1.0744543 11711154
-0.57905328 -0.12389438 1.0741284 10658466
-0.57917374 -0.076134145 1.0747887 6513507
-0.57875562 -0.025029207 1.0746108 6513507
-0.57791191 0.025756221 1.0737426 8750469
-0.57845026 0.073898442 1.0750816 10197915
-0.85723191 0.11175256 1.0864862 10197915
-0.82337087 0.11171981 1.0757434 10197915
-0.77505004 0.11158212 1.0772319 10197915
-0.72504973 0.11145461 1.076012 10197915
-0.67501515 0.1113259 1.07499 10197915
-0.62494206 0.11119883 1.0736463 10197915
-0.58434081 0.1097849 1.0687681 10197915
-0.61905974 -0.50397265 1.1350929 11711154
-0.61383015 -0.47344375 1.1269368 10066329
-0.59930623 -0.47678694 1.1034271 11711154
-0.61298549 -0.42499179 1.1260436 6513507
-0.6140362 -0.37653741 1.1282147 6052956
-0.59692657 -0.35933965 1.1007249 4539717
-0.61355907 -0.32490546 1.1279466 11711154
-0.59837788 -0.32545847 1.1034017 11184810
-0.61268896 -0.27372214 1.1270387 11711154
-0.59971982 -0.29413205 1.1058758 11711154
-0.61342907 -0.22596042 1.1287009 11711154
-0.59600115 -0.20839344 1.1007001 11711154
-0.61235482 -0.17499892 1.1274607 11711154
-0.59741175 -0.17504929 1.1033055 11711154
-0.6134041 -0.12346753 1.1296589 9803157
-0.5992316 -0.13203403 1.1066663 11711154
-0.61275965 -0.075189903 1.1290877 6513507
-0.5950374 -0.05836226 1.1006047 6513507
-0.61125261 -0.025045842 1.1271409 6513507
-0.59642661 -0.02512203 1.1031742 6513507
-0.61339653 0.025006745 1.1310937 8618883
-0.59851223 0.024780318 1.1070318 8618883
-0.61244518 0.076024964 1.1300539 10197915
-0.5964579 0.077081636 1.104221 10197915
-0.90489715 0.11157164 1.1435788 10197915
-0.87141168 0.11157833 1.1257269 10197915
-0.82530665 0.11145722 1.1252528 10197915
-0.77500945 0.11132733 1.1243211 10197915
-0.72455907 0.11119428 1.1238984 10197915
-0.67516369 0.11104912 1.1262344 10197915
-0.62649381 0.11009768 1.1229339 10197915
-0.59557945 0.10737777 1.1018053 10197915
-0.65421957 -0.5164566 1.1918054 11711154
-0.63893485 -0.51103038 1.1671511 11711154
-0.65616798 -0.47539681 1.1953546 7303023
-0.63902009 -0.47516778 1.1676385 8487297
-0.65477413 -0.42498383 1.1935928 6513507
-0.63980132 -0.42736262 1.1693671 6513507
-0.65220201 -0.37464339 1.1899257 8289918
-0.63764393 -0.37268549 1.1664125 7829367
-0.65452689 -0.32502231 1.1941676 11711154
-0.63757604 -0.32513073 1.1667664 11711154
-0.6567083 -0.27845657 1.1981478 11711154
-0.63986826 -0.27487993 1.1709614 11711154
-0.65086299 -0.21875271 1.1892807 11711154
-0.63829023 -0.22516875 1.1688955 11711154
-0.65288842 -0.17494488 1.1929817 11711154
-0.6361475 -0.17499968 1.1659205 11711154
-0.65519881 -0.12497442 1.1972034 9408399
-0.63834476 -0.12504546 1.1699589 9671571
-0.65536404 -0.087800309 1.1978326 6513507
-0.64033306 -0.075048916 1.17366 6513507
-0.65125322 -0.025166355 1.1917982 6513507
-0.63472795 -0.02492436 1.1650883 6513507
-0.65353304 0.024788113 1.1959702 8487297
-0.63695031 0.025040774 1.1691676 8553090
-0.65519011 0.061101127 1.1990029 10197915
-0.63918078 0.075191826 1.173262 10197915
-0.95023632 0.11141385 1.1952376 10197915
-0.91889828 0.11141793 1.1789376 10197915
-0.87488854 0.1113292 1.1735157 10197915
-0.82494396 0.11120285 1.1721014 10197915
-0.77457076 0.11107185 1.1713334 10197915
-0.72562933 0.11092079 1.1749872 10197915
-0.67543936 0.11077206 1.1775937 10197915
-0.64065987 0.10866331 1.1686648 10197915
-0.6872645 -0.55347568 1.2448598 11711154
-0.67482805 -0.52488226 1.2250357 11184810
-0.67420357 -0.47514501 1.2245104 6579300
-0.67444801 -0.42317265 1.2254124 6250335
-0.67366099 -0.3759909 1.2246003 9474192
-0.67231053 -0.3250719 1.2229135 11711154
-0.67398471 -0.27392825 1.226118 11711154
-0.67254335 -0.22480735 1.2242671 11711154
-0.67178947 -0.17642869 1.2235196 11711154
-0.67276055 -0.12489919 1.2255913 4144959
-0.67135584 -0.073957838 1.2238173 3026478
-0.67181277 -0.026443811 1.2250192 3223857
-0.67093617 0.025033373 1.2241043 6908265
-0.67063105 0.076722898 1.2241144 10197915
-0.9657405 0.11124837 1.2335256 10197915
-0.92500442 0.11118282 1.2254432 10197915
-0.87506866 0.1110561 1.2240962 10197915
-0.82503802 0.11092992 1.2226107 10197915
-0.77549994 0.11080213 1.2216651 10197915
-0.72505456 0.11064802 1.2251425 10197915
-0.6804105 0.10913604 1.2216752 10197915
-0.71429312 -0.56313473 1.2884562 11711154
-0.69872415 -0.55740768 1.2633454 11711154
-0.71054983 -0.5251565 1.2827749 8487297
-0.69414145 -0.52471673 1.2562561 9868950
-0.70793176 -0.47527224 1.2790295 6513507
-0.69309145 -0.47521713 1.2550412 6513507
-0.71044749 -0.42514899 1.2835842 6184542
-0.69559598 -0.42527425 1.2595766 5460819
-0.71302062 -0.37491778 1.288233 11711154
-0.69675618 -0.37227559 1.2619685 11579568
-0.70810443 -0.32475668 1.2807754 11711154
-0.69275427 -0.32884479 1.2559229 11711154
-0.70804685 -0.27519807 1.2811656 11711154
-0.69342065 -0.27506134 1.2575239 11711154
-0.71061903 -0.22530486 1.2858093 11711154
-0.69588047 -0.22532246 1.2619852 11711154
-0.71254015 -0.17698871 1.2893854 11645361
-0.69434786 -0.17230876 1.2600243 11711154
-0.70622385 -0.12336502 1.2796984 2039583
-0.69249409 -0.1278699 1.2574607 3158064
-0.70817572 -0.075216912 1.2833228 2039583
-0.69370037 -0.07514929 1.2599245 2039583
-0.71072525 -0.025063375 1.2879328 2039583
-0.69409907 -0.020995321 1.2610967 2039583
-0.71079487 0.020777972 1.2884917 4934475
-0.69380677 0.024831748 1.2610713 6052956
-0.70602971 0.075878151 1.2813262 10197915
-0.69219315 0.073254898 1.2589347 10197915
-1.0114076 0.11108852 1.2857299 10197915
-0.9750582 0.11104213 1.2762768 10197915
-0.92509294 0.11091559 1.2748901 10197915
-0.87497407 0.11078867 1.2734963 10197915
-0.82496941 0.11066268 1.271983 10197915
-0.77393568 0.1105106 1.2747941 10197915
-0.72541881 0.10994815 1.2737426 10197915
-0.69408047 0.10858727 1.2568474 10197915
-0.74905908 -0.60091805 1.3442851 11711154
-0.75093073 -0.56668061 1.3476443 10526880
-0.73725611 -0.57400286 1.3254685 11711154
-0.75204611 -0.54628146 1.3496457 6513507
-0.73457068 -0.52291906 1.3216252 6776679
-0.7339052 -0.47519442 1.3210145 6513507
-0.73649728 -0.42492709 1.3256952 7566195
-0.75058419 -0.36718562 1.349028 11711154
-0.73669386 -0.37744254 1.326475 11711154
-0.73223305 -0.32333568 1.3197916 11711154
-0.73377079 -0.27525795 1.3227463 11711154
-0.73638666 -0.22527646 1.327461 11711154
-0.75000221 -0.17170073 1.3499925 11711154
-0.73583657 -0.17599662 1.3270528 10395294
-0.73105597 -0.12483351 1.3198235 2039583
-0.73363572 -0.074792095 1.3244814 2039583
-0.73620689 -0.02494817 1.3291241 2039583
-0.73170173 0.025354685 1.3223315 5987163
-0.73088986 0.074835345 1.3215009 10197915
-1.058249 0.11091581 1.3408942 10197915
-1.0237502 0.1109024 1.3262576 10197915
-0.97499239 0.11078462 1.3238523 10197915
-0.92499328 0.1106592 1.3222452 10197915
-0.87496454 0.11053275 1.3208054 10197915
-0.82478493 0.11040479 1.3195736 10197915
-0.77607328 0.11022753 1.3281858 10197915
-0.73721397 0.10835192 1.3218757 10197915
-0.77315998 -0.61101991 1.3831441 11711154
-0.76766497 -0.57489598 1.3746141 9671571
-0.76533556 -0.52411407 1.3713434 6513507
-0.76742452 -0.47531429 1.3751956 6250335
-0.7685194 -0.42720145 1.3774344 9145227
-0.76620179 -0.37367007 1.37421 11711154
-0.76407468 -0.32514828 1.3712449 11711154
-0.7668913 -0.27518594 1.3762842 11711154
-0.76707804 -0.22753848 1.3770509 11711154
-0.76377797 -0.17232014 1.3722541 9539985
-0.76355964 -0.12507783 1.3723618 4408131
-0.76633888 -0.07511428 1.3773412 2039583
-0.76563549 -0.027309777 1.3766699 2039583
-0.76384443 0.027305508 1.374307 6184542
-0.74941999 0.02406914 1.3509593 4868682
-0.76320684 0.075129174 1.3737425 10197915
-1.1058376 0.11073875 1.3972386 10197915
-1.0722888 0.11073913 1.38053 10197915
-1.0252279 0.11063423 1.3765752 10197915
-0.97492611 0.11050797 1.3749667 10197915
-0.92488182 0.11038218 1.3733979 10197915
-0.87509912 0.11025684 1.3718826 10197915
-0.82527667 0.11013123 1.3703973 10197915
-0.77771902 0.10897162 1.3741153 10197915
-0.80800045 -0.62134331 1.4393617 11711154
-0.79284739 -0.61455661 1.4149338 11711154
-0.81073874 -0.57498091 1.4442396 6776679
-0.79180312 -0.57506335 1.4136306 8092539
-0.80624831 -0.52677751 1.4374503 6513507
-0.79020011 -0.5282765 1.4114952 6513507
-0.80379957 -0.47525355 1.433995 5987163
-0.79134071 -0.47502264 1.4138582 5395026
-0.8067162 -0.42510557 1.439198 11711154
-0.79115522 -0.42056042 1.4140886 11711154
-0.80962014 -0.3751744 1.4443787 11711154
-0.79096413 -0.37494186 1.4142245 11711154
-0.80693477 -0.32491082 1.4405278 11711154
-0.79166603 -0.32875183 1.4158089 11711154
-0.80278754 -0.27510735 1.4343092 11711154
-0.79050225 -0.27481514 1.4144539 11711154
-0.80566734 -0.22480825 1.4394549 11711154
-0.78934979 -0.2209743 1.4131155 11711154
-0.80853426 -0.17473881 1.4445769 9211020
-0.79009187 -0.17522658 1.4147605 9671571
-0.80865455 -0.12914142 1.4452155 5460819
-0.79229027 -0.1265844 1.4187889 4934475
-0.80177486 -0.074873269 1.434624 2039583
-0.78963059 -0.075021312 1.414992 2039583
-0.8045848 -0.025035456 1.4396518 2039583
-0.78780597 -0.021877984 1.4125602 2039583
-0.80741429 0.025152905 1.4447148 5329233
-0.78916526 0.024933942 1.4152136 5395026
-0.8096171 0.064221643 1.448656 10197915
-0.79197967 0.074736029 1.4202487 10197915
-1.1193528 0.11059297 1.4308871 10197915
-1.0750555 0.11049898 1.4262898 10197915
-1.0250406 0.11037355 1.4246713 10197915
-0.97494191 0.11024792 1.4230498 10197915
-0.92361385 0.11010857 1.4233508 10197915
-0.87494308 0.10995843 1.4269725 10197915
-0.82571137 0.10983993 1.4244623 10197915
-0.79269588 0.10774127 1.4143728 10197915
-0.83535469 -0.6588552 1.4832129 11711154
-0.82750475 -0.62490046 1.4708545 10658466
-0.83051318 -0.57518595 1.4762015 6513507
-0.83039987 -0.52287799 1.4765284 6513507
-0.82912958 -0.47640091 1.474928 7039851
-0.82615429 -0.4249585 1.4706205 11711154
-0.82912058 -0.37512159 1.4759012 11711154
-0.82885981 -0.32257423 1.475992 11711154
-0.82837045 -0.27511656 1.4756629 11711154
-0.82480311 -0.22507803 1.470384 11711154
-0.82773036 -0.17513399 1.4756029 8882055
-0.82740408 -0.12252846 1.4755877 3750201
-0.82709843 -0.074969828 1.4755579 2039583
-0.82440382 -0.025995277 1.4716787 2039583
-0.82643658 0.025076566 1.4754626 5131854
-0.82593113 0.077665649 1.4751587 10197915
-1.1634291 0.1104515 1.4789082 10197915
-1.1250004 0.11038478 1.4721811 10197915
-1.074784 0.11025982 1.4703803 10197915
-1.0234793 0.11009957 1.4745575 10197915
-0.97506475 0.10996958 1.4745843 10197915
-0.92615366 0.10983918 1.4744259 10197915
-0.8749727 0.1096781 1.4788266 10197915
-0.8333652 0.10818169 1.4732751 10197915
-0.86807173 -0.66842401 1.5360053 11711154
-0.84621006 -0.65657312 1.5007821 11711154
-0.86546463 -0.62912738 1.5321733 8553090
-0.84816456 -0.62504661 1.5042486 9276813
-0.85877973 -0.57390469 1.5219059 6513507
-0.84983051 -0.59819067 1.5072032 6513507
-0.86146092 -0.52529478 1.526713 6316128
-0.86459982 -0.4751499 1.5322765 9276813
-0.84475517 -0.45376813 1.5004067 11711154
-0.86547291 -0.42891625 1.5341382 11711154
-0.84648597 -0.42540789 1.5034809 11711154
-0.86016351 -0.37063289 1.5261238 11711154
-0.84900069 -0.38419902 1.5079476 11711154
-0.85970402 -0.324882 1.5258271 11711154
-0.86268729 -0.27497786 1.5311353 11711154
-0.84333885 -0.25045362 1.5000988 11711154
-0.86493438 -0.22698392 1.5352356 11711154
-0.84488231 -0.22474717 1.5028441 11711154
-0.86176765 -0.17500183 1.530623 8158332
-0.84787333 -0.17493349 1.5081643 8421504
-0.85887557 -0.1225675 1.5264593 3355443
-0.84969217 -0.14464104 1.5113997 6513507
-0.86077756 -0.075102694 1.5299962 2039583
-0.86380315 -0.025112405 1.5353744 2039583
-0.84339011 -0.022395711 1.502404 2039583
-0.86076897 0.023097951 1.5309393 4605510
-0.84619033 0.024994325 1.5073923 4934475
-0.86049479 0.07822413 1.531034 10197915
-0.84882247 0.069543324 1.5120815 10197915
-1.2101462 0.11028261 1.5333028 10197915
-1.1746055 0.110253 1.5211476 10197915
-1.124807 0.11013095 1.5190117 10197915
-1.073525 0.10998608 1.5203625 10197915
-1.0268371 0.10981458 1.5289099 10197915
-0.97519559 0.10966942 1.5301341 10197915
-0.92511487 0.10954371 1.5285335 10197915
-0.87585479 0.10879713 1.5247949 10197915
-0.84863931 0.10944132 1.5095271 10197915
-0.90268749 -0.70619226 1.5915914 11711154
-0.88746303 -0.70049202 1.5670373 11711154
-0.90473187 -0.67539346 1.595196 10461087
-0.88911849 -0.675116 1.5699606 11513775
-0.90691042 -0.64258671 1.5990373 6513507
-0.88617879 -0.62221509 1.565724 6513507
-0.888008 -0.57526523 1.5691385 6513507
-0.90029961 -0.50382483 1.5897037 9276813
-0.89038306 -0.52721655 1.573446 5263440
-0.90221268 -0.47452071 1.5930811 11711154
-0.88677996 -0.47553211 1.5681254 11184810
-0.90496939 -0.43228599 1.5979495 11711154
-0.88564658 -0.42081946 1.5668266 11711154
-0.88563615 -0.37496731 1.5672569 11711154
-0.88890064 -0.32515451 1.5730188 11711154
-0.90065378 -0.25930682 1.5926594 11711154
-0.88996762 -0.27866009 1.5751967 11711154
-0.90286326 -0.22487427 1.5965661 11711154
-0.88565916 -0.22167164 1.5687882 11711154
-0.90462017 -0.197492 1.5996729 11711154
-0.88326961 -0.17510824 1.5653789 7763574
-0.88659579 -0.12496204 1.5712444 3223857
-0.8896389 -0.074777111 1.5766534 2039583
-0.90092617 -0.015197337 1.5954782 2039583
-0.88935471 -0.029105179 1.576638 2039583
-0.90267897 0.01258688 1.5985824 2039583
-0.88148469 0.02589415 1.5644528 4802889
-0.88429731 0.074784055 1.5694757 10197915
-1.2573478 0.11010286 1.5899518 10197915
-1.2232451 0.11009635 1.5742317 10197915
-1.1749134 0.10998499 1.570855 10197915
-1.1250465 0.1098608 1.5690815 10197915
-1.0770967 0.10973044 1.5693959 10197915
-1.0237378 0.10955468 1.5754296 10197915
-0.9749307 0.10939214 1.5812691 10197915
-0.92519569 0.1092701 1.5791656 10197915
-0.88910794 0.10745095 1.5686109 10197915
-0.92819756 -0.71468276 1.6327443 11711154
-0.92800605 -0.67714739 1.6328005 9013641
-0.91772854 -0.62171543 1.6167274 6513507
-0.91943753 -0.57482427 1.6199473 6513507
-0.92290127 -0.52472174 1.6260339 7039851
-0.92613077 -0.4749018 1.6317399 11711154
-0.92144513 -0.42517763 1.6246511 11711154
-0.91668308 -0.37521169 1.6174399 11711154
-0.91987789 -0.32511505 1.6230924 11711154
-0.9233042 -0.27466342 1.6291227 11711154
-0.92574936 -0.22670102 1.6335427 11711154
-0.91441226 -0.17402452 1.61573 6908265
-0.91703194 -0.12519364 1.6204405 2763306
-0.92027336 -0.075104751 1.6261684 2039583
-0.92362154 -0.025002839 1.6320688 2039583
-0.91790682 0.025351651 1.6233221 4671303
-0.91436583 0.075088628 1.6180832 10197915
-1.3053619 0.10991801 1.6479368 10197915
-1.2719111 0.10992103 1.6307926 10197915
-1.2250929 0.10982008 1.6262357 10197915
-1.175025 0.10969482 1.6245624 10197915
-1.1250725 0.10957164 1.6225563 10197915
-1.0747758 0.1094467 1.6207067 10197915
-1.0254434 0.10932045 1.6195831 10197915
-0.9745872 0.10914812 1.6262133 10197915
-0.9293077 0.10804146 1.6225846 10197915
-0.96700937 -0.75422478 1.6950961 11711154
-0.95903254 -0.72667909 1.6824702 11711154
-0.94993889 -0.74475205 1.6675949 11711154
-0.95482904 -0.67496121 1.6761796 7039851
-0.93894863 -0.65514344 1.650703 6513507
-0.95832115 -0.62515819 1.6823093 6513507
-0.94102067 -0.62504673 1.6543453 6513507
-0.96183807 -0.57498789 1.6884838 5987163
-0.94446224 -0.57505351 1.6603959 6513507
-0.96538103 -0.52444935 1.6947027 9737364
-0.94792861 -0.52469319 1.6664898 8289918
-0.95613629 -0.47721386 1.6802202 11711154
-0.94985414 -0.49671891 1.6698753 11711154
-0.95479923 -0.42488062 1.6785685 11711154
-0.93831265 -0.41747671 1.651991 11711154
-0.95824856 -0.37476921 1.6846324 11711154
-0.94119686 -0.37481537 1.6570691 11711154
-0.96167564 -0.32497972 1.6906574 11711154
-0.94459897 -0.32449692 1.6630585 11711154
-0.96507996 -0.2755214 1.6966425 11711154
-0.94797981 -0.27449095 1.6690108 11711154
-0.95235759 -0.22427846 1.6765767 11513775
-0.94064546 -0.21828109 1.6577032 11711154
-0.95467502 -0.17546171 1.6807986 6513507
-0.93798995 -0.17470194 1.6538357 6645093
-0.95808172 -0.12507313 1.6867965 2105376
-0.94128323 -0.12512346 1.659642 2302755
-0.96146554 -0.075023748 1.6927539 2039583
-0.94459969 -0.075193994 1.6654897 2039583
-0.96435076 -0.032348253 1.6978339 2039583
-0.94793963 -0.02491308 1.6713786 2039583
-0.95144165 0.027811134 1.6775532 4408131
-0.93763 0.02938205 1.6552429 5066061
-0.95459759 0.075322591 1.6831179 10197915
-0.93807089 0.074813649 1.6563984 10197915
-1.3180671 0.10978095 1.6795796 10197915
-1.2749326 0.10968674 1.6756018 10197915
-1.225312 0.10956302 1.6738653 10197915
-1.1750846 0.1094393 1.6718271 10197915
-1.1225638 0.10927128 1.6768408 10197915
-1.0751679 0.1091384 1.6778976 10197915
-1.0253447 0.10901497 1.6760057 10197915
-0.9753629 0.10866878 1.673337 10197915
-0.94203466 0.10735936 1.6568495 10197915
-0.98489851 -0.76063317 1.7239505 11711154
-0.98327047 -0.72098845 1.7217051 9737364
-0.98191553 -0.67472982 1.7199656 6513507
-0.98539972 -0.62464809 1.726086 6513507
-0.98830253 -0.57649815 1.7312478 5066061
-0.98338526 -0.52488428 1.723802 11382189
-0.98015875 -0.47119403 1.7191094 11711154
-0.98117936 -0.42504683 1.7212093 11711154
-0.98496902 -0.37504786 1.7278224 11711154
-0.98645937 -0.32810026 1.7306888 11711154
-0.98285449 -0.2751846 1.7253771 11711154
-0.97773373 -0.22479142 1.7175907 10987431
-0.98079586 -0.17524 1.7230238 6118749
-0.98428547 -0.12499724 1.7291543 2039583
-0.98448598 -0.079030283 1.7299265 2039583
-0.97870898 -0.021030579 1.7211534 2039583
-0.97699302 0.024937607 1.7188275 3947580
-0.98025864 0.074679285 1.7245911 10197915
-1.3608704 0.10965367 1.7243491 10197915
-1.3240112 0.10953834 1.7273893 10197915
-1.2745761 0.10941276 1.7260898 10197915
-1.2248073 0.10928859 1.7243549 10197915
-1.1749099 0.10916746 1.722002 10197915
-1.1275321 0.10902096 1.7255943 10197915
-1.075027 0.10886263 1.7288218 10197915
-1.0251617 0.10873945 1.7268649 10197915
-0.98694408 0.10721391 1.723685 10197915
-1.0145005 -0.77051896 1.771704 11711154
-1.0162909 -0.72473264 1.7750443 7829367
-1.0191369 -0.67655796 1.7801138 6513507
-1.0139709 -0.62481397 1.7722684 6513507
-1.0166839 -0.57417393 1.7771468 7039851
-0.999883 -0.55468482 1.7501792 11711154
-1.0117184 -0.52486229 1.7696013 11711154
-1.0152485 -0.47489619 1.7757947 11711154
-1.0175918 -0.42779702 1.780041 11711154
-1.0129331 -0.37533554 1.7730222 11711154
-1.0165895 -0.32508677 1.7794223 11711154
-0.99885219 -0.30828631 1.7509145 11711154
-1.0116004 -0.27339277 1.7718616 11711154
-0.99971461 -0.2962113 1.752426 11711154
-1.0143214 -0.22520509 1.7767292 10197915
-1.0159571 -0.17773284 1.7798362 5987163
-1.0119467 -0.12491714 1.773868 2039583
-1.0154963 -0.075207293 1.7800901 2039583
-0.99777019 -0.062402029 1.7515616 2039583
-1.0121992 -0.021381313 1.775285 2039583
-0.99934262 -0.039971642 1.7543221 2039583
-1.0132784 0.025051851 1.777482 3684408
-1.0145619 0.071718417 1.7800112 10197915
-1.4124627 0.10943456 1.7904465 10197915
-1.374202 0.10942189 1.7738137 10197915
-1.3263668 0.10925868 1.780264 10197915
-1.2752085 0.10912476 1.7796459 10197915
-1.2247823 0.10899955 1.7777833 10197915
-1.1748443 0.10887644 1.7757752 10197915
-1.125018 0.10875359 1.7737718 10197915
-1.0749354 0.10863104 1.7715936 10197915
-1.0262971 0.10811149 1.7683158 10197915
-1.0611117 -0.81246889 1.8466399 11711154
-1.0405531 -0.80539477 1.8134769 11711154
-1.0625877 -0.79368401 1.8492088 11711154
-1.042909 -0.77482396 1.8175832 10987431
-1.0467682 -0.72478563 1.824309 6513507
-1.0512697 -0.66643018 1.8321542 6513507
-1.0441579 -0.68016964 1.8205241 6513507
-1.0544616 -0.62504703 1.8377169 5987163
-1.0337955 -0.62564325 1.8043054 6513507
-1.0583507 -0.57462662 1.8444947 9408399
-1.0375932 -0.57542431 1.8109337 7829367
-1.0609015 -0.54155606 1.8489403 11711154
-1.0414189 -0.52483493 1.8176107 11711154
-1.0452176 -0.4746027 1.8242407 11711154
-1.0504365 -0.40559071 1.8333495 11711154
-1.0442303 -0.42479125 1.8231302 11711154
-1.0527868 -0.37451163 1.8374515 11711154
-1.0324774 -0.37529534 1.8046145 11711154
-1.0565562 -0.32466805 1.8440301 11711154
-1.0361621 -0.32561433 1.8110551 11711154
-1.0592155 -0.28950095 1.8486718 11711154
-1.0398734 -0.27557752 1.8175417 11711154
-1.0436112 -0.22518095 1.8240749 9671571
-1.0430235 -0.17086953 1.8236541 6250335
-1.0514474 -0.11952615 1.8377713 6513507
-1.0347576 -0.12867485 1.8107044 5789784
-1.0547057 -0.075594082 1.8434666 6513507
-1.0347853 -0.075023673 1.8112715 6513507
-1.0575298 -0.03751884 1.8484024 6513507
-1.0384374 -0.024835818 1.8176638 6513507
-1.04206 0.024951382 1.8240052 7171437
-1.0411364 0.079259261 1.8230414 10197915
-1.4586747 0.10926683 1.844378 10197915
-1.4243827 0.10924458 1.8314799 10197915
-1.3750502 0.10912523 1.8290756 10197915
-1.3254471 0.10900225 1.8272152 10197915
-1.2751726 0.10887959 1.8249636 10197915
-1.2250171 0.10875521 1.8230743 10197915
-1.1749678 0.10863308 1.8208318 10197915
-1.1250414 0.10850926 1.8189518 10197915
-1.0748348 0.10838581 1.8168814 10197915
-1.0395592 0.1067682 1.8123318 10197915
-1.0823762 -0.82053858 1.880934 11711154
-1.0766876 -0.77273947 1.8722041 8487297
-1.0790052 -0.72520876 1.8764141 6513507
-1.0769902 -0.67935789 1.8736038 6513507
-1.0758499 -0.62517118 1.8722885 5066061
-1.0797749 -0.57529372 1.8791193 11447982
-1.0752993 -0.52157843 1.8724082 11711154
-1.0768776 -0.47466531 1.875417 11711154
-1.076836 -0.42871484 1.8757977 11711154
-1.0737902 -0.37445465 1.8714029 11711154
-1.0776477 -0.32444602 1.8781253 11711154
-1.0738803 -0.2710619 1.8725559 11711154
-1.0746945 -0.22515067 1.8743191 9013641
-1.0766433 -0.17758794 1.8779336 6513507
-1.0716754 -0.12474235 1.8704176 6513507
-1.0754642 -0.074638188 1.8770306 6513507
-1.072615 -0.020727921 1.8729506 6513507
-1.0725719 0.024849448 1.8733248 7039851
-1.0759841 0.074775793 1.8793277 10197915
-1.5032581 0.10911377 1.8947957 10197915
-1.4721588 0.10909519 1.8828046 10197915
-1.4254344 0.10898931 1.8792036 10197915
-1.3752218 0.10886715 1.876884 10197915
-1.3251238 0.10874317 1.8749591 10197915
-1.2751352 0.10862154 1.8726497 10197915
-1.2252651 0.10849811 1.870734 10197915
-1.1751039 0.10837502 1.8686115 10197915
-1.124662 0.10825226 1.8662837 10197915
-1.0806031 0.1077631 1.862311 10197915
-1.1167811 -0.86154228 1.9361488 11711154
-1.1047533 -0.8251735 1.91706 11711154
-1.1088183 -0.77559876 1.9241145 6645093
-1.1129148 -0.72565866 1.9312229 6513507
-1.117041 -0.67534769 1.9383831 6513507
-1.0947276 -0.66676027 1.9023987 6513507
-1.1204941 -0.62469608 1.9444585 7237230
-1.0979971 -0.62605691 1.90808 5723991
-1.1048955 -0.57807249 1.9196984 11711154
-1.1061319 -0.52477944 1.9222164 11711154
-1.1101515 -0.47473645 1.9292018 11711154
-1.1141379 -0.42510578 1.9361295 11711154
-1.092626 -0.41199633 1.9014839 11711154
-1.1181531 -0.37511727 1.9431067 11711154
-1.0955244 -0.37516379 1.9065282 11711154
-1.1120409 -0.32543522 1.9337105 11711154
-1.0987411 -0.33429033 1.9121259 11711154
-1.1033884 -0.27523538 1.9202138 11711154
-1.1073322 -0.2251237 1.9270769 8355711
-1.111304 -0.17465253 1.9339893 6513507
-1.0906464 -0.1559182 1.9007797 6513507
-1.1152419 -0.124616 1.9408422 6513507
-1.0930557 -0.1246803 1.9049786 6513507
-1.1188285 -0.079041801 1.9470836 6513507
-1.0968707 -0.075222567 1.9116271 6513507
-1.1013238 -0.017486831 1.9193883 6513507
-1.0993665 -0.042861931 1.9159772 6513507
-1.1045805 0.024737703 1.9250643 6974058
-1.1084145 0.074442156 1.931746 10197915
-1.0886688 0.099971764 1.9000771 10197915
-1.5207119 0.10893039 1.9373673 10197915
-1.4749182 0.10883769 1.9317877 10197915
-1.4249043 0.1087164 1.9294024 10197915
-1.3749881 0.1085931 1.9274461 10197915
-1.3251963 0.10847236 1.9250712 10197915
-1.2750955 0.10834971 1.922895 10197915
-1.2247074 0.10822522 1.9209169 10197915
-1.1748359 0.10810315 1.9187504 10197915
-1.1253636 0.10762941 1.9173467 10197915
-1.0925851 0.10650184 1.9016597 10197915
-1.1504591 -0.85521501 1.9906483 11711154
-1.142374 -0.86934012 1.9774417 11711154
-1.1530546 -0.82489294 1.9951392 8487297
-1.1283895 -0.82541698 1.9552644 10197915
-1.1555263 -0.79602885 1.9994164 6513507
-1.1326261 -0.77485228 1.9626056 6513507
-1.136829 -0.72468197 1.9698882 6513507
-1.1409975 -0.67491728 1.9771118 6316128
-1.1451969 -0.62478626 1.9843886 8487297
-1.1506881 -0.5592342 1.9939036 11711154
-1.1351825 -0.57648903 1.9686712 11711154
-1.1528201 -0.53378266 1.9975977 11711154
-1.1294121 -0.52449924 1.9598504 11711154
-1.1334679 -0.47504744 1.9668882 11711154
-1.1375527 -0.42523739 1.9739766 11711154
-1.141667 -0.3750689 1.9811162 11711154
-1.1377423 -0.32094306 1.9752994 11711154
-1.1509832 -0.26147115 1.9972823 11711154
-1.134252 -0.27901235 1.9700662 11711154
-1.1522503 -0.24602285 1.999481 11711154
-1.130181 -0.22537047 1.9640088 7895160
-1.1341833 -0.17554258 1.9709638 6513507
-1.1382142 -0.12536061 1.9779681 6513507
-1.1392896 -0.071948349 1.9802276 6513507
-1.1344949 -0.024917917 1.9729352 6513507
-1.150479 0.02733396 1.9992819 6513507
-1.1335663 0.020936098 1.9718812 6842472
-1.1309533 0.075030312 1.9681847 10197915
-1.5604789 0.10883251 1.9751703 10197915
-1.5233752 0.1087323 1.975292 10197915
-1.4748865 0.10855064 1.9848285 10197915
-1.4251821 0.10842805 1.9828417 10197915
-1.3751661 0.10830594 1.9806083 10197915
-1.3248469 0.10818433 1.9781311 10197915
-1.2750528 0.10806277 1.9759077 10197915
-1.2249589 0.10793923 1.9739023 10197915
-1.174969 0.10781845 1.9714402 10197915
-1.1378442 0.10702178 1.9654121 10197915
-1.1719003 -0.90262306 2.0248454 11711154
-1.1743112 -0.87504363 2.029011 11711154
-1.1786773 -0.82514155 2.0365548 6908265
-1.1712511 -0.77304065 2.025059 6513507
-1.1670525 -0.7291888 2.0186996 6513507
-1.165863 -0.6752646 2.017302 5197647
-1.1701729 -0.62491524 2.0247593 10921638
-1.1744453 -0.57499933 2.0321519 11711154
-1.1725185 -0.52040374 2.0295689 11711154
-1.1694291 -0.47586161 2.0250096 11711154
-1.1619687 -0.42456603 2.0134504 11711154
-1.1661191 -0.37501863 2.0206423 11711154
-1.1702995 -0.3251141 2.0278859 11711154
-1.1745096 -0.27485245 2.0351815 11711154
-1.1673726 -0.2230494 2.0241494 6776679
-1.1663706 -0.17893866 2.0229599 6513507
-1.1621501 -0.1253071 2.0166602 6513507
-1.1662399 -0.075442895 2.0237565 6513507
-1.1703579 -0.025226526 2.0309026 6513507
-1.1687822 0.029373407 2.0288885 7039851
-1.1662458 0.075110525 2.0252342 10197915
-1.6086817 0.10864913 2.032985 10197915
-1.5732756 0.10863499 2.0180395 10197915
-1.5255771 0.10852147 2.0153663 10197915
-1.4754003 0.10832443 2.0269094 10197915
-1.4250817 0.10820185 2.0246158 10197915
-1.3748769 0.10807953 2.0223269 10197915
-1.3244789 0.10788011 2.0341995 10197915
-1.2750088 0.10775969 2.0319288 10197915
-1.2252262 0.10763711 2.029896 10197915
-1.1797311 0.10684676 2.0247862 10197915
-1.1976631 -0.91172683 2.0664008 11711154
-1.2016187 -0.86749339 2.0732253 9671571
-1.1993843 -0.8924641 2.0693707 11711154
-1.2054592 -0.82458985 2.0798519 6513507
-1.2099075 -0.77487874 2.0875273 6513507
-1.2143891 -0.72479719 2.095259 6513507
-1.1880732 -0.71776825 2.0527887 6513507
-1.2168999 -0.69673806 2.0995913 6513507
-1.1918317 -0.6748147 2.059283 5723991
-1.1961858 -0.62504959 2.0668066 11711154
-1.201438 -0.56502229 2.075882 11711154
-1.1992015 -0.59058493 2.0720172 11711154
-1.2049911 -0.52441853 2.0820205 11711154
-1.2093691 -0.47438246 2.0895848 11711154
-1.1849109 -0.45272925 2.0502608 11711154
-1.2134835 -0.42735672 2.0966945 11711154
-1.1872401 -0.42551884 2.0542905 11711154
-1.1914959 -0.37579706 2.0616546 11711154
-1.1957824 -0.32571742 2.069072 11711154
-1.2011108 -0.26346511 2.0782919 11513775
-1.1989444 -0.2887747 2.074543 11711154
-1.204376 -0.22532025 2.083941 6513507
-1.2086828 -0.17500496 2.091393 6513507
-1.1840059 -0.16149069 2.0516362 6513507
-1.2122821 -0.13295363 2.0976212 6513507
-1.1870415 -0.12525147 2.0568962 6513507
-1.1912308 -0.07523831 2.0641561 6513507
-1.1954499 -0.024872903 2.0714664 6513507
-1.2008556 0.039657433 2.080833 7039851
-1.1987594 0.014634484 2.0772009 6513507
-1.2038329 0.075200155 2.0859923 10197915
-1.6579895 0.10845035 2.0942018 10197915
-1.6230193 0.10843828 2.0790858 10197915
-1.57465 0.10833006 2.0751054 10197915
-1.5247902 0.10820891 2.0727754 10197915
-1.4754959 0.10808762 2.0707505 10197915
-1.4254147 0.10796725 2.0681567 10197915
-1.3750155 0.1078419 2.0663311 10197915
-1.3252745 0.10764768 2.0775714 10197915
-1.2747548 0.10751945 2.076226 10197915
-1.2228414 0.10696316 2.0759342 10197915
-1.1978315 0.10733256 2.0726173 10197915
-1.2245049 -0.92120731 2.1096966 11711154
-1.2287109 -0.87525421 2.1169434 8421504
-1.2332515 -0.82567251 2.1247661 6513507
-1.2378247 -0.7757225 2.1326451 6513507
-1.2424316 -0.72540039 2.1405828 5987163
-1.2306882 -0.67667854 2.1220746 7434609
-1.2233771 -0.62435228 2.1107666 11711154
-1.2278082 -0.57483429 2.1184118 11711154
-1.2322716 -0.52495438 2.1261127 11711154
-1.2367675 -0.47471234 2.1338701 11711154
-1.2388194 -0.42289287 2.137692 11711154
-1.2277297 -0.3786535 2.1201973 11711154
-1.2224716 -0.3246356 2.1122236 11711154
-1.2268271 -0.27485734 2.1197493 11053224
-1.2312137 -0.22472315 2.1273289 6513507
-1.2355555 -0.1751038 2.1348305 6513507
-1.2333878 -0.12072496 2.1318572 6513507
-1.2259088 -0.079088449 2.1201735 6513507
-1.2214901 -0.025377963 2.1135535 6513507
-1.2257692 0.024617353 2.1209586 6579300
-1.2300788 0.074966267 2.1284156 10197915
-1.6705078 0.10831422 2.1255827 10197915
-1.6248147 0.10820341 2.1234081 10197915
-1.5746593 0.10808177 2.1210208 10197915
-1.5202188 0.10790023 2.1275756 10197915
-1.4745601 0.10775512 2.1317549 10197915
-1.4248267 0.10763302 2.1296568 10197915
-1.375206 0.10751431 2.1269915 10197915
-1.3247907 0.10739059 2.12486 10197915
-1.2744846 0.10727023 2.1221626 10197915
-1.2349101 0.10682808 2.1165698 10197915
-1.2736979 -0.96509951 2.1887867 11711154
-1.249844 -0.95943099 2.1502836 11711154
-1.2530439 -0.92525291 2.1557884 11711154
-1.2577591 -0.87494606 2.1639013 6513507
-1.26243 -0.82510769 2.171937 6513507
-1.2671357 -0.77489555 2.180033 6513507
-1.2718765 -0.72430986 2.1881888 4868682
-1.2764902 -0.67507809 2.1961267 11711154
-1.2486269 -0.65773308 2.1512563 11711154
-1.251984 -0.62106538 2.1570401 11711154
-1.2497175 -0.64582092 2.1531353 11711154
-1.2562246 -0.57474518 2.1643467 11711154
-1.2608116 -0.52464724 2.1722491 11711154
-1.2653515 -0.47505641 2.1800711 11711154
-1.2699246 -0.42510504 2.1879501 11711154
-1.2745308 -0.37479344 2.1958859 11711154
-1.2470223 -0.36010957 2.1515634 11711154
-1.2527649 -0.31610096 2.1612747 11711154
-1.248969 -0.33835235 2.1549222 11711154
-1.2546111 -0.27529928 2.1646569 10461087
-1.2591134 -0.22498761 2.1724246 6513507
-1.263568 -0.17520472 2.1801105 6513507
-1.2680544 -0.12506828 2.1878512 6513507
-1.2725728 -0.074574575 2.1956468 6513507
-1.2454166 -0.062400945 2.1518691 6513507
-1.2565565 -0.015875088 2.1703296 6513507
-1.2482193 -0.030370004 2.1567118 6513507
-1.2530756 0.025130017 2.1651022 6579300
-1.2574145 0.074720562 2.1725996 10197915
-1.718163 0.10813314 2.1826844 10197915
-1.6750249 0.1080652 2.1738489 10197915
-1.6254884 0.10794532 2.171438 10197915
-1.5751312 0.10782677 2.1683831 10197915
-1.5288572 0.10768902 2.1708994 10197915
-1.4751043 0.1074935 2.1803832 10197915
-1.4247094 0.10737167 2.177912 10197915
-1.3744285 0.10725012 2.1754465 10197915
-1.324261 0.10712882 2.1729863 10197915
-1.2745392 0.10641392 2.171551 10197915
-1.3073747 -1.0016701 2.2428675 11711154
-1.3095007 -0.98002076 2.2465148 11711154
-1.2807295 -0.9516595 2.200284 11711154
-1.2832679 -0.9252153 2.2046449 9737364
-1.2880422 -0.87548536 2.2128465 6513507
-1.2928504 -0.82538342 2.2211075 6513507
-1.3000454 -0.75041765 2.2334683 6513507
-1.2976114 -0.77578038 2.2292864 6513507
-1.3024919 -0.72492987 2.2376707 6250335
-1.3072386 -0.6754685 2.2458265 11711154
-1.2811378 -0.62548566 2.2041225 11711154
-1.2858192 -0.57553309 2.2121768 11711154
-1.290535 -0.52521187 2.2202902 11711154
-1.2952853 -0.47452232 2.2284627 11711154
-1.3011662 -0.41176924 2.2385805 11711154
-1.2988071 -0.43694329 2.2345214 11711154
-1.3046371 -0.37473145 2.2445521 11711154
-1.3073571 -0.34570837 2.2492318 11711154
-1.2791708 -0.32411543 2.2038801 11711154
-1.2836798 -0.27486256 2.2116487 9868950
-1.2882208 -0.22526337 2.2194722 6513507
-1.2927942 -0.17530988 2.2273519 6513507
-1.2974 -0.12500258 2.2352874 6513507
-1.3021234 -0.073411949 2.2434254 6513507
-1.2998406 -0.098346189 2.2394922 6513507
-1.3050921 -0.040985901 2.2485399 6513507
-1.2772046 -0.022811405 2.203639 6513507
-1.2814603 0.024745787 2.2109811 6513507
-1.2859094 0.074466571 2.2186575 10132122
-1.761278 0.10800284 2.2281628 10197915
-1.7247965 0.1079148 2.2263465 10197915
-1.6749655 0.10779452 2.2238653 10197915
-1.6252456 0.10767452 2.2213893 10197915
-1.5756364 0.10755479 2.2189193 10197915
-1.5236247 0.10741638 2.2187159 10197915
-1.4752012 0.10721889 2.2312078 10197915
-1.425059 0.10709974 2.2283654 10197915
-1.3750458 0.10697738 2.2261817 10197915
-1.3251259 0.10685878 2.2233515 10197915
-1.2886738 0.10597839 2.2110016 10197915
-1.3391495 -1.0131495 2.2941172 11711154
-1.331636 -0.97837996 2.282311 11711154
-1.3148946 -0.92517626 2.2557678 7566195
-1.3198128 -0.87516773 2.2642055 6513507
-1.3247672 -0.82478559 2.2727056 6513507
-1.3296716 -0.77491659 2.2811186 6184542
-1.3346121 -0.72467697 2.2895944 8289918
-1.3388754 -0.68132412 2.2969084 11711154
-1.3120207 -0.62564516 2.2540414 11711154
-1.3168374 -0.57545602 2.2623169 11711154
-1.32169 -0.52489704 2.2706535 11711154
-1.3264905 -0.47487786 2.2789009 11711154
-1.3312378 -0.42541245 2.2870572 11711154
-1.3360198 -0.37559161 2.2952714 11711154
-1.3120568 -0.32247242 2.2570541 11711154
-1.3140393 -0.2744067 2.2607276 9211020
-1.3187045 -0.22462533 2.2687542 6513507
-1.3234031 -0.17448922 2.2768373 6513507
-1.3280473 -0.12493403 2.2848277 6513507
-1.3327242 -0.075027592 2.2928739 6513507
-1.3179907 -0.024796866 2.2695479 6513507
-1.3111593 0.025283463 2.2589931 6513507
-1.3157243 0.075144455 2.2668586 10132122
-1.8006823 0.10790957 2.2649558 10197915
-1.7718949 0.10776161 2.2780349 10197915
-1.7254223 0.10763312 2.2787361 10197915
-1.674903 0.10750964 2.2765126 10197915
-1.6244987 0.1073902 2.2735927 10197915
-1.5751863 0.10726959 2.27143 10197915
-1.5264093 0.10714832 2.2696579 10197915
-1.4752971 0.10693268 2.2841766 10197915
-1.4254352 0.10681275 2.2816145 10197915
-1.3747103 0.10669078 2.2790091 10197915
-1.3318902 0.10591082 2.2757471 10197915
-1.3718508 -1.0305811 2.346808 11711154
-1.3440627 -0.96439958 2.3025343 9737364
-1.3502799 -0.90274179 2.3131852 6513507
-1.3477513 -0.92782229 2.3088531 6513507
-1.353093 -0.8748374 2.3180048 6513507
-1.3581108 -0.82506669 2.326601 6513507
-1.363166 -0.77492785 2.3352604 4671303
-1.3681656 -0.72533518 2.3438253 11382189
-1.3712378 -0.6948635 2.3490884 11711154
-1.3412851 -0.65681887 2.3010428 11711154
-1.3444245 -0.624897 2.3064284 11711154
-1.3509244 -0.55880243 2.3175788 11711154
-1.3484793 -0.583664 2.313385 11711154
-1.354291 -0.52456754 2.3233547 11711154
-1.3592329 -0.47431484 2.3318324 11711154
-1.3641185 -0.42463616 2.340214 11711154
-1.3682002 -0.38312781 2.3472166 11711154
-1.3410145 -0.3235482 2.3038528 11711154
-1.3456866 -0.27486843 2.3118794 8618883
-1.3513894 -0.21544734 2.321677 6513507
-1.3490293 -0.24003868 2.3176224 6513507
-1.35522 -0.17553696 2.3282578 6513507
-1.3599913 -0.12582079 2.3364551 6513507
-1.3647969 -0.075753227 2.3447104 6513507
-1.367583 -0.046721369 2.3494976 6513507
-1.3383256 -0.015257034 2.302511 6513507
-1.3420876 0.024885587 2.3089833 6513507
-1.3467736 0.07488858 2.3170452 10000536
-1.8561984 0.10764786 2.3408847 6579300
-1.8212317 0.10764222 2.3245788 7763574
-1.7786034 0.10751022 2.3278434 8421504
-1.7250695 0.10733309 2.3340399 9605778
-1.6758413 0.10721493 2.3314703 10197915
-1.62572 0.10709462 2.3288538 10197915
-1.5757109 0.10697457 2.3262434 10197915
-1.5258139 0.10685478 2.3236387 10197915
-1.4750342 0.10673288 2.3209879 10197915
-1.4243693 0.10661127 2.3183432 10197915
-1.3748107 0.10649232 2.3157566 10197915
-1.3482507 0.10466906 2.3179369 10197915
-1.4042352 -1.0663433 2.3988073 11711154
-1.3743726 -1.006184 2.3511217 11711154
-1.3775665 -0.97531271 2.3565857 8289918
-1.3827609 -0.92508948 2.3654714 6513507
-1.3879937 -0.87448853 2.374423 6513507
-1.3931704 -0.82443225 2.3832788 6513507
-1.400423 -0.75430256 2.3956857 11711154
-1.3979007 -0.77869207 2.3913708 5197647
-1.4018831 -0.74018359 2.3981831 11711154
-1.3737637 -0.6698097 2.3534157 11711154
-1.3782762 -0.62505013 2.3611462 11711154
-1.3832926 -0.57529324 2.36974 11711154
-1.388346 -0.52517045 2.3783967 11711154
-1.3934358 -0.47468245 2.3871164 11711154
-1.4005069 -0.40454617 2.3992298 11711154
-1.3979806 -0.42960349 2.3949022 11711154
-1.3706237 -0.35848442 2.3513739 11711154
-1.3739018 -0.32515031 2.3569982 11711154
-1.3788935 -0.27439153 2.3655617 7960953
-1.3838264 -0.22422954 2.3740242 6513507
-1.3886989 -0.17468353 2.3823833 6513507
-1.3936057 -0.12478508 2.3908014 6513507
-1.3975748 -0.084425457 2.3976104 6513507
-1.3700093 -0.021441396 2.3536658 6513507
-1.3745099 0.025450833 2.3613977 6513507
-1.3793237 0.075606845 2.3696678 10000536
-1.8725132 0.10747951 2.3801084 6513507
-1.8252306 0.10736622 2.3775997 6513507
-1.7749715 0.10724581 2.3749335 5723991
-1.7248261 0.10712567 2.3722727 9803157
-1.6747923 0.10700578 2.3696184 10197915
-1.6248709 0.10688619 2.3669698 10197915
-1.5750602 0.10676685 2.3643272 10197915
-1.5228841 0.10661906 2.365772 10197915
-1.4746238 0.10642208 2.3782451 10197915
-1.4247326 0.10630265 2.3755774 10197915
-1.385623 0.10585059 2.3627584 10197915
-1.4054036 -1.0552955 2.4008031 11711154
-1.4085417 -1.0257365 2.4061639 11184810
-1.4138666 -0.97558099 2.4152601 6513507
-1.4192307 -0.92504424 2.4244232 6513507
-1.4245352 -0.87507004 2.4334846 6513507
-1.4297783 -0.82567334 2.4424415 5921370
-1.4333276 -0.79223371 2.4485044 2565927
-1.4045188 -0.71469611 2.4026923 11711154
-1.4086391 -0.67485327 2.4097409 11711154
-1.4137728 -0.62521052 2.4185236 11711154
-1.4189446 -0.57520467 2.4273703 11711154
-1.4241538 -0.52483165 2.4362814 11711154
-1.4293002 -0.47506773 2.445085 11711154
-1.4320383 -0.44859022 2.4497695 11711154
-1.4035335 -0.37452558 2.4044147 11711154
-1.4085388 -0.32487908 2.4129896 11711154
-1.4135799 -0.27487484 2.4216256 7303023
-1.4186574 -0.22451371 2.4303236 6513507
-1.4236711 -0.17478645 2.4389124 6513507
-1.4282128 -0.12973581 2.4466932 6513507
-1.4004936 -0.054745108 2.4026175 6513507
-1.3995193 -0.064653859 2.4009459 6513507
-1.4034265 -0.024922028 2.407649 6513507
-1.4083395 0.025038384 2.4160776 6513507
-1.4132872 0.075349823 2.424566 9868950
-1.9134682 0.10736287 2.4219654 6513507
-1.8747272 0.10727026 2.4198759 6513507
-1.8245636 0.10715029 2.4171698 6513507
-1.7745122 0.1070306 2.4144702 5131854
-1.7245722 0.10691121 2.4117763 10132122
-1.6706508 0.10670476 2.4232037 10197915
-1.6251051 0.10656547 2.4263616 10197915
-1.575605 0.1064449 2.4241025 10197915
-1.5266639 0.10632322 2.4223242 10197915
-1.4752342 0.10609528 2.4389582 10197915
-1.4321146 0.10558831 2.4354692 10197915
-1.4413618 -1.07362 2.4587491 11711154
-1.4467227 -1.0244473 2.4678943 8553090
-1.4524357 -0.97204125 2.4776392 6513507
-1.449728 -0.99687988 2.4730203 6513507
-1.457564 -0.92499578 2.4863875 6513507
-1.4629397 -0.87568063 2.4955578 6513507
-1.4359772 -0.76727045 2.4530311 11711154
-1.4403809 -0.72578079 2.4605541 11711154
-1.4457418 -0.67527688 2.4697113 11711154
-1.4518716 -0.61752647 2.4801826 11711154
-1.4492669 -0.64206576 2.475733 11711154
-1.4563737 -0.57511175 2.4878731 11711154
-1.4613247 -0.52846521 2.4963312 11711154
-1.434688 -0.42296994 2.4543021 11711154
-1.4397054 -0.37445113 2.4628859 11711154
-1.4448618 -0.32459223 2.4717064 11711154
-1.4513056 -0.26228002 2.4827299 6513507
-1.4487 -0.2874777 2.4782722 6513507
-1.4551805 -0.22481167 2.4893587 6513507
-1.4596024 -0.18205433 2.4969227 6513507
-1.4307479 -0.10458924 2.4510362 6513507
-1.4337025 -0.075283483 2.4560978 6513507
-1.4387201 -0.025512161 2.464694 6513507
-1.4437733 0.024606382 2.4733503 6513507
-1.4507389 0.093696885 2.4852829 10197915
-1.448132 0.067840964 2.4808171 9539985
-1.9558933 0.10724219 2.4653237 6513507
-1.9249525 0.10716838 2.4636266 6513507
-1.8748895 0.10704891 2.4608808 6513507
-1.8207161 0.10686239 2.4684954 3881787
-1.7748622 0.10669581 2.4765508 8158332
-1.7252456 0.10657997 2.4733565 10197915
-1.679822 0.10642898 2.4787419 10197915
-1.6253566 0.10622541 2.4893663 10197915
-1.5751084 0.10610575 2.4865625 10197915
-1.524974 0.10598639 2.4837649 10197915
-1.4730899 0.10564023 2.4814477 10197915
-1.4483854 0.10580404 2.4794915 10197915
-1.4769394 -1.11213 2.515883 11711154
-1.4811518 -1.0745233 2.5230582 11119017
-1.4866961 -1.0250384 2.5325031 6513507
-1.4922817 -0.97517848 2.5420177 6513507
-1.4960272 -0.94174582 2.5483978 6513507
-1.4656943 -0.85041344 2.5002565 6513507
-1.4684623 -0.82502151 2.5049782 4671303
-1.4739192 -0.77496219 2.514287 11711154
-1.4794164 -0.72453219 2.523665 11711154
-1.4848462 -0.67472339 2.532927 11711154
