# .PCD v0.7 - Point Cloud Data file format
VERSION 0.7
FIELDS x y z rgb
SIZE 4 4 4 4
TYPE F F F U
COUNT 1 1 1 1
WIDTH 1156
HEIGHT 1
VIEWPOINT 0 0 0 1 0 0 0
POINTS 1156
DATA ascii
0.67497617 0.1019825 2.5377655 10197915
0.72530192 0.10196283 2.5372765 4079166
0.75283653 0.10126249 2.5285921 2894892
0.75994486 -0.57414782 2.5726256 2894892
0.75997472 -0.52510124 2.5729363 2894892
0.75989294 -0.47499424 2.5724533 2894892
0.75989336 -0.42523873 2.5725577 2894892
0.75986648 -0.37513381 2.5724669 2894892
-0.30701241 -0.31386587 2.5822074 2039583
0.75983953 -0.32503232 2.5723743 2894892
-0.30845422 -0.29832542 2.5860853 2039583
0.75978559 -0.275291 2.5720909 2894892
0.76070833 -0.2246546 2.5787611 2894892
0.76072347 -0.17495443 2.5789678 2894892
0.76070738 -0.12500203 2.5789537 2894892
0.76067978 -0.074783266 2.5788586 2894892
0.76062202 -0.024843646 2.5785468 2894892
0.76059508 0.024842482 2.5784566 2894892
0.76059926 0.07477507 2.5785859 2894892
-0.30744162 0.10212219 2.5947418 2039583
-0.27515939 0.10210961 2.5944221 6842472
-0.22459857 0.10208991 2.5939217 10197915
-0.1751325 0.10207064 2.5934317 10197915
-0.1256851 0.10205137 2.5929422 10197915
-0.075182088 0.1020317 2.5924425 10197915
-0.024698421 0.10201203 2.5919425 10197915
0.024692213 0.10199279 2.5914538 10197915
0.075137243 0.10197314 2.5909541 10197915
0.125563 0.10195348 2.5904555 10197915
0.17489694 0.10193427 2.5899665 10197915
0.22528411 0.10191462 2.5894678 10197915
0.27565202 0.10189499 2.5889695 10197915
0.32492939 0.1018758 2.5884812 10197915
0.37525877 0.10185618 2.5879831 10197915
0.42556897 0.10183658 2.5874848 10197915
0.47478992 0.10181741 2.5869975 10197915
0.52506161 0.10179782 2.5865002 10197915
0.5753141 0.10177824 2.5860026 10197915
0.62447858 0.10175909 2.585516 10197915
0.67469281 0.10173952 2.5850184 10197915
0.72488785 0.10171997 2.5845215 5066061
0.75732201 0.10136423 2.5815635 2894892
0.76685315 -0.57406068 2.6218011 2894892
0.76683801 -0.52488989 2.6217902 2894892
0.76682174 -0.47518072 2.6217768 2894892
0.76676154 -0.42548212 2.6214478 2894892
0.76673555 -0.37549797 2.6213622 2894892
-0.30235103 -0.31391293 2.6158426 2039583
-0.29934987 -0.31412387 2.6374984 2039583
0.76672935 -0.32499185 2.6214209 2894892
-0.30820107 -0.29816663 2.6256528 2039583
-0.29937571 -0.29937571 2.6373405 2039583
0.7667132 -0.27475351 2.6214049 2894892
0.76762909 -0.22502314 2.6280248 2894892
0.76762921 -0.174943 2.6281269 2894892
0.76763207 -0.12521803 2.6282458 2894892
0.76760465 -0.075128213 2.6281528 2894892
0.76757765 -0.02504194 2.6280594 2894892
0.76755029 0.025040762 2.6279662 2894892
0.76752305 0.075119928 2.6278732 2894892
-0.30999178 0.10187005 2.6439981 2039583
-0.2749036 0.10185641 2.6436443 7763574
-0.22447982 0.10183681 2.6431358 10197915
-0.1751709 0.10181764 2.6426387 10197915
-0.12588064 0.10179849 2.6421413 10197915
-0.075514197 0.10177892 2.641633 10197915
-0.025167096 0.10175934 2.641125 10197915
0.02516065 0.10173978 2.6406176 10197915
0.075469047 0.10172023 2.64011 10197915
0.12575811 0.1017007 2.6396024 10197915
0.17493528 0.10168158 2.6391065 10197915
0.22409391 0.10166248 2.6386104 10197915
0.27432588 0.10164294 2.6381042 10197915
0.32453853 0.10162343 2.6375976 10197915
0.37473193 0.10160393 2.6370912 10197915
0.42490608 0.10158441 2.6365848 10197915
0.47506088 0.10156494 2.6360793 10197915
0.52519655 0.10154545 2.6355731 10197915
0.57531297 0.10152595 2.6350677 10197915
0.62541014 0.1015065 2.6345627 10197915
0.67548811 0.10148703 2.6340573 10197915
0.7255469 0.10146756 2.6335518 6052956
0.76071727 0.10135752 2.6306958 2894892
0.77403277 -0.57433575 2.6729105 2894892
0.77397478 -0.52522725 2.6725955 2894892
0.77397835 -0.47501379 2.6727226 2894892
0.77395111 -0.42517135 2.6726272 2894892
0.77392381 -0.37533233 2.6725335 2894892
-0.29444522 -0.3140685 2.6728895 2039583
0.77386564 -0.32475591 2.6722198 2894892
-0.31169695 -0.29830998 2.6780925 2039583
-0.29570356 -0.29866716 2.6784437 2039583
0.77390009 -0.27492961 2.6725662 2894892
0.77381098 -0.22510381 2.6720309 2894892
0.77381426 -0.17490867 2.6721559 2894892
0.77375603 -0.12472108 2.6718421 2894892
0.77379072 -0.074897826 2.672188 2894892
0.77370155 -0.025097219 2.6716535 2894892
0.77367401 0.025096031 2.6715589 2894892
0.77370894 0.074889593 2.6719053 2894892
-0.3126407 0.10160816 2.6951611 2039583
-0.27463791 0.10159342 2.6947706 8750469
-0.22547351 0.10157437 2.6942649 10197915
-0.17521086 0.10155487 2.6937482 10197915
-0.12496741 0.10153539 2.6932313 10197915
-0.07474333 0.10151593 2.6927149 10197915
-0.024538368 0.10149647 2.6921992 10197915
0.024532242 0.10147745 2.6916945 10197915
0.074699014 0.10145799 2.6911781 10197915
0.12484669 0.10143854 2.6906624 10197915
0.17497501 0.10141911 2.6901474 10197915
0.22508429 0.10139968 2.6896322 10197915
0.27517423 0.10138027 2.6891172 10197915
0.32524505 0.10136087 2.6886022 10197915
0.37529668 0.10134146 2.6880875 10197915
0.42532924 0.10132206 2.6875727 10197915
0.47534251 0.10130268 2.6870582 10197915
0.5253368 0.10128331 2.6865447 10197915
0.57531178 0.10126393 2.6860311 10197915
0.62526786 0.10124456 2.6855168 10197915
0.67520463 0.1012252 2.6850038 10197915
0.72512251 0.10120585 2.68449 7171437
0.76422501 0.10108404 2.6812592 2894892
0.78151298 -0.57424444 2.7261596 2894892
0.78138679 -0.52510566 2.7253587 2894892
0.78143305 -0.47540343 2.7257898 2894892
0.78140587 -0.42570078 2.7256935 2894892
0.78132969 -0.37543073 2.7252533 2894892
-0.28760636 -0.31443512 2.7222371 4344919
0.78136212 -0.32490113 2.7255857 2894892
-0.31500205 -0.29857725 2.7303469 2039583
-0.29179764 -0.29873383 2.7293403 1715004
0.78132224 -0.27492526 2.7254024 2894892
0.78125834 -0.22495769 2.7250478 2894892
0.78126717 -0.17499217 2.72521 2894892
0.78122735 -0.12502857 2.7250259 2894892
0.78117543 -0.074792497 2.7247577 2894892
0.78118426 -0.024835996 2.724921 2894892
0.7811569 0.02483483 2.7248254 2894892
0.78109276 0.074784286 2.7244694 2894892
-0.3165341 0.10133635 2.7483554 2039583
-0.27550146 0.1013205 2.7479253 9539985
-0.22536731 0.10130112 2.7473993 10197915
-0.17525233 0.10128174 2.7468736 10197915
-0.12515654 0.10126238 2.7463486 10197915
-0.075079881 0.101243 2.7458234 10197915
-0.025022374 0.10122366 2.7452984 10197915
0.025015993 0.10120431 2.7447743 10197915
0.075035252 0.10118496 2.7442496 10197915
0.12503539 0.10116563 2.7437251 10197915
0.1750164 0.10114632 2.7432015 10197915
0.22497839 0.10112702 2.7426775 10197915
0.27492121 0.10110769 2.7421536 10197915
0.32484502 0.10108838 2.7416303 10197915
0.37474975 0.10106909 2.7411067 10197915
0.42463544 0.10104981 2.7405837 10197915
0.47450212 0.10103054 2.7400606 10197915
0.52434975 0.10101125 2.7395384 10197915
0.5741784 0.10099199 2.7390158 10197915
0.62398797 0.10097274 2.7384932 10197915
0.67490995 0.10095305 2.7379594 10197915
0.7258122 0.10093337 2.7374258 8092539
0.76834291 0.10086045 2.7354484 2894892
0.78923053 -0.57492185 2.7810955 2894892
0.78916788 -0.52497852 2.7807481 2894892
0.78917456 -0.47465339 2.7808979 2894892
0.78914678 -0.42509848 2.7808001 2894892
0.78911918 -0.37554717 2.7807021 2894892
-0.28038159 -0.31432304 2.7743707 4673627
0.78909093 -0.32484701 2.7806032 2894892
-0.3177883 -0.29880252 2.7744005 2039583
-0.28879625 -0.29891068 2.774004 1585481
0.78902787 -0.27491987 2.7802539 2894892
0.78903508 -0.22499806 2.7804062 2894892
0.7889725 -0.17469119 2.7800601 2894892
0.78901422 -0.12477643 2.7804565 2894892
0.78891659 -0.075251885 2.7798619 2894892
0.78892398 -0.025338141 2.7800143 2894892
0.78889561 0.025336927 2.7799144 2894892
0.78883255 0.075243622 2.7795653 2894892
0.037118126 0.10091557 2.7998612 10197915
0.075384922 0.10090082 2.7994521 10197915
0.12523152 0.10088161 2.798919 10197915
0.17505926 0.1008624 2.7983861 10197915
0.22486791 0.10084319 2.7978535 10197915
0.2746577 0.10082399 2.7973204 10197915
0.32442847 0.10080481 2.7967885 10197915
0.37533709 0.10078518 2.7962439 10197915
0.42506963 0.10076599 2.7957118 10197915
0.47478315 0.10074685 2.7951798 10197915
0.52563328 0.10072723 2.7946362 10197915
0.57530868 0.10070809 2.7941048 10197915
0.62496501 0.10068894 2.7935739 10197915
0.67575669 0.10066936 2.7930303 10197915
0.72537506 0.10065023 2.7924998 9408399
0.77133429 0.10060952 2.7913702 2894892
0.79612666 -0.57490832 2.8301861 2894892
0.79606253 -0.52486539 2.8298297 2894892
0.7960704 -0.47482488 2.8299866 2894892
0.7960425 -0.42556807 2.8298869 2894892
0.79601413 -0.37514192 2.8297863 2894892
-0.27293783 -0.31444746 2.8280821 4871004
0.79598588 -0.32471946 2.8296864 2894892
-0.32066697 -0.29903534 2.8199122 1974049
-0.28612381 -0.29908317 2.8209677 1454412
0.7959215 -0.27508363 2.8293269 2894892
0.79592967 -0.22506222 2.8294852 2894892
0.79586524 -0.17503966 2.8291266 2894892
0.79591024 -0.12502533 2.8295472 2894892
0.79580909 -0.074626684 2.8289289 2894892
0.79581708 -0.024613326 2.8290851 2894892
0.79578924 0.024612183 2.8289866 2894892
0.79572505 0.074618503 2.8286302 2894892
-0.31942102 0.10105303 2.8036752 2565927
-0.27523676 0.101036 2.8032029 10066329
-0.22525653 0.10101673 2.8026676 10197915
-0.17529522 0.10099747 2.8021336 10197915
-0.1253531 0.10097821 2.8015995 10197915
-0.075429864 0.10095897 2.8010654 10197915
-0.025525816 0.10093972 2.8005316 10197915
0.011600453 0.10092542 2.8001347 10197915
0.73080784 0.10035335 2.8497746 10066329
0.7754916 0.10033025 2.8491189 3026478
0.80327111 -0.57489437 2.8810439 2894892
0.80324256 -0.52474552 2.8809414 2894892
0.80321461 -0.47499788 2.8808413 2894892
0.80314702 -0.42566451 2.8804612 2894892
0.80315816 -0.375916 2.8806386 2894892
-0.26593041 -0.31483504 2.8786457 4871004
0.80309165 -0.32538 2.8802667 2894892
-0.32364213 -0.29927593 2.8669512 1843237
-0.28324616 -0.29930657 2.8673449 1388619
0.80310065 -0.27485877 2.8804328 2894892
0.80307233 -0.224731 2.8803308 2894892
0.80304366 -0.17460674 2.8802283 2894892
0.80297625 -0.12488702 2.8798478 2894892
0.80298722 -0.07516925 2.8800251 2894892
0.80295873 -0.025055621 2.8799229 2894892
0.80293024 0.025054436 2.8798211 2894892
0.80290186 0.07516095 2.8797188 2894892
-0.32361373 0.10075866 2.8612847 3355443
-0.27496174 0.10073996 2.8607538 10000536
-0.22395547 0.10072036 2.8601968 10197915
-0.17415467 0.10070122 2.8596535 10197915
-0.12437274 0.10068208 2.8591099 10197915
-0.074609809 0.10066296 2.8585668 10197915
-0.02486573 0.10064383 2.8580234 10197915
0.024859434 0.10062472 2.857481 10197915
0.074565724 0.10060561 2.8569381 10197915
0.12425314 0.1005865 2.8563957 10197915
0.17510396 0.10056696 2.8558409 10197915
0.22593519 0.10054742 2.8552856 10197915
0.27556512 0.10052834 2.8547442 10197915
0.32517627 0.10050927 2.8542027 10197915
0.37476858 0.1004902 2.8536611 10197915
0.42434207 0.10047115 2.8531199 10197915
0.47507641 0.10045164 2.8525665 10197915
0.52579105 0.10043214 2.8520126 10197915
0.57530737 0.10041311 2.8514721 10197915
0.62480479 0.10039409 2.8509319 10197915
0.6742835 0.10037507 2.8503919 10197915
0.70490456 0.10036329 2.8500571 10197915
0.80944794 -0.57494855 2.9250135 2894892
0.80935866 -0.52525699 2.9244771 2894892
0.80936033 -0.47495255 2.9245896 2894892
0.80933189 -0.42526108 2.9244874 2894892
0.80930346 -0.37557316 2.9243846 2894892
-0.25943339 -0.31484586 2.9255283 4673883
0.8092742 -0.32467684 2.9242795 2894892
-0.35172799 -0.29957521 2.9275651 2039583
-0.32549858 -0.29952219 2.9150074 1778217
-0.28014973 -0.29955813 2.9163353 1322826
0.80921501 -0.27438635 2.9239583 2894892
0.80924755 -0.22471644 2.9242897 2894892
0.80915821 -0.17504247 2.923753 2894892
0.8091597 -0.12476639 2.923866 2894892
0.80913144 -0.075099505 2.9237633 2894892
0.80910289 -0.025436141 2.9236605 2894892
0.80907387 0.025434926 2.9235554 2894892
0.80904543 0.075091258 2.9234524 2894892
-0.35221946 0.10046122 2.9215813 2039583
-0.32555893 0.10045101 2.9212847 4408131
-0.27467498 0.10043153 2.9207175 10000536
-0.22502151 0.10041247 2.9201636 10132122
-0.17538702 0.10039347 2.919611 10197915
-0.12456131 0.10037398 2.919044 10197915
-0.07496471 0.10035498 2.9184916 10197915
-0.025387032 0.10033599 2.9179392 10197915
0.025380472 0.10031652 2.9173732 10197915
0.074920319 0.10029755 2.9168212 10197915
0.12444125 0.10027856 2.9162693 10197915
0.17515068 0.10025913 2.915704 10197915
0.22584048 0.10023969 2.915139 10197915
0.27530447 0.10022075 2.9145882 10197915
0.32474968 0.1002018 2.914037 10197915
0.37538141 0.10018241 2.9134724 10197915
0.42478886 0.10016346 2.9129219 10197915
0.47417754 0.10014454 2.9123719 10197915
0.52475154 0.10012516 2.9118085 10197915
0.57530582 0.10010578 2.9112439 10197915
0.62584078 0.10008641 2.9106812 10197915
0.67515367 0.10006752 2.9101315 10197915
0.72444761 0.10004863 2.9095819 10197915
0.77492476 0.10002927 2.9090199 4342338
0.80376095 0.10001823 2.9086983 2894892
0.81576639 -0.57500708 2.9699919 2894892
0.81569594 -0.52495396 2.9695902 2894892
0.8157087 -0.47490329 2.9697821 2894892
0.81568038 -0.42567462 2.9696784 2894892
0.81565136 -0.3752189 2.9695725 2894892
-0.25338665 -0.3148956 2.9691601 4476506
-0.24955185 -0.31535405 2.9968317 4410970
0.81562221 -0.32476667 2.9694669 2894892
-0.35457471 -0.29977861 2.9673603 2039583
-0.32558376 -0.29978263 2.9656644 1647406
-0.27705404 -0.29980686 2.9662151 1257033
0.81555146 -0.27513999 2.9690626 2894892
0.81556451 -0.2251085 2.9692564 2894892
0.815494 -0.1750754 2.9688528 2894892
0.81554937 -0.12505098 2.9693491 2894892
0.8154363 -0.074623272 2.9686456 2894892
0.8154493 -0.024599213 2.968837 2894892
0.81542087 0.024598073 2.9687343 2894892
0.030861683 0.099993259 2.979774 10197915
0.075289942 0.099976286 2.9792683 10197915
0.12587097 0.099956974 2.9786923 10197915
0.17519939 0.099938132 2.9781308 10197915
0.22450924 0.099919289 2.9775693 10197915
0.27503243 0.099899992 2.9769945 10197915
0.32553634 0.099880695 2.9764199 10197915
0.37478954 0.099861875 2.9758592 10197915
0.42525464 0.099842608 2.9752848 10197915
0.47570056 0.099823333 2.9747102 10197915
0.52489722 0.099804536 2.9741499 10197915
0.57530451 0.099785283 2.9735765 10197915
0.62569249 0.099766031 2.9730029 10197915
0.67483246 0.099747255 2.9724431 10197915
0.72518206 0.099728025 2.9718699 10197915
0.77551216 0.09970881 2.9712973 5395026
0.81465054 0.076828167 2.9685624 2894892
-0.35605717 0.10014107 2.9841785 2039583
-0.32511187 0.10012925 2.9838264 5526612
-0.27437598 0.10010986 2.9832487 10000536
-0.22489655 0.10009097 2.9826853 10132122
-0.17543575 0.10007206 2.9821224 10197915
-0.12475792 0.1000527 2.9815452 10197915
-0.074099556 0.10003336 2.980969 10197915
-0.024695707 0.10001449 2.9804065 10197915
0.0061729588 0.10000269 2.9800549 10197915
0.82364458 -0.60049582 3.026022 2894892
0.82364076 -0.57499409 3.0260468 2894892
0.8236115 -0.52482939 3.0259397 2894892
0.82358247 -0.47466803 3.0258322 2894892
0.82350779 -0.42536038 3.0253992 2894892
0.82348096 -0.37560663 3.0253091 2894892
-0.35786447 -0.30010393 3.0308983 2039583
-0.32397825 -0.30011967 3.0310574 1517110
-0.27221957 -0.3000814 3.019176 1190728
-0.24575247 -0.31399208 3.0253947 4082520
0.82349521 -0.3250519 3.025512 2894892
-0.35722309 -0.29996783 3.0043826 2039583
-0.32612142 -0.29998228 3.0045269 1647922
-0.29501754 -0.29999673 3.0046718 1059399
0.82346606 -0.27490482 3.0254052 2894892
0.8234368 -0.22476134 3.0252974 2894892
0.82340783 -0.1746214 3.0251911 2894892
0.82333356 -0.12490622 3.024761 2894892
0.82334989 -0.075192884 3.0249779 2894892
0.82332057 -0.025063505 3.0248704 2894892
0.8232916 0.025062319 3.0247638 2894892
-0.36006236 0.099806733 3.0495121 2039583
-0.32590944 0.099793732 3.0491147 6513507
-0.27532783 0.09977448 3.0485263 10000536
-0.22476575 0.09975522 3.0479386 10132122
-0.17422315 0.09973599 3.0473502 10197915
-0.12496281 0.099717222 3.0467772 10197915
-0.075721182 0.099698484 3.0462046 10197915
-0.025236061 0.099679254 3.0456171 10197915
0.025229583 0.099660054 3.0450301 10197915
0.075675778 0.099640831 3.0444434 10197915
0.12484219 0.099622123 3.0438714 10197915
0.17398997 0.099603407 3.0432999 10197915
0.22437885 0.099584214 3.0427134 10197915
0.27474833 0.099565044 3.0421276 10197915
0.32509837 0.099545881 3.0415421 10197915
0.37542909 0.099526718 3.0409563 10197915
0.42574033 0.099507563 3.0403709 10197915
0.47603235 0.099488415 3.0397859 10197915
0.52504849 0.099469759 3.039216 10197915
0.57404602 0.099451102 3.038646 10197915
0.62428099 0.099431977 3.0380616 10197915
0.67449653 0.099412844 3.0374773 10197915
0.72469282 0.09939374 3.0368934 10197915
0.7748698 0.099374644 3.0363097 6908265
0.82166255 0.078334235 3.0260055 2894892
0.82906121 -0.60052979 3.0645804 2894892
0.83046174 -0.57505244 3.0746019 2894892
0.83036178 -0.52536887 3.0739899 2894892
0.83036774 -0.47504002 3.0741322 2894892
0.83033842 -0.42535561 3.074024 2894892
0.83030939 -0.37567478 3.0739164 2894892
-0.36081758 -0.30031618 3.0724216 2039583
-0.32450801 -0.30032891 3.0717864 1451833
-0.27489763 -0.30035195 3.0720217 1125192
-0.24011052 -0.31316534 3.0718014 3688021
0.83027953 -0.32472354 3.0738056 2894892
0.83021456 -0.27440876 3.0734444 2894892
0.83025622 -0.22474666 3.0738404 2894892
0.83015621 -0.17507967 3.0732293 2894892
0.83016217 -0.12477972 3.0733712 2894892
0.83013284 -0.07511989 3.0732632 2894892
0.8301037 -0.025463581 3.0731554 2894892
0.83007371 0.025462359 3.0730443 2894892
0.83004469 0.075111635 3.0729363 2894892
0.83746862 -0.6005826 3.1244285 2894892
0.83744699 -0.57468426 3.1243262 2894892
0.83736855 -0.52462018 3.123868 2894892
0.83738816 -0.47498974 3.1241069 2894892
0.83735889 -0.42579237 3.1239989 2894892
0.83732897 -0.37530375 3.1238868 2894892
-0.36412066 -0.30060485 3.1288466 2039583
-0.3245973 -0.30061468 3.127378 1320765
-0.27472171 -0.30063984 3.1279848 1125192
-0.23351029 -0.31278178 3.1260955 3491156
0.83729911 -0.32481882 3.1237755 2894892
0.83722067 -0.27520207 3.1233168 2894892
0.83723986 -0.22515947 3.1235535 2894892
0.83716142 -0.17511468 3.123095 2894892
0.83723003 -0.12507921 3.1236842 2894892
0.83710253 -0.07461945 3.1228774 2894892
0.83712131 -0.024583628 3.1231117 2894892
0.83709216 0.024582485 3.1230028 2894892
-0.36295405 0.099457078 3.1177595 2039583
-0.324157 0.09944237 3.1172986 7960953
-0.27503005 0.099423744 3.116714 10000536
-0.22462945 0.099404618 3.1161144 10066329
-0.17424808 0.099385493 3.1155152 10197915
-0.12517722 0.099366881 3.1149316 10197915
-0.074834235 0.099347785 3.1143329 10197915
-0.024510438 0.099328682 3.1137345 10197915
0.024504326 0.0993101 3.113152 10197915
0.0747898 0.099291012 3.1125536 10197915
0.12505612 0.099271938 3.1119559 10197915
0.17530295 0.09925288 3.1113584 10197915
0.22553067 0.099233814 3.1107609 10197915
0.27445185 0.099215269 3.1101792 10197915
0.32464138 0.099196225 3.1095822 10197915
0.37481177 0.099177197 3.1089857 10197915
0.4249627 0.09915816 3.1083894 10197915
0.47509465 0.099139154 3.1077926 10197915
0.52520716 0.099120148 3.1071968 10197915
0.57530063 0.099101126 3.1066012 10197915
0.62537473 0.099082127 3.1060061 10197915
0.6754297 0.099063136 3.1054103 10197915
0.72546554 0.099044159 3.1048152 10197915
0.77548224 0.09902519 3.1042206 8224125
0.83325928 0.078726411 3.1190994 2894892
0.8461718 -0.60063678 3.186384 2894892
0.84468383 -0.57495832 3.1758418 2894892
0.84465396 -0.52494252 3.17573 2894892
0.84462398 -0.47493052 3.1756186 2894892
0.84455478 -0.42559743 3.1752234 2894892
0.84452701 -0.37556639 3.1751258 2894892
-0.36650044 -0.30081949 3.1707942 2039583
-0.32448545 -0.30083904 3.1710007 1321025
-0.27233839 -0.30061644 3.1788766 1059656
-0.2269562 -0.31383756 3.1767292 3688277
0.84453452 -0.32492399 3.175281 2894892
-0.26725772 -0.27472106 3.1920221 3558499
-0.23640727 -0.27602541 3.187871 3956095
0.84450471 -0.27492598 3.1751695 2894892
-0.26696083 -0.22572286 3.1922379 5333877
-0.23642555 -0.22585632 3.1881166 5996710
0.84447509 -0.2249316 3.1750581 2894892
-0.26717404 -0.17590882 3.1925259 5202805
-0.23644394 -0.17567952 3.1883626 5208228
0.84444529 -0.17494063 3.1749461 2894892
-0.26719612 -0.12565948 3.19279 5070963
-0.23646224 -0.12549496 3.1886089 4091037
0.84441537 -0.12495322 3.1748333 2894892
-0.26721829 -0.075401805 3.1930561 5005171
-0.23648049 -0.075302638 3.1888545 3171479
0.84438556 -0.074969336 3.1747212 2894892
-0.26724041 -0.025135785 3.1933196 5004914
-0.23649888 -0.025102602 3.1890998 2777237
0.84435564 -0.024988994 3.1746092 2894892
-0.26726255 0.025138564 3.1935847 4873842
-0.23651718 0.025105169 3.1893466 2316430
0.84432584 0.024987813 3.1744964 2894892
-0.36730126 0.09909194 3.1891479 2039583
-0.32496983 0.099075936 3.188633 9211020
-0.26799217 0.076115906 3.1933732 6517122
-0.23559582 0.076191515 3.1893966 4154767
-0.17559533 0.099019468 3.1868157 10197915
-0.12540145 0.099000506 3.1862054 10197915
-0.075226769 0.098981544 3.1855946 10197915
-0.025071317 0.098962583 3.1849847 10197915
0.025064925 0.098943628 3.184375 10197915
0.075181961 0.098924682 3.1837649 10197915
0.12527981 0.098905742 3.1831558 10197915
0.17535852 0.098886818 3.1825464 10197915
0.22541805 0.098867908 3.1819375 10197915
0.27545837 0.098848999 3.181329 10197915
0.3254796 0.098830082 3.1807206 10197915
0.37548164 0.098811172 3.1801121 10197915
0.42546463 0.098792292 3.1795039 10197915
0.47542852 0.098773405 3.1788962 10197915
0.52537328 0.098754518 3.1782882 10197915
0.57529896 0.098735653 3.1776817 10197915
0.62520552 0.098716788 3.1770742 10197915
0.67509305 0.098697923 3.1764672 10197915
0.72496158 0.098679081 3.1758606 10197915
0.77481103 0.098660238 3.1752541 9803157
0.83725595 0.081971943 3.1742842 2894892
0.85218191 -0.60067451 3.2291667 2894892
0.84914196 -0.57539678 3.2075765 2894892
0.85216653 -0.57524598 3.2291083 2894892
0.84911156 -0.52488136 3.2074618 2894892
0.85213673 -0.52572978 3.2289956 2894892
0.84908122 -0.47436944 3.2073474 2894892
0.85210598 -0.4748787 3.2288795 2894892
0.84905171 -0.42519042 3.2072363 2894892
0.85207623 -0.42536947 3.2287664 2894892
0.84902221 -0.37601471 3.2071247 2894892
0.85204637 -0.37586367 3.2286534 2894892
-0.36968991 -0.3010501 3.2159047 2039583
-0.32504722 -0.30106822 3.2156076 1454153
-0.29236296 -0.30107641 3.214402 1323341
-0.21843517 -0.3142775 3.2213666 3359571
0.84899199 -0.32551348 3.2070098 2894892
0.85201585 -0.32502341 3.2285373 2894892
-0.2187333 -0.275078 3.2192905 2313592
0.84896159 -0.27501586 3.2068951 2894892
0.85198534 -0.27418697 3.2284222 2894892
-0.21876188 -0.22506787 3.219183 3368341
0.84893095 -0.22452179 3.2067797 2894892
0.85195583 -0.22469173 3.2283096 2894892
-0.21869472 -0.17506033 3.2197654 3039636
0.84890074 -0.17403142 3.206665 2894892
0.85274857 -0.17116822 3.234061 2894892
-0.21872284 -0.12504075 3.2196605 2644367
0.84887105 -0.12487321 3.2065537 2894892
0.85342777 -0.1247945 3.2389891 2894892
-0.21878771 -0.075370066 3.2192895 2513037
0.84884173 -0.075718425 3.2064424 2894892
0.85339779 -0.075142473 3.2388761 2894892
-0.2187438 -0.025343731 3.2197046 2514318
0.84881139 -0.02523867 3.2063277 2894892
0.85336787 -0.025493981 3.2387621 2894892
-0.21874835 0.025344431 3.2197719 2118792
0.84878111 0.025237473 3.2062132 2894892
0.85333705 0.025492752 3.2386456 2894892
-0.2187528 0.074700706 3.2198372 2904707
0.74726051 0.09828832 3.2499497 10197915
0.77545065 0.098277688 3.2495987 10197915
0.83660895 0.086643085 3.2281201 3421236
0.85326451 0.075758301 3.2387836 2894892
0.85835552 -0.60071325 3.2731137 2894892
0.85835451 -0.574938 3.2731578 2894892
0.85832357 -0.52474648 3.2730374 2894892
0.85823691 -0.47502044 3.2725203 2894892
0.85826355 -0.42573616 3.2728114 2894892
0.85823339 -0.37555504 3.2726943 2894892
-0.37288582 -0.30128112 3.2611039 2039583
-0.34047818 -0.30129623 3.2612677 1651790
0.85814577 -0.32492113 3.2721729 2894892
0.85817194 -0.27520952 3.2724602 2894892
0.85814196 -0.22503915 3.2723477 2894892
0.85856754 -0.17700838 3.2754726 2894892
0.85964173 -0.12513852 3.2832227 2894892
0.85961103 -0.074808486 3.2831054 2894892
0.85958058 -0.024481993 3.2829885 2894892
0.85955065 0.024480863 3.2828748 2894892
-0.37185216 0.098709673 3.2638819 2565927
-0.32446703 0.098691829 3.2632923 10000536
-0.29469013 0.09868063 3.2629216 10000536
-0.20810688 0.098648019 3.2618437 10066329
-0.17565352 0.098635808 3.2614393 10132122
-0.12563615 0.098616973 3.2608168 10197915
-0.075637683 0.098598152 3.2601943 10197915
-0.025658466 0.098579325 3.259572 10197915
0.02565177 0.098560013 3.2589333 10197915
0.075592503 0.098541193 3.2583113 10197915
0.12551399 0.09852241 3.25769 10197915
0.17541665 0.098503619 3.2570686 10197915
0.22530009 0.098484844 3.2564478 10197915
0.27516469 0.098466054 3.255827 10197915
0.32501009 0.098447286 3.2552061 10197915
0.37483665 0.09842854 3.254586 10197915
0.42464411 0.098409764 3.2539656 10197915
0.47577798 0.09839052 3.253329 10197915
0.52554715 0.098371789 3.2527096 10197915
0.57529718 0.098353051 3.2520902 10197915
0.62502837 0.098334327 3.2514715 10197915
0.67474055 0.098315619 3.2508521 10197915
0.72174847 0.098297916 3.2502668 10197915
0.85952085 0.073440328 3.2827611 2894892
0.86631912 -0.60145575 3.3298006 2894892
0.86630309 -0.57523483 3.3297391 2894892
0.86627263 -0.52555549 3.329622 2894892
0.86624223 -0.47587946 3.3295054 2894892
0.86621171 -0.42620695 3.3293886 2894892
0.86618054 -0.37515849 3.329268 2894892
0.86614925 -0.32411355 3.3291478 2894892
0.86611879 -0.27445176 3.3290315 2894892
0.86608839 -0.22479346 3.3289146 2894892
0.86605799 -0.17513865 3.3287971 2894892
0.86598337 -0.12480713 3.3283672 2894892
0.86599636 -0.0744652 3.3285601 2894892
0.86596602 -0.024820957 3.3284431 2894892
0.86593544 0.024819799 3.328326 2894892
-0.40158165 0.098318264 3.3425157 2039583
-0.37384757 0.098307863 3.3421621 3881787
-0.32393965 0.098289154 3.3415256 10000536
-0.29760632 0.098279297 3.3411911 10000536
-0.21033078 0.098246545 3.3400774 10000536
-0.17432985 0.098233037 3.3396184 10132122
-0.12449786 0.098214358 3.3389831 10197915
-0.074684829 0.098195694 3.3383486 10197915
-0.024890734 0.098177008 3.3377137 10197915
0.024884429 0.098158345 3.337079 10197915
0.074640661 0.098139688 3.3364451 10197915
0.124378 0.09812104 3.3358107 10197915
0.17409642 0.098102398 3.3351767 10197915
0.22379595 0.098083764 3.3345425 10197915
0.27485627 0.098064601 3.3338921 10197915
0.32589686 0.098045468 3.3332415 10197915
0.37553871 0.098026849 3.3326092 10197915
0.42516175 0.098008245 3.3319759 10197915
0.47476599 0.097989649 3.3313439 10197915
0.52435136 0.097971052 3.3307116 10197915
0.57391793 0.097952463 3.3300798 10197915
0.62484163 0.097933374 3.3294308 10197915
0.67574573 0.097914286 3.3287814 10197915
0.72525483 0.097895719 3.3281507 10197915
0.77474523 0.09787716 3.3275199 10197915
0.82421684 0.097858615 3.3268886 5592405
0.86459035 0.07729993 3.3276746 2894892
0.87288642 -0.60150671 3.37655 2894892
0.87286991 -0.57491761 3.3764858 2894892
0.87283897 -0.52454072 3.3763661 2894892
0.87280774 -0.4741675 3.3762457 2894892
0.87277675 -0.42379782 3.3761258 2894892
0.87274647 -0.37483081 3.376009 2894892
0.87271619 -0.32586706 3.3758919 2894892
0.87268519 -0.27550802 3.3757715 2894892
0.87265414 -0.22515243 3.3756514 2894892
0.87262303 -0.17480053 3.3755312 2894892
0.87254483 -0.12516131 3.3750744 2894892
0.87256169 -0.075510725 3.3752944 2894892
0.87253082 -0.025169445 3.375174 2894892
0.8724997 0.025168249 3.3750539 2894892
0.87246943 0.074104264 3.3749371 2894892
0.87964034 -0.60155886 3.4246292 2894892
0.87967294 -0.57529593 3.4249132 2894892
0.87954414 -0.52563071 3.4240973 2894892
0.87956172 -0.47524494 3.4243231 2894892
0.87953001 -0.42415792 3.4241996 2894892
0.87949914 -0.37449363 3.4240797 2894892
0.8794682 -0.3248328 3.423959 2894892
0.87938815 -0.274461 3.4234889 2894892
0.87945497 -0.2248174 3.4240654 2894892
0.87932616 -0.17516693 3.4232483 2894892
0.87934393 -0.12481096 3.4234748 2894892
0.87931293 -0.075167641 3.4233539 2894892
0.87928212 -0.025527848 3.4232345 2894892
0.87925017 0.025526619 3.4231107 2894892
-0.40719956 0.097898141 3.4247031 2039583
-0.3745209 0.097885936 3.4242764 5197647
-0.32622701 0.097867921 3.423646 10000536
-0.21408327 0.097826034 3.4221809 8620174
-0.17577843 0.097811736 3.4216807 10066329
-0.12472191 0.097792663 3.4210138 10197915
-0.075102612 0.097774126 3.4203656 10197915
-0.025502294 0.097755626 3.4197183 10197915
0.025495671 0.097736582 3.4190516 10197915
0.07505808 0.09771806 3.4184043 10197915
0.12460154 0.09769959 3.4177575 10197915
0.17554104 0.097680554 3.4170918 10197915
0.22504665 0.097662069 3.416445 10197915
0.27453333 0.097643599 3.4157987 10197915
0.32541451 0.097624607 3.4151342 10197915
0.37486339 0.097606137 3.4144883 10197915
0.42429346 0.09758769 3.4138427 10197915
0.47511631 0.097568713 3.4131789 10197915
0.52591956 0.097549736 3.4125154 10197915
0.57529265 0.097531296 3.4118705 10197915
0.6246469 0.097512871 3.411226 10197915
0.67539185 0.097493924 3.410563 10197915
0.7247085 0.097475514 3.4099188 10197915
0.77400637 0.097457111 3.4092751 10197915
0.82469344 0.097438186 3.408613 7237230
0.87562126 0.079379953 3.4194462 2894892
0.88658977 -0.60161281 3.4740987 2894892
0.88662338 -0.57497048 3.4743915 2894892
0.88649124 -0.52458793 3.4735508 2894892
0.88651037 -0.47491404 3.4737873 2894892
0.88647884 -0.42452866 3.4736636 2894892
0.88644713 -0.37414688 3.4735401 2894892
0.88641661 -0.3252081 3.4734206 2894892
0.88633507 -0.27554774 3.4729395 2894892
0.8864041 -0.22518726 3.4735324 2894892
0.88627195 -0.17481953 3.4726925 2894892
0.88629103 -0.12517512 3.4729283 2894892
0.88625956 -0.074814714 3.4728045 2894892
0.88622802 -0.024457878 3.472681 2894892
0.88619733 0.024456751 3.4725609 2894892
0.43061957 0.097143248 3.4997368 10197915
0.47403744 0.097127102 3.4991553 10197915
0.5246737 0.097108275 3.498477 10197915
0.57529056 0.097089462 3.4977994 10197915
0.62444234 0.097071193 3.4971416 10197915
0.67502034 0.097052395 3.4964643 10197915
0.7255789 0.09703362 3.4957871 10197915
0.774674 0.097015366 3.4951298 10197915
0.82519394 0.09699659 3.4944534 8750469
0.88167393 0.079898939 3.478364 2894892
0.89374292 -0.60166836 3.5250187 2894892
0.89372617 -0.57537103 3.5249529 2894892
0.89369494 -0.52570075 3.5248287 2894892
0.89366341 -0.4760341 3.5247059 2894892
0.8936314 -0.42491022 3.5245776 2894892
0.89359891 -0.37379006 3.5244503 2894892
0.89356768 -0.32413399 3.5243266 2894892
0.89353609 -0.27448145 3.5242031 2894892
0.89350486 -0.22483231 3.5240798 2894892
0.89347339 -0.17518671 3.5239553 2894892
0.89338994 -0.12482507 3.5234613 2894892
0.89340973 -0.074451394 3.5237041 2894892
0.89337832 -0.02481636 3.5235806 2894892
0.89334697 0.024815205 3.5234571 2894892
-0.41310078 0.097456828 3.5110345 2039583
-0.37522823 0.097442754 3.5105274 6513507
-0.33008546 0.097425982 3.5099232 10000536
-0.21657024 0.097383782 3.5084035 5793399
-0.17584567 0.09736865 3.5078571 10066329
-0.12495724 0.097349733 3.5071764 10197915
-0.074088417 0.097330824 3.5064948 10197915
-0.024691999 0.097312465 3.5058334 10197915
0.024685796 0.097294122 3.5051727 10197915
0.074044965 0.097275764 3.5045111 10197915
0.12483636 0.097256899 3.5038314 10197915
0.17560819 0.097238019 3.5031512 10197915
0.22491045 0.097219691 3.5024917 10197915
0.27419415 0.097201377 3.5018315 10197915
0.3249079 0.097182527 3.5011525 10197915
0.37560213 0.097163692 3.5004735 10197915
0.40600988 0.097152375 3.5000658 10197915
0.89331675 0.072983697 3.5233369 2894892
0.89923984 -0.60096979 3.5641489 2894892
0.902978 -0.60248119 3.5907576 2894892
0.89922279 -0.57438064 3.5640812 2894892
0.90296084 -0.57569343 3.5906901 2894892
0.8991909 -0.52415901 3.5639553 2894892
0.90292847 -0.52509695 3.5905609 2894892
0.89915895 -0.47394109 3.5638287 2894892
0.90289623 -0.47450408 3.5904322 2894892
0.89912707 -0.42372674 3.5637019 2894892
0.9028641 -0.42391488 3.5903049 2894892
0.89909601 -0.37499255 3.5635791 2894892
0.90283287 -0.37481704 3.5901804 2894892
0.8990649 -0.32626176 3.5634551 2894892
0.90280163 -0.32572269 3.5900569 2894892
0.89903283 -0.27605784 3.5633285 2894892
0.90276933 -0.27514404 3.5899284 2894892
0.899001 -0.22585751 3.5632019 2894892
0.90273714 -0.22456902 3.5897999 2894892
0.89896894 -0.17566076 3.5630758 2894892
0.90270495 -0.17399763 3.5896716 2894892
0.89893717 -0.12546757 3.5629489 2894892
0.90267366 -0.12491707 3.5895464 2894892
0.8989051 -0.075277917 3.5628223 2894892
0.90264219 -0.075839937 3.5894222 2894892
0.89887333 -0.025091849 3.5626962 2894892
0.90260983 -0.025279179 3.589294 2894892
0.89884132 0.025090661 3.5625694 2894892
0.90257746 0.025277967 3.5891647 2894892
-0.2191858 0.096918687 3.599082 6450812
-0.17442462 0.096902125 3.5984669 10066329
-0.12520456 0.096883915 3.597791 10197915
-0.076003149 0.096865721 3.597115 10197915
-0.025330022 0.09684699 3.5964189 10197915
0.025323495 0.096828222 3.5957234 10197915
0.07595741 0.096809514 3.5950274 10197915
0.12508348 0.096791327 3.5943532 10197915
0.17419086 0.09677317 3.5936782 10197915
0.22476724 0.096754462 3.5929837 10197915
0.27532408 0.096735753 3.592289 10197915
0.3258613 0.09671706 3.5915949 10197915
0.37489358 0.096698925 3.5909214 10197915
0.42390731 0.096680798 3.5902481 10197915
0.47438717 0.096662119 3.5895545 10197915
0.52484751 0.096643455 3.5888615 10197915
0.57528841 0.096624792 3.5881689 10197915
0.62570977 0.096606143 3.5874758 10197915
0.6761117 0.096587501 3.5867834 10197915
0.72501284 0.096569419 3.5861123 10197915
0.77389526 0.096551329 3.5854404 10197915
0.82424003 0.096532717 3.5847492 10197915
0.88632047 0.085498214 3.5735798 3158064
0.90246296 0.074335791 3.5887094 2894892
0.90869731 -0.60178435 3.6314714 2894892
0.9086799 -0.57469308 3.6314018 2894892
0.90864789 -0.52502781 3.6312737 2894892
0.90861607 -0.47536615 3.631146 2894892
0.90858346 -0.42420322 3.6310155 2894892
0.90855151 -0.37454858 3.6308885 2894892
0.90851921 -0.32489756 3.6307611 2894892
0.90842867 -0.27449188 3.6302164 2894892
0.90851355 -0.22485936 3.6309195 2894892
0.90836477 -0.17521858 3.6299601 2894892
0.908391 -0.12482949 3.6302462 2894892
0.90835917 -0.075195894 3.6301191 2894892
0.90832716 -0.025565812 3.6299913 2894892
0.90829432 0.025564579 3.6298599 2894892
-0.41781273 0.096992142 3.6018102 2039583
-0.3744778 0.096976124 3.6012151 8224125
-0.33414349 0.0969612 3.6006615 10066329
0.90826327 0.073683962 3.6297374 2894892
0.91453296 -0.60106575 3.6730132 2894892
0.91451621 -0.57518673 3.6729457 2894892
0.91448367 -0.52495337 3.6728153 2894892
-0.16363646 -0.45114061 3.6913693 6513507
-0.1213591 -0.45151353 3.6854281 6513507
-0.076049387 -0.45251486 3.6790581 6513507
-0.024346439 -0.45179114 3.6717989 6513507
0.013359953 -0.45136848 3.6711214 6513507
0.91445118 -0.47472358 3.6726851 2894892
-0.16364247 -0.42515814 3.6915059 6513507
-0.12523082 -0.42453688 3.6861124 6513507
-0.074607916 -0.42515689 3.6789982 6513507
-0.024690796 -0.42498007 3.6719842 6513507
0.012167126 -0.42527002 3.6693923 6118749
0.9144187 -0.42449737 3.672555 2894892
-0.16365421 -0.37471643 3.6917696 6513507
-0.12540613 -0.37549651 3.6863923 6513507
-0.07469815 -0.37497216 3.6792717 6513507
-0.024000444 -0.3748382 3.6721525 6513507
0.012088322 -0.37531677 3.6695144 5723991
0.91438597 -0.37427461 3.6724229 2894892
-0.16366588 -0.32426754 3.6920335 6513507
-0.12508924 -0.32513747 3.6866097 6513507
-0.074703507 -0.3246941 3.6795321 6513507
-0.024350801 -0.32559094 3.672456 6513507
0.012251854 -0.32517228 3.6700025 5592405
0.9143545 -0.32557726 3.672296 2894892
-0.20839691 -0.25283322 3.6986885 6513507
-0.16482027 -0.2742883 3.692456 6513507
-0.1252574 -0.27493826 3.6868944 6513507
-0.074708842 -0.27440888 3.6797953 6513507
-0.024352539 -0.27540272 3.67272 6513507
0.012089811 -0.27501762 3.6699972 5658198
0.91432202 -0.27536169 3.6721663 2894892
-0.20817068 -0.225908 3.6987975 6513507
-0.17447418 -0.22496969 3.6940684 6513507
-0.12548874 -0.22482306 3.6871874 6513507
-0.074713975 -0.22564064 3.6800506 6513507
-0.024354266 -0.22520697 3.6729803 6513507
0.012253343 -0.22485274 3.6704831 5592405
0.91428947 -0.22514962 3.6720357 2894892
-0.20687506 -0.1746936 3.6988823 6513507
-0.17448668 -0.17447877 3.6943324 6513507
-0.12504415 -0.17445129 3.687387 6513507
-0.07471931 -0.17534126 3.6803136 6513507
-0.024356008 -0.17500429 3.6732442 6513507
0.012091297 -0.17469195 3.6704824 5658198
0.91425705 -0.17494117 3.6719046 2894892
-0.20620245 -0.12702449 3.6990356 6513507
-0.17449872 -0.12551092 3.6945903 6513507
-0.12528396 -0.12527606 3.6876769 6513507
-0.074724622 -0.12503478 3.6805754 6513507
-0.024357734 -0.12479447 3.6735024 6513507
0.012171587 -0.12470411 3.6708395 5526612
0.915016 -0.12124904 3.6774158 2894892
-0.20535932 -0.075093582 3.6991873 6513507
-0.17451134 -0.075005628 3.6948547 6513507
-0.1252929 -0.074865282 3.6879399 6513507
-0.074729972 -0.074721105 3.6808364 6513507
-0.024359465 -0.074577466 3.6737635 6513507
0.012172326 -0.074523091 3.6710818 5526612
0.91617656 -0.074821696 3.68577 2894892
-0.2040762 -0.025379114 3.6992657 6513507
-0.17452374 -0.024493214 3.6951191 6513507
-0.12530188 -0.024447381 3.6882038 6513507
-0.074735306 -0.024400298 3.6811008 6513507
-0.024361204 -0.024353385 3.6740243 6513507
0.012173073 -0.024335511 3.6713235 5526612
0.91614377 -0.024430802 3.6856384 2894892
-0.20363706 0.023194058 3.6994572 6513507
-0.1745359 0.024495475 3.6953752 6513507
-0.12531056 0.024449639 3.6884596 6513507
-0.074740477 0.024402546 3.6813548 6513507
-0.024362886 0.024355637 3.6742795 6513507
0.012173791 0.024337586 3.6715574 5526612
0.91611212 0.024429673 3.6855111 2894892
-0.42430839 0.096503191 3.6974194 2039583
-0.37522084 0.09648513 3.6967273 9671571
-0.33841634 0.096471593 3.6962085 10066329
-0.20885488 0.080166698 3.6978719 6909041
-0.17454183 0.073487751 3.6955092 7105644
-0.12531924 0.07335344 3.6887169 7039851
-0.074745663 0.073212162 3.6816094 7039851
-0.024364574 0.073071375 3.6745307 6974058
0.013617091 0.07438843 3.6729183 6381921
0.074914284 0.096319482 3.6903806 10197915
0.12534329 0.096300907 3.6896689 10197915
0.17422548 0.096282922 3.6889799 10197915
0.22461602 0.096264362 3.6882701 10197915
0.27498734 0.096245833 3.6875596 10197915
0.32533908 0.096227296 3.6868496 10197915
0.3756716 0.096208781 3.6861396 10197915
0.42446035 0.096190825 3.6854522 10197915
0.47475457 0.096172318 3.6847429 10197915
0.52502966 0.096153811 3.6840336 10197915
0.57528502 0.096135311 3.6833241 10197915
0.62552148 0.096116841 3.682616 10197915
0.67421699 0.096098892 3.6819298 10197915
0.72441512 0.09608043 3.6812215 10197915
0.77459407 0.096061967 3.6805143 10197915
0.8247537 0.096043512 3.6798077 10197915
0.8748942 0.09602505 3.6790998 5263440
0.91473567 0.075796872 3.6840582 2894892
0.92119151 -0.60264903 3.720412 2894892
0.92044038 -0.57492632 3.7151213 2894892
0.92046911 -0.52488041 3.7154241 2894892
0.027206043 -0.45216325 3.7165527 6513507
0.9204371 -0.47560769 3.7152948 2894892
0.027798375 -0.42465532 3.720823 4144959
0.92040396 -0.42479882 3.7151618 2894892
0.02774984 -0.37455311 3.7205787 2039583
0.92037088 -0.37399349 3.715028 2894892
0.027750621 -0.32523778 3.7206826 2039583
0.92033881 -0.32473126 3.7148988 2894892
-0.42643172 -0.25183737 3.7293246 2039583
-0.37627926 -0.25136173 3.7222807 6513507
-0.34034273 -0.25102094 3.7172344 6513507
-0.23396765 -0.25213495 3.7022848 3559012
0.02770208 -0.27514869 3.7204378 2039583
0.9203068 -0.2754724 3.7147689 2894892
-0.45001495 -0.22578038 3.7327726 2039583
-0.42487651 -0.22556689 3.7292426 2039583
-0.37629303 -0.22515415 3.7224193 6513507
-0.34035531 -0.22484894 3.7173722 6513507
-0.2310874 -0.22438474 3.7020252 3952225
0.027752211 -0.22506216 3.720896 2039583
0.92021322 -0.22544737 3.7142036 2894892
-0.45004752 -0.1747604 3.7330434 2039583
-0.4249976 -0.17603129 3.7295175 2039583
-0.3763198 -0.17581749 3.7226796 6513507
-0.34037906 -0.1755791 3.7176318 6513507
-0.23006573 -0.17484748 3.7021382 3952224
0.027752979 -0.17573835 3.7209992 2039583
0.92024165 -0.17543197 3.7145064 2894892
-0.4500801 -0.12373307 3.7333131 2039583
-0.42485037 -0.12506309 3.7297621 2039583
-0.37634671 -0.12493187 3.722949 6513507
-0.34040371 -0.1247625 3.7179003 6513507
-0.22927184 -0.12518847 3.7022862 3951967
0.027803101 -0.12562713 3.7214565 2039583
0.92055833 -0.12789933 3.716855 2894892
-0.45011169 -0.074244931 3.7335751 2039583
-0.42496768 -0.074174725 3.7300439 2039583
-0.37637401 -0.074038967 3.7232177 6513507
-0.34042814 -0.073938571 3.718168 6513507
-0.22855149 -0.075159743 3.7024446 4017758
0.027705237 -0.074783988 3.7208612 2039583
0.92219114 -0.074146152 3.7285864 2894892
-0.45014325 -0.024749856 3.7338371 2039583
-0.42499745 -0.024726437 3.730305 2039583
-0.37640044 -0.024681196 3.7234786 6513507
-0.34045202 -0.024647716 3.7184279 6513507
-0.22720043 -0.024316374 3.7025199 4148829
0.027755361 -0.024667047 3.721318 2039583
0.9221589 -0.024714617 3.728456 2894892
-0.45017487 0.024752168 3.7340991 2039583
-0.42502737 0.024728755 3.7305653 2105376
-0.3764267 0.024683505 3.7237389 6513507
-0.34047589 0.024650011 3.7186871 6513507
-0.22672796 0.024850672 3.7027099 4148828
0.02775614 0.024667973 3.7214231 2039583
0.92212659 0.024713468 3.7283254 2894892
-0.45020545 0.072713852 3.7343524 2039583
-0.42505637 0.072645053 3.7308195 2105376
-0.37645212 0.072512068 3.7239907 7039851
-0.34049889 0.07241372 3.7189393 6974058
-0.22550583 0.072099142 3.7027838 4477279
0.027756894 0.0724639 3.7215238 3026478
0.92209536 0.072593659 3.7281992 2894892
0.92940354 -0.60272479 3.7788687 2894892
0.9286924 -0.57534325 3.7738614 2894892
0.9286595 -0.52529371 3.7737274 2894892
0.034341782 -0.45261735 3.7673459 6513507
0.92856318 -0.47448367 3.7731438 2894892
0.0343423 -0.42609063 3.7674026 4210752
0.92859298 -0.42364773 3.7734568 2894892
0.034292717 -0.375366 3.7671516 2039583
0.92849338 -0.37437174 3.7728479 2894892
0.034344282 -0.32466292 3.7676206 2039583
0.92852813 -0.32514343 3.7731938 2894892
0.034345262 -0.27472258 3.7677274 2039583
0.92849529 -0.27511168 3.7730601 2894892
0.034346238 -0.22477943 3.7678351 2039583
0.92846251 -0.22508341 3.7729266 2894892
0.03434721 -0.17483328 3.7679408 2039583
0.92842954 -0.17505872 3.7727931 2894892
0.034348182 -0.12488446 3.7680476 2039583
0.92839682 -0.12503758 3.7726595 2894892
0.034349158 -0.074932761 3.7681551 2039583
0.92836392 -0.075019948 3.7725265 2894892
0.034350131 -0.024978217 3.7682619 2039583
0.92833108 -0.025005862 3.7723927 2894892
0.03435111 0.024979165 3.7683685 2039583
0.92829829 0.025004679 3.7722592 2894892
0.035484757 0.076017559 3.7711661 4013373
0.075384632 0.095802329 3.7909126 10197915
0.12561747 0.095783941 3.7901855 10197915
0.17583106 0.095765561 3.7894583 10197915
0.22602533 0.09574718 3.7887311 10197915
0.27620035 0.095728815 3.7880046 10197915
0.32635614 0.095710464 3.7872777 10197915
0.37649274 0.095692106 3.7865512 10197915
0.42504436 0.095674343 3.7858481 10197915
0.47357765 0.095656566 3.7851455 10197915
0.52365774 0.095638238 3.78442 10197915
0.57371867 0.095619917 3.7836947 10197915
0.6237604 0.095601588 3.78297 10197915
0.673783 0.095583282 3.7822452 10197915
0.72378635 0.095564976 3.7815208 10197915
0.77377069 0.095546678 3.780797 10197915
0.82373583 0.095528379 3.7800734 10197915
0.87368184 0.095510103 3.77935 7434609
0.92461932 0.07853137 3.7734523 2894892
0.93787766 -0.60280293 3.8391922 2894892
0.93714374 -0.57498467 3.8340232 2894892
0.93704146 -0.52494431 3.833395 2894892
0.041103438 -0.45207721 3.8154788 6513507
0.93707752 -0.47488886 3.8337522 2894892
0.041104071 -0.42521158 3.8155367 4079166
0.93704379 -0.42404878 3.8336146 2894892
0.041105241 -0.37463886 3.8156462 2039583
0.9370113 -0.37480083 3.8334813 2894892
0.041051175 -0.32484818 3.815361 2039583
0.93697858 -0.32555634 3.8333476 2894892
0.041107569 -0.27507061 3.8158624 2039583
0.93694496 -0.27472702 3.83321 2894892
0.041108776 -0.22448945 3.8159747 2039583
0.9368425 -0.22469525 3.832581 2894892
0.041165166 -0.17468563 3.8164749 2039583
0.93687862 -0.17467362 3.8329387 2894892
0.041055832 -0.12569948 3.8157947 2039583
0.9369145 -0.12463631 3.8332956 2894892
0.041112233 -0.075890064 3.8162959 2039583
0.93674356 -0.075434774 3.8321767 2894892
0.041113414 -0.025297336 3.8164053 2039583
0.93677962 -0.025404517 3.8325338 2894892
0.041114602 0.025298301 3.816515 2039583
0.936746 0.0254033 3.8323956 2894892
0.041115709 0.072734334 3.8166187 3026478
0.93671435 0.073032342 3.832267 2894892
0.94367146 -0.60285658 3.8804343 2894892
0.94365335 -0.5755161 3.8803592 2894892
0.94362003 -0.52566242 3.8802226 2894892
0.048625603 -0.45254698 3.8690233 6513507
0.94358677 -0.4758122 3.8800862 2894892
0.047984164 -0.42509431 3.8645122 4144959
0.94355202 -0.4243575 3.8799431 2894892
0.048098855 -0.37549996 3.8654284 2039583
0.94351876 -0.3745144 3.8798065 2894892
0.048043568 -0.32505444 3.8651359 2039583
0.94348556 -0.32467493 3.8796697 2894892
0.047988277 -0.27462178 3.8648438 2039583
0.94345224 -0.27483886 3.8795326 2894892
0.048102986 -0.2249876 3.8657608 2039583
0.94341898 -0.22500637 3.879396 2894892
0.047990993 -0.17535993 3.8650622 2039583
0.94338578 -0.17517738 3.8792593 2894892
0.048049025 -0.12491389 3.8655753 2039583
0.94335246 -0.12535194 3.8791225 2894892
0.048050385 -0.075270705 3.865684 2039583
0.9433192 -0.075529955 3.8789859 2894892
0.048051737 -0.025624707 3.8657932 2039583
0.94328594 -0.025711527 3.878849 2894892
0.048053138 0.025625698 3.8659058 2039583
0.94325161 0.025710281 3.8787076 2894892
0.048054449 0.07367564 3.8660114 3223857
0.075881332 0.095256224 3.8970766 10197915
0.12429371 0.095238604 3.8963559 10197915
0.17430089 0.095220402 3.8956108 10197915
0.22428921 0.095202208 3.8948669 10197915
0.2742582 0.095184021 3.8941226 10197915
0.32581919 0.095165253 3.8933549 10197915
0.37574956 0.095147081 3.8926115 10197915
0.42566076 0.095128916 3.8918684 10197915
0.47555301 0.095110744 3.891125 10197915
0.52542609 0.095092602 3.8903825 10197915
0.57528025 0.09507446 3.8896403 10197915
0.62511528 0.095056318 3.8888984 10197915
0.67493153 0.095038183 3.8881564 10197915
0.72472841 0.095020056 3.8874147 10197915
0.77450657 0.095001943 3.8866737 10197915
0.8242656 0.094983838 3.8859329 10197915
0.87561005 0.094965145 3.8851683 9276813
0.93306214 0.084042028 3.8814166 2894892
0.94810444 -0.60289717 3.9119916 2894892
0.95261103 -0.60293907 3.9440703 2894892
0.94808602 -0.57533437 3.9119153 2894892
0.95259225 -0.57515025 3.9439931 2894892
0.94805229 -0.52507526 3.9117765 2894892
0.95255822 -0.52447897 3.9438515 2894892
0.055158645 -0.4525764 3.9155288 6513507
0.94801873 -0.47481975 3.911638 2894892
0.95252508 -0.47544575 3.9437144 2894892
0.055159513 -0.4250063 3.9155896 4079166
0.94798541 -0.42456803 3.9115007 2894892
0.95249075 -0.42478162 3.943572 2894892
0.055102881 -0.37552929 3.9152851 2039583
0.94795167 -0.37431955 3.9113615 2894892
0.95245647 -0.37412113 3.9434304 2894892
0.055220772 -0.32527128 3.9162245 2039583
0.94791913 -0.32569546 3.9112272 2894892
0.95242345 -0.3250984 3.9432938 2894892
0.055106033 -0.27497756 3.9155085 2039583
0.94788545 -0.27545407 3.9110885 2894892
0.95239043 -0.27607903 3.9431572 2894892
0.055223968 -0.22469272 3.916451 2039583
0.94785178 -0.22521621 3.910949 2894892
0.95235634 -0.2254293 3.9430161 2894892
0.055109214 -0.17441444 3.9157343 2039583
0.94781798 -0.17498194 3.91081 2894892
0.95232213 -0.17478313 3.9428744 2894892
0.055168916 -0.12492921 3.9162576 2039583
0.94778442 -0.12475123 3.9106712 2894892
0.95228916 -0.12577419 3.9427376 2894892
0.055170495 -0.074635103 3.9163697 2039583
0.94775069 -0.074524149 3.9105322 2894892
0.95225507 -0.075135209 3.9425967 2894892
0.055172075 -0.024338158 3.9164817 2039583
0.94771701 -0.024300575 3.9103932 2894892
0.95222092 -0.024499822 3.9424555 2894892
0.055173591 0.024339058 3.91659 2039583
0.94768441 0.024299461 3.9102585 2894892
0.95218796 0.02449869 3.9423187 2894892
0.055175062 0.071396239 3.9166946 2894892
0.94765294 0.071276337 3.9101284 2894892
0.95215601 0.071860716 3.9421864 2894892
0.95719117 -0.60298103 3.9766755 2894892
0.95717227 -0.57496238 3.9765966 2894892
0.95713884 -0.52552038 3.9764578 2894892
0.062466346 -0.45201409 3.9675474 6513507
0.95710528 -0.47608173 3.9763179 2894892
0.062467337 -0.42407772 3.9676104 3947580
0.95707029 -0.4249987 3.9761739 2894892
0.062469088 -0.37477621 3.9677224 2039583
0.95703572 -0.37391943 3.9760296 2894892
0.062470838 -0.32547197 3.9678328 2039583
0.95700234 -0.32449144 3.9758909 2894892
