# .PCD v0.7 - Point Cloud Data file format
VERSION 0.7
FIELDS x y z rgb
SIZE 4 4 4 4
TYPE F F F U
COUNT 1 1 1 1
WIDTH 1174
HEIGHT 1
VIEWPOINT 0 0 0 1 0 0 0
POINTS 1174
DATA ascii
-1.43001 0.10535126 1.9224757 3360090
-1.3750343 0.1094317 1.9141827 10132122
-1.3252195 0.10947688 1.9147528 10197915
-1.2753651 0.10952095 1.9157437 10197915
-1.2250741 0.10956597 1.9165317 10197915
-1.1751407 0.10961124 1.9171034 10197915
-1.1251597 0.10965545 1.9180967 10197915
-1.0751436 0.1097008 1.9186693 10197915
-1.0250826 0.10974506 1.9196641 10197915
-0.97498298 0.10979053 1.9202379 10197915
-0.92484164 0.10983484 1.9212343 10197915
-0.87465823 0.10988032 1.9218093 10197915
-0.82522774 0.10992407 1.9227943 10197915
-0.77535725 0.10996865 1.9235756 10197915
-0.72505569 0.11001424 1.9241525 10197915
-0.67510217 0.11005896 1.9249347 10197915
-0.62511307 0.11010265 1.9261402 10197915
-0.57508773 0.11014859 1.926501 10197915
-0.5250122 0.11019342 1.9272852 10197915
-0.47529879 0.11023741 1.9282756 10197915
-0.42514351 0.11028224 1.9290611 10197915
-0.37455514 0.11032815 1.9296415 10197915
-0.32471621 0.11037222 1.930634 10197915
-0.27484176 0.1104174 1.9312034 10197915
-0.22492388 0.11046154 1.932197 10197915
-0.17496686 0.11050694 1.9327672 10197915
-0.1249698 0.11055098 1.9337626 10197915
-0.074930109 0.11059646 1.9343342 10197915
-0.024853656 0.11064073 1.9353306 10197915
0.024866983 0.11068519 1.9361097 10197915
0.072509728 0.11075641 1.9264385 10197915
0.12516312 0.11081173 1.9242816 10197915
0.17465982 0.11085607 1.9250519 10197915
0.2278862 0.11091343 1.9223531 10197915
0.27508071 0.11098181 1.913563 10197915
0.32475245 0.11102693 1.9141232 10197915
0.37487 0.11107184 1.9148971 10197915
0.42462191 0.11111584 1.9158734 10197915
0.4748188 0.11116082 1.9166489 10197915
0.52505594 0.11120584 1.9174248 10197915
0.57492685 0.11125108 1.9179876 10197915
0.62524676 0.11129622 1.9187649 9342606
0.67520183 0.11134036 1.9197446 6447714
0.72480142 0.11138482 1.9205108 6447714
0.77483654 0.11143028 1.9210757 6447714
0.82491541 0.11147455 1.9220576 6447714
0.87503296 0.11151998 1.9226236 6447714
0.92519069 0.11156435 1.9236066 6447714
0.96996188 0.1115985 1.9264861 6447714
-1.4058394 -0.86399037 1.9635425 11711154
-1.3936313 -0.86686569 1.987662 11711154
-1.406453 -0.82461935 1.9628744 5200745
-1.3936757 -0.82491368 1.9881551 4806503
-1.406806 -0.77492529 1.962867 3688537
-1.3942013 -0.77492845 1.9878087 3228502
-1.4070196 -0.72493958 1.9631357 3557209
-1.3944209 -0.72504061 1.9880669 3031381
-1.4068818 -0.67498291 1.9641052 3294038
-1.3942741 -0.67499101 1.9890535 2899539
-1.4070909 -0.62501192 1.9643816 3228503
-1.3944725 -0.62502235 1.9893523 2834260
-1.4076201 -0.57493138 1.9640284 3031382
-1.3947765 -0.5752902 1.9894423 2636883
-1.407599 -0.52473909 1.9647685 2637140
-1.3949884 -0.52532142 1.9897158 2374226
-1.407709 -0.47494692 1.9652399 2440019
-1.3950957 -0.47504213 1.9902022 2045776
-1.4079198 -0.42495543 1.9655204 2177361
-1.3952943 -0.42504269 1.9905034 1848398
-1.4080981 -0.3744933 1.9658633 1782862
-1.3953741 -0.37546229 1.9910333 1717326
-1.4083258 -0.3250303 1.9661006 1585741
-1.395543 -0.32554618 1.9913913 1585741
-1.408524 -0.27502522 1.9664041 1519948
-1.3959018 -0.27500129 1.9913837 1256521
-1.4087441 -0.22497393 1.9666623 1322570
-1.3961184 -0.22498263 1.9916477 1124679
-1.4085898 -0.17500873 1.9676591 1389132
-1.3959723 -0.17508721 1.9926304 1388876
-1.4090426 -0.12481857 1.9674629 1257034
-1.3961363 -0.12519479 1.9929978 1191241
-1.4093497 -0.075141519 1.9675424 1125961
-1.3966786 -0.075201608 1.9926202 1191497
-1.4093651 -0.024911707 1.9682115 1059656
-1.3967086 -0.025384961 1.9932507 993606
-1.409457 0.025084406 1.9687238 1125704
-1.3967781 0.024780953 1.9938099 1059398
-1.409647 0.075187109 1.96904 1257289
-1.3970066 0.074815646 1.9940512 993092
-1.409897 0.1049907 1.9679207 2900054
-1.3846964 0.10718839 1.9798268 6581880
-1.3249842 0.10932714 1.9694446 10132122
-1.2749193 0.10937186 1.9702514 10197915
-1.2248131 0.10941668 1.9710582 10197915
-1.1750773 0.10946183 1.9716296 10197915
-1.1252936 0.10950566 1.9726617 10197915
-1.075065 0.10955064 1.9734706 10197915
-1.0252111 0.10959577 1.9740436 10197915
-0.97530109 0.10963983 1.9750781 10197915
-0.92536467 0.10968511 1.9756519 10197915
-0.87537503 0.10972922 1.9766872 10197915
-0.82535529 0.10977454 1.9772626 10197915
-0.77528578 0.10981867 1.9782997 10197915
-0.72518265 0.10986414 1.9788762 10197915
-0.67503309 0.10990833 1.9799148 10197915
-0.6248467 0.10995385 1.9804927 10197915
-0.57502156 0.1099984 1.9812944 10197915
-0.52516532 0.11004172 1.9825599 10197915
-0.47526595 0.1100876 1.9829018 10197915
-0.42531982 0.11013228 1.9837056 10197915
-0.37493023 0.11017668 1.9847491 10197915
-0.32608703 0.11022241 1.9847921 10197915
-0.27535081 0.11030445 1.9722267 10197915
-0.22478466 0.11034968 1.9730355 10197915
-0.17499365 0.11039422 1.973832 10197915
-0.12516223 0.11043878 1.9746288 10197915
-0.075290777 0.11048341 1.9754269 10197915
-0.025378782 0.11052806 1.9762247 10197915
0.025392685 0.11057347 1.9770373 10197915
0.076803006 0.11065528 1.9648129 10197915
0.12495005 0.11070096 1.9646268 10197915
0.17507447 0.11074518 1.965649 10197915
0.22483975 0.1107897 1.9664396 10197915
0.2746453 0.11083432 1.9672304 10197915
0.32489267 0.11087988 1.9678023 10197915
0.37478063 0.11092453 1.9685946 10197915
0.42510965 0.11096894 1.9696202 10197915
0.47507635 0.11101366 1.9704138 10197915
0.52467042 0.11105865 1.9709749 10197915
0.5751251 0.11110315 1.972003 10197915
0.62521267 0.11114798 1.9727985 10197915
0.67492306 0.11119309 1.9733613 7039851
0.72509336 0.111238 1.9741582 6447714
0.77488369 0.11128192 1.9751756 6447714
0.82472384 0.11132713 1.9757403 6447714
0.87500715 0.11137088 1.9769934 6447714
0.92533159 0.11141719 1.9773376 6447714
0.97529185 0.11146126 1.9783586 6447714
1.0098946 0.111477 1.9844586 6447714
-1.3748541 -0.86667293 2.0248241 11711154
-1.3750446 -0.82492667 2.0250278 4280932
-1.3755988 -0.77496034 2.0246222 2571346
-1.375991 -0.72519481 2.0245378 2440017
-1.3763458 -0.674986 2.0245326 2308176
-1.3765618 -0.62501705 2.0247977 2374226
-1.3768574 -0.57489485 2.0249112 2242897
-1.3773222 -0.52502167 2.0246804 2045776
-1.3777709 -0.47513551 2.0244863 1914447
-1.3780853 -0.42498559 2.024559 1782862
-1.3782734 -0.37497842 2.0248823 1585227
-1.3786824 -0.32485241 2.0247653 1453899
-1.3790246 -0.27504253 2.0247827 1454155
-1.3795617 -0.22505759 2.0244148 1256521
-1.3798144 -0.17494553 2.0246077 1323340
-1.3799847 -0.12494908 2.0249674 1323083
-1.3805188 -0.074971087 2.0246012 1257290
-1.3807395 -0.025097083 2.0248582 1191240
-1.3813006 0.025091201 2.0244434 1059398
-1.3815386 0.075062066 2.0246661 860737
-1.3792619 0.10529555 2.0243528 3491162
-1.3251415 0.10916891 2.0271115 10066329
-1.2748656 0.10921446 2.0277014 10197915
-1.2249546 0.10925904 2.0285211 10197915
-1.1754261 0.10930259 2.0295939 10197915
-1.1254355 0.10934724 2.0304229 10197915
-1.0749918 0.10939294 2.0310159 10197915
-1.0245025 0.10943735 2.0320961 10197915
-0.97480971 0.10948242 2.0326681 10197915
-0.92507571 0.10952614 2.0337451 10197915
-0.87488002 0.10957095 2.0345771 10197915
-0.82776338 0.10964429 2.0239658 10197915
-0.7754395 0.10970065 2.0213218 10197915
-0.72548985 0.10974526 2.0221438 10197915
-0.67549962 0.10978992 2.0229671 10197915
-0.62546867 0.1098346 2.0237901 10197915
-0.57539684 0.10987934 2.0246146 10197915
-0.52528447 0.1099241 2.0254393 10197915
-0.47513103 0.10996891 2.0262649 10197915
-0.42493683 0.11001373 2.0270908 10197915
-0.37470159 0.1100586 2.0279176 10197915
-0.32242641 0.11011255 2.0261354 10197915
-0.27505133 0.11018813 2.0147746 10197915
-0.2254726 0.11023176 2.0158312 10197915
-0.17502135 0.11027748 2.016417 10197915
-0.12452917 0.11032195 2.0174804 10197915
-0.074829131 0.11036705 2.0180464 10197915
-0.025093043 0.11041082 2.0191059 10197915
0.025106633 0.1104557 2.0199258 10197915
0.074923143 0.11050089 2.0204928 10197915
0.12478404 0.11054476 2.0215547 10197915
0.17468297 0.11059001 2.0221229 10197915
0.22462238 0.11063396 2.0231864 10197915
0.27502519 0.11067901 2.0240099 10197915
0.32504123 0.11072437 2.02458 10197915
0.37510628 0.11076843 2.0256455 10197915
0.42520526 0.11081389 2.0262167 10197915
0.47493044 0.11085831 2.0270288 10197915
0.52510655 0.1109025 2.0280964 10197915
0.57490969 0.11094696 2.0289102 10197915
0.62475342 0.1109915 2.0297251 10197915
0.67505234 0.11103714 2.0302987 8421504
0.72497815 0.11108177 2.0311146 6447714
0.77493995 0.11112505 2.0324278 6447714
0.82493412 0.11117107 2.032748 6447714
0.87498033 0.1112158 2.0335655 6447714
0.92463726 0.11125948 2.0346255 6447714
0.97033757 0.11132045 2.0280299 6447714
1.0192088 0.11138425 2.0214813 6447714
-1.3562888 -0.86668164 2.0615661 11711154
-1.343513 -0.86681038 2.0868468 11711154
-1.3560712 -0.82493645 2.0625734 3886947
-1.3434329 -0.82531959 2.0875785 3689826
-1.356286 -0.77493662 2.0628431 1979983
-1.343882 -0.77495492 2.0873916 1783117
-1.3566794 -0.72461408 2.0627637 1848654
-1.3440607 -0.72501165 2.0877299 1717581
-1.3569635 -0.67479044 2.0628922 1782605
-1.3442061 -0.67525333 2.0881333 1651275
-1.3568754 -0.62508845 2.0637574 1848655
-1.3440822 -0.62498933 2.0890763 1651533
-1.3570763 -0.5750429 2.064055 1980496
-1.344431 -0.5754084 2.0890744 1519691
-1.3572545 -0.52502829 2.064395 1914704
-1.3448652 -0.52506065 2.0889142 1520204
-1.357582 -0.47448596 2.0644481 1717583
-1.3448936 -0.47551599 2.0895436 1651790
-1.3576757 -0.4249754 2.0649517 1585741
-1.3448672 -0.42499691 2.0902977 1519948
-1.3578491 -0.37496316 2.0653017 1256264
-1.3450657 -0.37495774 2.0906003 1190728
-1.3580732 -0.32501823 2.0655503 1256520
-1.3454446 -0.32556486 2.0905347 1190728
-1.358049 -0.27473778 2.0662971 1585997
-1.3456303 -0.27565145 2.0908601 1520460
-1.3584064 -0.22484845 2.0662813 1388619
-1.3456465 -0.22497103 2.0915334 1388875
-1.3586615 -0.17494573 2.0664692 1389132
-1.3458455 -0.17497599 2.0918324 1389131
-1.3588346 -0.12497286 2.0668197 1323083
-1.3460668 -0.1252057 2.0920842 1323082
-1.3588283 -0.074641466 2.0675325 1257033
-1.3461548 -0.076494925 2.0925872 1125704
-1.3588552 -0.024847124 2.0681698 1125190
-1.3464385 -0.025142301 2.0927396 1059398
-1.3594235 0.024843121 2.0677373 1059398
-1.3466359 0.025147203 2.0930464 993605
-1.3596933 0.074847206 2.067894 794688
-1.3468441 0.075356938 2.0933297 794944
-1.3593963 0.10469989 2.0686011 2504271
-1.3380435 0.10644434 2.0854325 5463147
-1.2747122 0.1090894 2.0733688 10132122
-1.2245351 0.10913417 2.0742192 10197915
-1.1751684 0.10917819 2.0750561 10197915
-1.1249093 0.10922301 2.0759077 10197915
-1.0746094 0.10926788 2.0767608 10197915
-1.0251215 0.10931203 2.0775995 10197915
-0.97559351 0.10935619 2.0784392 10197915
-0.92517036 0.10940118 2.079294 10197915
-0.87470603 0.10944619 2.0801497 10197915
-0.82336718 0.10953094 2.0668108 10197915
-0.77517033 0.10957774 2.0662253 10197915
-0.72538793 0.10962145 2.0673232 10197915
-0.67513239 0.10966627 2.0681689 10197915
-0.62483579 0.10971116 2.069015 10197915
-0.57493532 0.1097564 2.0695939 10197915
-0.52497941 0.10980026 2.0706956 10197915
-0.47499603 0.10984556 2.0712755 10197915
-0.42496079 0.10988951 2.0723784 10197915
-0.37489411 0.1099349 2.0729599 10197915
-0.32477951 0.1099789 2.074064 10197915
-0.27462938 0.11002434 2.0746469 10197915
-0.22443499 0.11006841 2.0757527 10197915
-0.17506039 0.11011322 2.0763128 10197915
-0.12564655 0.11015656 2.0774148 10197915
-0.07533028 0.11020219 2.0780001 10197915
-0.024977472 0.1102464 2.079109 10197915
0.024990931 0.11029099 2.0799499 10197915
0.074999779 0.11033562 2.0807917 10197915
0.12504038 0.11038171 2.0811 10197915
0.17512606 0.11042494 2.0824761 10197915
0.22525647 0.11046968 2.0833197 10197915
0.27417365 0.11051563 2.0832982 10197915
0.32494587 0.11060106 2.0695086 10197915
0.3748244 0.11064559 2.0703413 10197915
0.42474291 0.11069015 2.0711753 10197915
0.47470176 0.11073473 2.0720096 10197915
0.52470076 0.11077937 2.0728447 10197915
0.57474029 0.11082403 2.0736804 10197915
0.62482005 0.11086872 2.074517 10197915
0.67494017 0.11091346 2.0753539 9539985
0.72510093 0.11095825 2.0761917 6447714
0.77530211 0.11100308 2.0770304 6447714
0.82554376 0.11104789 2.0778692 6447714
0.87495887 0.11109199 2.0786946 6447714
0.92441332 0.11113615 2.0795207 6447714
0.97838169 0.11121817 2.0680814 6447714
1.0253781 0.11126775 2.0660844 6447714
1.0587585 0.11126885 2.0771105 6447714
-1.3335357 -0.86662531 2.1065938 11711154
-1.3338598 -0.82415742 2.1065416 3361375
-1.3342797 -0.77491331 2.1063948 1651532
-1.3344835 -0.72498786 2.1066835 1717581
-1.3346726 -0.67494923 2.1070049 1914959
-1.3348739 -0.62499434 2.1072996 1783118
-1.335227 -0.57437247 2.1073029 1388106
-1.3356534 -0.52491689 2.1071453 1520204
-1.3358363 -0.47496513 2.1074762 1454668
-1.3360327 -0.42499807 2.1077805 1256777
-1.3362371 -0.37501833 2.1080709 1190471
-1.3366251 -0.32439131 2.1080058 1125191
-1.3370105 -0.27500659 2.107929 1454924
-1.3371838 -0.22502366 2.1082809 1388875
-1.3374299 -0.17510715 2.1084836 1323082
-1.337589 -0.12493531 2.1088676 1323081
-1.3381294 -0.075101331 2.108489 1059911
-1.3387517 -0.025324998 2.1079466 993605
-1.3389493 0.02532999 2.1082582 993348
-1.3391443 0.075126156 2.1085634 729151
-1.3313733 0.10639042 2.1145172 5661039
-1.2754275 0.10895861 2.120815 9934743
-1.2253982 0.1090024 2.121968 10132122
-1.1753373 0.10904779 2.1225507 10197915
-1.1252278 0.10909162 2.1237051 10197915
-1.0750835 0.10913708 2.1242893 10197915
-1.0248936 0.10918102 2.1254454 10197915
-0.97466534 0.10922656 2.1260309 10197915
-0.92482752 0.10927093 2.1268945 10197915
-0.87496066 0.10931378 2.1283314 10197915
-0.82504719 0.10935982 2.1286247 10197915
-0.77508771 0.10940434 2.1294911 10197915
-0.72465742 0.1094485 2.1306517 10197915
-0.67461807 0.10949305 2.1315198 10197915
-0.62498182 0.10953806 2.1320939 10197915
-0.57530296 0.10958153 2.1332414 10197915
-0.52553993 0.10967064 2.1177657 10197915
-0.47484824 0.10971581 2.1186383 10197915
-0.42499012 0.10976023 2.1194963 10197915
-0.37509117 0.10980471 2.1203554 10197915
-0.32515201 0.10984921 2.1212142 10197915
-0.27517223 0.10989377 2.1220746 10197915
-0.22515211 0.10993835 2.1229355 10197915
-0.17509109 0.10998296 2.1237969 10197915
-0.12498973 0.11002761 2.1246591 10197915
-0.0748474 0.1100723 2.1255221 10197915
-0.024664577 0.11011704 2.1263859 10197915
0.024677703 0.110161 2.1272352 10197915
0.07494171 0.11020581 2.1281002 10197915
0.12524636 0.11025064 2.1289659 10197915
0.17470849 0.11029471 2.1298168 10197915
0.22509459 0.11033962 2.1306841 10197915
0.27698973 0.1103917 2.1294496 10197915
0.32484117 0.11047307 2.1161633 10197915
0.3749736 0.11051776 2.1170185 10197915
0.42469642 0.11056133 2.1181493 10197915
0.47490755 0.11060609 2.1190066 10197915
0.52515924 0.11065089 2.1198645 10197915
0.57500035 0.11069611 2.1204345 10197915
0.62489492 0.1107398 2.121568 10197915
0.67481846 0.11078509 2.1221395 10197915
0.72479087 0.11082888 2.1232734 6974058
0.77479702 0.11087423 2.1238468 6447714
0.8248477 0.11091809 2.1249826 6447714
0.87493682 0.11096351 2.1255567 6447714
0.92506588 0.11100741 2.1266944 6447714
0.97479451 0.11105178 2.1275439 6447714
1.0250003 0.11109731 2.1281199 6447714
1.0723391 0.1111314 2.1318865 6447714
1.1014276 0.11112061 2.1457653 6447714
-1.3588915 0.10874728 2.1693549 1453640
-1.325104 0.10877734 2.1699548 7896708
-1.2752802 0.10882168 2.1708391 9934743
-1.2254162 0.10886603 2.1717241 10066329
-1.175511 0.10891045 2.1726096 10197915
-1.1255651 0.10895487 2.1734962 10197915
-1.0755787 0.10899936 2.1743834 10197915
-1.0255514 0.10904386 2.1752717 10197915
-0.975483 0.10908841 2.1761603 10197915
-0.92537385 0.109133 2.1770494 10197915
-0.87522376 0.10917761 2.1779399 10197915
-0.82503271 0.10922228 2.1788306 10197915
-0.77480042 0.10926696 2.1797221 10197915
-0.724527 0.10931168 2.1806142 10197915
-0.67511141 0.10935565 2.1814914 10197915
-0.62565577 0.10939967 2.1823688 10197915
-0.57526028 0.10944451 2.1832635 10197915
-0.52522713 0.10953519 2.1673005 10197915
-0.47514206 0.10958142 2.1675804 10197915
-0.4250235 0.10962439 2.169065 10197915
-0.37485355 0.10966905 2.1699488 10197915
-0.32464269 0.10971373 2.1708333 10197915
-0.27484536 0.10975889 2.1714032 10197915
-0.22500362 0.10980242 2.1725881 10197915
-0.17512344 0.10984767 2.1731591 10197915
-0.12520321 0.10989125 2.1743455 10197915
-0.07524009 0.10993659 2.1749184 10197915
-0.025241261 0.10998025 2.1761062 10197915
0.024805097 0.11002561 2.1766801 10197915
0.074882746 0.11006937 2.1778696 10197915
0.12501252 0.11011484 2.1784444 10197915
0.17516914 0.11015862 2.1796358 10197915
0.22492425 0.11020292 2.1805122 10197915
0.27471963 0.11024723 2.1813893 10197915
0.32499975 0.11029282 2.1819661 10197915
0.3709026 0.11035489 2.1750424 10197915
0.42555365 0.11042804 2.1670642 10197915
0.47512174 0.11047217 2.1679306 10197915
0.52472967 0.11051633 2.1687975 10197915
0.57528025 0.11056136 2.1696808 10197915
0.62496823 0.11060562 2.1705492 10197915
0.67469615 0.11064989 2.1714184 10197915
0.72536886 0.110695 2.1723034 8224125
0.77517712 0.11073937 2.1731741 6447714
0.8250255 0.11078375 2.1740453 6447714
0.87491351 0.11082816 2.174917 6447714
0.92484158 0.11087263 2.1757894 6447714
0.97480994 0.11091714 2.1766627 6447714
1.0248183 0.11096167 2.1775365 6447714
1.0748668 0.11100623 2.1784112 6447714
1.109468 0.11103704 2.1790159 6447714
-1.4060307 0.10851294 2.2386863 861762
-1.3724719 0.10858573 2.223613 927554
-1.324782 0.10863395 2.2223415 4740453
-1.2751321 0.10867898 2.2229195 10000536
-1.2249738 0.10872354 2.2238309 9934743
-1.1752393 0.10876684 2.2250597 10132122
-1.1254566 0.10881196 2.2256401 10197915
-1.0751798 0.10885487 2.2272036 10197915
-1.0248716 0.10890135 2.2274678 10197915
-0.97496158 0.10894479 2.2287004 10197915
-0.92502838 0.10899007 2.2292826 10197915
-0.87503922 0.10903358 2.2305167 10197915
-0.82502246 0.10907892 2.2311003 10197915
-0.77865177 0.10915048 2.2208683 10197915
-0.72504532 0.10921598 2.215322 10197915
-0.67484325 0.10926061 2.2162271 10197915
-0.62551373 0.10930444 2.2171164 10197915
-0.57522994 0.10934918 2.2180233 10197915
-0.52490515 0.10939389 2.2189305 10197915
-0.47545516 0.10943785 2.2198222 10197915
-0.42504856 0.10948265 2.2207313 10197915
-0.3746008 0.10952751 2.2216406 10197915
-0.32503 0.10957156 2.2225347 10197915
-0.27541921 0.10961567 2.2234292 10197915
-0.22484854 0.10966063 2.2243412 10197915
-0.17423669 0.10970562 2.2252536 10197915
-0.12450442 0.10974982 2.2261503 10197915
-0.07473211 0.10979409 2.2270482 10197915
-0.024919637 0.10983835 2.2279463 10197915
0.024933038 0.10988268 2.2288454 10197915
0.07482595 0.10992703 2.2297447 10197915
0.12475918 0.10997143 2.2306452 10197915
0.17473271 0.11001586 2.2315462 10197915
0.22474667 0.11006031 2.2324479 10197915
0.27480105 0.1101048 2.2333503 10197915
0.32489598 0.11014933 2.2342539 10197915
0.37840536 0.11023404 2.2216845 10197915
0.42506415 0.11028733 2.2182205 10197915
0.47534731 0.11033116 2.2194386 10197915
0.52521068 0.11037552 2.220331 10197915
0.57510895 0.11042167 2.2205737 10197915
0.62504303 0.11046429 2.2221167 10197915
0.67502677 0.11050873 2.2230108 10197915
0.72505075 0.11055323 2.2239063 9539985
0.77464503 0.11059826 2.2244618 6447714
0.82428414 0.11064149 2.2256815 6447714
0.87488943 0.11068738 2.2262669 6447714
0.92553556 0.11073154 2.2274928 6447714
0.97529525 0.11077669 2.2280512 6447714
1.025089 0.11082007 2.2292736 6447714
1.0749313 0.11086532 2.2298329 6447714
1.1219918 0.11089905 2.2336321 6447714
1.1526469 0.11088518 2.2491796 6447714
-1.4177033 0.10840157 2.2752829 861249
-1.3757564 0.10843881 2.2760642 993089
-1.3253835 0.10848349 2.2770023 7962244
-1.274969 0.10852823 2.2779408 10000536
-1.2245129 0.108573 2.2788804 9934743
-1.1749507 0.10861698 2.279804 10066329
-1.1253481 0.10866099 2.2807276 10197915
-1.0747683 0.10870585 2.2816699 10197915
-1.0250849 0.10874996 2.2825949 10197915
-0.97536063 0.10879409 2.2835209 10197915
-0.92465711 0.10883906 2.2844651 10197915
-0.87485176 0.10888326 2.2853932 10197915
-0.82500559 0.10892749 2.2863214 10197915
-0.7724489 0.1090195 2.2707658 10197915
-0.72492325 0.10906709 2.2696757 10197915
-0.67488956 0.10911249 2.270251 10197915
-0.62482756 0.10915593 2.2715251 10197915
-0.57471001 0.10920138 2.2721014 10197915
-0.52503455 0.10924357 2.2737184 10197915
-0.47531545 0.10928965 2.2739372 10197915
-0.4250775 0.10933326 2.2752156 10197915
-0.37481016 0.10937886 2.2757933 10197915
-0.32496133 0.10942311 2.2767141 10197915
-0.27507782 0.10946546 2.2783365 10197915
-0.2251626 0.1095117 2.2785578 10197915
-0.17519255 0.10955606 2.2794807 10197915
-0.12471646 0.10959993 2.2807639 10197915
-0.077707455 0.10967909 2.2679865 10197915
-0.025322704 0.10973925 2.2639852 10197915
0.025336552 0.10978421 2.2649136 10197915
0.075097956 0.10982839 2.2658253 10197915
0.12489972 0.10987263 2.2667384 10197915
0.1747413 0.10991693 2.267652 10197915
0.2246234 0.10996123 2.2685649 10197915
0.27548781 0.11000638 2.2694974 10197915
0.32545087 0.11005078 2.2704129 10197915
0.37545455 0.11009516 2.2713294 10197915
0.42549828 0.11013965 2.2722459 10197915
0.47463721 0.11018325 2.2731462 10197915
0.52476144 0.11022778 2.274065 10197915
0.57492572 0.11027234 2.2749839 10197915
0.62513089 0.11031692 2.2759042 10197915
0.67537665 0.11036155 2.2768245 10197915
0.72471392 0.11040537 2.2777286 10197915
0.77504033 0.11045007 2.2786505 7171437
0.82540733 0.11049481 2.2795732 6447714
0.87486368 0.11053873 2.2804797 6447714
0.92435938 0.11058269 2.2813864 6447714
0.97484779 0.11062754 2.2823114 6447714
1.0253767 0.11067243 2.2832379 6447714
1.0749922 0.11071647 2.2841468 6447714
1.1246476 0.11076056 2.2850566 6447714
1.1619138 0.11079368 2.2857394 6447714
-1.4543889 0.10826479 2.3126311 795457
-1.4250289 0.10829084 2.3131874 861248
-1.3748027 0.10833536 2.3141387 3096917
-1.3254839 0.10837909 2.3150725 10000536
-1.2751757 0.10842367 2.316025 10000536
-1.2248261 0.1084683 2.3169785 10000536
-1.1753862 0.10851213 2.3179147 9934743
-1.1249542 0.10855685 2.3188696 10132122
-1.0744812 0.10860156 2.3198254 10197915
-1.0249195 0.10864551 2.3207636 10197915
-0.97531801 0.10868948 2.3217032 10197915
-0.92567635 0.10873349 2.322643 10197915
-0.87503844 0.10877838 2.3236024 10197915
-0.824359 0.10882331 2.3245616 10197915
-0.77459484 0.10886741 2.3255041 10197915
-0.72479045 0.10891157 2.326447 10197915
-0.67494541 0.10895573 2.3273911 10197915
-0.62506008 0.10899998 2.3283358 10197915
-0.57513428 0.10904424 2.3292811 10197915
-0.52516788 0.10908854 2.3302271 10197915
-0.47516087 0.10913287 2.3311741 10197915
-0.42511317 0.10917722 2.3321216 10197915
-0.3750248 0.10922162 2.3330703 10197915
-0.32489559 0.10926607 2.3340192 10197915
-0.27472571 0.10931054 2.334969 10197915
-0.22451483 0.10935505 2.3359201 10197915
-0.17426315 0.10939957 2.3368719 10197915
-0.12493815 0.10944332 2.337806 10197915
-0.073258251 0.10953746 2.3211558 10197915
-0.024993125 0.10958465 2.3204596 10197915
0.025006609 0.10962901 2.3213992 10197915
0.07504683 0.10967337 2.3223386 10197915
0.12511669 0.10971981 2.3225384 10197915
0.1752329 0.10976223 2.3242202 10197915
0.22539486 0.10980673 2.3251622 10197915
0.27511299 0.10985186 2.3257179 10197915
0.32486624 0.10989494 2.3270304 10197915
0.37514958 0.10993955 2.3279746 10197915
0.42498264 0.10998478 2.328532 10197915
0.47486183 0.11002798 2.3298471 10197915
0.52070153 0.11009216 2.322119 10197915
0.57479954 0.11016958 2.3123922 10197915
0.6248672 0.11021401 2.3133245 10197915
0.67497528 0.11025847 2.3142579 10197915
0.72512382 0.11030297 2.3151917 10197915
0.77531278 0.1103475 2.3161263 8026746
0.82554221 0.11039206 2.3170621 6447714
0.87581253 0.11043667 2.3179982 6447714
0.92515534 0.11048046 2.3189173 6447714
0.97453761 0.11052426 2.3198371 6447714
1.0249283 0.11056899 2.3207755 6447714
1.0753597 0.11061375 2.3217146 6447714
1.1248609 0.11065767 2.3226364 6447714
1.1714859 0.11069904 2.3235049 6447714
-1.5040932 0.10800143 2.3916664 795200
-1.4713951 0.10807444 2.3762236 795199
-1.4248289 0.10812841 2.3724723 1716039
-1.3747675 0.10817163 2.3738437 8619658
-1.3246658 0.10821708 2.3744175 10000536
-1.2745247 0.10826038 2.3757913 10000536
-1.2243382 0.10830589 2.3763664 10000536
-1.1750931 0.10834838 2.3777227 9934743
-1.125312 0.10839244 2.3786898 10000536
-1.0791678 0.10845596 2.3713119 10197915
-1.0247477 0.1085374 2.3602283 10197915
-0.97430229 0.10858206 2.3612001 10197915
-0.92478663 0.10862593 2.3621531 10197915
-0.87523079 0.1086698 2.3631079 10197915
-0.82466215 0.10871459 2.3640819 10197915
-0.77502555 0.10875856 2.3650372 10197915
-0.72534853 0.10880255 2.365994 10197915
-0.67465615 0.10884742 2.3669703 10197915
-0.6248982 0.10889149 2.3679285 10197915
-0.57509977 0.10893559 2.3688874 10197915
-0.52526104 0.10897973 2.3698473 10197915
-0.47538182 0.10902391 2.3708079 10197915
-0.42546228 0.10906811 2.3717692 10197915
-0.37550205 0.10911237 2.3727314 10197915
-0.32550153 0.10915664 2.3736942 10197915
-0.27546009 0.10920095 2.3746581 10197915
-0.22537832 0.10924532 2.3756225 10197915
-0.17525561 0.1092897 2.3765879 10197915
-0.12509237 0.10933412 2.3775539 10197915
-0.07488808 0.10937859 2.378521 10197915
-0.024643205 0.10942309 2.3794882 10197915
0.024656311 0.10946675 2.3804379 10197915
0.074982494 0.10951131 2.381407 10197915
0.1253494 0.10955592 2.3823769 10197915
0.1747687 0.10959969 2.3833282 10197915
0.22521721 0.10964436 2.3843002 10197915
0.27570665 0.10968909 2.3852727 10197915
0.32524613 0.10973296 2.3862267 10197915
0.3748253 0.10977685 2.387181 10197915
0.42444417 0.10982081 2.3881371 10197915
0.47509649 0.10986566 2.3891122 10197915
0.52907914 0.10995457 2.3751664 10197915
0.5750913 0.11001012 2.3706577 10197915
0.62495232 0.11005323 2.3720019 10197915
0.67483956 0.1100985 2.3725626 10197915
0.724778 0.11014169 2.3739083 10197915
0.77474833 0.11018702 2.37447 9539985
0.82476425 0.11023025 2.3758178 6447714
0.87481797 0.1102757 2.3763807 6447714
0.92491126 0.110319 2.3777304 6447714
0.97504872 0.1103645 2.3782945 6447714
1.023018 0.11041205 2.3773742 6447714
1.074754 0.11050682 2.360523 6447714
1.1250829 0.11055145 2.3614762 6447714
1.1754521 0.11059608 2.3624299 6447714
1.207076 0.11062413 2.3630288 6447714
-1.517298 0.10787441 2.4335046 794943
-1.4754591 0.10791136 2.434339 860734
-1.425615 0.10795542 2.4353325 6712695
-1.3757303 0.1079995 2.436327 10000536
-1.3258046 0.10804363 2.4373226 10000536
-1.2758383 0.10808778 2.4383185 10000536
-1.2258308 0.10813196 2.4393153 10000536
-1.1757826 0.10817621 2.4403133 10000536
-1.1256934 0.10822047 2.4413118 9934743
-1.0714191 0.10831 2.4272258 10132122
-1.0254749 0.10836694 2.4221768 10197915
-0.97520387 0.10841253 2.4227555 10197915
-0.92489076 0.10845587 2.4241641 10197915
-0.87503111 0.10849997 2.4251497 10197915
-0.82464278 0.10854566 2.4257305 10197915
-0.77469921 0.10858987 2.4267001 10197915
-0.72522646 0.10863243 2.4281101 10197915
-0.67866641 0.10871232 2.4149013 10197915
-0.62572432 0.10877852 2.4088748 10197915
-0.57506472 0.10882334 2.4098673 10197915
-0.52436346 0.10886818 2.4108605 10197915
-0.47461566 0.1089122 2.411835 10197915
-0.42482772 0.10895623 2.4128106 10197915
-0.37499943 0.10900033 2.4137866 10197915
-0.32513085 0.10904443 2.4147637 10197915
-0.27522185 0.1090886 2.4157414 10197915
-0.2252724 0.10913279 2.4167199 10197915
-0.17528249 0.10917701 2.4176993 10197915
-0.12525207 0.10922128 2.4186795 10197915
-0.075181052 0.10926557 2.4196608 10197915
-0.025069388 0.10930992 2.4206426 10197915
0.025082946 0.10935428 2.4216249 10197915
0.075276025 0.10939869 2.4226084 10197915
0.12550989 0.10944312 2.4235923 10197915
0.17578454 0.10948759 2.424577 10197915
0.22509329 0.10953122 2.4255433 10197915
0.27444151 0.10957489 2.4265101 10197915
0.32483739 0.10961945 2.4274974 10197915
0.37527427 0.10966409 2.4284854 10197915
0.4257521 0.10970875 2.4294746 10197915
0.47526026 0.10975254 2.430444 10197915
0.52480823 0.10979636 2.4314151 10197915
0.57540804 0.10984113 2.4324064 10197915
0.6250357 0.10988504 2.4333785 10197915
0.67470342 0.10992898 2.4343517 10197915
0.72542572 0.10997386 2.4353456 10197915
0.77517337 0.11001786 2.4363198 10197915
0.82496107 0.11006192 2.4372954 7368816
0.87478858 0.11010599 2.4382713 6447714
0.92465639 0.11015011 2.4392481 6447714
0.97456384 0.11019427 2.4402261 6447714
1.0279325 0.11026043 2.4343517 6447714
1.0748204 0.11034102 2.4210024 6447714
1.1249187 0.1103842 2.422399 6447714
1.1750729 0.11042976 2.4229491 6447714
1.2218881 0.11045918 2.4282429 6447714
1.2533525 0.11044092 2.4456882 6447714
-1.5552893 0.10772123 2.4763362 729407
-1.5248901 0.10774807 2.476953 728893
-1.4752076 0.10779194 2.4779615 2307147
-1.4244697 0.10783672 2.4789915 10000536
-1.3747059 0.10788065 2.480001 10000536
-1.3249011 0.10792461 2.4810116 10000536
-1.2750562 0.10796861 2.482023 10000536
-1.2251703 0.10801265 2.4830356 10000536
-1.175244 0.10805673 2.4840484 10000536
-1.1252764 0.10810083 2.4850626 10000536
-1.0752683 0.10814498 2.4860771 10066329
-1.0252193 0.10818915 2.487093 10197915
-0.97512943 0.10823337 2.4881096 10197915
-0.92499846 0.1082776 2.4891267 10197915
-0.87482685 0.10832193 2.490145 10197915
-0.82461357 0.10836624 2.4911637 10197915
-0.77435976 0.10841062 2.4921839 10197915
-0.7250914 0.1084541 2.4931834 10197915
-0.67264706 0.10855392 2.4747343 10197915
-0.62447053 0.10860438 2.4728162 10197915
-0.57500929 0.10864684 2.4742596 10197915
-0.52550894 0.1086918 2.4748065 10197915
-0.47494879 0.10873523 2.4762719 10197915
-0.42485318 0.10877947 2.4772799 10197915
-0.37867656 0.10886052 2.4635379 10197915
-0.32474709 0.10892829 2.4572794 10197915
-0.27497518 0.10897227 2.4582713 10197915
-0.22516279 0.10901631 2.4592645 10197915
-0.17531036 0.10906034 2.4602582 10197915
-0.12541738 0.10910445 2.4612532 10197915
-0.075484328 0.10914859 2.4622486 10197915
-0.025510572 0.10919274 2.4632452 10197915
0.02450336 0.10923695 2.4642422 10197915
0.074558079 0.1092812 2.4652398 10197915
0.12465306 0.10932546 2.4662387 10197915
0.17478895 0.10936976 2.4672384 10197915
0.2249652 0.10941411 2.4682384 10197915
0.27518243 0.10945848 2.4692397 10197915
0.32544014 0.1095029 2.4702413 10197915
0.37471187 0.10954642 2.4712236 10197915
0.42505065 0.10959092 2.4722276 10197915
0.4754301 0.10963544 2.4732318 10197915
0.52482122 0.10967908 2.4742165 10197915
0.57425171 0.10972279 2.4752018 10197915
0.62475264 0.1097674 2.4762087 10197915
0.67529446 0.10981206 2.477216 10197915
0.72484493 0.10985586 2.478204 10197915
0.7744348 0.10989968 2.4791925 10197915
0.82509905 0.10994446 2.4802024 8421504
0.87580413 0.10998926 2.4812138 6447714
0.92551446 0.11003319 2.4822042 6447714
0.97526461 0.11007717 2.4831963 6447714
1.0250548 0.11012116 2.4841888 6447714
1.0748848 0.11016519 2.4851825 6447714
1.1247542 0.11020926 2.4861765 6447714
1.1746639 0.11025337 2.4871716 6447714
1.2246133 0.11029753 2.4881673 6447714
1.264184 0.11033249 2.4889562 6447714
-1.5698974 0.10758454 2.5212166 728637
-1.5255374 0.10762364 2.5221336 794428
-1.4749488 0.10766825 2.5231788 7041402
-1.4243183 0.10771289 2.524225 10000536
-1.3746802 0.10775667 2.5252507 10000536
-1.3250021 0.10780046 2.5262773 10000536
-1.2752833 0.1078443 2.5273046 10000536
-1.2255242 0.10788818 2.5283327 10000536
-1.1757244 0.10793209 2.529362 10000536
-1.1258844 0.10797603 2.5303919 10000536
-1.0749638 0.10802093 2.5314436 10000536
-1.0240012 0.10806587 2.5324969 10132122
-0.97403723 0.10810992 2.5335295 10197915
-0.92403269 0.10815402 2.5345626 10197915
-0.87503034 0.10819722 2.5355752 10197915
-0.82598859 0.10824048 2.5365887 10197915
-0.77586317 0.10828467 2.5376241 10197915
-0.72569662 0.1083289 2.5386608 10197915
-0.67548925 0.10837317 2.5396986 10197915
-0.6252408 0.10841747 2.5407369 10197915
-0.57495123 0.1084618 2.5417759 10197915
-0.52462047 0.1085062 2.5428159 10197915
-0.4742485 0.10855061 2.5438566 10197915
-0.42488614 0.10859412 2.5448768 10197915
-0.37297642 0.10869515 2.5257912 10197915
-0.32518628 0.10874457 2.5241177 10197915
-0.27510384 0.10878877 2.5251439 10197915
-0.22499269 0.10883557 2.5252182 10197915
-0.17894793 0.10889684 2.5186257 10197915
-0.12455174 0.10898422 2.5053704 10197915
-0.074760504 0.10902819 2.5063813 10197915
-0.024929106 0.10907217 2.5073922 10197915
0.024942519 0.1091162 2.508404 10197915
0.074854426 0.10916025 2.5094168 10197915
0.12480664 0.10920434 2.5104308 10197915
0.17479925 0.10924848 2.511445 10197915
0.22483224 0.10929265 2.5124607 10197915
0.27490577 0.10933685 2.5134766 10197915
0.32501978 0.1093811 2.5144937 10197915
0.37517437 0.10942537 2.5155115 10197915
0.4253695 0.10946969 2.5165298 10197915
0.47560549 0.10951402 2.5175493 10197915
0.52588207 0.1095584 2.5185695 10197915
0.57515043 0.10960189 2.5195696 10197915
0.62445849 0.1096454 2.5205698 10197915
0.67485577 0.10968989 2.5215926 10197915
0.72529405 0.10973442 2.5226166 10197915
0.77577323 0.109779 2.5236409 10197915
0.82524049 0.10982267 2.5246446 9539985
0.8747471 0.10986635 2.5256493 6447714
0.92534786 0.10991102 2.5266759 6447714
0.97493404 0.10995478 2.5276823 6447714
1.0245602 0.10999861 2.5286896 6447714
1.0752829 0.11004338 2.5297189 6447714
1.1249884 0.11008726 2.5307276 6447714
1.174734 0.11013117 2.5317371 6447714
1.2255793 0.11017606 2.532769 6447714
1.2754048 0.11022004 2.5337799 6447714
1.3008617 0.11024252 2.5342965 6447714
-1.6091933 0.10742138 2.5672429 728637
-1.574541 0.10745191 2.5679724 728636
-1.5251558 0.10749539 2.5690114 2832719
-1.4757303 0.10753892 2.5700519 10000536
-1.425212 0.10758341 2.5711155 10000536
-1.3746523 0.10762792 2.5721793 10000536
-1.325105 0.10767158 2.5732224 10000536
-1.2755175 0.10771525 2.5742657 10000536
-1.2248334 0.10775989 2.5753324 10000536
-1.1751645 0.10780363 2.5763781 10000536
-1.1254553 0.1078474 2.5774243 10000536
-1.0746468 0.10789215 2.5784936 10000536
-1.0248562 0.107936 2.5795417 10066329
-0.97502446 0.10797987 2.5805905 10197915
-0.92515266 0.1080238 2.5816402 10197915
-0.87524009 0.10806776 2.5826905 10197915
-0.8252871 0.10811175 2.5837419 10197915
-0.77529317 0.10815579 2.5847943 10197915
-0.72525877 0.10819986 2.5858471 10197915
-0.6751833 0.10824396 2.5869012 10197915
-0.62506723 0.10828809 2.5879562 10197915
-0.57490999 0.10833227 2.5890117 10197915
-0.5247122 0.10837646 2.5900681 10197915
-0.47554249 0.10841977 2.5911031 10197915
-0.42526317 0.10846406 2.5921614 10197915
-0.37494311 0.10850837 2.5932205 10197915
-0.3256537 0.10855177 2.5942581 10197915
-0.27525184 0.10859617 2.5953188 10197915
-0.22480908 0.10864059 2.5963805 10197915
-0.17119788 0.10873476 2.580395 10197915
-0.12479245 0.10879373 2.5747817 10197915
-0.075732678 0.10883994 2.5747271 10197915
-0.025383832 0.10894641 2.5531318 10197915
0.025397738 0.10899117 2.5541811 10197915
0.075161681 0.10903504 2.5552094 10197915
0.12496597 0.10907897 2.5562384 10197915
0.17481014 0.10912292 2.5572686 10197915
0.22469474 0.1091669 2.5582993 10197915
0.27461934 0.10921092 2.5593312 10197915
0.32458448 0.10925499 2.5603635 10197915
0.37458968 0.10929906 2.5613966 10197915
0.4246355 0.10934318 2.5624309 10197915
0.47472149 0.10938735 2.5634656 10197915
0.52484822 0.10943156 2.5645018 10197915
0.57501525 0.10947579 2.5655379 10197915
0.62522298 0.10952006 2.5665753 10197915
0.67547119 0.10956438 2.5676138 10197915
0.72468984 0.10960776 2.5686305 10197915
0.77501875 0.10965215 2.5696707 10197915
0.82538831 0.10969654 2.5707116 10197915
0.87472582 0.10974005 2.5717313 6974058
0.92517632 0.10978452 2.5727735 6447714
0.97566748 0.10982908 2.5738168 6447714
1.0251243 0.10987268 2.5748386 6447714
1.0746204 0.10991631 2.5758615 6447714
1.1241559 0.10995997 2.5768847 6447714
1.1748086 0.11000464 2.5779319 6447714
1.2255027 0.11004933 2.5789793 6447714
1.2751579 0.11009312 2.5800052 6447714
1.3129646 0.11012647 2.5807867 6447714
-1.6242917 0.10727485 2.6155343 662844
-1.5750821 0.10731816 2.6165898 794428
-1.5247612 0.10736243 2.6176689 8093316
-1.4743996 0.10740671 2.6187489 10000536
-1.4250689 0.10745011 2.6198065 10000536
-1.3756983 0.10749351 2.6208651 10000536
-1.3252131 0.10753793 2.621948 10000536
-1.2746865 0.10758238 2.6230319 10000536
-1.2251943 0.10762591 2.6240931 10000536
-1.1756619 0.10766948 2.6251554 10000536
-1.1250116 0.10771403 2.6262417 9934743
-1.0743191 0.10775863 2.6273284 9934743
-1.0246645 0.10780229 2.6283939 9934743
-0.9749698 0.10784602 2.6294591 10132122
-0.92523468 0.10788975 2.6305261 10197915
-0.87545907 0.10793353 2.6315932 10197915
-0.8256433 0.10797736 2.6326618 10197915
-0.77578694 0.10802121 2.6337314 10197915
-0.7258901 0.10806511 2.6348014 10197915
-0.67595261 0.108109 2.6358721 10197915
-0.62597466 0.10815296 2.6369441 10197915
-0.57595593 0.10819698 2.6380167 10197915
-0.52589661 0.10824098 2.6390901 10197915
-0.47579637 0.10828506 2.6401646 10197915
-0.42565536 0.10832919 2.6412399 10197915
-0.37547356 0.10837331 2.6423163 10197915
-0.3252508 0.10841748 2.6433933 10197915
-0.27498707 0.1084617 2.6444712 10197915
-0.22468235 0.10850594 2.64555 10197915
-0.17433655 0.10855021 2.6466296 10197915
-0.12504561 0.10859358 2.647687 10197915
-0.073794067 0.10864948 2.6448474 10197915
-0.028429715 0.10876026 2.6199517 10197915
0.024791647 0.10886041 2.6016343 10197915
0.07440149 0.1089041 2.6026783 10197915
0.1251311 0.1089488 2.6037462 10197915
0.17590205 0.10899351 2.6048148 10197915
0.22563329 0.1090373 2.6058612 10197915
0.27540454 0.10908113 2.6069088 10197915
0.32521573 0.109125 2.6079574 10197915
0.37506709 0.10916888 2.6090069 10197915
0.42495853 0.10921285 2.6100569 10197915
0.47489017 0.1092568 2.6111071 10197915
0.52486205 0.10930084 2.6121595 10197915
0.57487416 0.10934488 2.6132123 10197915
0.62492657 0.10938893 2.6142654 10197915
0.6750195 0.10943305 2.6153193 10197915
0.72515273 0.1094772 2.616375 10197915
0.77532643 0.1095214 2.6174304 10197915
0.82554054 0.10956562 2.6184874 10197915
0.87579542 0.10960989 2.6195455 8092539
0.92499691 0.10965319 2.6205809 6447714
0.97423762 0.1096966 2.6216171 6447714
1.0246125 0.10974094 2.6226773 6447714
1.0750284 0.10978535 2.623739 6447714
1.1254851 0.10982977 2.6248007 6447714
1.1748841 0.10987329 2.6258402 6447714
1.2243227 0.10991682 2.6268809 6447714
1.2749002 0.10996138 2.6279452 6447714
1.325519 0.11000595 2.6290109 6447714
-1.6650289 0.10710074 2.6651289 728893
-1.6247123 0.10713612 2.6660106 728636
-1.5745528 0.10718018 2.6671069 4410975
-1.5243522 0.10722431 2.6682045 10000536
-1.4741101 0.10726845 2.6693029 10000536
-1.42492 0.10731165 2.670378 10000536
-1.3756905 0.1073549 2.6714544 10000536
-1.3253258 0.10739913 2.672555 10000536
-1.2749197 0.10744344 2.6736567 9934743
-1.2244719 0.10748774 2.6747599 9934743
-1.1750809 0.10753112 2.6758394 9934743
-1.1256495 0.10757456 2.6769202 9934743
-1.0750784 0.10761897 2.6780257 9934743
-1.0244657 0.10766342 2.6791317 10000536
-0.974913 0.10770697 2.6802149 10132122
-0.92531985 0.10775053 2.6812992 10197915
-0.8745833 0.1077951 2.6824083 10197915
-0.82490915 0.10783873 2.6834939 10197915
-0.77519459 0.1078824 2.684581 10197915
-0.72543997 0.10792611 2.6856687 10197915
-0.6756447 0.10796987 2.6867571 10197915
-0.62470132 0.10801461 2.6878707 10197915
-0.57482457 0.10805842 2.6889608 10197915
-0.52490729 0.10810228 2.690052 10197915
-0.47494954 0.10814616 2.691144 10197915
-0.42495105 0.10819008 2.6922374 10197915
-0.37491217 0.10823404 2.693331 10197915
-0.32483235 0.10827803 2.6944256 10197915
-0.27471206 0.10832205 2.6955216 10197915
-0.22455071 0.10836612 2.6966178 10197915
-0.17434885 0.10841022 2.6977153 10197915
-0.12522291 0.10845339 2.6987894 10197915
-0.08500082 0.10848872 2.6996686 10197915
-0.0087832995 0.10869586 2.6501803 10197915
0.025261249 0.10872581 2.6509101 10197915
0.0747118 0.1087693 2.6519711 10197915
0.12420225 0.10881284 2.6530323 10197915
0.17483325 0.10885739 2.6541183 10197915
0.22550574 0.10890196 2.6552048 10197915
0.27511665 0.10894559 2.6562691 10197915
0.32476768 0.10898925 2.6573339 10197915
0.37556306 0.10903393 2.6584229 10197915
0.42529437 0.10907767 2.6594894 10197915
0.47506589 0.10912145 2.660557 10197915
0.52487713 0.10916528 2.6616251 10197915
0.57472855 0.10920911 2.6626942 10197915
0.62461984 0.109253 2.6637642 10197915
0.67455149 0.10929693 2.664835 10197915
0.72452301 0.10934088 2.6659067 10197915
0.774535 0.10938485 2.6669793 10197915
0.82458687 0.10942889 2.6680529 10197915
0.87467957 0.10947295 2.669127 9408399
0.92481232 0.10951705 2.6702023 6447714
0.97498554 0.10956118 2.6712782 6447714
1.0251991 0.10960536 2.6723549 6447714
1.0743361 0.10964858 2.6734085 6447714
1.12463 0.1096928 2.6744876 6447714
1.1749643 0.10973707 2.6755669 6447714
1.2253395 0.10978138 2.6766469 6447714
1.275755 0.10982573 2.6777284 6447714
1.3250897 0.10986913 2.6787863 6447714
1.3632379 0.10990269 2.6796048 6447714
1.3972065 -0.56974161 2.7486989 6447714
1.4054446 -0.57042074 2.7445235 6447714
1.3972816 -0.52497685 2.7487621 6447714
1.4054183 -0.52532685 2.7446396 6447714
1.3973545 -0.47565451 2.7488363 6447714
1.4054641 -0.47531125 2.7447298 6447714
1.3973725 -0.42593098 2.7489417 6447714
1.4055101 -0.42529249 2.7448184 6447714
1.3974183 -0.37583381 2.7490304 6447714
1.4055564 -0.37527037 2.7449098 6447714
1.3983094 -0.3262141 2.7486923 6447714
1.4049345 -0.3261247 2.7453365 6447714
1.3984159 -0.2755836 2.7487531 6447714
1.4047459 -0.27526215 2.7455466 6447714
1.3984622 -0.22548483 2.7488432 6447714
1.4047924 -0.22522183 2.7456374 6447714
1.398508 -0.17538285 2.7489336 6447714
1.404838 -0.17517827 2.7457278 6447714
1.3985538 -0.12527753 2.7490237 6447714
1.4048845 -0.12513138 2.7458189 6447714
1.3985999 -0.075168915 2.749114 6447714
1.4049301 -0.075081244 2.7459078 6447714
1.3986456 -0.02505704 2.7492044 6447714
1.4049765 -0.025027808 2.7459977 6447714
1.3986918 0.025058137 2.7492945 6447714
1.4050227 0.025028901 2.7460876 6447714
1.3987374 0.075176604 2.7493849 6447714
1.4050686 0.075088903 2.7461772 6447714
-1.7062289 0.10692069 2.7166626 795199
-1.6751411 0.10694797 2.7173555 728380
-1.6251476 0.10699184 2.7184703 728635
-1.5751133 0.10703573 2.7195852 10000536
-1.5250376 0.10707965 2.7207012 10000536
-1.4749213 0.10712362 2.7218189 10000536
-1.4247634 0.10716761 2.7229366 10000536
-1.3745645 0.10721164 2.7240558 9934743
-1.3254412 0.10725474 2.7251506 9934743
-1.2751606 0.10729885 2.7262714 9934743
-1.2248384 0.107343 2.7273927 9934743
-1.1755947 0.1073862 2.7284906 9934743
-1.1251906 0.10743041 2.729614 10066329
-1.0747452 0.10747468 2.7307386 10197915
-1.0253803 0.10751799 2.7318387 10197915
-0.97485226 0.10756231 2.7329652 10197915
-0.92428297 0.10760667 2.734093 10197915
-0.87479687 0.10765006 2.7351952 10197915
-0.82527089 0.10769355 2.7362998 10197915
-0.77570492 0.10773702 2.7374046 10197915
-0.7249707 0.10778151 2.7385349 10197915
-0.67419499 0.10782606 2.7396667 10197915
-0.62450683 0.10786965 2.7407746 10197915
-0.5747785 0.10791329 2.7418828 10197915
-0.52500999 0.10795694 2.7429922 10197915
-0.47520116 0.10800064 2.7441027 10197915
-0.42535192 0.10804438 2.7452133 10197915
-0.37546235 0.10808814 2.7463255 10197915
-0.32553235 0.10813194 2.7474384 10197915
-0.27556184 0.10817578 2.7485526 10197915
-0.23009951 0.10821566 2.7495658 10197915
-0.059289414 0.10851131 2.7002306 10197915
-0.024616092 0.10854177 2.7009885 10197915
0.024629164 0.10858502 2.7020648 10197915
0.075034402 0.1086293 2.7031672 10197915
0.12548044 0.10867362 2.7042699 10197915
0.17484544 0.10871699 2.7053487 10197915
0.22424984 0.10876036 2.7064288 10197915
0.27481806 0.10880481 2.7075343 10197915
0.32542729 0.10884928 2.7086403 10197915
0.37495196 0.10889277 2.7097232 10197915
0.42451638 0.10893631 2.7108066 10197915
0.47412032 0.10897989 2.7118909 10197915
0.52489287 0.10902448 2.7130008 10197915
0.57570672 0.10906912 2.7141116 10197915
0.62543172 0.10911279 2.7151985 10197915
0.67519659 0.10915652 2.7162859 10197915
0.72500139 0.10920027 2.7173748 10197915
0.77484614 0.10924406 2.7184651 10197915
0.82473069 0.10928789 2.7195554 10197915
0.87465549 0.10933173 2.7206471 10197915
0.92462045 0.10937564 2.7217388 6974058
0.97462535 0.10941955 2.7228317 6447714
1.0246705 0.10946352 2.7239256 6447714
1.0747558 0.10950752 2.7250209 6447714
1.1248815 0.10955154 2.7261164 6447714
1.1750474 0.10959563 2.7272136 6447714
1.2252539 0.10963972 2.7283106 6447714
1.2755005 0.10968386 2.729409 6447714
1.3257879 0.10972805 2.7305086 6447714
1.3815349 0.10839806 2.7365088 6447714
1.4047501 0.10513695 2.7449515 6447714
1.2985842 -0.57044953 2.7986574 6447714
1.3257074 -0.57021517 2.7849181 6447714
1.3727589 -0.57013893 2.7610815 6447714
1.2986225 -0.52524644 2.7987406 6447714
1.3257184 -0.52497834 2.7850149 6447714
1.3727322 -0.52501857 2.761199 6447714
1.2986652 -0.47540414 2.7988322 6447714
1.3256792 -0.47499532 2.7851479 6447714
1.3727489 -0.47493851 2.7613032 6447714
1.2986864 -0.42496708 2.7989359 6447714
1.3258854 -0.42509711 2.7851567 6447714
1.3728096 -0.42480803 2.7613862 6447714
1.2987725 -0.37514204 2.7990048 6447714
1.3258171 -0.37506399 2.7853053 6447714
1.3728484 -0.37486455 2.7614806 6447714
1.2987937 -0.32469833 2.7991087 6447714
1.3259618 -0.3249847 2.7853453 6447714
1.3738234 -0.32500368 2.7610986 6447714
1.2988361 -0.27484298 2.7992001 6447714
1.325332 -0.27526334 2.7857757 6447714
1.3733103 -0.27476665 2.7614725 6447714
1.2988787 -0.22498418 2.7992918 6447714
1.3250102 -0.2250724 2.7860534 6447714
1.3728911 -0.22495803 2.7617981 6447714
1.298921 -0.17512229 2.7993832 6447714
1.3252919 -0.17509593 2.7860236 6447714
1.3729942 -0.17501657 2.7618599 6447714
1.2989634 -0.12525707 2.7994745 6447714
1.3250973 -0.12466473 2.7862375 6447714
1.3733152 -0.1253878 2.7618096 6447714
1.2998587 -0.076431461 2.7991319 6447714
1.3251413 -0.075032085 2.7863281 6447714
1.3730904 -0.075522304 2.7620351 6447714
1.2999824 -0.031310827 2.7991712 6447714
1.324966 -0.025226377 2.7865281 6447714
1.3731359 -0.025174838 2.7621272 6447714
1.3242953 0.025401661 2.7869835 6447714
1.3731821 0.025175927 2.7622173 6447714
1.3243382 0.075052485 2.7870743 6447714
1.3732272 0.075529993 2.7623091 6447714
-1.7230253 0.10675649 2.770824 794430
-1.6743336 0.10679916 2.7719314 728379
-1.6244687 0.10684283 2.7730649 6646645
-1.5745636 0.10688656 2.7741995 10000536
-1.5246177 0.10693031 2.7753353 9934743
-1.4746304 0.1069741 2.7764721 9934743
-1.4246024 0.10701792 2.7776091 9934743
-1.3745334 0.10706179 2.778748 9934743
-1.3244234 0.10710569 2.7798874 9934743
-1.2742723 0.10714961 2.7810276 9934743
-1.22408 0.10719359 2.7821686 10132122
-1.1749887 0.1072366 2.7832851 10197915
-1.1258577 0.10727963 2.7844024 10197915
-1.0755435 0.10732371 2.7855463 10197915
-1.0251878 0.10736783 2.7866912 10197915
-0.97479099 0.10741197 2.787837 10197915
-0.92435229 0.10745618 2.7889841 10197915
-0.87502027 0.10749938 2.7901058 10197915
-0.82564831 0.10754264 2.7912283 10197915
-0.77508682 0.10758694 2.7923777 10197915
-0.72448391 0.10763127 2.7935286 10197915
-0.67499095 0.10767464 2.7946537 10197915
-0.6254577 0.10771801 2.7957799 10197915
-0.57473135 0.10776246 2.7969332 10197915
-0.52511758 0.10780592 2.7980616 10197915
-0.47546339 0.10784941 2.7991903 10197915
-0.44542241 0.10787575 2.7998738 10197915
-0.20508172 0.1082376 2.7501233 10197915
-0.17549923 0.10826354 2.7507827 10197915
-0.125407 0.10830751 2.7518995 10197915
-0.07527408 0.10835149 2.7530169 10197915
-0.025100423 0.10839551 2.7541354 10197915
0.025114017 0.10843956 2.7552545 10197915
0.075369291 0.10848365 2.7563748 10197915
0.12566544 0.10852777 2.7574961 10197915
0.17485788 0.10857093 2.7585924 10197915
0.2240898 0.10861412 2.75969 10197915
0.27450699 0.10865836 2.7608135 10197915
0.32496527 0.10870261 2.7619383 10197915
0.37546474 0.10874692 2.7630641 10197915
0.42485604 0.10879025 2.7641647 10197915
0.47428706 0.1088336 2.7652667 10197915
0.5249083 0.10887802 2.7663949 10197915
0.575571 0.10892247 2.7675245 10197915
0.62512195 0.10896594 2.7686288 10197915
0.67471278 0.10900944 2.7697344 10197915
0.72549778 0.109054 2.7708662 10197915
0.77516854 0.10909759 2.7719734 10197915
0.82487923 0.10914118 2.7730815 10197915
0.87462944 0.10918482 2.7741904 10197915
0.92441982 0.1092285 2.7753005 8355711
0.97540909 0.10927324 2.7764368 6447714
1.0252798 0.10931698 2.7775483 6447714
