# .PCD v0.7 - Point Cloud Data file format
VERSION 0.7
FIELDS x y z rgb
SIZE 4 4 4 4
TYPE F F F U
COUNT 1 1 1 1
WIDTH 1169
HEIGHT 1
VIEWPOINT 0 0 0 1 0 0 0
POINTS 1169
DATA ascii
-0.97529352 0.11022122 2.0156395 2894892
-0.92531002 0.11028638 2.0165801 2894892
-0.87528324 0.11035049 2.0180035 2894892
-0.82560122 0.11041472 2.0191777 2894892
-0.77544671 0.1104801 2.0201225 2894892
-0.72523946 0.11054443 2.0215502 2894892
-0.67538279 0.11060889 2.0227284 2894892
-0.62505573 0.1106745 2.0236771 2894892
-0.57466757 0.11073907 2.0251093 2894892
-0.52505451 0.11080378 2.0260324 2894892
-0.48918757 0.10940925 2.0249207 2894892
-0.49732387 -0.91535228 2.0804684 2894892
-0.4971787 -0.87458807 2.0798612 2894892
-0.49699867 -0.82431304 2.0791078 2894892
-0.49682185 -0.77494001 2.0783679 2894892
-0.49664509 -0.72560245 2.0776284 2894892
-0.49646533 -0.67543525 2.0768766 2894892
-0.49628565 -0.62530428 2.0761249 2894892
-0.49610615 -0.5752095 2.0753744 2894892
-0.4959268 -0.52515101 2.0746236 2894892
-0.49574751 -0.47512871 2.073874 2894892
-0.49556845 -0.42514256 2.0731244 2894892
-0.4953894 -0.37519243 2.0723758 2894892
-0.49521059 -0.32527846 2.0716276 2894892
-0.49503189 -0.27540046 2.0708802 2894892
-0.49485329 -0.22555855 2.070133 2894892
-0.49467173 -0.1748942 2.0693734 2894892
-0.49449036 -0.12426684 2.0686145 2894892
-0.49431223 -0.074533835 2.0678692 2894892
-0.49413401 -0.024836648 2.0671241 2894892
-0.49395603 0.024824727 2.0663798 2894892
-0.49377832 0.074450359 2.0656362 2894892
-1.6252396 0.10920939 2.0756485 10197915
-1.5745866 0.10927476 2.0768912 10197915
-1.5247184 0.1093391 2.0781143 10197915
-1.4747919 0.10940354 2.0793388 10197915
-1.4213772 0.10948458 2.0753441 10197915
-1.3747365 0.10956795 2.0663152 9342606
-1.3245858 0.10963331 2.0672741 3618615
-1.2752228 0.10969643 2.068738 2894892
-1.2253748 0.10976079 2.069952 2894892
-1.175052 0.10982635 2.070914 2894892
-1.125085 0.10989086 2.0721304 2894892
-1.0750637 0.10995424 2.073875 2894892
-1.0249909 0.11002007 2.0745676 2894892
-0.97484726 0.11008481 2.0757878 2894892
-0.92507505 0.11014846 2.0772629 2894892
-0.87524331 0.1102134 2.0782123 2894892
-0.82535684 0.11027721 2.0796907 2894892
-0.77540642 0.1103423 2.0806429 2894892
-0.72540474 0.11040623 2.0821245 2894892
-0.67533571 0.11047147 2.0830786 2894892
-0.62933099 0.11054628 2.0774362 2894892
-0.57547331 0.11063541 2.0701511 2894892
-0.52518058 0.11070036 2.0713663 2894892
-0.49460426 0.10645805 2.0666971 2894892
-0.50814939 -0.9241488 2.1184118 2894892
-0.50797212 -0.87557352 2.1176734 2894892
-0.50778759 -0.82526594 2.1169038 2894892
-0.50760353 -0.77499545 2.1161366 2894892
-0.50741965 -0.72476149 2.1153698 2894892
-0.50723583 -0.67456383 2.114604 2894892
-0.50705552 -0.62528229 2.1138518 2894892
-0.50687194 -0.57515675 2.1130869 2894892
-0.50668854 -0.52506727 2.1123219 2894892
-0.50650537 -0.47501433 2.1115582 2894892
-0.51067442 -0.42179215 2.1260326 2894892
-0.51161718 -0.37536573 2.1292222 2894892
-0.5115301 -0.32541099 2.1287951 2894892
-0.51124758 -0.2754806 2.1276839 2894892
-0.51125669 -0.22514971 2.1275933 2894892
-0.51087517 -0.17486513 2.1261342 2894892
-0.51068932 -0.12460493 2.125361 2894892
-0.51060265 -0.074821897 2.1249356 2894892
-0.51032096 -0.025081685 2.1238279 2894892
-0.51013541 0.025069524 2.1230552 2894892
-0.51004905 0.074737854 2.122632 2894892
-1.7000436 0.10896579 2.1383691 10197915
-1.6705463 0.10902987 2.1276782 10197915
-1.6250626 0.10909981 2.1238651 10197915
-1.5749611 0.10916441 2.1251228 10197915
-1.5252382 0.10922916 2.1260827 10197915
-1.4754522 0.10929272 2.1276205 10197915
-1.4251732 0.10935752 2.1288824 9803157
-1.3752791 0.10942253 2.1298461 4210752
-1.325312 0.10948627 2.1313889 2894892
-1.2752986 0.10955143 2.132355 2894892
-1.228848 0.10963532 2.1229808 2894892
-1.175289 0.10971729 2.1186662 2894892
-1.1250443 0.10978208 2.1199179 2894892
-1.0747402 0.10984696 2.1211705 2894892
-1.0243767 0.10991191 2.1224251 2894892
-0.97482342 0.10997582 2.1236594 2894892
-0.92521209 0.11003981 2.1248949 2894892
-0.87467158 0.11010501 2.1261535 2894892
-0.82494396 0.11016912 2.1273918 2894892
-0.77515835 0.11023331 2.1286318 2894892
-0.72531492 0.11029762 2.129873 2894892
-0.67541277 0.11036196 2.1311157 2894892
-0.62132227 0.1104598 2.1201344 2894892
-0.5750128 0.11052876 2.1172304 2894892
-0.52516437 0.10939633 2.1177347 2894892
-0.52737445 -0.96368778 2.185854 2894892
-0.52515286 -0.9247849 2.1779776 2894892
-0.5248602 -0.87530869 2.1768315 2894892
-0.52467132 -0.82540244 2.176048 2894892
-0.52458644 -0.77508396 2.1756279 2894892
-0.5242908 -0.72480053 2.1744702 2894892
-0.52410251 -0.67500299 2.1736889 2894892
-0.52401793 -0.6248008 2.1732705 2894892
-0.52372271 -0.57461917 2.1721139 2894892
-0.52374536 -0.52493566 2.1720726 2894892
-0.52334696 -0.4752911 2.1705558 2894892
-0.5260188 -0.42919967 2.1798024 2894892
-0.52885604 -0.37464562 2.1896091 2894892
-0.52866489 -0.32463622 2.188817 2894892
-0.52847362 -0.2746627 2.1880255 2894892
-0.52828258 -0.22472556 2.1872344 2894892
-0.52809179 -0.17482427 2.1864443 2894892
-0.52790099 -0.12495925 2.1856546 2894892
-0.52771044 -0.075130023 2.1848652 2894892
-0.52752 -0.02533699 2.1840768 2894892
-0.52732617 0.025324581 2.1832747 2894892
-0.52713591 0.075045362 2.1824868 2894892
-1.7140397 0.10887081 2.1718192 10197915
-1.6752175 0.10892081 2.1728168 10197915
-1.6248745 0.10898565 2.1741099 10197915
-1.5753562 0.10904942 2.1753821 10197915
-1.5248939 0.10911441 2.1766787 10197915
-1.4743718 0.10917949 2.1779768 10197915
-1.424677 0.1092435 2.1792533 6052956
-1.3749239 0.10930756 2.1805317 2894892
-1.3251126 0.10937171 2.1818118 2894892
-1.2752427 0.10943596 2.1830933 2894892
-1.2227764 0.10953841 2.1691065 2894892
-1.1750975 0.10960361 2.1686563 2894892
-1.1249956 0.10966887 2.1696339 2894892
-1.074845 0.10973279 2.171212 2894892
-1.0250714 0.10979693 2.1724803 2894892
-0.97479796 0.10986238 2.1734629 2894892
-0.92446482 0.10992657 2.1750453 2894892
-0.87496305 0.10999101 2.1759968 2894892
-0.82540745 0.11005417 2.1775701 2894892
-0.77534151 0.11011869 2.1788466 2894892
-0.72477597 0.11018451 2.1798358 2894892
-0.67459035 0.11024918 2.1811042 2894892
-0.62826425 0.11031663 2.1788735 2894892
-0.57452196 0.1104164 2.1668363 2894892
-0.5335511 0.10886472 2.1718657 2894892
-0.54332078 -1.0011963 2.241806 2894892
-0.54321855 -0.97500896 2.2413843 2894892
-0.54302502 -0.92546469 2.2405858 2894892
-0.54282773 -0.87502134 2.2397718 2894892
-0.54263049 -0.82461441 2.2389581 2894892
-0.5424335 -0.77424425 2.2381449 2894892
-0.5422402 -0.72484219 2.2373478 2894892
-0.54204708 -0.67547566 2.236551 2894892
-0.54185051 -0.62521362 2.2357395 2894892
-0.54165399 -0.57498807 2.2349288 2894892
-0.54145765 -0.52479893 2.2341187 2894892
-0.54126143 -0.47464615 2.233309 2894892
-0.54106545 -0.42452967 2.2325001 2894892
-0.54086947 -0.37444958 2.2316916 2894892
-0.54067367 -0.3244057 2.2308836 2894892
-0.54047805 -0.274398 2.2300768 2894892
-0.54028255 -0.22442657 2.2292702 2894892
-0.54008716 -0.1744912 2.2284641 2894892
-0.53989196 -0.12459197 2.2276585 2894892
-0.53969687 -0.074728765 2.2268538 2894892
-0.53950197 -0.024901586 2.2260497 2894892
-0.53930712 0.024889611 2.2252455 2894892
-0.53911251 0.074644864 2.2244427 2894892
-1.7647831 0.1086521 2.2377872 10197915
-1.7254905 0.10873622 2.224092 10197915
-1.6753361 0.10880001 2.2257397 10197915
-1.6251315 0.10886535 2.2267325 10197915
-1.5748593 0.10892928 2.2283835 10197915
-1.5245342 0.10899475 2.2293799 10197915
-1.4750526 0.10905766 2.2310102 8158332
-1.4285833 0.10914618 2.219635 2894892
-1.3749806 0.10922764 2.2155581 2894892
-1.3252733 0.10929161 2.216856 2894892
-1.2755071 0.10935565 2.2181549 2894892
-1.2247763 0.10942095 2.2194793 2894892
-1.174893 0.10948513 2.2207816 2894892
-1.1249503 0.1095494 2.2220855 2894892
-1.0749494 0.10961375 2.2233906 2894892
-1.0248896 0.10967819 2.2246971 2894892
-0.97477108 0.10974269 2.2260056 2894892
-0.92550606 0.1098061 2.2272916 2894892
-0.87527025 0.10987074 2.2286031 2894892
-0.82497555 0.10993548 2.2299163 2894892
-0.77553755 0.10999911 2.2312067 2894892
-0.72512484 0.11006398 2.2325225 2894892
-0.67465299 0.11012894 2.2338402 2894892
-0.62067735 0.11022017 2.2256966 2894892
-0.57492083 0.11029836 2.2184429 2894892
-0.54157591 0.10867453 2.2163181 2894892
-0.55590326 -1.0114222 2.2859077 2894892
-0.5557586 -0.97518283 2.2853134 2894892
-0.55556035 -0.92561996 2.284498 2894892
-0.55535841 -0.87514061 2.2836673 2894892
-0.55515665 -0.82469743 2.2828374 2894892
-0.55495846 -0.77524173 2.282023 2894892
-0.55475706 -0.72487146 2.2811942 2894892
-0.55455554 -0.67453742 2.2803659 2894892
-0.55435807 -0.62518889 2.2795534 2894892
-0.55415684 -0.57492757 2.2787266 2894892
-0.55395579 -0.52470237 2.2779002 2894892
-0.55375874 -0.47546041 2.2770891 2894892
-0.55355793 -0.4253076 2.276264 2894892
-0.55335742 -0.375191 2.275439 2894892
-0.55315697 -0.32511088 2.274615 2894892
-0.5529567 -0.27506679 2.2737913 2894892
-0.55275649 -0.22505915 2.2729683 2894892
-0.55255651 -0.17508747 2.2721457 2894892
-0.5523566 -0.12515222 2.2713239 2894892
-0.55215693 -0.075252816 2.2705028 2894892
-0.55195737 -0.025389716 2.2696819 2894892
-0.55175418 0.025377261 2.2688468 2894892
-0.55155492 0.075167887 2.2680273 2894892
-1.8059229 0.10850634 2.2774816 10197915
-1.775425 0.10854553 2.2783041 10197915
-1.7254753 0.10860969 2.2796512 10197915
-1.6754667 0.10867399 2.2810004 10197915
-1.6253989 0.10873832 2.2823508 10197915
-1.5752717 0.10880275 2.2837024 10197915
-1.5250852 0.10886718 2.2850566 9934743
-1.474839 0.10893181 2.2864115 2894892
-1.4229085 0.1090367 2.2710402 2894892
-1.3750689 0.10910411 2.2697229 2894892
-1.3250654 0.10916682 2.2717524 2894892
-1.274994 0.10923115 2.2730918 2894892
-1.2248636 0.10929564 2.2744329 2894892
-1.1751472 0.10936031 2.2754097 2894892
-1.1253641 0.10942353 2.2770948 2894892
-1.0750569 0.1094882 2.2784407 2894892
-1.0251707 0.10955311 2.2794213 2894892
-0.97937858 0.10962342 2.275635 2894892
-0.92561007 0.10972308 2.2636523 2894892
-0.87548286 0.10978752 2.2649822 2894892
-0.8252964 0.10985207 2.2663133 2894892
-0.77505106 0.10991669 2.2676466 2894892
-0.72474664 0.1099814 2.268981 2894892
-0.67438287 0.11004614 2.2703173 2894892
-0.62489438 0.11010979 2.2716308 2894892
-0.57222873 0.10921167 2.2718577 2894892
-0.56899095 -1.0220596 2.3317804 2894892
-0.56880003 -0.97536319 2.3309982 2894892
-0.56859303 -0.92480981 2.3301494 2894892
-0.56838614 -0.87429309 2.3293018 2894892
-0.56818324 -0.82478356 2.3284705 2894892
-0.56798065 -0.77530962 2.3276401 2894892
-0.56777418 -0.72490162 2.3267941 2894892
-0.56756777 -0.67453033 2.3259482 2894892
-0.56736159 -0.62419564 2.3251033 2894892
-0.56715959 -0.57486421 2.3242753 2894892
-0.56695759 -0.52556837 2.3234477 2894892
-0.56675184 -0.4753418 2.3226047 2894892
-0.5665462 -0.42515165 2.3217618 2894892
-0.5663408 -0.37499794 2.32092 2894892
-0.56613553 -0.32488063 2.3200784 2894892
-0.56593031 -0.27479959 2.3192379 2894892
-0.56572539 -0.22475483 2.3183978 2894892
-0.56552052 -0.17474638 2.3175581 2894892
-0.56531578 -0.12477408 2.3167193 2894892
-0.56511122 -0.074837975 2.3158813 2894892
-0.56490684 -0.024937969 2.3150434 2894892
-0.56470257 0.024925947 2.3142064 2894892
-0.56449848 0.074753813 2.31337 2894892
-1.8207295 0.1083997 2.3155134 10197915
-1.7746909 0.10845882 2.3167758 10197915
-1.7248381 0.10852282 2.3181434 10197915
-1.6749263 0.10858692 2.3195124 10197915
-1.624956 0.10865108 2.3208826 10197915
-1.5749261 0.1087153 2.3222547 10197915
-1.5248376 0.10877962 2.3236284 5987163
-1.4746892 0.108844 2.3250036 2894892
-1.4244819 0.10890847 2.3263812 2894892
-1.3751639 0.1089718 2.3277335 2894892
-1.3248382 0.10903641 2.329114 2894892
-1.274453 0.1091011 2.3304956 2894892
-1.2249602 0.10916465 2.3318532 2894892
-1.1754098 0.10922827 2.3332121 2894892
-1.1248468 0.10929321 2.3345988 2894892
-1.074224 0.10935818 2.3359873 2894892
-1.0244979 0.10942204 2.3373511 2894892
-0.9702571 0.10951965 2.3265791 2894892
-0.92482305 0.10959428 2.3206654 2894892
-0.87486207 0.1096593 2.3216577 2894892
-0.82484698 0.1097227 2.3233848 2894892
-0.7752443 0.10978642 2.324734 2894892
-0.72511357 0.10985165 2.3257303 2894892
-0.67491698 0.10991529 2.3274627 2894892
-0.62466663 0.10998068 2.3284619 2894892
-0.58084434 0.10928467 2.324481 2894892
-0.58271414 -1.0569707 2.3799384 2894892
-0.58257723 -1.0241938 2.379379 2894892
-0.58236921 -0.97455835 2.3785288 2894892
-0.58216125 -0.92495799 2.3776798 2894892
-0.58195329 -0.87539309 2.3768308 2894892
-0.58174145 -0.82487351 2.3759656 2894892
-0.5815298 -0.77439046 2.3751006 2894892
-0.58132231 -0.72493303 2.3742535 2894892
-0.58111507 -0.67551088 2.3734069 2894892
-1.861186 -0.62082082 2.3569491 11711154
-1.8251501 -0.62084103 2.3672976 11711154
-1.7750573 -0.62085742 2.3816836 11711154
-1.7307407 -0.62104243 2.3944106 11711154
-0.58090377 -0.62513661 2.3725443 2894892
-1.861163 -0.57494974 2.357079 11711154
-1.8253086 -0.57502425 2.3673747 11711154
-1.7752037 -0.57498467 2.3817642 11711154
-1.7310541 -0.57505298 2.3944433 11711154
-0.58069253 -0.57479876 2.3716819 2894892
-1.8613944 -0.52503622 2.3571439 11711154
-1.8252623 -0.52499515 2.3675213 11711154
-1.7752378 -0.52500343 2.3818872 11711154
-1.7311739 -0.52504575 2.3945408 11711154
-0.58048582 -0.52548349 2.3708372 2894892
-1.8612937 -0.47490042 2.3573065 11711154
-1.8254151 -0.47499716 2.3676105 11711154
-1.7752994 -0.47504732 2.3820024 11711154
-1.7311082 -0.47499305 2.3946936 11711154
-0.58027494 -0.47521833 2.3699758 2894892
-1.8615559 -0.42511952 2.3573639 11711154
-1.8255495 -0.42495829 2.3677051 11711154
-1.7753582 -0.42496401 2.3821199 11711154
-1.7314856 -0.42527762 2.3947179 11711154
-0.5800643 -0.42498928 2.3691154 2894892
-1.8615524 -0.37504622 2.3574979 11711154
-1.8254706 -0.37491852 2.367861 11711154
-1.7754706 -0.37496695 2.3822207 11711154
-1.7321543 -0.37500495 2.3946602 11711154
-0.57985371 -0.37479705 2.3682556 2894892
-1.8615376 -0.3248964 2.3576353 11711154
-1.8258061 -0.32503051 2.3678977 11711154
-1.7757508 -0.32503155 2.3822734 11711154
-1.7323687 -0.3248322 2.3947325 11711154
-0.57964343 -0.32464099 2.3673966 2894892
-1.8618245 -0.27510595 2.3576853 8618883
-1.8255452 -0.27501047 2.3681066 8684676
-1.7753977 -0.27505755 2.382508 8882055
-1.7323452 -0.27487674 2.3948717 9013641
-0.57943732 -0.27550378 2.366555 2894892
-1.8618109 -0.22466825 2.3578253 6513507
-1.8252344 -0.22506414 2.3683283 6513507
-1.7749652 -0.22490788 2.3827651 6513507
-1.732424 -0.2252755 2.3949816 6513507
-0.57922733 -0.22541994 2.3656969 2894892
-1.8618964 -0.17485848 2.3579352 6513507
-1.8248541 -0.17499398 2.3685708 6513507
-1.7751017 -0.17490208 2.382859 6513507
-1.7331907 -0.17541975 2.3948951 6513507
-0.57901728 -0.17537217 2.36484 2894892
-1.861359 -0.12474791 2.3582208 6513507
-1.8247703 -0.12510715 2.3687282 6513507
-1.7750486 -0.12538069 2.3830066 6513507
-1.7334796 -0.12483335 2.3949466 6513507
-0.57880771 -0.12536091 2.3639829 2894892
-1.8612701 -0.075232521 2.3583786 6513507
-1.8242358 -0.07489796 2.3690157 6513507
-1.7751313 -0.075034305 2.3831172 6513507
-1.7334569 -0.074419051 2.3950875 6513507
-0.57859802 -0.07538563 2.3631272 2894892
-1.8613546 -0.025404228 2.3584883 6513507
-1.8247463 -0.024860445 2.3690019 6513507
-1.7752128 -0.02468338 2.3832285 6513507
-1.7335364 -0.024807347 2.3951957 6513507
-0.57838863 -0.025446745 2.3622715 2894892
-1.8614432 0.025405811 2.358597 6645093
-1.8248165 0.024829913 2.3691151 6579300
-1.7746065 0.024794832 2.3835347 6579300
-1.7335824 0.024431624 2.3953135 6645093
-0.57817519 0.025434233 2.3614001 2894892
-1.8615272 0.075243317 2.3587058 10197915
-1.824499 0.074877456 2.3693383 10197915
-1.7746204 0.07499034 2.3836639 10197915
-1.7336982 0.074429557 2.3954155 10197915
-0.57796597 0.07530041 2.3605459 2894892
-1.8614572 0.10436311 2.3579979 10197915
-1.8247191 0.10478632 2.3668859 10197915
-1.7743462 0.10525049 2.3791821 10197915
-1.7302997 0.10533702 2.3882518 10197915
-1.6775901 0.10848314 2.3635213 10197915
-1.6254594 0.10855973 2.360714 10197915
-1.5755316 0.10862379 2.3621066 9474192
-1.5255449 0.10868789 2.3635011 2894892
-1.4754989 0.10875212 2.3648973 2894892
-1.4253943 0.10881639 2.3662951 2894892
-1.37523 0.10888074 2.3676949 2894892
-1.3250064 0.10894517 2.3690958 2894892
-1.2747233 0.10900967 2.3704989 2894892
-1.2243807 0.10907426 2.3719027 2894892
-1.1749482 0.10913768 2.373282 2894892
-1.1254584 0.10920116 2.3746629 2894892
-1.0749385 0.10926599 2.3760717 2894892
-1.0243587 0.10933086 2.3774831 2894892
-0.97469354 0.10939459 2.3788686 2894892
-0.92497003 0.10945838 2.3802557 2894892
-0.87518889 0.10952224 2.3816445 2894892
-0.82534939 0.10958617 2.3830354 2894892
-0.77545184 0.10965019 2.3844271 2894892
-0.7254954 0.10971427 2.3858206 2894892
-0.67548126 0.10977844 2.3872161 2894892
-0.62540805 0.10984269 2.3886127 2894892
-0.58667243 0.10768997 2.3772366 2894892
-0.59691209 -1.069007 2.4297037 2894892
-0.59672523 -1.025403 2.4289429 2894892
-0.59650761 -0.974733 2.428057 2894892
-0.59629446 -0.92511255 2.4271896 2894892
-0.5960815 -0.8755275 2.4263225 2894892
-0.59586424 -0.82496697 2.4254382 2894892
-0.59564722 -0.77444339 2.4245548 2894892
-0.59543455 -0.72496575 2.4236898 2894892
-0.59522229 -0.67552358 2.4228251 2894892
-1.7060617 -0.62022555 2.4015 11711154
-1.6756258 -0.62086028 2.4102385 10526880
-1.6253239 -0.62075943 2.4246857 5329233
-1.5752127 -0.62077397 2.4390807 2894892
-1.5436623 -0.62071109 2.448137 2894892
-0.59500569 -0.62510866 2.4219434 2894892
-1.7063183 -0.57492989 2.401547 11711154
-1.675602 -0.57508445 2.4103673 10526880
-1.6253694 -0.57487679 2.424794 5329233
-1.5753883 -0.57501471 2.4391422 2894892
-1.5438802 -0.5756045 2.448195 2894892
-0.59478933 -0.5747304 2.4210627 2894892
-1.7064348 -0.52464312 2.4016471 11711154
-1.6756824 -0.52511322 2.4104774 10526880
-1.6254381 -0.52487385 2.4249074 5329233
-1.5754826 -0.52507192 2.439254 2894892
-1.5445979 -0.52478021 2.4481246 2894892
-0.59457296 -0.52438885 2.4201822 2894892
-1.7064668 -0.47462687 2.4017715 11711154
-1.6757712 -0.47510308 2.4105864 10526880
-1.6255349 -0.47493297 2.4250135 5263440
-1.5755143 -0.47501799 2.4393766 2894892
-1.5447887 -0.47511846 2.4482017 2894892
-0.59436119 -0.4750894 2.4193199 2894892
-1.7068692 -0.42410088 2.4017909 11711154
-1.6757748 -0.4250297 2.4107187 10526880
-1.6255972 -0.42508194 2.4251261 4868682
-1.5756696 -0.42492497 2.4394703 2894892
-1.5447998 -0.42499778 2.4483321 2894892
-0.59414953 -0.42582536 2.4184587 2894892
-1.7069309 -0.37445045 2.4019051 11711154
-1.674615 -0.37527943 2.4111824 10395294
-1.6248215 -0.37501615 2.4254837 4342338
-1.5750111 -0.37480658 2.4397917 2894892
-1.5441582 -0.3754777 2.448648 2894892
-0.59393376 -0.37559196 2.4175804 2894892
-1.7067007 -0.32541788 2.402102 11711154
-1.6743897 -0.32497886 2.4113839 10329501
-1.6248263 -0.32496136 2.4256153 3881787
-1.5747519 -0.32498604 2.4399943 2894892
-1.5448197 -0.32585311 2.4485905 2894892
-0.59371811 -0.32539508 2.4167025 2894892
-1.7067496 -0.27555871 2.4022212 9145227
-1.6744871 -0.27484214 2.4114881 8487297
-1.6249224 -0.27493683 2.4257216 3487029
-1.5749636 -0.27502927 2.4400682 2894892
-1.545014 -0.2749171 2.4486706 2894892
-0.59350264 -0.27523458 2.4158254 2894892
-1.7068584 -0.22504348 2.4023242 6513507
-1.6744746 -0.22479887 2.4116247 6513507
-1.6250163 -0.22497715 2.4258273 3487029
-1.5752333 -0.2251382 2.4401231 2894892
-1.5450848 -0.22521918 2.4487832 2894892
-0.59328735 -0.22511053 2.4149492 2894892
-1.7078416 -0.17456585 2.4021764 6513507
-1.6745511 -0.17485158 2.4117362 6513507
-1.6251975 -0.17518838 2.425909 3487029
-1.575089 -0.17490052 2.4402945 2894892
-1.5451558 -0.17551658 2.448895 2894892
-0.59307206 -0.17502281 2.4140732 2894892
-1.7078427 -0.12440587 2.4023106 6513507
-1.6746287 -0.12489981 2.4118466 6513507
-1.6253505 -0.12543078 2.4259992 3487029
-1.5749326 -0.1246876 2.4404852 2894892
-1.5455911 -0.12619078 2.4489012 2894892
-0.59285718 -0.1249714 2.413198 2894892
-1.7079211 -0.074646845 2.4024203 6513507
-1.6747056 -0.074943282 2.411958 6513507
-1.625263 -0.075384341 2.4261572 3487029
-1.5754651 -0.075163268 2.4404595 2894892
-1.546158 -0.075075723 2.4488747 2894892
-0.59264225 -0.074956268 2.4123235 2894892
-1.707999 -0.024883293 2.4025302 6513507
-1.6747829 -0.024982106 2.4120691 6513507
-1.6249601 -0.024919325 2.4263773 3421236
-1.5749345 -0.025489166 2.4407425 2894892
-1.5462288 -0.025364457 2.4489875 2894892
-0.59242749 -0.024977375 2.4114497 2894892
-1.7087513 0.025251081 2.4024482 6645093
-1.6748595 0.024983648 2.4121795 6645093
-1.6245692 0.025133183 2.4266248 3487029
-1.5745282 0.025282091 2.4410021 2894892
-1.546301 0.025366036 2.4491012 2894892
-0.59221292 0.024965318 2.4105761 2894892
-1.7089821 0.074650124 2.4025137 10197915
-1.6749367 0.074953973 2.4122925 10197915
-1.6246442 0.075402856 2.4267375 6579300
-1.5748013 0.075122871 2.4410422 2894892
-1.5464258 0.074610874 2.4491968 2894892
-0.5919987 0.074871846 2.4097035 2894892
-1.7090275 0.10351735 2.4025772 10197915
-1.6744767 0.10465723 2.41047 10197915
-1.6247419 0.10523437 2.4225185 9342606
-1.5739871 0.1050519 2.4353104 3223857
-1.5293767 0.10758179 2.4308655 2894892
-1.474795 0.10861108 2.4271953 2894892
-1.4281046 0.10870526 2.4134526 2894892
-1.3752967 0.10878637 2.409049 2894892
-1.325179 0.10885062 2.4104712 2894892
-1.2750015 0.10891494 2.4118955 2894892
-1.2247652 0.10897931 2.4133217 2894892
-1.1754562 0.10904254 2.4147215 2894892
-1.1251016 0.10910709 2.416151 2894892
-1.0746876 0.10917169 2.4175818 2894892
-1.0252043 0.10923514 2.4189866 2894892
-0.97566324 0.10929862 2.4203925 2894892
-0.92507184 0.10936347 2.4218285 2894892
-0.87442088 0.10942838 2.4232662 2894892
-0.82470411 0.10949213 2.4246774 2894892
-0.77492988 0.10955593 2.42609 2894892
-0.7250973 0.1096198 2.4275048 2894892
-0.67520666 0.10968375 2.428921 2894892
-0.62525779 0.10974776 2.4303384 2894892
-0.59310234 0.10563008 2.4128294 2894892
-0.61182088 -1.1053909 2.4820182 2894892
-0.61168909 -1.0753406 2.4814837 2894892
-0.61147052 -1.0256277 2.4805968 2894892
-0.6112473 -0.97491539 2.479691 2894892
-0.61102426 -0.92423981 2.4787862 2894892
-0.61080593 -0.87463433 2.4779003 2894892
-0.61058766 -0.82506436 2.4770153 2894892
-0.61036962 -0.77552992 2.4761305 2894892
-0.61014724 -0.72500002 2.4752283 2894892
-0.60992485 -0.67450666 2.4743266 2894892
-1.5286126 -0.62080204 2.4629879 2894892
-0.60970742 -0.62507963 2.4734437 2894892
-1.5287502 -0.57478315 2.4630737 2894892
-0.60948998 -0.57568765 2.4725616 2894892
-1.5292981 -0.52503997 2.4624736 2894892
-0.60926813 -0.52530336 2.4716618 2894892
-1.5292842 -0.4749468 2.46262 2894892
-0.6090464 -0.47495532 2.4707627 2894892
-1.5294503 -0.42503992 2.4628508 2894892
-0.60882497 -0.42464411 2.4698646 2894892
-1.5294766 -0.3748807 2.4627283 2894892
-0.60860366 -0.37436947 2.4689667 2894892
-1.5299828 -0.32476127 2.4624951 2894892
-0.60838705 -0.32515624 2.4680879 2894892
-1.5302092 -0.27509496 2.4622574 2894892
-0.60816604 -0.27495396 2.4671912 2894892
-1.5302311 -0.22477378 2.4623528 2894892
-0.60794514 -0.22478789 2.4662955 2894892
-1.5303162 -0.174968 2.4626491 2894892
-0.60772455 -0.17465855 2.4654 2894892
-1.5307049 -0.12468696 2.4623196 2894892
-0.60750407 -0.1245653 2.4645054 2894892
-1.5310235 -0.075049095 2.4623103 2894892
-0.60728365 -0.074508645 2.4636118 2894892
-1.5311373 -0.025184236 2.4620643 2894892
-0.60706347 -0.024488041 2.4627182 2894892
-1.531206 0.025185758 2.4621744 2894892
-0.60684359 0.025496054 2.4618258 2894892
-1.5312837 0.075156398 2.4625859 2894892
-0.60662359 0.075444177 2.4609339 2894892
-1.5292451 0.1046314 2.4672387 2894892
-1.4750547 0.10846008 2.4933217 2894892
-1.4230163 0.10857283 2.4746034 2894892
-1.3748932 0.10863982 2.4736254 2894892
-1.3249515 0.10870275 2.4755344 2894892
-1.2744298 0.10876742 2.4770074 2894892
-1.22508 0.10887735 2.4579275 2894892
-1.1749791 0.10894543 2.4576657 2894892
-1.1257392 0.10900848 2.4590881 2894892
-1.0754358 0.1090729 2.4605415 2894892
-1.0250729 0.10913739 2.4619963 2894892
-0.97465056 0.10920198 2.4634528 2894892
-0.92517895 0.10926533 2.4648821 2894892
-0.87564921 0.10932875 2.4663126 2894892
-0.82504988 0.10939356 2.4677749 2894892
-0.77439016 0.10945844 2.469238 2894892
-0.72468585 0.10952207 2.4706745 2894892
-0.67492318 0.10958581 2.4721117 2894892
-0.62525338 0.10867363 2.4706962 2894892
-0.62727112 -1.117951 2.536171 2894892
-0.62708098 -1.0755976 2.5354023 2894892
-0.62685192 -1.0248045 2.5344756 2894892
-0.62662768 -0.97510511 2.5335691 2894892
-0.62640351 -0.92544174 2.5326626 2894892
-0.62617481 -0.87475801 2.531738 2894892
-0.62595087 -0.82516623 2.5308332 2894892
-0.6257273 -0.77560979 2.5299289 2894892
-0.62549907 -0.72503561 2.5290062 2894892
-0.6252709 -0.67449814 2.528084 2894892
-1.5417216 -0.62075824 2.5247247 2894892
-0.6250478 -0.62504911 2.5271819 2894892
-1.5417424 -0.57502031 2.5246866 2894892
-0.62482482 -0.57563585 2.5262806 2894892
-1.5418472 -0.52509797 2.5249298 2894892
-0.62459719 -0.52520722 2.5253601 2894892
-1.5418639 -0.4749105 2.5248687 2894892
-0.62436974 -0.47481537 2.5244408 2894892
-1.541978 -0.42471668 2.5251448 2894892
-0.62414247 -0.42446029 2.5235217 2894892
-1.5419943 -0.37478083 2.5250802 2894892
-0.62391549 -0.37414178 2.5226038 2894892
-1.5421134 -0.32497233 2.5253763 2894892
-0.62369329 -0.32490698 2.5217056 2894892
-1.5421498 -0.27502823 2.5253797 2894892
-0.62347132 -0.27570739 2.5208085 2894892
-1.5421711 -0.22495048 2.5253363 2894892
-0.6232447 -0.22549708 2.519892 2894892
-1.5422996 -0.17486677 2.5256617 2894892
-0.62301832 -0.17532325 2.518976 2894892
-1.5423552 -0.12490917 2.5257351 2894892
-0.62279195 -0.12518585 2.5180619 2894892
-1.542376 -0.075082563 2.5256867 2894892
-0.62256598 -0.075084835 2.5171471 2894892
-1.5424995 -0.025115622 2.526 2894892
-0.62234002 -0.02502021 2.5162342 2894892
-1.5425659 0.025117045 2.5261071 2894892
-0.62211424 0.02500811 2.515321 2894892
-1.542572 0.075092465 2.5260091 2894892
-0.6218887 0.075000137 2.5144088 2894892
-1.5344248 0.10582871 2.5309961 2894892
-1.4748954 0.10835551 2.5392852 2894892
-1.4252338 0.108419 2.5407724 2894892
-1.3755144 0.10848256 2.5422618 2894892
-1.3257364 0.10854618 2.5437529 2894892
-1.2759001 0.10860988 2.5452459 2894892
-1.2247967 0.10872664 2.5242195 2894892
-1.1752527 0.10879003 2.5256712 2894892
-1.128361 0.10886421 2.5208225 2894892
-1.0751849 0.10897171 2.5050826 2894892
-1.0249358 0.10903599 2.5065603 2894892
-0.97462744 0.10910036 2.5080397 2894892
-0.92528814 0.10916346 2.5094912 2894892
-0.87486166 0.109228 2.5109744 2894892
-0.82437593 0.1092926 2.5124595 2894892
-0.77486259 0.10935593 2.5139155 2894892
-0.72529173 0.10941938 2.5153739 2894892
-0.67566329 0.10948288 2.5168335 2894892
-0.63303208 0.10832509 2.5168204 2894892
-0.64352059 -1.1548994 2.5931835 2894892
-0.64338148 -1.1245764 2.592623 2894892
-0.64315069 -1.0747824 2.5916924 2894892
-0.64292032 -1.0250247 2.5907643 2894892
-0.64269012 -0.97530264 2.5898368 2894892
-0.64246017 -0.92561597 2.5889101 2894892
-0.64222533 -0.87488621 2.5879641 2894892
-0.64199072 -0.82419318 2.5870185 2894892
-0.6417613 -0.77461481 2.5860941 2894892
-0.64153194 -0.72507185 2.5851698 2894892
-0.64130288 -0.67556423 2.5842464 2894892
-1.5559467 -0.62095934 2.5742581 2894892
-0.64106888 -0.62501711 2.5833037 2894892
-1.5559317 -0.57527679 2.574095 2894892
-0.64083517 -0.57450634 2.5823617 2894892
-1.5560216 -0.52517426 2.5742869 2894892
-0.64060646 -0.52510625 2.5814404 2894892
-1.5561347 -0.47506964 2.5745599 2894892
-0.64037794 -0.47574127 2.5805192 2894892
-1.5561064 -0.42511252 2.5743401 2894892
-0.64014465 -0.42533973 2.5795794 2894892
-1.5562195 -0.37499934 2.5746145 2894892
-0.63991147 -0.37497464 2.5786402 2894892
-1.5562968 -0.32503286 2.5747633 2894892
-0.6396786 -0.3246465 2.5777016 2894892
-1.5563633 -0.27506304 2.5748734 2894892
-0.63944578 -0.27435464 2.5767634 2894892
-1.5564173 -0.22478481 2.5749419 2894892
-0.63921821 -0.22516845 2.575846 2894892
-1.5564947 -0.1748049 2.5750904 2894892
-0.63898575 -0.17494924 2.5749094 2894892
-1.5565491 -0.12497508 2.5751607 2894892
-0.63875347 -0.12476631 2.5739737 2894892
-1.5566617 -0.074833348 2.5754309 2894892
-0.63852143 -0.074620098 2.5730383 2894892
-1.5566452 -0.024850611 2.575254 2894892
-0.63828951 -0.02451006 2.5721035 2894892
-1.5567107 0.024852008 2.5753624 2894892
-0.6380626 0.02449845 2.5711896 2894892
-1.556859 0.074843183 2.5757565 2894892
-0.63783109 0.074536271 2.5702565 2894892
-1.5564719 0.10463724 2.5764415 2894892
-1.5252657 0.10818264 2.5854363 2894892
-1.4747313 0.10824717 2.5869787 2894892
-1.4251913 0.10831045 2.5884902 2894892
-1.3755932 0.10837375 2.5900037 2894892
-1.3248801 0.10843853 2.5915515 2894892
-1.275165 0.10850201 2.5930691 2894892
-1.225391 0.10856557 2.5945876 2894892
-1.174498 0.10863056 2.5961406 2894892
-1.1206715 0.10872743 2.5854237 2894892
-1.0753125 0.10881174 2.5752113 2894892
-1.0267276 0.10892401 2.5546269 2894892
-0.9756496 0.10899368 2.5542395 2894892
-0.92540139 0.10905791 2.5557451 2894892
-0.87509394 0.10912219 2.5572519 2894892
-0.82472724 0.10918659 2.5587606 2894892
-0.77430087 0.10925104 2.560271 2894892
-0.72486776 0.10931421 2.5617516 2894892
-0.67537683 0.10937748 2.5632341 2894892
-0.64088255 0.10756875 2.5662086 2894892
-0.6597091 -1.0230441 2.6495709 2894892
-0.65948313 -0.97551006 2.6486642 2894892
-0.65924186 -0.92469531 2.6476951 2894892
-0.65900588 -0.87502104 2.6467476 2894892
-0.65877044 -0.82538247 2.6458008 2894892
-0.65852946 -0.77467763 2.6448328 2894892
-0.65829408 -0.72511065 2.6438882 2894892
-0.65805882 -0.67557937 2.6429436 2894892
-1.5696567 -0.62088132 2.6219954 2894892
-0.65781856 -0.62498379 2.6419787 2894892
-1.5697231 -0.57481706 2.6221147 2894892
-0.65757835 -0.57442522 2.6410139 2894892
-1.5698011 -0.52486712 2.6222682 2894892
-0.65734369 -0.52500129 2.6400704 2894892
-1.5698802 -0.47506979 2.6224225 2894892
-0.65710908 -0.47561294 2.6391294 2894892
-1.569909 -0.42526993 2.6224022 2894892
-0.65686941 -0.42516327 2.6381667 2894892
-1.5699636 -0.37515166 2.622474 2894892
-0.65663004 -0.37475044 2.6372046 2894892
-1.5700802 -0.32487795 2.622756 2894892
-0.65639085 -0.32437438 2.6362441 2894892
-1.5701466 -0.27490702 2.6228676 2894892
-0.6561569 -0.27512872 2.6353047 2894892
-1.5701876 -0.22508824 2.6228909 2894892
-0.65592313 -0.22591849 2.634366 2894892
-1.5702541 -0.1751103 2.6230032 2894892
-0.65568441 -0.17565076 2.6334071 2894892
-1.5702707 -0.12497591 2.6229401 2894892
-0.65544587 -0.1254196 2.6324492 2894892
-1.5704119 -0.074989483 2.6233108 2894892
-0.65520757 -0.075225003 2.6314914 2894892
-1.5704786 -0.024997426 2.6234219 2894892
-0.65496927 -0.025066897 2.6305349 2894892
-1.5705457 0.024998836 2.6235337 2894892
-0.65473127 0.025054755 2.6295791 2894892
-1.5706115 0.074999362 2.6236448 2894892
-0.65449339 0.075139992 2.6286235 2894892
-1.5676383 0.10522659 2.6257613 2894892
-1.5249885 0.10807022 2.6349258 2894892
-1.475633 0.10813318 2.636461 2894892
-1.425145 0.10819758 2.6380315 2894892
-1.3745974 0.10826206 2.6396034 2894892
-1.3250666 0.10832524 2.6411436 2894892
-1.2754781 0.10838848 2.6426857 2894892
-1.2258316 0.10845181 2.6442299 2894892
-1.1750456 0.1085166 2.6458094 2894892
-1.1241996 0.10858146 2.6473911 2894892
-1.074376 0.10864501 2.6489406 2894892
-1.0268945 0.10880157 2.6083004 2894892
-0.97457963 0.10888583 2.6022415 2894892
-0.92445326 0.10894984 2.6037712 2894892
-0.87533605 0.10901257 2.6052701 2894892
-0.82509255 0.10907672 2.6068034 2894892
-0.77479029 0.10914095 2.6083388 2894892
-0.7255007 0.10920389 2.6098428 2894892
-0.67211962 0.10859029 2.613764 2894892
-0.66039777 -1.1680585 2.6523371 2894892
-0.66019291 -1.1248559 2.6515143 2894892
-0.65995598 -1.0750381 2.6505625 2894892
-0.65982461 -1.0473754 2.6500351 2894892
-1.5839137 -0.62096334 2.6716399 2894892
-1.584051 -0.57481301 2.6720071 2894892
-1.5840781 -0.52486461 2.6719806 2894892
-1.5841323 -0.47507089 2.6720493 2894892
-0.67449743 -0.45078352 2.6999803 2894892
-1.5842394 -0.4251149 2.6723008 2894892
-0.6743716 -0.42497861 2.6994765 2894892
-1.5842543 -0.37499502 2.672231 2894892
-0.67413098 -0.37563667 2.6985137 2894892
-1.5843999 -0.32487258 2.6726186 2894892
-0.67388517 -0.32520986 2.6975296 2894892
-1.5844138 -0.27506381 2.6725481 2894892
-0.67363948 -0.27481955 2.6965458 2894892
-1.5844538 -0.22524783 2.672569 2894892
-0.67339939 -0.2255847 2.695585 2894892
-1.5845615 -0.17511144 2.672821 2894892
-0.67315406 -0.17526723 2.694603 2894892
-1.5846148 -0.12497222 2.6728866 2894892
-0.6729089 -0.12498622 2.6936216 2894892
-1.5847352 -0.075141951 2.6731858 2894892
-0.67266381 -0.074742012 2.6926408 2894892
-1.5847099 -0.025161063 2.6729765 2894892
-0.67241901 -0.024534158 2.6916609 2894892
-1.5847776 0.025162486 2.67309 2894892
-0.67217994 0.024522524 2.6907036 2894892
-1.584937 0.075151891 2.6735251 2894892
-0.67193544 0.07465791 2.6897249 2894892
-1.5785962 0.10555068 2.6777751 2894892
-1.5257951 0.10795213 2.686316 2894892
-1.4754769 0.10801625 2.6879115 2894892
-1.4250993 0.10808045 2.6895089 2894892
-1.3746617 0.10814472 2.691108 2894892
-1.3252625 0.10820766 2.6926746 2894892
-1.2758056 0.10827069 2.6942425 2894892
-1.22519 0.10833517 2.6958473 2894892
-1.1745143 0.10839974 2.697454 2894892
-1.1248817 0.108463 2.6990283 2894892
-1.0972853 0.10849815 2.6999032 2894892
-1.0201546 0.10871418 2.6506271 2894892
-0.97455382 0.10877234 2.652045 2894892
-0.92455482 0.10883611 2.6536002 2894892
-0.87449735 0.10889997 2.6551571 2894892
-0.82438111 0.10896391 2.6567154 2894892
-0.77420568 0.10902791 2.6582758 2894892
-0.72506458 0.10909059 2.6598046 2894892
-0.68040347 0.10830273 2.6664653 2894892
-0.67818826 -1.2079176 2.7147543 2894892
-0.6780287 -1.1750265 2.7141156 2894892
-0.67778003 -1.1240147 2.7131205 2894892
-0.67753702 -1.0741731 2.7121475 2894892
-0.67729419 -1.0243667 2.7111754 2894892
-0.67705148 -0.97459626 2.7102041 2894892
-0.67680907 -0.92486167 2.7092333 2894892
-0.67656666 -0.8751623 2.7082634 2894892
-0.67632461 -0.82549882 2.7072942 2894892
-0.67608255 -0.77587074 2.7063255 2894892
-0.67583525 -0.72515154 2.7053356 2894892
-0.67558819 -0.67446917 2.7043459 2894892
-1.6020519 -0.62087899 2.7347977 2894892
-1.5955598 -0.62109154 2.7121911 2894892
-0.67534673 -0.62494916 2.7033796 2894892
-1.6021152 -0.57444876 2.734905 2894892
-1.5956477 -0.57504398 2.7123883 2894892
-0.67510545 -0.57546449 2.7024138 2894892
-1.6021825 -0.52461725 2.7350209 2894892
-1.5956675 -0.52506095 2.7123356 2894892
-0.67485875 -0.52489179 2.7014265 2894892
-1.6022506 -0.47478139 2.7351365 2894892
-1.5957955 -0.47479862 2.7126603 2894892
-0.67461783 -0.47547826 2.7004619 2894892
-1.6032724 -0.4238061 2.7385724 2894892
-1.5958389 -0.42480525 2.712692 2894892
-1.6034796 -0.37524092 2.7391753 2894892
-1.5958827 -0.37481219 2.7127237 2894892
-1.6035475 -0.32532313 2.7392919 2894892
-1.5959743 -0.32481286 2.7129216 2894892
-1.603583 -0.27502382 2.739296 2894892
-1.5960295 -0.27508974 2.7129941 2894892
-1.6036836 -0.22472043 2.7395246 2894892
-1.5960728 -0.22508387 2.7130249 2894892
-1.6037511 -0.17478991 2.7396412 2894892
-1.5962129 -0.17507173 2.7133915 2894892
-1.6038193 -0.12485515 2.7397573 2894892
-1.5962564 -0.12505439 2.7134218 2894892
-1.603887 -0.074916199 2.7398725 2894892
-1.596264 -0.074763417 2.7133305 2894892
-1.6039548 -0.024972999 2.7399883 2894892
-1.5963794 -0.024732597 2.7136102 2894892
-1.6040226 0.024974406 2.7401044 2894892
-1.5964465 0.024733972 2.7137244 2894892
-1.6040906 0.074926049 2.7402201 2894892
-1.5964669 0.074773267 2.7136738 2894892
-1.6034712 0.10440034 2.7391608 2894892
-1.5832249 0.1062874 2.7291663 2894892
-1.5255172 0.10783064 2.739783 2894892
-1.4753131 0.10789452 2.7414064 2894892
-1.4250499 0.1079585 2.743032 2894892
-1.3747265 0.10802256 2.7446592 2894892
-1.324344 0.10808668 2.7462885 2894892
-1.2750226 0.10814946 2.747884 2894892
-1.2301365 0.1082066 2.7493353 2894892
-1.0718768 0.10853052 2.7007084 2894892
-1.0254427 0.10858969 2.7021809 2894892
-0.97563559 0.10865317 2.7037606 2894892
-0.92466182 0.1087181 2.7053764 2894892
-0.87473738 0.10878173 2.70696 2894892
-0.82475382 0.10884542 2.7085445 2894892
-0.7747125 0.10890917 2.7101314 2894892
-0.72461188 0.10897303 2.71172 2894892
-0.68895125 0.10901846 2.7128508 2894892
-0.69669819 -1.2218142 2.7796295 2894892
-0.69646585 -1.1753595 2.778703 2894892
-0.69621587 -1.1254548 2.7777054 2894892
-0.6959604 -1.0744262 2.7766857 2894892
-0.69571084 -1.0245936 2.7756901 2894892
-0.69546127 -0.97479683 2.7746947 2894892
-0.69521207 -0.92503577 2.7737005 2894892
-0.69496316 -0.87531048 2.7727067 2894892
-0.69470841 -0.82446551 2.7716908 2894892
-0.69445968 -0.77481186 2.7706988 2894892
-0.69421124 -0.7251941 2.7697074 2894892
-0.69395715 -0.6744591 2.7686937 2894892
-0.69370896 -0.62491274 2.7677033 2894892
-0.693461 -0.5754022 2.7667139 2894892
-0.6932075 -0.52477676 2.7657022 2894892
-0.69295406 -0.47418824 2.7646918 2894892
-1.6133615 -0.42115453 2.7736959 2894892
-0.69270658 -0.42478511 2.7637043 2894892
-1.6134295 -0.37482011 2.7738211 2894892
-0.69245934 -0.37541753 2.762718 2894892
-1.6134893 -0.32484537 2.7739069 2894892
-0.69220656 -0.32493812 2.761709 2894892
-1.6136254 -0.27505854 2.7742648 2894892
-0.69195384 -0.27449563 2.7607005 2894892
-1.6136339 -0.22507344 2.7741728 2894892
-0.69170147 -0.22408995 2.7596934 2894892
-1.61371 -0.17508779 2.774318 2894892
-0.69145489 -0.1748652 2.7587097 2894892
-1.6138049 -0.12509255 2.7745268 2894892
-0.69120872 -0.12567581 2.7577279 2894892
-1.613785 -0.075294904 2.7743409 2894892
-0.69095677 -0.075378604 2.7567222 2894892
-1.6139321 -0.025289655 2.7747307 2894892
-0.690705 -0.025118064 2.755718 2894892
-1.614001 0.025291095 2.7748492 2894892
-0.69045347 0.025105875 2.7547145 2894892
-1.6139916 0.075304836 2.7746947 2894892
-0.69020194 0.07529325 2.7537115 2894892
-1.61278 0.10500619 2.7810361 2894892
-1.5741177 0.10764206 2.7938087 2894892
-1.5240903 0.10770565 2.7954588 2894892
-1.4740037 0.10776932 2.7971117 2894892
-1.4249983 0.10783161 2.7987287 2894892
-1.3942007 0.10787078 2.7997448 2894892
-1.2054298 0.10823803 2.750134 2894892
-1.175084 0.10827665 2.7511156 2894892
-1.124464 0.1083411 2.752753 2894892
-1.0749103 0.10840417 2.754355 2894892
-1.0252992 0.10846732 2.7559593 2894892
-0.97562987 0.10853051 2.757566 2894892
-0.92590261 0.10859381 2.7591736 2894892
-0.87498516 0.10865863 2.7608204 2894892
-0.82400721 0.10872349 2.7624691 2894892
-0.77410311 0.10878702 2.7640829 2894892
-0.72414052 0.10885059 2.7656984 2894892
-0.69232434 0.10625092 2.7576065 2894892
-0.71624833 -1.2625798 2.8482137 2894892
-0.71605903 -1.2256773 2.8474605 2894892
-0.71580172 -1.175709 2.8464375 2894892
-0.71554476 -1.1257762 2.8454156 2894892
-0.71528792 -1.0758793 2.8443942 2894892
-0.71503133 -1.0260184 2.8433738 2894892
-0.71476865 -0.9750073 2.8423295 2894892
-0.71450627 -0.92403346 2.8412862 2894892
-0.71425009 -0.87428129 2.8402677 2894892
-0.71399432 -0.82456487 2.8392498 2894892
-0.71373856 -0.77488399 2.8382335 2894892
-0.71348298 -0.72523886 2.8372171 2894892
-0.71322757 -0.67562896 2.8362019 2894892
-0.71296638 -0.62487489 2.8351629 2894892
-0.71270531 -0.57415777 2.8341243 2894892
-0.7124505 -0.52465606 2.8331106 2894892
-0.71219587 -0.47518981 2.832098 2894892
-1.628168 -0.42106056 2.8252532 2894892
-0.71194142 -0.42575881 2.8310864 2894892
-1.6274246 -0.37551695 2.8225551 2894892
-0.71168113 -0.37518767 2.8300512 2894892
-1.627205 -0.32496914 2.8216674 2894892
-0.71142089 -0.32465321 2.8290172 2894892
-1.6272641 -0.27491131 2.8217542 2894892
-0.71116704 -0.27532974 2.8280077 2894892
-1.6273057 -0.22484918 2.8217793 2894892
-0.71090734 -0.22486852 2.8269746 2894892
-1.6273743 -0.17497414 2.8218973 2894892
-0.71064776 -0.17444384 2.8259425 2894892
-1.6274799 -0.1250993 2.8221447 2894892
-0.71039444 -0.1252275 2.824935 2894892
-1.6275488 -0.07482782 2.8222616 2894892
-0.71013522 -0.074875832 2.8239043 2894892
-1.6275724 -0.024754435 2.8222253 2894892
-0.7098763 -0.024560602 2.8228745 2894892
-1.6276405 0.024755804 2.8223438 2894892
-0.70962346 0.024548944 2.8218691 2894892
-1.627755 0.07483761 2.8226197 2894892
-0.70936483 0.074791402 2.8208406 2894892
-1.6285949 0.10461237 2.8291862 2894892
-1.3690866 0.10790269 2.8005733 2894892
-1.3256739 0.10795788 2.8020062 2894892
-1.2753524 0.10802188 2.8036664 2894892
-1.2249712 0.10808592 2.8053286 2894892
-1.1745301 0.10815005 2.8069928 2894892
-1.1251777 0.10821277 2.8086212 2894892
-1.075768 0.1082756 2.8102517 2894892
-1.0251496 0.10833994 2.8119218 2894892
-0.97447109 0.10840438 2.8135939 2894892
-0.92488635 0.1084674 2.8152301 2894892
-0.87524354 0.10853051 2.8168681 2894892
-0.8243866 0.10859516 2.8185463 2894892
-0.77462703 0.10865843 2.8201878 2894892
-0.72653019 0.1080363 2.8213694 2894892
-1.6424257 -0.42114359 2.8749003 2894892
-1.6415436 -0.37387249 2.8717127 2894892
-1.6413354 -0.324898 2.8708706 2894892
-0.73156983 -0.31953716 2.8995872 2894892
-1.6414331 -0.27515385 2.8710914 2894892
-0.73133409 -0.27500236 2.8986523 2894892
-1.6414741 -0.22500868 2.871114 2894892
-0.7310667 -0.22448345 2.8975923 2894892
-1.6415237 -0.17505991 2.8711662 2894892
-0.73080581 -0.17520277 2.8965588 2894892
-1.6415938 -0.12510629 2.8712916 2894892
-0.73054522 -0.12595758 2.8955255 2894892
-1.6417109 -0.074948385 2.8715775 2894892
-0.73027843 -0.075547561 2.8944681 2894892
-1.6417805 -0.024983738 2.8716993 2894892
-0.73001182 -0.025174342 2.8934112 2894892
-1.6418502 0.024985155 2.87182 2894892
-0.72974521 0.025162101 2.8923545 2894892
-1.6419194 0.074958272 2.8719425 2894892
-0.72947901 0.07546182 2.8912997 2894892
-1.6305696 0.1050129 2.8638291 2894892
-1.5748318 0.10750932 2.8516898 2894892
-1.5249287 0.10757268 2.8533707 2894892
-1.4749672 0.1076361 2.8550529 2894892
-1.4249465 0.10769963 2.8567381 2894892
-1.3748668 0.10776321 2.8584247 2894892
-1.3247274 0.10782687 2.8601134 2894892
-1.2745296 0.10789061 2.8618035 2894892
-1.2254416 0.10795294 2.8634572 2894892
-1.1751254 0.10801683 2.8651514 2894892
-1.1247503 0.10808078 2.8668485 2894892
-1.0754892 0.10814334 2.8685076 2894892
-1.0249954 0.10820746 2.870208 2894892
-0.97444236 0.10827164 2.8719106 2894892
-0.92500675 0.10833441 2.8735757 2894892
-0.87551379 0.10839725 2.8752425 2894892
-0.82596344 0.10846017 2.8769114 2894892
-0.77517354 0.10852465 2.8786218 2894892
-0.73549026 0.10756119 2.8823886 2894892
-0.73677468 -1.3029661 2.9202163 2894892
-0.73662692 -1.274886 2.9196305 2894892
-0.73636216 -1.2248536 2.918581 2894892
-0.73609751 -1.1748568 2.9175324 2894892
-0.73583299 -1.1248959 2.9164841 2894892
-0.73556876 -1.0749705 2.9154365 2894892
-0.73530471 -1.0250816 2.9143898 2894892
-0.73504072 -0.97522783 2.9133439 2894892
-0.73477715 -0.92541051 2.9122989 2894892
-0.73450714 -0.87441474 2.9112287 2894892
-0.73424393 -0.82466936 2.9101853 2894892
-0.73398066 -0.77495986 2.909142 2894892
-0.73371768 -0.72528565 2.9080999 2894892
-0.733455 -0.67564732 2.9070582 2894892
-0.73318607 -0.6248349 2.9059925 2894892
-0.73292363 -0.57526815 2.9049523 2894892
-0.73266143 -0.52573723 2.9039133 2894892
-0.73239309 -0.4750348 2.9028492 2894892
-1.6571302 -0.42137057 2.9261026 2894892
-1.6496998 -0.42053518 2.9002271 2894892
-0.73212481 -0.42436945 2.9017866 2894892
-1.6571966 -0.3745926 2.9262199 2894892
-1.6497635 -0.37489152 2.9003394 2894892
-0.7318632 -0.37494606 2.9007494 2894892
-1.6572176 -0.32466111 2.926173 2894892
-1.6498326 -0.32564041 2.9004602 2894892
-0.7317037 -0.34482598 2.9001174 2894892
-1.6573602 -0.27472299 2.9265501 2894892
-1.6499027 -0.27518395 2.900584 2894892
-1.6572412 -0.22435005 2.9260137 2894892
-1.6499696 -0.22712608 2.9007015 2894892
-1.656197 -0.17474034 2.9222605 2894892
-1.6563073 -0.12470578 2.9225221 2894892
-1.6563779 -0.075067446 2.922648 2894892
-1.6563964 -0.025231358 2.9225955 2894892
-1.6564679 0.025232797 2.92272 2894892
-1.6565877 0.075077333 2.9230194 2894892
-1.6560951 0.10372959 2.9217193 2894892
-1.6241052 0.10730927 2.9103475 2894892
-1.5743893 0.10737232 2.9120572 2894892
-1.5246149 0.10743543 2.9137692 2894892
-1.474782 0.10749862 2.9154828 2894892
-1.4248906 0.10756189 2.9171989 2894892
-1.37494 0.10762522 2.9189167 2894892
-1.3249308 0.10768865 2.9206364 2894892
-1.2748626 0.10775214 2.9223583 2894892
-1.2247354 0.10781571 2.9240825 2894892
-1.174549 0.10787934 2.9258087 2894892
-1.1243032 0.10794306 2.9275365 2894892
-1.0739983 0.10800685 2.9292667 2894892
-1.0248338 0.1080692 2.9309576 2894892
-0.97561198 0.10813161 2.9326506 2894892
-0.92513084 0.10819565 2.934386 2894892
-0.87459004 0.10825972 2.9361248 2894892
-0.82519501 0.10832237 2.9378235 2894892
-0.77574229 0.10838509 2.9395244 2894892
-0.74677038 0.10842181 2.940521 2894892
-0.75823033 -1.3203889 2.9954185 2894892
-0.75798512 -1.2753021 2.9944499 2894892
-0.75771236 -1.2252386 2.9933724 2894892
-0.75743991 -1.1752111 2.9922957 2894892
-0.75716752 -1.1252193 2.9912205 2894892
-0.75689548 -1.0752639 2.9901452 2894892
-0.75662351 -1.0253441 2.9890711 2894892
-0.75635183 -0.97546017 2.987998 2894892
-0.75608027 -0.92561209 2.9869251 2894892
-0.75580895 -0.87579983 2.985853 2894892
-0.75553787 -0.82602328 2.9847825 2894892
-0.75526017 -0.77503949 2.9836848 2894892
-0.75498265 -0.72409284 2.9825892 2894892
-0.75471222 -0.67442507 2.9815207 2894892
-0.75444186 -0.62479287 2.9804525 2894892
-0.75417161 -0.57519615 2.9793849 2894892
-0.75390166 -0.525635 2.9783177 2894892
-0.75362509 -0.47487178 2.9772258 2894892
-1.6710472 -0.42166957 2.9745607 2894892
-0.75334883 -0.42414546 2.9761338 2894892
-1.6711186 -0.37526438 2.9746993 2894892
-0.75307953 -0.37469238 2.9750702 2894892
-1.6711887 -0.32515973 2.9748235 2894892
-0.7528103 -0.32527465 2.9740067 2894892
-1.6712493 -0.27525827 2.9749131 2894892
-0.7525413 -0.2758922 2.972944 2894892
-1.6713191 -0.22514299 2.9750369 2894892
-0.75226581 -0.22531196 2.9718556 2894892
-1.6714327 -0.17503104 2.9753132 2894892
-0.75199044 -0.17476848 2.9707685 2894892
-1.6715348 -0.12511319 2.9755487 2894892
-0.75172204 -0.12549351 2.969708 2894892
-1.6714919 -0.074789606 2.9752738 2894892
-0.7514472 -0.075023331 2.9686217 2894892
-1.6716458 -0.02465569 2.9756896 2894892
-0.75117242 -0.024589755 2.9675362 2894892
-1.6717151 0.024657059 2.9758146 2894892
-0.75090468 0.024578076 2.9664788 2894892
-1.6716911 0.074594453 2.9756119 2894892
-0.75063038 0.074938573 2.9653945 2894892
-1.668113 0.10465582 2.9747853 2894892
-1.6247206 0.1071652 2.9732549 2894892
-1.5751399 0.107228 2.974997 2894892
-1.5255009 0.10729086 2.9767411 2894892
-1.4745909 0.10735534 2.9785304 2894892
-1.4248341 0.10741836 2.9802787 2894892
-1.3750185 0.10748142 2.9820285 2894892
-1.3251448 0.10754459 2.9837809 2894892
-1.275212 0.10760784 2.9855354 2894892
-1.2252209 0.10767114 2.9872918 2894892
-1.1751705 0.10773451 2.9890501 2894892
-1.1250616 0.10779798 2.9908113 2894892
-1.0748931 0.10786152 2.992574 2894892
-1.0246661 0.10792512 2.9943385 2894892
-0.97560662 0.10798726 2.9960623 2894892
-0.9252618 0.108051 2.9978313 2894892
-0.88100904 0.10810706 2.9993861 2894892
-0.75046986 0.10440249 2.964761 2894892
-1.6854947 -0.4218083 3.0248692 2894892
-1.6855084 -0.37520385 3.0248063 2894892
-1.6856328 -0.3248429 3.0251179 2894892
-1.685704 -0.27472368 3.0252457 2894892
-1.6857482 -0.22484972 3.0252802 2894892
-0.77450204 -0.21226195 3.0497181 2894892
-1.6858464 -0.17497545 3.0255017 2894892
-0.77428907 -0.17431132 3.0488801 2894892
-1.6858636 -0.12509817 3.0254409 2894892
-0.77401263 -0.12500505 3.0477908 2894892
-1.6859889 -0.075211912 3.0257561 2894892
-0.7737363 -0.075734302 3.0467031 2894892
-1.6860604 -0.025071584 3.0258853 2894892
-0.77345312 -0.025236547 3.0455878 2894892
-1.6861321 0.025072992 3.0260134 2894892
-0.77317011 0.025224244 3.0444734 2894892
-1.6862035 0.075221837 3.0261412 2894892
-0.77288735 0.075648122 3.0433598 2894892
-1.6766421 0.10550083 3.0315521 2894892
-1.6241257 0.10701621 3.0389826 2894892
-1.5746846 0.10707872 3.0407579 2894892
-1.5251858 0.10714133 3.0425353 2894892
-1.475629 0.10720401 3.0443153 2894892
-1.4260144 0.10726674 3.0460973 2894892
-1.3750983 0.10733113 3.0479252 2894892
