# .PCD v0.7 - Point Cloud Data file format
VERSION 0.7
FIELDS x y z rgb
SIZE 4 4 4 4
TYPE F F F U
COUNT 1 1 1 1
WIDTH 1190
HEIGHT 1
VIEWPOINT 0 0 0 1 0 0 0
POINTS 1190
DATA ascii
0.72520381 0.11286629 1.7689552 4083297
0.77482003 0.11288764 1.7694613 10132122
0.82482815 0.1129095 1.769803 10132122
0.8748554 0.11293133 1.7701461 10197915
0.92489886 0.11295384 1.7701606 3892110
0.97495919 0.11297506 1.7708311 1456991
1.0250447 0.11299691 1.7711741 1914190
1.0751495 0.11301881 1.7715172 9803415
1.1249014 0.11304089 1.7716916 10132122
1.1841626 0.10801737 1.76227 6384502
1.3469672 0.11315985 1.7622125 1191753
1.3641256 0.1131226 1.7846606 1191753
0.084958397 -0.80931282 1.8299347 11711154
0.081621177 -0.77485555 1.824402 11711154
0.081642747 -0.72490424 1.8245755 11711154
0.081636071 -0.67498618 1.8247039 11645361
0.081639513 -0.62497592 1.8248477 11579568
0.081661634 -0.57500005 1.8250238 11579568
0.081680864 -0.52493191 1.8251939 11645361
0.0816416 -0.47493842 1.8252661 11711154
1.3898586 -0.46441031 1.8172998 1717583
0.081703782 -0.42498073 1.8255092 8289918
1.3898299 -0.43555397 1.8173817 1783633
0.081691146 -0.3749288 1.8256261 2039583
0.081682272 -0.32499611 1.8257486 2039583
1.3902608 -0.30110586 1.8174214 1388364
0.08090914 -0.27498323 1.824584 2039583
1.3900566 -0.27484885 1.8176028 1256779
0.080884852 -0.22495292 1.8246807 2039583
1.3901144 -0.22515942 1.8176776 1257292
0.080627523 -0.1752466 1.8243862 2039583
1.390172 -0.1754659 1.8177533 1191499
0.080081828 -0.12503448 1.8236036 2039583
1.3902311 -0.12501532 1.8178307 1257292
0.080036506 -0.075010248 1.8236653 2039583
1.39029 -0.074560419 1.8179075 1191755
0.080139048 -0.024978805 1.8239775 2039583
1.3903471 -0.024854392 1.8179832 1191242
0.080145612 0.02498154 1.8241266 2039583
1.3904054 0.024855761 1.8180591 1125448
0.080056198 0.075029396 1.8241138 6513507
1.3902357 0.073450863 1.8182695 1191753
-1.4550525 0.11175168 1.8349925 927043
-1.4233181 0.11178703 1.8244833 993093
-1.3753414 0.11181071 1.8234535 992836
-1.3253657 0.11183216 1.8239874 992323
-1.2749872 0.11185414 1.8243456 926274
-1.2245891 0.11187613 1.8247043 1058629
-1.1745532 0.1118983 1.8248819 1124935
-1.1259221 0.1119207 1.8246355 1125190
-1.0955191 0.11195634 1.8136773 1125191
0.081360891 0.10694682 1.8247918 10197915
0.12462437 0.1124647 1.834304 3360606
0.17481381 0.11248659 1.8346609 1258064
0.22463472 0.11250868 1.8348309 1059398
0.27733988 0.11254317 1.8294861 9277586
0.32538795 0.11257642 1.8236911 10132122
0.37532938 0.11259823 1.8240372 10132122
0.42528507 0.11262 1.8243971 10132122
0.47526515 0.11264184 1.8247436 3233664
0.52500778 0.11266305 1.8253384 1059655
0.57502455 0.11268583 1.8252126 1125447
0.62374794 0.1127092 1.8244975 2636883
0.67538762 0.11275292 1.8143021 6124170
0.72551852 0.11277444 1.8148291 1256520
0.77490938 0.11279637 1.8149958 6910331
0.82470214 0.11281808 1.8153509 10132122
0.87488282 0.11283962 1.815878 10132122
0.9247126 0.11286139 1.8162285 7636116
0.97493833 0.11288365 1.8164059 1986433
1.0251807 0.11290523 1.8169338 1059655
1.0750682 0.112927 1.8172842 5661552
1.1249752 0.11294878 1.8176348 10132122
1.1748947 0.11297127 1.8176292 10000537
1.208248 0.11296783 1.8268305 4872555
1.3891587 0.10691234 1.8174121 1191753
0.098248363 -0.81458294 1.852331 11711154
0.11378598 -0.82020998 1.878517 5658198
0.098231941 -0.77510583 1.8524127 11711154
0.112734 -0.77492982 1.8768681 5460819
0.098227039 -0.72489631 1.8525434 11645361
0.112779 -0.72496587 1.8770827 4605510
0.098260999 -0.67506897 1.8527381 7829367
0.11275982 -0.67499268 1.8771876 4276545
0.098243088 -0.62522513 1.8528457 6513507
0.11277562 -0.6250636 1.877353 4276545
0.098264165 -0.57499498 1.8530201 6513507
0.11278901 -0.57507473 1.8775141 4276545
0.098285228 -0.52475512 1.8531951 6513507
0.11280168 -0.52492213 1.8776731 4342338
0.098267317 -0.47489023 1.8533026 6513507
0.11278932 -0.47491595 1.8777922 4342338
0.098301284 -0.42501619 1.853498 6513507
0.11282732 -0.42495435 1.8779939 4342338
0.098283395 -0.37513736 1.8536059 6513507
0.11281858 -0.37498394 1.8781182 4408131
0.098304458 -0.32486317 1.8537802 6052956
0.11283463 -0.32505804 1.878283 4212300
0.098312482 -0.27496585 1.8539319 5330008
0.11283378 -0.27501985 1.8784198 2767434
0.098320544 -0.22506018 1.8540834 2836325
0.11286786 -0.22492103 1.8786159 2243926
0.097958535 -0.17272751 1.8536175 2178132
0.11284481 -0.17491823 1.8787141 1915221
0.097494707 -0.1251286 1.8529673 2044486
0.11286052 -0.12506339 1.8788803 1586258
0.097502626 -0.07523673 1.853119 1912900
0.11283884 -0.074992664 1.8789824 1389136
0.097510636 -0.025336644 1.8532705 1913156
0.11293722 -0.024913764 1.8792857 1323600
0.097518712 0.025339445 1.8534236 1846590
0.11233178 0.02454618 1.8784014 1191756
0.097526699 0.07525593 1.8535753 5003881
0.11199757 0.074972056 1.8779782 1848656
-1.4708409 0.11166433 1.8749642 993092
-1.4248319 0.11169044 1.8722825 927044
-1.3746827 0.1117123 1.8726491 992836
-1.324903 0.11173439 1.8728193 926530
-1.2751027 0.1117557 1.8733765 1058885
-1.2252827 0.1117778 1.8735466 1125191
-1.1754458 0.11179913 1.8741045 1125191
-1.1378902 0.11182392 1.870181 1125447
0.097531594 0.10597753 1.8536688 10197915
0.11765274 0.10804052 1.8788222 4807020
0.17482369 0.11238766 1.8839697 1258064
0.22481968 0.11240943 1.8843352 1059655
0.27483514 0.11243124 1.8847005 7962501
0.32525468 0.1124536 1.884874 10197915
0.37531066 0.11247543 1.8852338 10132122
0.42498711 0.11249668 1.8857974 10132122
0.47508019 0.11251851 1.8861637 5994129
0.52479833 0.1125406 1.8863256 1192017
0.57453597 0.11256186 1.8868902 1125191
0.62364507 0.11259566 1.8810838 993605
0.67516488 0.11265597 1.8625959 8357775
0.72546363 0.11267789 1.8629587 1324376
0.77538997 0.11270006 1.8631289 1321798
0.82533956 0.11272144 1.8636789 7699331
0.87530631 0.11274362 1.8638489 10197915
0.92529297 0.11276504 1.8643994 10197915
0.9749136 0.11278668 1.8647572 3629453
1.0249349 0.11280886 1.8649276 1523042
1.0749825 0.1128303 1.8654784 1388105
1.1250446 0.11285252 1.8656489 9146001
1.1751293 0.11287399 1.8662002 10000793
1.2220041 0.11289035 1.8685633 3232116
1.2510465 0.11288223 1.879123 2111310
0.14162354 -0.85566598 1.9253626 5987163
0.15326279 -0.86008906 1.9449784 6513507
0.13750292 -0.82489079 1.9184989 4868682
0.15308583 -0.8250308 1.9447767 6513507
0.1375138 -0.77500314 1.9186558 4802889
0.15309836 -0.77514112 1.9449359 6513507
0.13751219 -0.72504687 1.9187906 4802889
0.15308861 -0.72504264 1.9450582 6513507
0.13753629 -0.6749596 1.9189706 4868682
0.15293069 -0.67624176 1.9449264 6513507
0.13754784 -0.62504816 1.9191273 4737096
0.15220565 -0.62518919 1.9438455 6513507
0.13754573 -0.57506651 1.9192619 4737096
0.15221815 -0.57503879 1.9440049 6513507
0.13758834 -0.52489465 1.9194722 4737096
0.15223068 -0.52487987 1.9441651 6513507
0.13758571 -0.47489595 1.9196067 4605510
0.15224314 -0.47498134 1.9443234 4013373
0.13759308 -0.42495203 1.9197571 2699577
0.15225556 -0.42507431 1.9444832 1976887
0.13759072 -0.37493777 1.9198918 1978435
0.15226807 -0.37515944 1.9446424 1979983
0.13760659 -0.3249765 1.9200568 2308688
0.15226083 -0.32496831 1.9447689 2111569
0.13763537 -0.2750074 1.9202427 2638685
0.15229309 -0.27476874 1.9449617 1783376
0.13765138 -0.2249687 1.9204082 2309465
0.15230559 -0.22482911 1.9451206 1651791
0.13763578 -0.17498338 1.9205216 1981016
0.15231805 -0.17488131 1.9452803 1586255
0.1376521 -0.12498929 1.9206879 1783895
0.15233046 -0.12492536 1.9454395 1322828
0.13773346 -0.074925408 1.9209617 1587030
0.15234296 -0.074961245 1.945599 1389134
0.13763428 -0.024980208 1.9209338 1455700
0.15235545 -0.024988901 1.9457583 1388876
0.1369793 0.025372021 1.9199688 1257809
0.15236795 0.02499162 1.9459171 1323083
0.13685106 0.07499028 1.9198887 1257808
0.15238044 0.074980326 1.9460772 1257546
-1.5169363 0.11153725 1.9279667 927043
-1.4750475 0.11156488 1.9236163 926787
-1.424727 0.1115872 1.9237832 1058885
-1.3747764 0.11160898 1.9241581 926786
-1.3248131 0.11162987 1.9249551 1058885
-1.2748318 0.11165247 1.9249086 1125447
-1.224823 0.11167423 1.9252841 1190983
-1.1784014 0.11169917 1.9232864 1190983
0.13728285 0.10650024 1.9201018 1125709
0.16952117 0.11061222 1.9382811 1192014
0.22541368 0.11230533 1.9363831 1125448
0.2720705 0.11234502 1.9270769 6187381
0.3251729 0.11237562 1.9237585 10197915
0.37545636 0.1123975 1.9241333 10132122
0.42496085 0.11241908 1.9245026 10132122
0.47448435 0.11244065 1.9248716 7701909
0.52482623 0.11246257 1.9252473 1390943
0.5751875 0.11248449 1.9256228 1059655
0.62916255 0.11252167 1.9192005 1059397
0.67532617 0.11255424 1.9133388 6121331
0.72540516 0.11257605 1.91371 3823223
0.77510124 0.1125981 1.9138709 1059141
0.8248204 0.11261937 1.9144455 3688540
0.8745566 0.11264144 1.9146073 10197915
0.92510837 0.11266302 1.9151886 10197915
0.97528428 0.11268491 1.9155606 7767445
1.0250752 0.11270702 1.9157223 2052485
1.0748917 0.1127283 1.916298 1125963
1.1247226 0.11275041 1.9164599 4017761
1.1749778 0.1127723 1.9168319 10132122
1.2248435 0.11279363 1.9174086 7438998
1.2649263 0.11280286 1.9218103 1850463
0.17188261 -0.86558938 1.9763625 6513507
0.17097837 -0.82492745 1.9749501 6513507
0.17102967 -0.77507997 1.9751742 6513507
0.17103602 -0.72511435 1.9753227 6513507
0.17078643 -0.67465222 1.975041 6513507
0.17011005 -0.62501675 1.9740375 6447715
0.17011429 -0.57502419 1.9741842 5264473
0.17013253 -0.5248698 1.9743528 3488061
0.17014949 -0.4749102 1.9745208 2237737
0.17016813 -0.42494416 1.9746906 2898505
0.17017931 -0.37491828 1.9748477 3491932
0.17019567 -0.32498664 1.9750111 3229018
0.17019778 -0.27499536 1.9751552 2900569
0.17020199 -0.22494464 1.9753003 2506327
0.16969492 -0.17535344 1.9745827 2111826
0.16930105 -0.12507121 1.9740577 1651533
0.16935284 -0.075081319 1.9742821 1585997
0.16926213 -0.025031913 1.9742689 1454668
0.16927592 0.02503464 1.9744298 1257034
0.16939454 0.075100474 1.9747682 1059655
-1.5641859 0.1114024 1.9845854 861251
-1.5252483 0.11143386 1.9776357 926786
-1.4751431 0.11145519 1.9782523 1124421
-1.4250234 0.11147748 1.9784093 992835
-1.37488 0.1114988 1.9790266 1058885
-1.3247194 0.1115211 1.9791833 1125190
-1.2749422 0.11154274 1.9795678 1190983
-1.2251561 0.11156347 1.9804132 1190984
-1.1918283 0.11160661 1.966378 1191240
0.17163143 0.10698913 1.9751952 1125705
0.22526649 0.11222321 1.977242 1125448
0.27726385 0.1122715 1.9648739 6516088
0.3254914 0.11229447 1.9642595 10197915
0.37520355 0.11231606 1.964638 10132122
0.42452237 0.11233798 1.9647878 10132122
0.47467983 0.11235941 1.9653953 9278104
0.52485442 0.11238166 1.9655516 1655406
0.57504892 0.11240306 1.9661595 1125447
0.62526464 0.11242539 1.966316 1059398
0.67509449 0.11244709 1.9666953 2637139
0.7249285 0.11246783 1.9675262 7504532
0.77479631 0.11249047 1.9674542 1125965
0.82508993 0.11251191 1.968063 992835
0.87540084 0.11253424 1.9682201 8488330
0.92491335 0.11255535 1.968823 10197915
0.97485679 0.11257712 1.9692032 10197915
1.0252224 0.11259942 1.9693606 4220815
1.0752064 0.1126212 1.9697412 1655403
1.1247916 0.11264233 1.9703447 1059655
1.1748123 0.11266411 1.9707254 7239295
1.2252597 0.11268651 1.9708835 10132122
1.2749063 0.11270769 1.9714875 4876167
1.3095685 0.11270484 1.9806833 1191246
0.19247262 -0.86672115 2.0110807 3289650
0.20749083 -0.8666907 2.036406 2039583
0.19245769 -0.82500023 2.0111713 3289650
0.20756555 -0.82498485 2.036649 2039583
0.19248253 -0.77507186 2.0113511 3289650
0.20756504 -0.7750544 2.0367851 2039583
0.19249849 -0.72513396 2.0115151 3289650
0.20760393 -0.72501242 2.036989 2039583
0.1925332 -0.67506969 2.0117133 3421236
0.20762067 -0.67485547 2.0371561 2039583
0.19254886 -0.62511486 2.0118773 2636880
0.2076506 -0.62500709 2.0373447 1847622
0.19255526 -0.57503366 2.0120275 2376804
0.2076461 -0.5751515 2.0374744 1782606
0.19255236 -0.52482653 2.0121613 2574439
0.20766331 -0.52497029 2.037642 1783119
0.19256765 -0.47484669 2.0123253 2706283
0.20765391 -0.47498778 2.037765 1914961
0.19261202 -0.42497995 2.012538 2640491
0.20665647 -0.4249334 2.0362217 1717584
0.19261836 -0.37510422 2.0126858 2509162
0.20670296 -0.37482965 2.0364389 1520719
0.19262473 -0.32509997 2.0128353 2245478
0.20672949 -0.32483894 2.0366216 1388621
0.19265939 -0.27497005 2.0130322 2114151
0.20673668 -0.27496013 2.036772 1388620
0.19264702 -0.22483179 2.0131502 1917030
0.20674387 -0.22495374 2.0369225 1257035
0.19207813 -0.17405798 2.0123317 1851753
0.20675105 -0.17493695 2.0370722 1191499
0.19165903 -0.12502262 2.0117607 1786218
0.20679726 -0.12491408 2.0372891 1257548
0.19173269 -0.075019792 2.0120237 1720938
0.20681447 -0.075122744 2.0374568 1191755
0.19174844 -0.025008416 2.012188 1655145
0.20680188 -0.025206193 2.0375729 1191498
0.19176413 0.025011156 2.0123529 1522790
0.20681889 0.025208957 2.0377414 1125192
0.19177979 0.075038917 2.0125177 1589094
0.2068654 0.075141899 2.0379572 1191497
-1.6131076 0.11126022 2.0444498 992837
-1.5773152 0.11131919 2.023103 927044
-1.5253714 0.11134716 2.020808 992836
-1.4754279 0.11136889 2.021203 1124677
-1.4254642 0.11139063 2.0215971 1058629
-1.3754811 0.11141233 2.0219915 1059142
-1.3254787 0.11143406 2.0223858 1256776
-1.2754562 0.11145582 2.0227804 1190984
-1.2337564 0.11147396 2.0231097 1191240
0.19179803 0.10675529 2.0115206 1523558
0.21674636 0.10922624 2.0280056 1125705
0.27454147 0.11215882 2.0204563 4478053
0.32523987 0.11218134 2.0206151 10197915
0.37554789 0.11220321 2.0210011 10132122
0.42544734 0.11222441 2.0216384 10132122
0.47537574 0.11224662 2.0217826 10132122
0.52531183 0.11226784 2.0224206 3299972
0.57528096 0.11229008 2.0225651 1125703
0.62525356 0.11231129 2.0232036 993349
0.67483622 0.11233284 2.023592 1059397
0.72443801 0.11235441 2.0239804 7962501
0.77447414 0.11237667 2.0241251 2443116
0.82453376 0.11239795 2.0247641 993348
0.87461084 0.1124202 2.0249095 3688541
0.92470747 0.11244147 2.0255487 10197915
0.97482538 0.11246376 2.0256941 10197915
1.0249585 0.11248507 2.026334 8884119
1.0751176 0.11250738 2.0264795 2119051
1.1252878 0.1125287 2.0271199 1324115
1.1750625 0.11255034 2.0275099 1848398
1.2248566 0.112572 2.0279002 9408915
1.2750828 0.11259436 2.0280454 9541016
1.3229645 0.11261247 2.0297508 3101048
1.3554262 0.11259943 2.0435355 992836
0.23031908 -0.86671621 2.0749028 2500134
0.23042111 -0.82495648 2.0751903 2368548
0.23043454 -0.77503401 2.0753517 2368548
0.23045616 -0.72504133 2.0755265 2105376
0.23042321 -0.67497998 2.0756078 2105892
0.23049603 -0.62509435 2.0758705 3688536
0.23050268 -0.5750767 2.0760198 3623000
0.23052152 -0.52486795 2.0761893 3491672
0.23046479 -0.47483605 2.0762322 3294038
0.22908039 -0.42535928 2.0740345 2965846
0.2284774 -0.37495866 2.0731575 2637140
0.22846472 -0.32504806 2.0732737 2440019
0.22850464 -0.27500677 2.0734794 2243154
0.22852072 -0.22489482 2.0736454 1782862
0.2285367 -0.1748988 2.0738115 1651277
0.2285286 -0.12507823 2.073935 1717583
0.22852862 -0.075004973 2.0740736 1586255
0.22864987 -0.024922434 2.0744169 1586510
0.22866863 0.024925135 2.0745862 1388876
0.2285848 0.075024113 2.0745833 1191241
-1.6520537 0.11117107 2.080174 926787
-1.6246493 0.11118296 2.0803967 992837
-1.5736221 0.11123473 2.0660398 992323
-1.5250793 0.11125694 2.0658846 1124935
-1.4752964 0.11127905 2.066026 1058629
-1.4250711 0.11129983 2.0669508 1058885
-1.3748356 0.1113227 2.0668364 1190727
-1.324568 0.11134454 2.0672419 1256776
-1.2755377 0.11136644 2.0673497 1191240
-1.2425241 0.11141046 2.0528269 1257032
0.230303 0.10720269 2.0741603 1125705
0.27492955 0.11203875 2.0804021 3031639
0.32498166 0.11206157 2.0802736 10197915
0.37504098 0.11208221 2.0812094 10132122
0.4251323 0.112104 2.0816133 10132122
0.47524312 0.11212576 2.0820177 10132122
0.52493757 0.11214787 2.0821474 5928338
0.57465172 0.11216892 2.0828192 1324374
0.62482029 0.11219071 2.0832241 993606
0.6745683 0.11221286 2.083354 1059141
0.72477823 0.11223467 2.0837679 4280674
0.77283657 0.11225928 2.0822961 6912653
0.82560027 0.11230896 2.069382 1059654
0.87549365 0.11233063 2.0697815 927042
0.92540663 0.11235232 2.0701811 9540244
0.9753387 0.112374 2.070581 10197915
1.02529 0.11239571 2.0709808 10132122
1.0752605 0.11241741 2.0713809 4615056
1.1252507 0.11243916 2.0717807 1787507
1.1752598 0.11246086 2.0721812 1125448
1.2252884 0.1124826 2.0725818 5464174
1.2753363 0.11250434 2.0729823 10132122
1.3254035 0.1125261 2.0733831 7307925
1.3659892 0.11254373 2.0737083 1323867
0.24754767 -0.86641341 2.1039569 11711154
0.26178697 -0.86648393 2.1279688 11711154
0.24756466 -0.8246308 2.1041009 11711154
0.26188761 -0.82494354 2.128253 11711154
0.24758479 -0.77500665 2.1042724 11711154
0.26185921 -0.77507091 2.1283441 11710640
0.24760489 -0.72537446 2.1044433 5526612
0.26193073 -0.72502983 2.1286027 3815480
0.24762549 -0.67486322 2.1046174 2369838
0.26190895 -0.67498112 2.1287041 2173235
0.24762663 -0.62477773 2.1047583 3951450
0.26195914 -0.62508404 2.1289265 2702674
0.24768503 -0.57512432 2.1049941 3885658
0.26195917 -0.57509851 2.1290648 2637139
1.5080528 -0.56874835 2.1287653 2039583
0.24768628 -0.52502245 2.1051342 3688793
0.26199538 -0.52494562 2.1292639 2505296
1.5080913 -0.5250178 2.1288192 2039583
0.24768756 -0.47491467 2.1052754 3425623
0.26198795 -0.47486249 2.1293907 2505554
1.5082361 -0.49089685 2.1287916 2039583
0.2471696 -0.42237237 2.1045473 3294552
0.26205927 -0.42493322 2.1296489 2440018
0.2466616 -0.37478167 2.1038225 2965846
0.2620379 -0.37499583 2.1297512 2242897
0.24665643 -0.32483786 2.1039515 2571603
0.2620956 -0.32496849 2.1299868 1979983
0.24672718 -0.27488378 2.1042089 2374482
0.26210943 -0.27493501 2.1301486 1782862
0.2466964 -0.22521688 2.104295 1979727
0.26209518 -0.22505248 2.1302629 1585484
0.24674223 -0.17524618 2.1045105 1717069
0.26216665 -0.17508143 2.1305215 1454155
0.24676262 -0.12468789 2.1046846 1651790
0.26217413 -0.12502338 2.1306722 1453899
0.24678278 -0.074993119 2.1048558 1520718
0.26218808 -0.074874759 2.1308353 1256521
0.24680282 -0.025290202 2.1050272 1454925
0.26192069 -0.025313646 2.1305215 1323083
0.2468233 0.025292994 2.1052017 1257547
0.26108408 0.024879925 2.1292484 1257290
0.24684346 0.0750122 2.1053734 1125705
0.26114839 0.074899927 2.1294963 1191497
-1.7026105 0.11102051 2.1438322 860223
-1.6712996 0.11105876 2.1318076 926787
-1.6248692 0.11108688 2.1282179 926786
-1.5744827 0.11110931 2.1283517 1125191
-1.5249575 0.11113023 2.1290488 1059142
-1.474969 0.11115189 2.1294641 1058885
-1.4245281 0.11117435 2.1295977 1190727
-1.3749405 0.11119531 2.130296 1256776
-1.3253361 0.1112174 2.1304216 1257033
-1.2885103 0.11124989 2.1224821 1257289
0.24685574 0.10554526 2.1054788 1059912
0.26580757 0.10748863 2.1290717 1388361
0.3244361 0.11196544 2.1280305 10197915
0.3747614 0.11198729 2.1284456 10132122
0.42510632 0.11200912 2.1288612 10132122
0.4745872 0.11203062 2.1292691 10132122
0.52497113 0.1120525 2.1296847 7833237
0.57537454 0.11207433 2.1301003 1523302
0.6249131 0.11209584 2.1305094 1125191
0.6744706 0.11211735 2.130918 927556
0.72493255 0.11213924 2.1313341 1388103
0.77919799 0.11217558 2.1254103 7833237
0.82495594 0.11221464 2.1162293 1258582
0.8746559 0.11223678 2.1163566 993092
0.92482036 0.11225855 2.1167669 5595246
0.97499192 0.1122792 2.1177368 10197915
1.0251908 0.11230212 2.1175885 10132122
1.0749723 0.11232316 2.1182759 8490134
1.1247661 0.11234534 2.1184037 2119051
1.1750281 0.11236716 2.1188149 1324116
1.2248561 0.11238821 2.1195028 1585483
1.2751546 0.11241007 2.1199145 8882830
1.3254727 0.11243189 2.1203263 10132122
1.375361 0.1124541 2.1204548 3890048
1.4113448 0.11244172 2.1347148 1059659
0.28678858 -0.86654007 2.1701295 11711154
0.30202132 -0.8669436 2.1958163 11837857
0.28679588 -0.82491094 2.1702564 11835801
0.30204207 -0.82515365 2.195967 11426137
0.28686503 -0.77503175 2.170512 10117216
0.3020668 -0.7751801 2.1961462 7096392
0.28687319 -0.72506237 2.1706636 2039583
0.30209157 -0.72519845 2.1963265 2039583
0.28689685 -0.67500412 2.1708417 1583676
0.302095 -0.67475188 2.1964719 1256001
0.28689733 -0.62509948 2.1709812 1519690
0.30216283 -0.62475872 2.1967247 1257031
0.28689891 -0.57510662 2.1711221 1585739
0.30214456 -0.57474911 2.1968322 1388359
1.3940635 -0.56885242 2.1965148 2105376
1.4223001 -0.56881231 2.1797335 2039583
0.28700528 -0.52486026 2.1714413 1717324
0.30221239 -0.52473634 2.1970849 1454409
1.3941109 -0.52495873 2.1965632 2039583
1.4222915 -0.52498859 2.1798139 2039583
0.28696808 -0.4748489 2.1715162 1585740
0.30219415 -0.47471359 2.1971927 1388104
1.3941814 -0.47492325 2.1966085 4408131
1.4223944 -0.47499904 2.1798401 4079166
0.28702205 -0.42491323 2.1717458 1453898
0.30226198 -0.42468107 2.1974452 1256518
1.3942058 -0.42499688 2.1966803 4671303
1.4223735 -0.42500535 2.1799395 4934475
0.28704533 -0.37488648 2.1719227 1454411
0.30224371 -0.37464523 2.1975532 1322567
1.3942463 -0.37495437 2.1967437 2039583
1.4224608 -0.37503576 2.1799748 2569799
0.28707695 -0.32493371 2.1721146 1388362
0.30228975 -0.32505137 2.1977682 1322567
1.3943075 -0.32502484 2.1967938 2039583
1.4224558 -0.32501104 2.1800647 3428975
0.28704676 -0.27497295 2.1722009 1256520
0.30217117 -0.27737099 2.1976998 1190726
1.3943055 -0.27497292 2.1968818 2039583
1.4225926 -0.27500936 2.1800694 3363184
0.28712365 -0.22508498 2.1724687 1124678
0.30115381 -0.22472776 2.19613 1058628
1.394388 -0.22492616 2.1969204 2039583
1.4225371 -0.22497849 2.1801884 2968942
0.28710148 -0.17510785 2.17257 1124935
0.30117851 -0.17470138 2.1963096 1059140
1.3943855 -0.17486727 2.1970081 2039583
1.4227041 -0.17497069 2.180176 2640236
0.28720117 -0.12504034 2.1728768 1388618
0.30120316 -0.12466685 2.1964893 1125702
1.3944674 -0.12481597 2.1970463 2039583
1.4220859 -0.12512292 2.1806316 2311530
0.28710231 -0.07521189 2.172847 1323081
0.30122787 -0.074624069 2.1966701 1256774
1.3944864 -0.074639678 2.1971221 2039583
1.4221541 -0.075228997 2.1806774 2114922
0.28693399 -0.024787489 2.172704 1323081
0.3012526 -0.024573147 2.1968503 1191238
1.3945268 -0.024577117 2.197186 2039583
1.4220366 -0.02529769 2.1808331 2049129
0.28611454 0.025189428 2.1714587 1257032
0.30127689 0.024575783 2.1970272 1124932
1.3948619 0.023758912 2.1970701 2039583
1.4220783 0.025298659 2.1808968 1851750
0.28601539 0.075197332 2.1714318 1059654
0.30130157 0.074643053 2.1972072 1058883
1.3952674 0.074632958 2.1969178 4408131
1.4222767 0.075235762 2.1808648 2114409
-1.7156292 0.11094765 2.1772616 860737
-1.6744059 0.11096554 2.1776123 926530
-1.6251001 0.1109869 2.1780319 1059398
-1.5757753 0.11100829 2.1784515 1125191
-1.5255343 0.11103006 2.1788788 1124422
-1.4752734 0.11105184 2.1793063 1124678
-1.4249924 0.11107361 2.1797333 1191497
-1.3746918 0.11109537 2.1801608 1257033
-1.3306631 0.11111446 2.1805348 1257289
0.28675729 0.1067814 2.1704564 993348
0.32242674 0.11123913 2.1796756 8817294
0.37446561 0.11188753 2.1781347 10132122
0.42462388 0.11190989 2.1782513 10132122
0.47480682 0.11193104 2.178982 10132122
0.52500641 0.11195341 2.1790979 9606552
0.57522613 0.11197459 2.1798294 2050936
0.625467 0.111997 2.1799455 1191496
0.67481756 0.11201774 2.1806698 927299
0.72464573 0.11203935 2.1810911 1125189
0.77494007 0.11206178 2.1812072 7173245
0.82480949 0.11208341 2.1816285 4021372
0.87513876 0.11210461 2.1823614 1059398
0.92504394 0.11212624 2.1827819 1321798
0.97197449 0.1121721 2.1704702 9014159
1.0250932 0.11220365 2.1666789 10132122
1.0755705 0.11222554 2.1671014 10132122
1.125165 0.11224704 2.1675172 4549264
1.1747789 0.11226856 2.1679323 1788279
1.2253145 0.11229048 2.1683557 1125705
1.2749667 0.11231201 2.1687715 4149089
1.3246381 0.11233356 2.1691878 10132122
1.3879979 0.10862309 2.1870127 9672345
1.4216565 0.1065793 2.1802454 2772083
0.31880715 -0.86637771 2.224124 10706269
0.31884688 -0.82489306 2.2243054 9394521
0.31884989 -0.77504265 2.2244487 5651516
0.31890234 -0.72510594 2.2246761 2039583
0.31892899 -0.67508572 2.2248602 2039583
0.31895119 -0.6251331 2.225034 2039583
0.31896642 -0.5750187 2.225199 1974047
1.3271674 -0.56901324 2.2362754 3555659
1.369478 -0.56883073 2.211127 3289650
0.31899247 -0.52482074 2.2253823 1974047
1.3275348 -0.52493364 2.2361336 1845042
1.3695409 -0.52503181 2.2111661 2039583
0.31899199 -0.47484192 2.2255192 1974047
1.3275906 -0.47497752 2.2361867 3555659
1.3695195 -0.47504058 2.2112644 4671303
0.31906316 -0.42493519 2.2257771 1974047
1.3275912 -0.42504722 2.2362731 2963523
1.3696145 -0.42498407 2.2112997 4408131
0.31906673 -0.37501845 2.2259214 1974047
1.3276249 -0.37505677 2.2363403 1779249
1.3695973 -0.37495595 2.2113931 2039583
0.31909719 -0.3250168 2.2261112 1974048
1.3276819 -0.32500768 2.236393 1713457
1.3697112 -0.32492465 2.2114124 2039583
0.31886944 -0.27457276 2.2258656 1974049
1.3277392 -0.27495629 2.2364469 1647663
1.3696971 -0.27495426 2.211509 2039583
0.31793654 -0.22507125 2.2244308 1908515
1.3277887 -0.22492994 2.2365024 1647407
1.3697957 -0.22504254 2.2115355 2039583
0.31794989 -0.17510961 2.2245908 1908771
1.3278818 -0.17495747 2.2365348 1647663
1.3698148 -0.17509902 2.2116117 2039583
0.31798828 -0.12506826 2.2247946 1908771
1.3278431 -0.12503837 2.236644 1713712
1.3696759 -0.12511703 2.2117829 2039583
0.31795445 -0.074948967 2.2248747 1908772
1.3278333 -0.075058788 2.2367375 1713456
1.3700049 -0.074793197 2.2116737 2039583
0.31744787 -0.025377974 2.2241588 1908772
1.3278717 -0.025020231 2.2368019 1713712
1.3698779 -0.024740977 2.2118356 2039583
0.31690615 0.024870638 2.2233837 1843236
1.3279099 0.025021192 2.2368658 1647919
1.3702431 0.024948146 2.2117031 2039583
0.31681427 0.074922875 2.2233677 3553854
1.3283749 0.074875653 2.236675 2897730
1.3707939 0.074797787 2.2114637 4342338
-1.7659587 0.11079915 2.240001 794944
-1.7253846 0.11083819 2.2296407 860737
-1.6753724 0.11086047 2.2297509 1124421
-1.6253413 0.11088146 2.2305105 1191496
-1.5752885 0.11090378 2.2306218 1124678
-1.5252211 0.11092482 2.2313826 1124678
-1.4751271 0.11094715 2.2314942 1191497
-1.4279917 0.1109916 2.2199368 1191497
-1.3754311 0.1110255 2.2148027 1191497
-1.3416584 0.11104013 2.2150941 1257289
0.31997073 0.10689906 2.2246461 9080208
0.37415195 0.11178344 2.2299223 10132122
0.42412093 0.11180509 2.2303538 10132122
0.47410914 0.11182673 2.2307858 10132122
0.52411687 0.1118484 2.2312181 10132122
0.57414395 0.11187008 2.2316504 4023437
0.62419021 0.11189175 2.2320828 1257547
0.67425603 0.11191343 2.2325153 993093
0.72434133 0.11193513 2.2329481 1059141
0.77444607 0.11195684 2.2333813 3754845
0.82457012 0.11197855 2.2338142 7504789
0.8747136 0.11200026 2.2342472 1192016
0.92487663 0.11202201 2.2346814 993605
0.97643316 0.11207663 2.2190423 7173246
1.0249848 0.11210109 2.2177422 10132122
1.0752759 0.11212225 2.2184908 10132122
1.1251237 0.11214384 2.2189181 8752791
1.1749808 0.11216674 2.2186978 2184844
1.2248622 0.11218706 2.2197731 1456218
1.2747679 0.11220866 2.2202015 1125191
1.3280056 0.10715444 2.2326376 6779002
1.3700252 0.10664093 2.2110434 10132122
0.3423754 -0.86644143 2.2638681 9197913
0.35766426 -0.86619681 2.2896509 9197913
0.34231785 -0.82496405 2.2638857 9197913
0.35756981 -0.82489276 2.2896061 9132120
0.34235898 -0.77504861 2.2640939 3615531
0.3576574 -0.77506179 2.2898915 2367777
0.3420929 -0.72570473 2.2637813 2039583
0.35732132 -0.72410899 2.2894657 2039583
0.34117931 -0.67483294 2.2623811 2039583
0.35638514 -0.67492181 2.288023 2039583
0.34119901 -0.62505138 2.2625523 2039583
0.35644668 -0.62505019 2.2882648 2039583
0.34121931 -0.57526457 2.2627242 2039583
0.35646811 -0.57500994 2.2884398 2039583
1.2348995 -0.56905818 2.2911158 4944796
1.2754409 -0.56894642 2.2670178 2768724
1.3024117 -0.56699669 2.2509921 1913676
0.341263 -0.52499849 2.2629366 2039583
0.35654593 -0.52480596 2.2887092 2039583
1.2349149 -0.52500224 2.2911799 4813211
1.2754829 -0.52502632 2.2670717 2702931
1.3027205 -0.5250048 2.250881 1914190
0.34126738 -0.47488174 2.2630825 2039583
0.35650212 -0.47474879 2.2887733 2039583
1.2349174 -0.47493386 2.2912686 4550555
1.275481 -0.47502667 2.2671576 2506067
1.3027582 -0.47466287 2.2509465 2045776
0.34129566 -0.4249118 2.2632682 2039583
0.35653889 -0.42499551 2.2889738 2039583
1.2350436 -0.42490858 2.2912724 4222106
1.2748716 -0.42503485 2.2676075 2308690
1.3020817 -0.42462417 2.2514348 2045776
0.34131557 -0.37477824 2.2634406 2039583
0.35530046 -0.37482861 2.2870238 2039583
1.2350061 -0.37496951 2.2913876 3959192
1.2748712 -0.37498572 2.2676945 2111312
1.3021579 -0.37520885 2.2514763 1848654
0.34140632 -0.32479304 2.2637327 2039583
0.35534877 -0.32501659 2.2872429 2039583
1.2356759 -0.32522771 2.291079 3630486
1.2749096 -0.3249611 2.2677584 1979984
1.3021758 -0.32554394 2.2515519 1783119
0.34136328 -0.27495593 2.263797 2039583
0.35535863 -0.27500632 2.2873983 2039583
1.2357579 -0.27502182 2.2911134 3170193
1.2748983 -0.27501413 2.2678533 1782862
1.3022126 -0.2751812 2.2516177 1519691
0.3414309 -0.22510974 2.26405 2039583
0.35542655 -0.22499007 2.2876518 2039583
1.235834 -0.22495852 2.2911582 2775437
1.2749932 -0.22503871 2.2678812 1585741
1.3022507 -0.22481555 2.2516816 1321800
0.34139568 -0.17509992 2.2641287 2039583
0.35537824 -0.1749655 2.287708 2039583
1.2359837 -0.17494392 2.2911518 2775950
1.2750468 -0.17500378 2.2679386 1454412
1.3022883 -0.17444694 2.2517469 1322313
0.3415257 -0.12492439 2.2644856 2039583
0.35546508 -0.12512086 2.2879925 2039583
1.235878 -0.12525278 2.2913063 2776720
1.2750788 -0.12486176 2.2680056 1454669
1.3023254 -0.1250083 2.251811 1520204
0.34147465 -0.075213961 2.2645383 2039583
0.35549438 -0.074888945 2.2881815 2039583
1.235965 -0.074946582 2.2913351 2645135
1.2749603 -0.075061932 2.268163 1388620
1.3023623 -0.075566813 2.2518752 1322826
0.34080034 -0.024371173 2.2635415 2039583
0.35552371 -0.024648819 2.2883692 2039583
1.2359751 -0.024681903 2.291425 2579854
1.2752237 -0.025186997 2.2680931 1388876
1.3024 -0.02518958 2.2519403 1323340
0.34031883 0.025312277 2.2628672 2039583
0.35555235 0.024651472 2.2885544 2039583
1.2360103 0.024682837 2.2914813 2382220
1.2752589 0.025187971 2.2681584 1257034
1.3024374 0.025190547 2.2520051 1323339
0.34027866 0.075274825 2.2629375 3815994
0.35558161 0.074908055 2.2887423 3684408
1.2360945 0.074906766 2.2915235 2184328
1.2750714 0.075068556 2.2683556 1125705
1.3029475 0.076831952 2.2517912 1322825
-1.8079791 0.11069261 2.2836545 860736
-1.7750937 0.11070685 2.2839479 729151
-1.72528 0.11072839 2.2843926 1124164
-1.6745067 0.11075037 2.2848461 1388617
-1.6246542 0.11077193 2.2852907 1190727
-1.5747819 0.1107935 2.2857361 1059142
-1.5248908 0.11081509 2.2861814 1191240
-1.4749795 0.11083669 2.2866268 1191496
-1.4230572 0.11089306 2.2701604 1191240
-1.3809451 0.11092608 2.2631612 1125704
0.34073213 0.10630443 2.2632859 10132122
0.36458233 0.10881266 2.278003 10132122
0.42533901 0.11173344 2.2663856 10197915
0.47519439 0.111755 2.2668231 10197915
0.52506912 0.11177662 2.2672613 10197915
0.57496297 0.11179821 2.2676992 4351112
0.62487626 0.11181981 2.2681377 1324630
0.67480874 0.11184141 2.2685761 1059142
0.72476071 0.11186305 2.2690146 993349
0.77473176 0.11188471 2.2694535 1322311
0.82472223 0.11190632 2.2698925 9146516
0.87473196 0.11192798 2.2703314 1522787
0.92476124 0.11194963 2.2707708 993605
0.97480965 0.1119713 2.27121 2373969
1.0248777 0.11199298 2.2716498 10132122
1.074965 0.11201465 2.2720895 10132122
1.1250716 0.11203633 2.2725298 10132122
1.1751977 0.11205804 2.2729697 5206161
1.233951 0.10728762 2.2884021 2052742
1.2751099 0.10618526 2.2682352 1125961
1.3031919 0.10634507 2.2516978 1191240
0.37853742 -0.86647725 2.3248503 9197913
0.37850872 -0.82502985 2.3249159 7687501
0.37856615 -0.77500635 2.3251505 2039583
0.37862581 -0.7250632 2.3253899 2039583
0.37864712 -0.67502362 2.3255632 2039583
0.37864158 -0.6250627 2.3256922 2039583
0.37868124 -0.5750075 2.325897 2039583
1.1429349 -0.56901103 2.3457737 2039583
1.1750687 -0.56906652 2.3266757 2039583
1.2095324 -0.5688836 2.3061922 3098721
0.37874082 -0.52485609 2.3261368 2039583
1.142886 -0.5249036 2.34588 2039583
1.1750159 -0.52505994 2.3267827 2697513
1.2095996 -0.52494878 2.3062274 4941698
0.37875274 -0.47486958 2.3262949 2039583
1.1429664 -0.47514489 2.3459187 2039583
1.1750915 -0.47500631 2.3268259 2173232
1.2096106 -0.47500598 2.3063087 4880033
0.37873924 -0.42479464 2.3264112 2039583
1.1437925 -0.42518958 2.3455138 2039583
1.1751307 -0.42497966 2.3268881 2239025
1.2096612 -0.42506033 2.3063653 4945826
0.37750152 -0.374924 2.3244622 2039583
1.1437594 -0.37510034 2.3456204 2039583
1.1751763 -0.37497911 2.3269491 2239026
1.2097293 -0.3750439 2.306412 4551071
0.37748668 -0.32495582 2.3245759 2039583
1.1437471 -0.32479087 2.3457155 2039583
1.1752204 -0.32497627 2.3270087 2239026
1.2103863 -0.32475019 2.3061078 4288158
0.37757638 -0.27489808 2.3248649 2039583
1.1438249 -0.27502388 2.3457551 2039583
1.1752073 -0.27494034 2.3271039 2173233
1.2104583 -0.27509215 2.3061516 3893916
0.37758562 -0.22507402 2.3250189 2039583
1.1439036 -0.22525594 2.3457954 2039583
1.1752223 -0.22490156 2.3271825 2107440
1.2104784 -0.22522534 2.3062267 3368089
0.37642476 -0.17522731 2.3231988 2039583
1.1438912 -0.17493726 2.3458898 2039583
1.1752895 -0.17494766 2.3272278 2107440
1.2105168 -0.17510118 2.3062911 3105431
0.37622452 -0.1249446 2.323 2039583
1.1438782 -0.12461399 2.3459857 2039583
1.1754329 -0.1251393 2.3272319 2107440
1.2106913 -0.12466417 2.3062754 2843030
0.37635648 -0.07499256 2.32336 2039583
1.1440033 -0.075059965 2.3459971 2039583
1.175307 -0.075208314 2.3273914 2041904
1.2106237 -0.07453005 2.3064027 2645652
0.37643403 -0.025028612 2.3236299 2039583
1.1433328 -0.025592327 2.3464818 2039583
1.1746799 -0.024998304 2.3278515 2041647
1.2106586 -0.024843972 2.3064678 2579859
0.37646487 0.025031349 2.3238204 2039583
1.1432698 0.025276575 2.3466074 2039583
1.1746287 0.025075795 2.3279676 2041647
1.2106926 0.024844913 2.3065333 2382224
0.37644893 0.075011678 2.3239315 3355443
1.1433022 0.074859448 2.346674 3289650
1.1746633 0.075229406 2.3280356 3423300
1.2107275 0.074536644 2.3065996 2184845
-1.8236108 0.11060935 2.3216231 729408
-1.774896 0.11063045 2.3220651 926529
-1.7242509 0.11065232 2.3225245 1388104
-1.6745422 0.11067382 2.3229756 1257033
-1.6248137 0.1106953 2.3234267 1124678
-1.5750662 0.11071682 2.323878 1125191
-1.5252993 0.11073832 2.3243296 1191497
-1.4755132 0.11075986 2.3247817 1059911
-1.4257076 0.1107814 2.3252337 1125447
-1.3998404 0.1107926 2.3254688 1191497
0.37876669 0.10740026 2.3207099 10132122
0.42531082 0.11162023 2.3228087 10197915
0.47544336 0.1116419 2.3232603 10197915
0.52510881 0.11166414 2.3233304 10197915
0.57479405 0.11168487 2.3241544 4547458
0.62498468 0.11170656 2.3246057 1589354
0.67470205 0.11172882 2.3246763 1191240
0.72445017 0.1117496 2.3255014 927300
0.77517563 0.11177226 2.3255947 1125190
0.82544661 0.11179403 2.3260326 4872295
0.87523943 0.1118148 2.3268583 4744837
0.92554694 0.11183656 2.327311 1059655
0.97538847 0.11185885 2.3273816 993605
1.0252445 0.11187967 2.3282084 7107453
1.075127 0.11190199 2.3282795 10197915
1.1338954 0.10862438 2.3375044 10132122
1.1747584 0.10676011 2.3260648 8884120
1.2108384 0.10601436 2.3065653 2185357
0.39599466 -0.86611319 2.3542891 9197913
0.41115046 -0.86619234 2.3798466 9197913
0.39599481 -0.82471037 2.3544037 6176832
0.4112092 -0.82495111 2.3800604 4929078
0.39608034 -0.77503884 2.3546863 2039583
0.41118175 -0.77494615 2.380152 2039583
-1.9041013 -0.71946114 2.3975813 1125964
0.39608634 -0.72485447 2.3548341 2039583
0.41123989 -0.72504508 2.3803885 2039583
-1.9041758 -0.6747883 2.3976004 1455183
0.39609221 -0.67466474 2.3549836 2039583
0.41120067 -0.67502493 2.3804598 2039583
-1.9042194 -0.62480664 2.3976879 1455183
0.39617792 -0.62496269 2.3552661 2039583
0.4113439 -0.62510699 2.3808401 2039583
-1.9042741 -0.57515627 2.3977563 1258061
0.39615679 -0.57524318 2.3553677 2039583
0.41128054 -0.57507122 2.3808711 2039583
1.0762246 -0.56910765 2.3854239 2240573
1.1178501 -0.56906992 2.3606832 2039583
-1.9043286 -0.5255034 2.397825 1258061
0.39621618 -0.52503353 2.3556063 2039583
0.41015622 -0.52511817 2.3791134 2039583
1.0762551 -0.5250001 2.3854825 2439500
1.1179148 -0.5250293 2.3607216 2039583
-1.9043726 -0.47518018 2.3979135 1323084
0.39627546 -0.47481284 2.3558445 2039583
0.41000003 -0.4749305 2.3789885 2039583
1.0762337 -0.47499403 2.3855813 2307400
1.117927 -0.47495845 2.3608019 2039583
-1.9044503 -0.42453855 2.3979461 1454925
0.39625436 -0.42507455 2.355948 2039583
0.41001332 -0.42506963 2.3791494 2039583
1.0762985 -0.42498481 2.3856308 2039583
1.1187683 -0.42497665 2.3603866 2039583
-1.904494 -0.37454066 2.3980331 1455181
0.39631379 -0.37483737 2.3561864 2039583
0.41012236 -0.37495592 2.379472 2039583
1.0763134 -0.37497395 2.3857083 2039583
1.1186776 -0.37499148 2.3605282 2039583
-1.9045483 -0.32487601 2.3981023 1520462
0.39637306 -0.32458904 2.3564246 2039583
0.41011482 -0.32495531 2.3795972 2039583
1.0763748 -0.32499 2.3857589 1845816
1.1187896 -0.32504749 2.360549 2039583
-1.9046032 -0.27520868 2.3981709 1389388
0.39635193 -0.27483186 2.3565278 2039583
0.41013446 -0.27494606 2.3797693 2039583
1.0764071 -0.27500546 2.3858256 1518918
1.1188192 -0.27497426 2.3606181 2039583
-1.9046574 -0.22553843 2.3982396 1126475
0.39643773 -0.22504944 2.3568101 2039583
0.41016129 -0.22505364 2.379951 2039583
1.0764471 -0.22507867 2.3858893 1519431
1.1188114 -0.22494137 2.3607087 2039583
-1.9047019 -0.17519568 2.3983276 1257803
0.39512032 -0.17464715 2.3547282 2039583
0.41017425 -0.1751498 2.3801112 2039583
1.076488 -0.17508867 2.3859513 1453894
1.1188437 -0.17506772 2.3607769 2039583
-1.9047798 -0.1245411 2.3983603 1323852
0.39511651 -0.12487514 2.3548586 2039583
0.4103041 -0.12511837 2.3804705 2039583
1.0769129 -0.1252438 2.3857841 1453894
1.119009 -0.12495035 2.3607662 2039583
-1.9048234 -0.074523523 2.3984487 1192010
0.39514863 -0.075126208 2.3550503 2039583
0.41026914 -0.074830852 2.3805494 2039583
1.0774533 -0.07478895 2.3855526 1322309
1.1187708 -0.075063288 2.3609931 2039583
-1.9048778 -0.024841806 2.3985171 1257802
0.39518079 -0.025369111 2.3552425 2039583
0.41028869 -0.024783982 2.3807211 2039583
1.0772809 -0.02470948 2.3857419 1190467
1.1190733 -0.025192052 2.3609006 2039583
-1.9052184 0.022813594 2.3980968 1257546
0.39521363 0.025371935 2.355438 2039583
0.41032231 0.024786664 2.3809156 2039583
1.0773116 0.024710439 2.3858085 1124673
1.1191056 0.025193021 2.3609688 2039583
-1.905412 0.074507907 2.3979385 1190984
0.39524594 0.075145356 2.3556304 3158064
0.41036952 0.074849889 2.3811331 3026478
1.0775539 0.074762881 2.385751 1255489
1.1188694 0.075070046 2.3611958 3289650
-1.9054457 0.10530622 2.3979805 993350
-1.8640496 0.11051293 2.3606534 861250
-1.8252069 0.11052971 2.361012 729152
-1.7746937 0.11055154 2.3614779 1190470
-1.7251329 0.11057296 2.3619356 1388618
-1.675553 0.11059436 2.3623931 1190727
-1.6249807 0.11061622 2.3628595 1059142
-1.5743886 0.11063807 2.3633268 1125704
-1.5247504 0.11065953 2.3637848 1125447
-1.4750924 0.11068095 2.3642428 1059655
-1.4361324 0.11069781 2.3646028 1125448
0.39526546 0.10540345 2.3557467 10132122
0.41634232 0.1075324 2.3813269 10132122
0.47471488 0.11152326 2.3822351 10197915
0.52515107 0.11154507 2.3827012 10197915
0.5756067 0.11156684 2.3831658 6583173
0.62509239 0.11158823 2.3836226 1920383
0.67459697 0.11160961 2.3840799 1191753
0.72511125 0.11163144 2.3845456 993093
0.77564514 0.11165326 2.3850121 1059398
0.82520747 0.11167469 2.3854697 1058883
0.87478882 0.11169611 2.3859272 8555671
0.92438912 0.11171753 2.3863845 1390684
0.97500134 0.1117394 2.386852 993605
1.025633 0.11176124 2.3873191 2439762
1.0764647 0.10632814 2.3860002 5135210
1.1190237 0.1056455 2.3611574 10132122
0.98285764 -1.0708336 2.4400446 6566193
1.0208274 -1.0660716 2.4185052 4592403
1.0599419 -1.0709648 2.4411678 4329231
0.98344851 -1.0249137 2.4397714 6566193
1.0217558 -1.025021 2.4180222 4592403
1.0600443 -1.0250664 2.441467 4329231
0.98348624 -0.97493249 2.4398382 6566193
1.0218242 -0.97501314 2.4181101 4592403
1.0601895 -0.97520137 2.4418488 4329231
0.983527 -0.92499679 2.4399006 6566193
1.0219022 -0.92496341 2.418201 4592403
1.0603344 -0.92532331 2.4422307 4329231
0.43666601 -0.86611766 2.4228752 9132120
0.4511933 -0.8658855 2.4473736 8409682
0.98356783 -0.87501121 2.4399621 5975855
1.021915 -0.87490904 2.4183171 4526867
1.0606335 -0.87541932 2.4428718 3936529
0.43669543 -0.82501858 2.4230378 2827557
0.45122397 -0.82437062 2.44754 2039583
0.98358625 -0.82497293 2.4400377 2039583
1.0219746 -0.82496607 2.418412 2104862
1.0608581 -0.82499129 2.4433889 2039583
0.43667918 -0.77511424 2.4231482 2039583
0.45126072 -0.77474827 2.4477389 2039583
0.98363096 -0.77498049 2.4400973 2039583
1.0220081 -0.77501827 2.4185195 2039583
1.0578748 -0.77628398 2.4385037 2039583
-1.9015619 -0.71942943 2.4018595 1125964
-1.8869276 -0.71945864 2.4265096 1191243
0.43667725 -0.72520256 2.4232836 2039583
0.45129749 -0.72511804 2.4479382 2039583
0.9836368 -0.72498673 2.4401827 2039583
1.0209289 -0.72504848 2.4183419 2039583
1.0538294 -0.72437388 2.4318414 2039583
-1.9015989 -0.67532867 2.4019396 1520719
-1.8869734 -0.67495114 2.4265854 1455183
0.43680274 -0.67506057 2.4236333 2039583
0.45133492 -0.67446637 2.4481418 2039583
0.98383987 -0.6751644 2.4401443 2039583
1.0209517 -0.67505807 2.4184387 2039583
1.0539733 -0.67464119 2.4322212 2039583
-1.9016656 -0.62493211 2.4019909 1520975
-1.8870132 -0.62499595 2.4266701 1520975
0.43681306 -0.62501925 2.4237885 2039583
0.4513717 -0.62481987 2.4483407 2039583
0.98451173 -0.62497437 2.4398358 2039583
1.02099 -0.62506443 2.4185243 2039583
1.0542693 -0.62489659 2.4328563 2039583
-1.9013916 -0.57351649 2.4026175 1323597
-1.8867483 -0.57524091 2.4272838 1454926
0.43678439 -0.5749718 2.4238794 2039583
0.45140842 -0.57516503 2.4485404 2039583
0.98452199 -0.57500708 2.4399178 2039583
1.0247905 -0.57405698 2.4160507 2105892
1.0516444 -0.57548445 2.4069164 1909803
-1.901361 -0.52486444 2.4028261 1323597
-1.8867052 -0.52507502 2.4275134 1323341
0.43558234 -0.52454638 2.4219928 2039583
0.45144594 -0.52448851 2.4487438 2039583
0.98411179 -0.52531034 2.4402461 2504519
1.0252267 -0.52479088 2.4158106 2901083
1.0511439 -0.52507466 2.4004068 1652047
-1.901403 -0.47485325 2.4029164 1257548
-1.8867451 -0.47503895 2.4276092 1323084
0.43545571 -0.47479737 2.4219167 2039583
0.45148265 -0.4748174 2.4489431 2039583
0.98381215 -0.47499651 2.4405138 2834259
1.0249832 -0.47504091 2.4160435 2637138
1.0511746 -0.47437096 2.4004765 1716808
-1.9014578 -0.4250904 2.4029856 1389389
-1.8867955 -0.42499918 2.4276862 1454925
0.43550289 -0.42506531 2.4221334 2039583
0.45151946 -0.42513821 2.4491427 2039583
0.98378128 -0.42493194 2.4406176 2702930
1.024995 -0.42506859 2.4161222 1976369
1.0512046 -0.42465869 2.4005454 2039583
-1.9015131 -0.37532485 2.4030547 1389389
-1.8868692 -0.37499058 2.427721 1455181
0.43555588 -0.37522459 2.4223604 2039583
0.45155704 -0.3744368 2.4493461 2039583
0.98387259 -0.37497261 2.4406507 2571346
1.0249993 -0.3750616 2.4162073 2308430
1.0512346 -0.37494355 2.4006138 2039583
-1.9015667 -0.32555625 2.4031239 1520461
-1.8869116 -0.32497934 2.4278147 1586253
0.43562073 -0.32517317 2.4226084 2039583
0.45159385 -0.32474127 2.4495456 2039583
0.98381764 -0.32506517 2.4407697 2374225
1.0250298 -0.32502109 2.4162753 2242639
1.0512646 -0.32522553 2.4006822 1517626
-1.9016091 -0.27553087 2.4032145 1454925
-1.8869498 -0.27493039 2.4279077 1454925
0.43557578 -0.27501509 2.4226711 2039583
0.45163059 -0.27503759 2.4497452 2039583
0.98387635 -0.27504519 2.4408212 2111568
1.0250899 -0.27494612 2.4163263 2045775
1.0512946 -0.27550468 2.4007506 1191243
-1.9016767 -0.22501473 2.4032626 1192011
-1.8870476 -0.22501408 2.4279072 1257547
0.43563393 -0.22504961 2.4229078 2039583
0.45166361 -0.23039895 2.4499245 2039583
0.98405129 -0.22513272 2.440804 1848398
1.0251943 -0.2248687 2.4163506 1848398
1.0513246 -0.22578104 2.4008193 1191755
-1.9017448 -0.17449704 2.4033115 1192268
-1.8870342 -0.17502703 2.4280927 1323340
0.43567646 -0.17497501 2.4231188 2039583
0.98393285 -0.17494807 2.4409618 1519691
1.0251855 -0.17494521 2.4164441 1585484
1.0513552 -0.17505997 2.4008892 1191499
-1.9017873 -0.1244625 2.4034021 1323596
-1.8871164 -0.12500276 2.4281151 1323596
0.43571737 -0.12489078 2.4233251 2039583
0.98381466 -0.12475517 2.4411201 1519948
1.0251766 -0.12508202 2.4165344 1388106
1.0520884 -0.12210497 2.4005451 1191241
-1.9018413 -0.074679583 2.403471 1192011
-1.8872447 -0.075181574 2.4280593 1257803
0.43570587 -0.07510405 2.4234436 2039583
0.98413777 -0.075216152 2.4410131 1388619
1.0251474 -0.075088784 2.4166405 1388618
1.0522047 -0.074589089 2.4005589 1125704
-1.9018964 -0.024893831 2.4035397 1257802
-1.8871974 -0.02515029 2.4282994 1323595
0.43583485 -0.025103441 2.4237988 2039583
0.98401779 -0.02528359 2.4411743 1323339
1.0251744 -0.025030229 2.4167087 1322826
1.052235 -0.02486366 2.4006269 1125961
-1.9022921 0.025841378 2.4030366 1257546
-1.8872499 0.025151251 2.4283769 1257546
0.43587077 0.025106186 2.4239995 2039583
0.98433 0.024969151 2.4410734 1257033
1.0252061 0.025031181 2.4167798 1191240
1.052265 0.024864607 2.4006956 1125704
-1.9024312 0.0746639 2.4029596 1125191
-1.8874099 0.075188257 2.4282665 1059142
0.43581298 0.075123236 2.424041 2763306
0.98502594 0.075172342 2.4407454 1059911
1.0252337 0.075095445 2.4168479 1059398
1.052295 0.074595697 2.4007638 927299
-1.9024866 0.10516001 2.4027596 1058885
-1.8840023 0.10625584 2.4262412 860994
-1.8252059 0.11040639 2.422457 1190213
-1.7748761 0.11042728 2.4233468 1388361
-1.7250141 0.11044879 2.4238193 1190983
-1.6751323 0.11047033 2.4242916 1124934
-1.6247442 0.1104929 2.424355 1125191
-1.5748216 0.11051446 2.4248104 1059398
-1.5253885 0.11053494 2.4257097 1125447
-1.4794711 0.11056671 2.420186 1125704
-1.4488962 0.11061037 2.4053068 1191497
0.43646723 0.10637512 2.4238424 10132122
0.47487912 0.11144079 2.4233646 10132122
0.52517998 0.11146252 2.4238374 10132122
0.57550049 0.11148422 2.4243095 8292756
0.62483346 0.11150552 2.4247727 1854076
0.67418557 0.11152682 2.4252355 1258062
0.72456396 0.11154857 2.4257088 1059142
0.77496237 0.11157033 2.4261818 993605
0.82538009 0.11159208 2.4266553 1059397
0.87480873 0.11161343 2.4271188 7370623
0.92425621 0.11163477 2.4275837 2772852
0.98244387 0.10669473 2.438621 993862
1.0253738 0.10610583 2.4167919 1059397
1.0523136 0.10543031 2.4008067 3031383
0.89047432 -1.1080601 2.4948878 9197913
0.91689944 -1.1046147 2.4791882 9197913
1.0889614 -1.1068263 2.4898942 4329231
0.89089036 -1.0748626 2.4946988 9197913
0.92474222 -1.0750169 2.474577 9197913
0.95786685 -1.074165 2.4548919 6697779
1.0824968 -1.0748988 2.4791055 4329231
0.89093012 -1.0248696 2.4947612 9197913
0.92471391 -1.025017 2.4746828 9197913
0.95805591 -1.0250602 2.4548638 6631986
1.0828037 -1.0247847 2.4797606 4329231
0.89096999 -0.97487438 2.4948246 9197913
0.92480803 -0.97504866 2.4747128 9197913
0.95806313 -0.97504956 2.4549472 6697779
1.0812508 -0.97654516 2.4772813 4329231
0.89097041 -0.92497861 2.4949107 9197913
0.92481786 -0.92504257 2.4747932 9197913
0.95811081 -0.92503875 2.4550061 6697779
1.0793437 -0.92497402 2.474215 4329231
0.46753395 -0.86601025 2.4749291 6177089
0.89097148 -0.87507951 2.4949975 5651516
0.92478609 -0.875 2.4748998 6636612
0.95809811 -0.87502092 2.4551001 5713711
1.0797802 -0.87492579 2.4750874 3413269
0.46768585 -0.82495207 2.4752975 2039583
0.8910113 -0.82507503 2.4950602 2039583
0.92488188 -0.82498884 2.4749293 2039583
0.95817298 -0.82500434 2.4551415 2039583
1.0797973 -0.82486689 2.4752545 2039583
0.46758839 -0.77497381 2.4752729 2039583
0.8910827 -0.77496612 2.4951048 2039583
0.92487073 -0.77500832 2.4750228 2039583
0.95816028 -0.77498364 2.4552367 2039583
1.0763875 -0.77448201 2.4696567 2039583
-1.8616655 -0.71956933 2.4690664 1257036
-1.8466517 -0.71938157 2.4943609 1388877
0.46763277 -0.72509074 2.4754853 2039583
0.89105874 -0.72495526 2.4952052 2039583
0.92491949 -0.72499108 2.4750798 2039583
0.95819426 -0.72495735 2.4553046 2039583
1.0766883 -0.72499192 2.4703 2039583
-1.861707 -0.67501211 2.4691415 1455183
-1.8466985 -0.67481577 2.4944246 1455183
0.46770805 -0.67509747 2.4757509 2039583
0.89109534 -0.67504466 2.495271 2039583
0.92488909 -0.67497075 2.4751861 2039583
0.95844108 -0.67457461 2.4552455 2039583
1.0766011 -0.67498833 2.4702916 2039583
-1.8617839 -0.62498575 2.4691713 1520719
-1.8467579 -0.62493426 2.4944873 1520976
0.46777162 -0.6250959 2.4759963 2039583
