# .PCD v0.7 - Point Cloud Data file format
VERSION 0.7
FIELDS x y z rgb
SIZE 4 4 4 4
TYPE F F F U
COUNT 1 1 1 1
WIDTH 1178
HEIGHT 1
VIEWPOINT 0 0 0 1 0 0 0
POINTS 1178
DATA ascii
-1.5977067 -0.82528615 3.5445957 2039583
-2.6737454 -0.77479661 3.5402052 3434392
-2.6244576 -0.77515239 3.5192673 3763097
-2.5881879 -0.77487385 3.5038636 3631768
-1.6088289 -0.77460724 3.5191116 2039583
-1.5978217 -0.77881211 3.5449703 2039583
-2.6738722 -0.72512418 3.5405633 3302807
-2.6246765 -0.72506642 3.5196671 3500184
-2.5884674 -0.7247436 3.5042877 3368855
-1.6086572 -0.72505367 3.5202024 2039583
-1.598015 -0.72410041 3.5452733 2039583
-2.6722593 -0.67495245 3.5401838 2841232
-2.6249082 -0.67484891 3.5200708 2709903
-2.5888908 -0.67517203 3.5047693 2578318
-1.6087657 -0.67508298 3.5206423 2039583
-1.598166 -0.67422628 3.5456092 2039583
2.1797872 -0.65353692 3.5428944 2894892
2.2243383 -0.65350014 3.5239182 3881787
2.2636745 -0.65338773 3.507164 6447714
-2.6726098 -0.62501884 3.5406363 3039894
-2.6254263 -0.62485784 3.5205956 3040150
-2.5890789 -0.62479717 3.5051572 2908821
-1.6088938 -0.62498963 3.5210338 2039583
-1.5983174 -0.62434262 3.5459447 2039583
2.1815898 -0.62532955 3.5422983 2894892
2.2248404 -0.62496716 3.5238767 3815994
2.2654972 -0.62459761 3.5065618 6447714
-2.6729236 -0.57492566 3.5410757 3237272
-2.6257479 -0.57497489 3.5210359 3040150
-2.5874338 -0.57498288 3.5047607 2842515
-1.6090969 -0.57488847 3.5212514 2039583
-1.5984688 -0.57444954 3.5462809 3947580
2.182245 -0.57488561 3.5423267 2894892
2.2250323 -0.57503748 3.5240986 3815994
2.2663097 -0.57486326 3.5065207 6447714
-2.6731594 -0.52510512 3.5414805 2908308
-2.6259971 -0.52495831 3.5214474 2578831
-2.5876012 -0.52472305 3.5051386 2446475
-1.6092554 -0.52500302 3.5215702 2039583
-1.5986201 -0.5245471 3.5466158 5329233
2.1842239 -0.52805698 3.5417695 2894892
2.2252376 -0.52503532 3.5243156 3815994
2.2665451 -0.52478355 3.5067253 6447714
-2.6710131 -0.47460589 3.5408769 2644367
-2.6258957 -0.47522348 3.5217066 2380940
-2.5880904 -0.47491759 3.50565 2182791
-1.6093576 -0.47499314 3.5220225 2628893
-1.5987715 -0.47463524 3.546952 5591120
1.8741226 -0.45393038 3.5231562 2894892
2.1906722 -0.47490114 3.5393462 2894892
2.2255023 -0.47496116 3.5245123 3881787
2.2656283 -0.47708213 3.507406 6447714
-2.669596 -0.42493755 3.5405769 2381196
-2.6243629 -0.42480478 3.5213625 2315403
-2.5882716 -0.42535833 3.5060298 2315404
-1.6095421 -0.42497453 3.5222819 5312271
-1.5989227 -0.42471373 3.5472882 6049101
1.8739344 -0.42615584 3.5228024 2894892
2.1908817 -0.42453241 3.5395648 2894892
2.2192364 -0.42755723 3.5274687 3158064
2.2543705 -0.44781822 3.5123804 6447714
-2.6698244 -0.37467664 3.5409784 2447502
-2.6248972 -0.37498271 3.5218937 2315916
-2.5868359 -0.37531498 3.5057244 2315403
-1.6097071 -0.37494734 3.5225875 3674899
-1.5990745 -0.37478283 3.5476241 5655885
1.8735875 -0.37500563 3.5221498 2894892
2.1910248 -0.37415019 3.5398116 2894892
2.2163432 -0.37563112 3.5290167 2894892
-2.6702006 -0.32439989 3.541445 2974869
-2.6252272 -0.32541481 3.5223351 2974869
-2.5867543 -0.32454783 3.5059988 2909331
-1.6099761 -0.32419789 3.5226588 1974048
-1.5991771 -0.32622868 3.5480554 4868682
1.8732408 -0.32387412 3.5214987 2894892
2.1911142 -0.32412109 3.5400786 2894892
2.2164292 -0.32552266 3.5292861 2894892
-2.6686294 -0.27448663 3.5410831 2777491
-2.6247194 -0.27500805 3.5224278 2777490
-2.5863676 -0.27547514 3.5061352 2777233
-1.6099645 -0.27480432 3.5233719 2040098
-1.5986327 -0.28531241 3.5499051 6513507
1.8729039 -0.27422169 3.5208657 2894892
2.1912022 -0.29480085 3.5402203 2894892
2.2175386 -0.29499066 3.5290008 2894892
-2.6688273 -0.22447941 3.5414712 2580113
-2.6239161 -0.22532661 3.5223889 2646161
-2.5854957 -0.22514051 3.5060706 2711697
-1.6101221 -0.22490387 3.5236912 2039841
1.8725674 -0.22458719 3.5202329 2894892
-2.6691649 -0.17461698 3.541918 2645905
-2.6239429 -0.17477156 3.5227089 2646161
-2.5837054 -0.17573173 3.5056117 2646160
-1.6102965 -0.174898 3.5239742 3293262
1.8722314 -0.17497049 3.5196011 2894892
-2.6695011 -0.12474199 3.5423651 2382734
-2.6242239 -0.12431933 3.5231357 2447756
-2.5840387 -0.12491612 3.5060627 2381963
-1.6105688 -0.12459956 3.52403 2701641
1.8717231 -0.12465212 3.5185671 2894892
-2.6680932 -0.075283162 3.5420697 2053002
-2.6247633 -0.074449986 3.523669 1987465
-2.5843709 -0.074087508 3.5065138 1987208
-1.610587 -0.074471571 3.5246837 2307399
1.8715491 -0.074338228 3.5183189 2894892
-2.668014 -0.024947835 3.5423412 2052744
-2.6250923 -0.024819426 3.5241113 2053256
-2.5846934 -0.024698591 3.506952 2118792
-1.6107389 -0.024825934 3.5250163 2110278
1.8712128 -0.024775436 3.5176861 2894892
-2.6683502 0.024952022 3.5427897 1920645
-2.6254225 0.024823584 3.5245545 1986694
-2.5829055 0.024696382 3.5064929 1986180
-1.6108899 0.024829039 3.5253475 1978435
1.8708769 0.024769511 3.5170548 2894892
-2.8070693 0.098210774 3.5381966 1457018
-2.7755067 0.098183103 3.5372 1654651
-2.7259412 0.098139681 3.5356355 1588603
-2.6694102 0.076291941 3.542145 1523580
-2.6257451 0.074478813 3.5249872 1524093
-2.5832283 0.074097358 3.5069311 1523836
-1.6110406 0.073716342 3.5249557 8291468
-1.5993918 0.097152539 3.5000718 10000536
-0.37055144 0.095578417 3.5493112 10197915
-0.32483304 0.095538564 3.5478311 10197915
-0.27473333 0.095494889 3.5462093 10197915
-0.22467946 0.095451258 3.5445888 10197915
-0.17467129 0.09540765 3.5429695 7763574
-0.12470876 0.095364101 3.5413523 6447714
-0.074791886 0.095320575 3.5397363 6447714
-0.024920518 0.095277108 3.5381217 6447714
0.02490538 0.095233671 3.5365088 6447714
0.074685872 0.095190272 3.5348971 6447714
0.12442099 0.095146909 3.5332878 6447714
0.16242455 0.095113784 3.5320566 6447714
1.8705608 0.071383975 3.5164607 2894892
-2.8068557 -0.87453401 3.596139 3565720
-2.7735009 -0.87473899 3.5819705 3697306
-2.725281 -0.87427729 3.5614893 3631513
-2.6990299 -0.87516177 3.5503342 3566233
-1.5845925 -0.87281609 3.5748134 2039583
-2.8073452 -0.82471877 3.5966508 3564694
-2.7739239 -0.82505906 3.5824521 3433365
-2.7255507 -0.82488817 3.5619056 3170707
-2.6993713 -0.82525682 3.5507836 3039378
-1.5847876 -0.8248657 3.5750206 2039583
-2.8069751 -0.77682555 3.5967855 3696793
-2.7742772 -0.7748313 3.5829084 3499928
-2.7258005 -0.77494818 3.5623171 3302549
-2.699713 -0.77533942 3.5512328 3105428
-1.5852619 -0.77458185 3.5745983 2039583
-2.8056855 -0.72563297 3.596549 3762843
-2.7745574 -0.72485822 3.5833321 3631514
-2.7247891 -0.72452939 3.5621936 3236759
-2.6989241 -0.73192698 3.5511622 3236759
-1.5857748 -0.72503632 3.5740788 2039583
-2.8060446 -0.67505932 3.5970109 3960477
-2.7749083 -0.67487502 3.5837848 3894941
-2.7242846 -0.67506802 3.5622809 2972818
-2.6960542 -0.67511612 3.5502892 2775952
-1.5859195 -0.67495394 3.5744317 2039583
2.0485494 -0.65303111 3.5987971 2894892
2.0753551 -0.65367681 3.5873759 2894892
2.1261709 -0.65350634 3.5657322 2894892
2.1563528 -0.65353 3.5528767 2894892
-2.8064039 -0.62447262 3.597471 3697563
-2.7753553 -0.62487835 3.58428 3763612
-2.7248006 -0.62521511 3.5628052 3039381
-2.6963956 -0.62518656 3.5507388 2908053
-1.5861042 -0.6250608 3.5746894 2039583
2.0486286 -0.62472707 3.5989358 2894892
2.076216 -0.62488532 3.5871851 2894892
2.1259525 -0.62499273 3.5659986 2894892
2.157176 -0.62444901 3.5527036 2894892
-2.8066614 -0.57529336 3.5978801 3369114
-2.7756586 -0.57500625 3.5847132 3434650
-2.7250917 -0.57522547 3.5632334 3368857
-2.6967368 -0.57524443 3.5511882 3237785
-1.5862607 -0.57505846 3.575016 5066061
2.0485544 -0.57716918 3.5992579 2894892
2.0749962 -0.57474881 3.5880096 2894892
2.1250505 -0.57502145 3.5666883 2894892
2.1577504 -0.57549876 3.5527568 2894892
-2.804812 -0.52537358 3.5973992 3171736
-2.7761059 -0.52498275 3.5852094 3237528
-2.7254379 -0.52510107 3.5636859 3171992
-2.6968458 -0.52396894 3.5515473 3105943
-1.5864232 -0.52504903 3.5753255 6447714
2.0476859 -0.53242803 3.5999 2894892
2.0739872 -0.53360176 3.58869 2894892
2.1251497 -0.53373545 3.5668976 2894892
2.157872 -0.53431672 3.5529561 2894892
-2.805234 -0.47548798 3.5978825 2775696
-2.776036 -0.47462302 3.5854857 2709903
-2.7254229 -0.47526744 3.5639822 2644368
-2.6952488 -0.47519898 3.5511661 2578831
-1.5865384 -0.47502753 3.575748 6447714
1.8918978 -0.45340571 3.5648901 2894892
1.9040061 -0.45404372 3.5933158 2894892
-2.8055935 -0.42486343 3.5983443 2577805
-2.7744844 -0.42503613 3.5851285 2577805
-2.723963 -0.42492667 3.5636692 2512269
-2.6955905 -0.4252317 3.5516157 2380940
-1.5872227 -0.42531508 3.5748274 6447714
1.8916956 -0.42382327 3.5645096 2894892
1.9038007 -0.42422536 3.5929284 2894892
-2.805953 -0.37422585 3.598805 2644623
-2.7746468 -0.37520599 3.5855017 2644111
-2.7242835 -0.37504566 3.5641108 2512782
-2.6959314 -0.37525192 3.5520651 2447503
-1.5876174 -0.37510312 3.574595 6447714
1.8913615 -0.37502468 3.563879 2894892
1.9034625 -0.37503788 3.5922904 2894892
-2.8043265 -0.32630488 3.5984068 2974357
-2.77511 -0.32523662 3.5860023 3106198
-2.7246034 -0.32515246 3.5645502 3171990
-2.6962726 -0.32525945 3.5525148 2974869
-1.5877305 -0.32520649 3.5750196 6447714
1.8910269 -0.32624349 3.5632486 2894892
1.903124 -0.32586801 3.5916514 2894892
-2.8031542 -0.27143437 3.598243 2711442
-2.7747133 -0.27538237 3.5861373 2843284
-2.7249253 -0.27524722 3.5649905 2843284
-2.6945336 -0.27471542 3.5520852 2777747
-1.5881585 -0.27476427 3.5747108 6447714
1.8906832 -0.27600211 3.5626009 2894892
1.902775 -0.27522629 3.5909929 2894892
-2.8025551 -0.22509827 3.5982711 2646163
-2.7737207 -0.22433241 3.5860283 2711955
-2.725029 -0.22560605 3.5653358 2711955
-2.6947854 -0.22517799 3.5524933 2645905
-1.588728 -0.22505926 3.5740621 5003881
1.8903399 -0.22577906 3.5619547 2894892
1.9024256 -0.22460303 3.5903332 2894892
-2.8029141 -0.17443615 3.5987327 2712468
-2.7744353 -0.17450191 3.5866351 2712212
-2.7256587 -0.17579979 3.5659084 2712212
-2.6951263 -0.1751605 3.5529423 2711954
-1.5889133 -0.17512853 3.5743182 3561594
1.8899965 -0.1755742 3.5613074 2894892
1.9020777 -0.17399846 3.5896759 2894892
-2.801717 -0.12828961 3.5985055 2646162
-2.7740486 -0.1255165 3.5867682 2580369
-2.7260046 -0.12558709 3.5663614 2513807
-2.6954682 -0.12513037 3.5533919 2514063
-1.589155 -0.12549192 3.574435 3035768
1.8896533 -0.12538759 3.5606611 2894892
1.9017396 -0.12489991 3.5890379 2894892
-2.8013844 -0.076034896 3.5986822 2447757
-2.7747645 -0.075796023 3.5873761 2250380
-2.7242868 -0.075226992 3.5659385 2119051
-2.6919155 -0.074273027 3.5521934 2118794
-1.5891788 -0.075536221 3.5750749 2312562
1.8893089 -0.075219154 3.5600123 2894892
1.9014 -0.075818911 3.5883975 2894892
-2.801744 -0.025347857 3.5991437 2052744
-2.7751191 -0.02526821 3.5878348 2118537
-2.724514 -0.025116839 3.5663407 2119051
-2.6918077 -0.025019001 3.5524487 2119050
-1.5893297 -0.025180871 3.5754147 1984368
1.8889654 -0.025068989 3.5593646 2894892
1.9010515 -0.025268853 3.5877399 2894892
-2.8021028 0.025352193 3.599606 2118537
-2.7754741 0.02527252 3.5882943 2118024
-2.7248607 0.025121098 3.5667946 2052488
-2.6921484 0.02502322 3.5528984 2051975
-1.5894822 0.02518408 3.5757551 1721196
1.8886223 0.025062926 3.558718 2894892
1.9007037 0.025262687 3.5870833 2894892
-2.8023462 0.059656188 3.5999177 1590400
-2.7758188 0.074339055 3.5887403 1589373
-2.7251966 0.073893592 3.5672333 1655165
-2.6924794 0.073605672 3.553335 1524094
-1.5890353 0.074559949 3.575362 5137533
-1.52455 0.096584447 3.5866699 10066329
-1.4748533 0.096541137 3.5850618 10197915
-1.4252006 0.096497834 3.5834539 10197915
-1.3755928 0.096454605 3.5818481 10197915
-1.324528 0.096410081 3.580195 10197915
-1.2750101 0.096366912 3.5785918 10197915
-1.2255368 0.096323773 3.5769901 10197915
-1.1746104 0.096279375 3.5753419 10197915
-1.1252264 0.096236318 3.5737424 10197915
-1.0758872 0.096193328 3.5721457 10197915
-1.0250986 0.096149027 3.5705011 10197915
-0.97435683 0.096104793 3.5688589 10197915
-0.92515177 0.096061893 3.5672655 10197915
-0.87599117 0.096019045 3.5656738 10197915
-0.82538635 0.095974945 3.5640357 10197915
-0.77482814 0.095930882 3.5623994 10197915
-0.72431618 0.095886812 3.5607636 10197915
-0.67385077 0.095842838 3.5591304 10197915
-0.62491357 0.095800161 3.5575457 10197915
-0.57602036 0.095757544 3.5559635 10197915
-0.52569073 0.095713668 3.5543337 10197915
-0.47540736 0.095669828 3.5527058 10197915
-0.42516994 0.095626041 3.5510793 10197915
-0.3956382 0.095600285 3.5501235 10197915
1.7402056 0.093225308 3.571831 1523303
1.7751409 0.093195014 3.5706701 2508132
1.8260509 0.093150869 3.5689793 2894892
1.8799976 0.08231058 3.5626347 2894892
1.9003865 0.071319692 3.5864847 2894892
-2.86973 -0.87502331 3.6228426 4090779
-2.8338294 -0.87469238 3.6075962 3959963
-1.5632617 -0.87301791 3.6250308 2039583
-2.8701601 -0.82522321 3.6233294 3695765
-2.8340504 -0.82509869 3.6079919 3433108
-1.5637673 -0.82549649 3.6244986 2039583
-2.8683534 -0.77466047 3.6228702 3828121
-2.831666 -0.77461916 3.6072865 3696792
-1.5643429 -0.77499241 3.6238449 2039583
-2.8685625 -0.72501707 3.6232612 3959964
-2.830368 -0.72493935 3.607038 3763099
-1.5645278 -0.72498268 3.6241057 2039583
-2.8690159 -0.67506677 3.6237607 3894429
-2.830709 -0.67515004 3.6074867 3960478
-1.5646043 -0.67506969 3.6246161 2039583
1.939819 -0.65360886 3.6451063 2894892
1.9752218 -0.65370297 3.6300263 2894892
2.0228794 -0.6536504 3.6097281 2894892
-2.8691998 -0.62493682 3.624141 3960221
-2.830934 -0.62516373 3.6078866 3697307
-1.5648588 -0.62504101 3.6247125 2039583
1.9391088 -0.62487751 3.6455836 2894892
1.9746826 -0.62510437 3.6304312 2894892
2.0233159 -0.62502122 3.6097171 2894892
-2.8695633 -0.57496202 3.6246004 3500186
-2.8308671 -0.57482362 3.6081662 3434651
-1.5649141 -0.57500315 3.6252737 6052956
1.9394649 -0.57509536 3.6457353 2894892
1.9750404 -0.57500529 3.6305823 2894892
2.023674 -0.57500136 3.6098678 2894892
-2.8701982 -0.52497083 3.6251762 3368601
-2.8296881 -0.52496868 3.6079679 3237272
-1.5651498 -0.5249517 3.6254137 6447714
1.9393381 -0.52488697 3.6460965 2894892
1.9727266 -0.53014982 3.6318421 2894892
2.0237815 -0.53378808 3.610074 2894892
-2.8701978 -0.47514194 3.6254787 2907024
-2.8299277 -0.47503942 3.6083744 2710160
-1.5652025 -0.47500452 3.6259828 6447714
1.9377804 -0.48504654 3.6460533 2894892
1.9530916 -0.49619061 3.6404128 2894892
-2.8706245 -0.42496219 3.6259661 2643598
-2.8300164 -0.42526942 3.6087151 2446476
-1.5659758 -0.42472884 3.6248596 6447714
1.9161024 -0.42463425 3.6218083 2894892
-2.8714142 -0.37475649 3.6266065 2775696
-2.8304367 -0.37514904 3.609199 2710160
-1.566322 -0.37502971 3.6247325 6447714
1.9157581 -0.3750512 3.6211569 2894892
-2.8711636 -0.32523793 3.6268029 3171735
-2.8290136 -0.32458472 3.6089036 3040149
-1.5664883 -0.3250795 3.6250327 6447714
1.920808 -0.32269397 3.6331789 2894892
-2.8718345 -0.27500927 3.6273952 2777236
-2.8291028 -0.27497292 3.6092434 2777492
-1.5673276 -0.27494934 3.6237555 6447714
1.9211185 -0.27478293 3.6340601 2894892
-2.8725064 -0.22476271 3.6279867 2711699
-2.8291075 -0.22537304 3.6095467 2645906
-1.5674393 -0.22510388 3.6241815 5723992
1.9211518 -0.22506887 3.6342959 2894892
-2.8713975 -0.1745863 3.6278207 2580627
-2.8290071 -0.17557634 3.6098075 2646164
-1.5677482 -0.17515042 3.6241484 3361893
1.9204277 -0.17535377 3.6327534 2894892
-2.8706672 -0.12474515 3.6278148 2580113
-2.826216 -0.12400579 3.6089377 2579857
-1.5677128 -0.12474683 3.6249285 3496318
1.9202657 -0.12490875 3.6325336 2894892
-2.8710272 -0.075156957 3.6282687 2579598
-2.8257618 -0.075071827 3.6090438 2382221
-1.5679442 -0.075203612 3.6250727 2707320
1.9199193 -0.075232878 3.6318779 2894892
-2.871387 -0.025556182 3.6287253 2315915
-2.8263381 -0.025421426 3.6095912 2249865
-1.5680488 -0.025533725 3.6255147 2247797
1.9195738 -0.025575127 3.6312249 2894892
-2.8717587 0.025560591 3.6291938 2184330
-2.8267016 0.02542579 3.6100554 2184073
-1.5682003 0.025537008 3.6258657 1918576
1.9192182 0.025568821 3.6305523 2894892
-2.8720174 0.075183079 3.6295218 1655423
-2.8256111 0.075303681 3.609895 1589630
-1.5688494 0.07392741 3.6250081 7897999
-0.60633624 0.095259771 3.6497796 10197915
-0.57441759 0.095232114 3.6487195 10197915
-0.52429503 0.095188655 3.647054 10197915
-0.47421771 0.095145226 3.6453905 10197915
-0.42570165 0.095103152 3.6437788 10197915
-0.37571466 0.095059827 3.6421185 10197915
-0.32426026 0.09501522 3.6404095 10197915
-0.27436519 0.094971962 3.6387515 10197915
-0.224516 0.094928734 3.6370957 10197915
-0.17471167 0.094885565 3.6354418 7368816
-0.12495313 0.094842412 3.6337883 6447714
-0.075239316 0.09479931 3.6321368 6447714
-0.025571134 0.094756246 3.6304874 6447714
0.025555199 0.09471193 3.6287894 6447714
0.075132318 0.09466894 3.6271417 6447714
0.12466401 0.094625987 3.6254969 6447714
0.165158 0.09459088 3.6241517 6447714
1.9188942 0.072183788 3.6299386 2894892
-1.5513049 -0.87327087 3.6531785 2039583
-1.5413057 -0.87358654 3.6767168 2039583
-1.5517761 -0.82034284 3.6528041 2039583
-1.5414802 -0.82509482 3.6769781 2039583
-1.5515932 -0.77503943 3.653863 2039583
-1.5409348 -0.7749663 3.6789575 2039583
-1.5517716 -0.724657 3.65414 2039583
-1.5410299 -0.72514951 3.6794255 2039583
-1.5518578 -0.67474896 3.6546309 2039583
-1.5412524 -0.67505461 3.6795974 2039583
1.936548 -0.65361267 3.6690855 2894892
-1.5520658 -0.62485999 3.6548324 2236962
-1.541348 -0.62508231 3.6800649 2631720
1.9361585 -0.62542379 3.6682603 2894892
-1.5521519 -0.57492924 3.655323 6447714
-1.541519 -0.57510233 3.6803541 6447714
1.9361928 -0.5751726 3.668499 2894892
-1.5523601 -0.52502531 3.6555252 6447714
-1.5416325 -0.52497399 3.6807835 6447714
1.9354566 -0.52493215 3.6669302 2894892
-1.552446 -0.47507182 3.6560159 6447714
-1.5418377 -0.4749786 3.6809926 6447714
1.9350519 -0.4747172 3.6657448 2894892
-1.5526541 -0.42515278 3.6562181 6447714
-1.5419155 -0.42510292 3.6815016 6447714
1.9349531 -0.42526037 3.6660628 2894892
-1.5527399 -0.37517637 3.656709 6447714
-1.5423665 -0.3755067 3.6811285 6447714
1.9346019 -0.37507156 3.6653976 2894892
-1.553066 -0.32436508 3.6566455 6447714
-1.5429821 -0.32491508 3.6803806 6447714
1.9382063 -0.32852802 3.6740086 2894892
-1.5532043 -0.27367857 3.6570239 6447714
-1.5427173 -0.27570933 3.6816871 6447714
1.940245 -0.27434802 3.6789658 2894892
-1.5532672 -0.22488846 3.6575515 5395026
-1.542419 -0.22512421 3.6830909 3684409
1.9399006 -0.22553512 3.678313 2894892
-1.5533043 -0.17486916 3.658159 4352915
-1.5427729 -0.17481002 3.6829543 2240574
1.9395475 -0.17521524 3.6776438 2894892
-1.5535617 -0.12490366 3.6582456 4090004
-1.5428151 -0.12513563 3.6835442 2109246
1.9391932 -0.1249134 3.6769719 2894892
-1.5535986 -0.074858248 3.6588528 2907019
-1.5429623 -0.074783079 3.6838965 1715004
1.9388399 -0.074630149 3.6763015 2894892
-1.5538561 -0.024880921 3.6589401 2447497
-1.5431095 -0.024421057 3.6842482 1583418
1.9384868 -0.02436504 3.6756325 2894892
-1.5540028 0.024884053 3.6592846 2052227
-1.5432525 0.024424072 3.6845894 1451832
1.9381446 0.024359314 3.674983 2894892
-1.554032 0.073362567 3.6598887 6781583
-1.5414983 0.074607506 3.6842511 7436159
-1.4752513 0.096013129 3.6786435 10066329
-1.4258463 0.095970303 3.6770024 10197915
-1.3749439 0.095926173 3.6753116 10197915
-1.3240876 0.095882073 3.6736224 10197915
-1.2748175 0.095839359 3.6719859 10197915
-1.2255909 0.095796674 3.6703503 10197915
-1.1748725 0.095752694 3.6686652 10197915
-1.1242 0.095708773 3.6669822 10197915
-1.0751077 0.095666215 3.6653514 10197915
-1.0245272 0.095622346 3.663671 10197915
-0.97399265 0.095578544 3.6619925 10197915
-0.92503381 0.095536083 3.6603661 10197915
-0.87459081 0.095492356 3.6586905 10197915
-0.82419336 0.095448665 3.657016 10197915
-0.77536744 0.095406331 3.6553946 10197915
-0.72506136 0.095362723 3.653723 10197915
-0.67480081 0.09531913 3.6520538 10197915
-0.63219076 0.095282197 3.6506383 10197915
1.7890668 0.092642702 3.6658864 1721457
1.8249059 0.092611797 3.6646633 2573151
1.8741481 0.092569351 3.6629839 2894892
1.9281753 0.079927534 3.6687365 2894892
-1.5305483 -0.87126648 3.7020772 2039583
-1.5307379 -0.82518744 3.7022707 2039583
-1.5308591 -0.77540004 3.7026751 2039583
-1.5310529 -0.72487295 3.7029197 2039583
-1.5311741 -0.67506671 3.703325 2039583
1.9623929 -0.65360528 3.7297633 2894892
-1.5312952 -0.62524873 3.7037306 3158064
1.9621847 -0.62418097 3.7293677 2894892
-1.5314891 -0.57469743 3.7039752 6447714
1.961834 -0.57463729 3.7287009 2894892
-1.5316105 -0.52486038 3.704381 6447714
1.9614835 -0.5251112 3.7280347 2894892
-1.5317533 -0.47579491 3.7047253 6447714
1.9609284 -0.47484338 3.726891 2894892
-1.5319002 -0.42518651 3.7050815 6447714
1.9607717 -0.42457223 3.7266819 2894892
-1.5324227 -0.37206239 3.7045882 6447714
1.9604211 -0.37509975 3.7260158 2894892
-1.5329674 -0.32531446 3.7039545 6447714
1.9600699 -0.32564479 3.7253482 2894892
-1.5330821 -0.27519786 3.7043793 6447714
1.9595152 -0.27542746 3.7242048 2894892
-1.5332921 -0.22460742 3.704586 3487029
1.9593573 -0.22525039 3.7239938 2894892
-1.5334045 -0.17498295 3.7050107 2039583
1.9592 -0.17507283 3.7237833 2894892
-1.533547 -0.12587656 3.7053547 2039583
1.9586453 -0.12491623 3.72264 2894892
-1.5336945 -0.075225927 3.7057106 2039583
1.958091 -0.074796923 3.7214987 2894892
-1.5338411 -0.024565684 3.7060664 2039583
1.9579341 -0.024667701 3.7212889 2894892
-1.5339848 0.024568737 3.7064121 2039583
1.9575841 0.024661826 3.7206235 2894892
-1.5341231 0.072176382 3.7067468 9079434
-0.66329658 0.094756573 3.7495329 10197915
-0.62424153 0.094722927 3.7482009 10197915
-0.57428956 0.09467987 3.7464976 10197915
-0.52438313 0.094636858 3.7447948 10197915
-0.47452196 0.094593875 3.743094 10197915
-0.42470604 0.09455093 3.7413952 10197915
-0.37493536 0.094508037 3.7396979 10197915
-0.3252098 0.094465166 3.7380016 10197915
-0.27552938 0.09442234 3.7363062 10197915
-0.22589391 0.094379559 3.7346134 10197915
-0.17630345 0.094336808 3.7329223 7171437
-0.12521054 0.094292775 3.7311802 6447714
-0.074164823 0.094248772 3.7294383 6447714
-0.024711661 0.094206125 3.7277515 6447714
0.024696784 0.094163559 3.7260664 6447714
0.074060567 0.094120994 3.7243826 6447714
0.12492005 0.094077155 3.7226477 6447714
0.16803782 0.094039991 3.7211776 6447714
1.957256 0.070892408 3.7200005 2894892
1.9823198 -0.65399343 3.7765453 2894892
1.982118 -0.62576801 3.776161 2894892
1.9817591 -0.57560247 3.7754774 2894892
1.9814006 -0.52545506 3.7747939 2894892
1.9810421 -0.47532576 3.774111 2894892
1.9806825 -0.42521438 3.7734263 2894892
1.9803231 -0.37512121 3.7727416 2894892
1.9799644 -0.32504621 3.772058 2894892
1.9796058 -0.2749894 3.7713749 2894892
1.9792473 -0.2249507 3.7706914 2894892
1.9788879 -0.1749301 3.7700076 2894892
1.9785295 -0.12492762 3.7693241 2894892
1.9781711 -0.074943304 3.7686417 2894892
1.9838722 -0.022954319 3.782192 2894892
1.984228 0.025076455 3.7831795 2894892
-1.5550261 0.095525265 3.7799499 10197915
-1.5248587 0.09549924 3.7789202 10197915
-1.4740849 0.095455475 3.7771881 10197915
-1.424942 0.095413119 3.775512 10197915
-1.3758428 0.095370799 3.7738369 10197915
-1.3252056 0.095327139 3.7721105 10197915
-1.2746143 0.095283531 3.7703841 10197915
-1.2240697 0.095239952 3.7686605 10197915
-1.1751482 0.095197797 3.7669916 10197915
-1.1262708 0.095155671 3.7653251 10197915
-1.0758615 0.095112212 3.7636051 10197915
-1.0254982 0.095068812 3.7618878 10197915
-0.97518086 0.095025413 3.7601709 10197915
-0.92490947 0.094982095 3.7584565 10197915
-0.87468392 0.0949388 3.7567432 10197915
-0.82450414 0.094895557 3.7550318 10197915
-0.77437007 0.094852336 3.7533219 10197915
-0.72428167 0.094809152 3.7516129 10197915
-0.68830729 0.094778143 3.7503865 10197915
1.837504 0.092031203 3.7651362 1721713
1.8742965 0.091999672 3.7638464 2573151
1.9248474 0.09195637 3.7620747 2894892
1.9790102 0.075554259 3.7774215 2894892
1.9959059 -0.65478337 3.80844 2894892
2.009712 -0.65399176 3.8408558 2894892
1.9956896 -0.62473828 3.8080273 2894892
2.0095036 -0.62528574 3.8404584 2894892
1.9953254 -0.57414973 3.8073325 2894892
2.0091453 -0.57586032 3.8397734 2894892
1.9949725 -0.52515954 3.806659 2894892
2.008775 -0.52485883 3.8390658 2894892
1.9946193 -0.47618651 3.805985 2894892
2.0084162 -0.47546896 3.8383799 2894892
1.9942541 -0.42565191 3.8052888 2894892
2.0080576 -0.42609692 3.8376946 2894892
1.9938898 -0.37513578 3.8045933 2894892
2.0076873 -0.37515065 3.8369877 2894892
1.9935256 -0.32463816 3.8038986 2894892
2.0073178 -0.32422313 3.8362803 2894892
1.9931616 -0.27415895 3.8032036 2894892
2.0069599 -0.27490491 3.8355973 2894892
1.9927975 -0.22369818 3.8025091 2894892
2.006603 -0.22560458 3.8349147 2894892
1.9924438 -0.17483167 3.8018339 2894892
2.0062325 -0.17473203 3.8342068 2894892
1.9920913 -0.12598282 3.8011615 2894892
2.005863 -0.1238783 3.8335006 2894892
1.9917276 -0.075576194 3.8004677 2894892
2.0055053 -0.074631527 3.8328168 2894892
1.9915117 -0.045655232 3.8000555 2894892
2.0051475 -0.025402486 3.8321331 2894892
2.0047789 0.025396261 3.8314278 2894892
-0.56613785 0.09409035 3.8493791 10197915
-0.52447599 0.094054669 3.8479192 10197915
-0.47484294 0.094012149 3.8461795 10197915
-0.42525423 0.093969673 3.8444412 10197915
-0.37571084 0.093927212 3.8427048 10197915
-0.32461596 0.093883447 3.8409142 10197915
-0.27516285 0.093841068 3.8391805 10197915
-0.22575489 0.093798757 3.8374496 10197915
-0.17479962 0.093755089 3.8356633 6645093
-0.12389172 0.093711495 3.833879 6447714
-0.074619621 0.093669273 3.8321519 6447714
-0.025392359 0.093627103 3.8304267 6447714
0.02537665 0.093583614 3.8286474 6447714
0.076098509 0.093540162 3.82687 6447714
0.12519068 0.093498111 3.8251493 6447714
0.16949424 0.093460135 3.8235965 6447714
2.0044441 0.071416743 3.8307893 2894892
2.0237684 -0.65479577 3.8738546 2894892
2.0235567 -0.62584317 3.8734496 2894892
2.0231812 -0.57438529 3.8727303 2894892
2.0228167 -0.52455354 3.8720331 2894892
2.0224526 -0.47473982 3.8713357 2894892
2.0220881 -0.42494389 3.8706384 2894892
2.0217245 -0.37516612 3.8699417 2894892
2.0213602 -0.32540604 3.8692453 2894892
2.0209966 -0.27566406 3.8685489 2894892
2.0206199 -0.2243361 3.8678288 2894892
2.0202563 -0.1746303 3.8671317 2894892
2.025001 -0.12125891 3.8784401 2894892
2.0268869 -0.074775286 3.8830163 2894892
2.0260608 -0.024946431 3.8812351 2894892
2.0256948 0.024940426 3.8805335 2894892
-1.6017404 0.094977565 3.8856764 10197915
-1.5756135 0.094955139 3.8847592 10197915
-1.5250256 0.094911814 3.8829861 10197915
-1.4744836 0.094868518 3.8812149 10197915
-1.4256157 0.094826654 3.8795016 10197915
-1.375165 0.09478344 3.8777342 10197915
-1.3247594 0.094740249 3.8759668 10197915
-1.2744004 0.09469711 3.8742027 10197915
-1.2240865 0.094653994 3.8724391 10197915
-1.1754397 0.09461233 3.8707347 10197915
-1.1252165 0.094569303 3.8689735 10197915
-1.0750383 0.094526313 3.8672149 10197915
-1.0249064 0.094483361 3.8654578 10197915
-0.97481936 0.09444046 3.8637025 10197915
-0.9247784 0.094397597 3.8619492 10197915
-0.87478232 0.094354756 3.8601961 10197915
-0.82483214 0.094311967 3.8584461 10197915
-0.77492654 0.094269209 3.8566966 10197915
-0.72506696 0.094226494 3.854949 10197915
-0.67525184 0.094183825 3.8532031 10197915
-0.62548244 0.094141185 3.8514593 10197915
-0.59179127 0.094112322 3.8502777 10197915
1.8886368 0.091385685 3.8699102 1787506
1.9248607 0.09135484 3.8686044 2507875
1.9736472 0.091313317 3.8668456 2894892
2.022337 0.074581921 3.8776479 2894892
2.0380666 -0.65561318 3.9074214 2894892
2.0378401 -0.62478739 3.906987 2894892
2.0374701 -0.57450581 3.9062772 2894892
2.037112 -0.52586359 3.9055903 2894892
2.0367417 -0.47561806 3.9048808 2894892
2.0363719 -0.42539054 3.9041717 2894892
2.0360022 -0.37518153 3.9034629 2894892
2.0356326 -0.32499054 3.9027553 2894892
2.0352628 -0.27481791 3.9020462 2894892
2.0348923 -0.22466317 3.901336 2894892
2.0345228 -0.17452699 3.9006271 2894892
2.0342607 -0.13895677 3.9001248 2894892
-0.31742293 0.093263194 3.9494178 10197915
-0.2747761 0.093226895 3.9478803 10197915
-0.22396959 0.093183652 3.9460495 9934743
-0.17484705 0.093141846 3.944279 6447714
-0.12576862 0.093100078 3.9425101 6447714
-0.075100675 0.093056969 3.9406843 6447714
-0.024479154 0.093013875 3.9388602 6447714
0.024464557 0.092972212 3.9370956 6447714
0.074993439 0.092929207 3.9352746 6447714
0.12547611 0.092886254 3.933455 6447714
0.17265956 0.092846096 3.9317546 6447714
-1.6242524 0.094375409 3.9965165 10197915
-1.5738655 0.094332531 3.9947004 10197915
-1.5235249 0.094289683 3.9928863 10197915
-1.474905 0.094248295 3.9911339 10197915
-1.4263283 0.094206959 3.989383 10197915
-1.376121 0.094164237 3.9875734 10197915
-1.3259597 0.094121538 3.9857657 10197915
-1.2758435 0.094078891 3.9839592 10197915
-1.2257729 0.094036259 3.9821548 10197915
-1.1757476 0.093993694 3.9803522 10197915
-1.1257675 0.093951143 3.9785504 10197915
-1.0758327 0.09390866 3.9767516 10197915
-1.0259429 0.093866199 3.9749525 10197915
-0.9760983 0.093823776 3.9731567 10197915
-0.92629874 0.093781397 3.9713616 10197915
-0.87488687 0.093737647 3.9695089 10197915
-0.82352203 0.093693919 3.9676578 10197915
-0.77386022 0.093651667 3.9658678 10197915
-0.72424322 0.09360943 3.9640796 10197915
-0.67467093 0.093567237 3.9622929 10197915
-0.62514323 0.093525082 3.9605076 10197915
-0.57566011 0.093482971 3.9587243 10197915
-0.52622169 0.093440905 3.9569428 10197915
-0.47518212 0.093397461 3.9551027 10197915
-0.4241896 0.093354076 3.9532657 10197915
-0.37488729 0.093312092 3.9514885 10197915
-0.34204206 0.093284152 3.9503047 10197915
1.9394575 0.090705939 3.9808025 1655145
1.975082 0.090675816 3.9794805 2443371
2.0252433 0.090633415 3.9776199 2894892
2.0608144 0.090603374 3.976301 2894892
0.087237798 0.092271328 4.0495024 6447714
0.12577818 0.092238754 4.0480723 6447714
0.17600919 0.092196293 4.0462093 6447714
-1.2619054 0.093411542 4.0995436 10197915
-1.2241241 0.093379617 4.0981421 10197915
-1.1743578 0.093337551 4.0962954 10197915
-1.1246374 0.093295544 4.0944524 10197915
-1.0749608 0.093253545 4.0926089 10197915
-1.0253296 0.093211606 4.0907683 10197915
-0.97403365 0.093168244 4.0888658 10197915
-0.92449266 0.093126372 4.087028 10197915
-0.87499678 0.093084559 4.0851932 10197915
-0.82554466 0.093042746 4.0833578 10197915
-0.77613759 0.093001001 4.0815258 10197915
-0.72507304 0.092957839 4.0796309 10197915
-0.67405599 0.092914723 4.0777392 10197915
-0.62478417 0.092873074 4.0759115 10197915
-0.57555711 0.092831485 4.0740862 10197915
-0.52467859 0.092788488 4.0721993 10197915
-0.47384727 0.09274552 4.070313 10197915
-0.42475471 0.09270402 4.0684919 10197915
-0.37570655 0.092662573 4.0666733 10197915
-0.32501304 0.092619739 4.0647931 10197915
-0.27436629 0.092576936 4.0629134 10197915
-0.22376639 0.092534162 4.061038 9408399
-0.17489728 0.092492856 4.0592246 6447714
-0.1260723 0.092451602 4.0574141 6447714
-0.075609252 0.092408948 4.0555425 6447714
-0.025192749 0.09236633 4.0536723 6447714
0.025177283 0.092323773 4.0518045 6447714
0.062087316 0.092292555 4.0504346 6447714
1.9932728 0.089985907 4.0982294 1390425
2.0249317 0.089959353 4.0970192 2379901
2.0748851 0.089917436 4.0951104 2894892
2.1164789 0.089882553 4.0935221 2894892
2.035948 -0.6059801 4.1436334 6513507
2.0755467 -0.60512847 4.126771 3618615
2.1189857 -0.60473561 4.1082711 2894892
2.036025 -0.57510167 4.1437874 6513507
2.0758538 -0.57504267 4.1268239 3618615
2.1189291 -0.57490051 4.1084776 2894892
2.0359886 -0.52499425 4.1441107 6513507
2.0757234 -0.52492088 4.1271849 3618615
2.1194842 -0.52532721 4.1085439 2894892
2.0364256 -0.47525701 4.144227 5199969
2.0756059 -0.47488403 4.1275411 3093303
2.1193197 -0.47493479 4.1089201 2894892
2.0367939 -0.42547375 4.1443744 1851236
2.0763884 -0.42514604 4.1275096 2830647
2.1191394 -0.42466199 4.1093035 2894892
2.0381594 -0.375065 4.1440992 3893658
2.0751183 -0.3751018 4.1283565 4014921
2.1190784 -0.37492877 4.109632 2894892
2.0380664 -0.32451174 4.1444464 4025758
2.0749028 -0.32509914 4.1287532 3883593
2.1183085 -0.32524082 4.1102629 2894892
2.0381899 -0.27473554 4.1446981 3829150
2.0750356 -0.27531102 4.1289992 3686471
2.118278 -0.27440608 4.1105857 2894892
2.0383132 -0.22495325 4.1449485 3303066
2.0747018 -0.22468844 4.1294508 3489094
2.1187358 -0.2250547 4.110692 2894892
2.039309 -0.17581046 4.144824 3171481
2.0755806 -0.17512649 4.1293793 3291715
2.1186941 -0.17542356 4.111011 2894892
2.0399809 -0.12535243 4.144846 2711189
2.0753267 -0.12489715 4.1297922 3029058
2.1188257 -0.12433691 4.1112685 2894892
2.0390217 -0.076128222 4.145555 2711703
2.0743296 -0.07506635 4.1305218 3029831
2.118953 -0.074947231 4.1115146 2894892
2.0388093 -0.025764007 4.1459517 2580116
2.0741649 -0.025670415 4.1308918 2964295
2.1190798 -0.025551535 4.1117601 2894892
2.0389369 0.025766153 4.1462116 2448016
2.0742939 0.025672559 4.1311498 2832453
2.1192117 0.025553653 4.1120162 2894892
-1.6740416 0.093759872 4.1148305 10197915
-1.6255988 0.093718924 4.1130328 10197915
-1.5754713 0.093676552 4.1111732 9672346
-1.5253884 0.093634233 4.1093154 6452100
-1.4753512 0.093591936 4.10746 10197915
-1.4253589 0.093549706 4.1056061 10197915
-1.3754119 0.093507476 4.1037531 9409690
-1.3255097 0.093465291 4.1019025 8752275
-1.2876816 0.093433321 4.1004992 10197915
2.0401745 0.069967419 4.1459532 2448528
2.0744069 0.070174858 4.1313748 2700868
2.1193259 0.069849826 4.1122375 2894892
-3.3034184 -1.8577615 4.1698766 2039583
-3.2951407 -1.8621292 4.1892972 2039583
-3.3039379 -1.8247956 4.1687608 2039583
-3.2954333 -1.8250875 4.188725 2039583
-3.3039706 -1.7749736 4.1688428 2039583
-3.2954636 -1.7752843 4.1888103 2039583
-3.3039904 -1.7249141 4.1689529 2039583
-3.2955103 -1.7249817 4.1888666 2039583
-3.3040588 -1.6748463 4.1689548 2039583
-3.295553 -1.674677 4.1889234 2039583
-3.3041017 -1.6250278 4.1690097 2039583
-3.2955863 -1.6248686 4.1890059 2039583
-3.3041222 -1.5749631 4.1691213 2039583
-3.2956884 -1.5750536 4.1889181 2039583
-3.3041778 -1.5251396 4.1691475 2039583
-3.2956607 -1.5249979 4.1891451 2039583
-3.3042216 -1.4750696 4.1692038 2039583
-3.2957163 -1.4749348 4.1891723 2039583
-3.3042657 -1.4249985 4.1692595 2039583
-3.2958083 -1.4251206 4.1891141 2039583
-3.3043213 -1.3751727 4.1692858 2039583
-3.2957919 -1.3750546 4.1893125 2039583
-3.3043766 -1.3253469 4.1693134 2039583
-3.2958851 -1.3249919 4.1892552 2039583
-3.304373 -1.275268 4.1694789 2039583
-3.2958796 -1.2751685 4.1894236 2039583
-3.3044651 -1.2251964 4.1694241 2039583
-3.2959714 -1.2248578 4.1893659 2039583
-3.3044608 -1.1751117 4.16959 2039583
-3.2959909 -1.1750336 4.1894779 2106150
-3.304553 -1.1250403 4.1695352 3892881
-3.2960114 -1.1252056 4.1895905 3960220
-3.3045726 -1.0751975 4.1696472 4288413
-3.2961032 -1.0748948 4.1895328 3893914
-3.3050444 -1.0426587 4.168643 4091548
-3.2972205 -1.0462669 4.1869988 4091293
2.0188959 -0.60360521 4.1509113 6513507
2.0189674 -0.57439095 4.1510592 6513507
2.0190897 -0.52455044 4.1513104 6513507
2.0192122 -0.474704 4.1515622 6316386
2.0201497 -0.42221525 4.1514826 1587031
2.0208821 -0.37493795 4.1514597 3099236
2.0210042 -0.32508054 4.1517115 3099492
2.021127 -0.27521718 4.1519632 2836323
2.0212498 -0.22534762 4.152215 2573410
2.0223813 -0.17393741 4.1520467 2179943
2.0229185 -0.12557217 4.1521115 1917288
2.0230415 -0.075691842 4.1523633 1786217
2.0231643 -0.025805412 4.1526155 1786731
2.0218656 0.025811343 4.1534824 1654629
-0.66114718 0.092212588 4.1996388 10197915
-0.62615198 0.092183217 4.1983008 10197915
-0.57544678 0.092140689 4.1963644 10197915
-0.52478772 0.092098191 4.1944284 10197915
-0.47592017 0.092057206 4.1925626 10197915
-0.42535344 0.09201479 4.1906304 10197915
-0.37483272 0.091972403 4.1887002 10197915
-0.32435909 0.091930062 4.1867719 10197915
-0.27393132 0.09188775 4.1848454 10197915
-0.22528677 0.091846958 4.1829872 9145227
-0.17495067 0.09180472 4.1810632 6447714
-0.12466033 0.091762535 4.1791425 6447714
-0.074416704 0.091720387 4.1772227 6447714
-0.024218688 0.091678299 4.1753054 6447714
0.024204398 0.091637664 4.1734552 6447714
0.074311391 0.091595627 4.1715407 6447714
0.12437298 0.091553636 4.1696286 6447714
0.17438814 0.091511689 4.1677175 6447714
0.20368823 0.091487102 4.1665983 6447714
2.0231786 0.071029149 4.1531992 1721194
-3.2789202 -1.8706232 4.2273517 2039583
-3.280112 -1.8248805 4.2246971 2039583
-3.280077 -1.7748251 4.2249417 2039583
-3.2801485 -1.7246723 4.2249284 2039583
-3.2802143 -1.6748064 4.2249327 2039583
-3.2801852 -1.6250423 4.2251587 2039583
-3.2806435 -1.5753334 4.2242446 2039583
-3.2809479 -1.5249287 4.2236881 2039583
-3.2809658 -1.474923 4.223803 2039583
-3.2810347 -1.4249179 4.2237997 2039583
-3.2810581 -1.3750112 4.2239041 2039583
-3.281142 -1.3249004 4.2238665 2039583
-3.2811146 -1.2747875 4.2240887 2039583
-3.281179 -1.2249801 4.2240973 2039583
-3.2813041 -1.174969 4.2239609 2570314
-3.2812755 -1.1249533 4.224185 4026013
-3.282203 -1.0791236 4.2221537 3762841
-3.2912138 -1.0494987 4.2010918 3630745
-1.7250826 0.093105175 4.2402897 10197915
-1.6751387 0.093063168 4.2383771 10197915
-1.6252422 0.093021318 4.2364707 9606553
-1.5753902 0.092979498 4.2345662 2443632
-1.5255834 0.092937723 4.2326632 9671830
-1.4758208 0.092895977 4.2307625 10132122
-1.426103 0.092854254 4.2288623 8095638
-1.3764304 0.092812613 4.2269654 2838649
-1.3250304 0.092769474 4.2250013 7304831
-1.2736778 0.092726409 4.2230401 10066329
-1.2241414 0.09268485 4.2211471 10197915
-1.1746495 0.092643328 4.2192564 10197915
-1.1252016 0.092601851 4.2173676 10197915
-1.0757983 0.09256041 4.2154799 10197915
-1.0246774 0.092517525 4.2135267 10197915
-0.97360319 0.092474692 4.2115755 10197915
-0.92433536 0.092433348 4.2096934 10197915
-0.87511152 0.09239205 4.2078128 10197915
-0.82593161 0.092350803 4.2059336 10197915
-0.77504188 0.092308119 4.20399 10197915
-0.72419876 0.092265472 4.2020473 10197915
-0.68565828 0.092233144 4.2005749 10197915
-3.2567325 -1.9071962 4.2793269 2039583
-3.2490749 -1.9120584 4.2972884 2039583
1.6743894 -1.9137272 4.2924075 6447714
1.724399 -1.9108702 4.286654 6447714
1.7741352 -1.9108807 4.2866774 6447714
1.8239115 -1.9109337 4.286797 6447714
1.8736907 -1.9109871 4.2869163 6447714
1.9239378 -1.9110398 4.2868242 6447714
1.9745945 -1.9110947 4.2870865 6447714
2.0252595 -1.9111499 4.2873497 6447714
2.0755 -1.9112027 4.2873998 6513507
2.1252935 -1.9112555 4.2875185 6447714
2.1714597 -1.9112844 4.2839947 6184542
2.2088616 -1.9112765 4.2756257 6513507
-3.2592986 -1.8748584 4.2734056 2039583
-3.2491057 -1.8764697 4.2973285 2039583
-3.2593956 -1.8249574 4.2733355 2039583
-3.2491488 -1.8266447 4.2973857 2039583
-3.2593541 -1.775053 4.2735877 2039583
-3.2491934 -1.7750388 4.2974443 2039583
-3.2594872 -1.7249162 4.2734356 2039583
-3.2492383 -1.7234315 4.2975039 2039583
-3.2594712 -1.6748921 4.2736325 2039583
-3.2492812 -1.6736022 4.2975602 2039583
-3.2595572 -1.6251019 4.273591 2039583
-3.2493241 -1.6237719 4.297617 2039583
-3.2599418 -1.5746783 4.2728477 2039583
-3.2493672 -1.57394 4.2976747 2039583
-3.2602782 -1.5250349 4.2722135 2039583
-3.2494104 -1.5241067 4.2977319 2039583
-3.2602694 -1.474942 4.2723951 2039583
-3.2494531 -1.4742725 4.2977886 2039583
-3.2603402 -1.4249606 4.2723875 2039583
-3.2494965 -1.4244367 4.2978454 2039583
-3.2603884 -1.3749772 4.2724304 2039583
-3.2495399 -1.3745996 4.2979026 2039583
-3.2604325 -1.3249913 4.2724876 2039583
-3.2495825 -1.3247613 4.2979593 2039583
-3.2604389 -1.2748926 4.2726293 2039583
-3.2496254 -1.2749214 4.2980161 2039583
-3.26053 -1.2247933 4.2725749 2039583
-3.2496686 -1.2250804 4.2980728 2039583
-3.260541 -1.1749147 4.2727036 2904953
-3.2497115 -1.1752383 4.2981305 2907278
-3.260643 -1.1249255 4.2726288 3565720
-3.2497547 -1.1253945 4.2981868 3433365
-3.2623465 -1.0889406 4.2687411 3499671
-3.2497809 -1.0951316 4.2982216 3237781
0.094412632 0.090849966 4.299839 6447714
0.12465965 0.09082482 4.2986493 6447714
0.1744446 0.09078338 4.2966876 6447714
0.20642702 0.090756766 4.2954283 6447714
-3.2362597 -1.9179653 4.3273563 2039583
1.5412173 -1.9269899 4.3464184 6447714
1.575331 -1.9216651 4.3340755 6447714
1.6251066 -1.9157648 4.3204846 6447714
1.6752715 -1.9110066 4.3273468 6447714
1.7252141 -1.9110589 4.3273187 6447714
1.7751645 -1.9111125 4.3274899 6447714
1.8241866 -1.9111617 4.3271022 6447714
1.8735651 -1.9112177 4.3276777 6447714
1.9238212 -1.9112704 4.3277993 6447714
1.9740794 -1.9113245 4.3279209 6447714
2.0240498 -1.911376 4.3277931 5526612
2.0717032 -1.9113854 4.3205104 5000268
2.1162488 -1.9113808 4.3114271 4473924
-3.2374747 -1.8747889 4.3246408 2039583
-3.2375338 -1.8248578 4.3246579 2039583
-3.2375951 -1.7749262 4.3246784 2039583
-3.2375932 -1.7248881 4.3248382 2039583
-3.2376363 -1.6747414 4.3248954 2039583
-3.2377293 -1.6248047 4.3248391 2039583
-3.2377219 -1.5749736 4.3250103 2039583
-3.2378044 -1.5250337 4.3249774 2039583
-3.2378092 -1.4749891 4.3251257 2039583
-3.237874 -1.4249424 4.3251314 2039583
-3.2379377 -1.3749998 4.3251362 2039583
-3.2379203 -1.3250556 4.325336 2039583
-3.2380126 -1.2752175 4.3252788 2039583
-3.2380602 -1.2251629 4.3253226 2107699
-3.2380991 -1.1750048 4.3253932 2974100
-3.239229 -1.1267791 4.3228936 3237013
-3.246079 -1.0973443 4.3069062 3368856
-1.1640325 0.091897249 4.3494062 10132122
-1.123984 0.091863915 4.3478274 10197915
-1.0748715 0.091823049 4.3458934 10197915
-1.0258032 0.091782205 4.3439612 10197915
-0.97496331 0.091739908 4.341959 10197915
-0.9241702 0.091697641 4.3399582 10197915
-0.87523526 0.091656916 4.3380313 10197915
-0.82634437 0.091616228 4.3361058 10197915
-0.77568811 0.091574058 4.3341098 10197915
-0.72507858 0.091531955 4.3321171 10197915
-0.6745156 0.091489889 4.3301253 10197915
-0.623999 0.091447838 4.3281355 10197915
-0.57352877 0.091405846 4.3261485 10197915
-0.52490467 0.091365375 4.3242326 10197915
-0.47632417 0.09132494 4.3223195 10197915
-0.42598948 0.091283061 4.3203363 10197915
-0.37570101 0.091241226 4.318356 10197915
-0.32545856 0.091199391 4.3163772 9408399
-0.27526215 0.091157623 4.3143997 9276813
-0.22511174 0.091115907 4.3124251 7895160
-0.17500721 0.091074191 4.3104515 6447714
-0.12494851 0.091032542 4.3084803 6447714
-0.074935593 0.090990908 4.30651 6447714
-0.024968375 0.090949349 4.3045425 6447714
0.02495319 0.09090779 4.3025765 6447714
0.06948822 0.090870731 4.3008218 6447714
-3.211009 -1.9562738 4.3865194 2039583
1.4308728 -1.9576819 4.3931265 6447714
1.4696766 -1.9540416 4.3766208 6447714
1.502019 -1.9502749 4.3628674 6447714
-3.2156868 -1.9249902 4.3756394 2039583
1.4326905 -1.9288627 4.3929653 6447714
1.4758238 -1.9265696 4.37707 6447714
1.5201639 -1.9220964 4.365952 6447714
1.5748199 -1.9111806 4.377018 6447714
1.6250347 -1.9112341 4.377039 6447714
1.6746316 -1.9112837 4.3766418 6447714
1.7245563 -1.9113399 4.3772316 6447714
1.7753823 -1.911394 4.3773551 6513507
1.8262118 -1.911448 4.37748 6381921
1.8752289 -1.9115002 4.3775992 5197647
1.9231119 -1.9115421 4.3760948 4013373
1.9712663 -1.9115386 4.3663836 2894892
2.0106525 -1.9115372 4.3588004 2039583
-3.2158234 -1.8751624 4.3754702 4671303
-3.2158608 -1.8251092 4.3755445 8947848
-3.2158134 -1.7750533 4.375814 8947848
-3.2159607 -1.7248884 4.3756251 8947848
-3.2159443 -1.6750569 4.3758235 8947848
-3.2160347 -1.6252245 4.3757682 8947848
-3.2160449 -1.5750526 4.3759046 8947848
-3.2160563 -1.5249929 4.3760352 8947848
-3.2161727 -1.4749318 4.3759222 8750469
-3.2161577 -1.4249804 4.3761148 8816262
-3.2162268 -1.3750288 4.3761091 8816262
-3.2163055 -1.3249637 4.3760834 8750469
-3.2162507 -1.2750099 4.3763742 8816262
-3.2163556 -1.2250535 4.3762846 4811400
-3.2163863 -1.1749845 4.3763704 2710416
-3.2186582 -1.1359198 4.3711591 2776208
-1.8032784 0.092429347 4.3745894 10132122
-1.7756531 0.092406347 4.3735008 10000536
-1.72412 0.092363469 4.3714714 10000536
-1.674472 0.092322148 4.3695154 9343638
-1.624869 0.092280872 4.3675623 2245998
-1.5753083 0.092239536 4.3656058 9474450
-1.5257933 0.092198297 4.3636537 10000536
-1.4744915 0.092155598 4.3616333 8489621
-1.4250667 0.092114486 4.3596869 2773888
-1.3756865 0.092073373 4.3577414 5661295
-1.3245238 0.092030808 4.3557267 10132122
-1.2752326 0.091989785 4.3537855 10132122
-1.2259859 0.091948792 4.3518457 10000536
-1.1895336 0.091918476 4.3504105 10000536
-3.202152 -1.9608535 4.4072971 2039583
-3.1915283 -1.9665833 4.4322228 2039583
1.2994425 -1.9703602 4.4490323 6447714
1.3245914 -1.9677233 4.4383364 6447714
1.3729542 -1.9633226 4.4177618 6447714
1.4061953 -1.9600232 4.4036236 6447714
-3.2023764 -1.9252533 4.4068842 2039583
-3.1922033 -1.925084 4.4307661 2039583
1.2995065 -1.9299053 4.4492517 6447714
1.3263921 -1.9280148 4.4388781 6447714
1.3752612 -1.9255228 4.4219642 6447714
1.4178239 -1.9189774 4.4180207 6447714
1.4747932 -1.9113615 4.4276934 6447714
1.5249768 -1.9114124 4.4273953 6447714
1.5751566 -1.9114708 4.428359 6447714
1.6250371 -1.9115211 4.4279056 6447714
1.6752201 -1.9115742 4.427928 6250335
1.7251288 -1.9116309 4.4287424 4868682
1.7736814 -1.9116627 4.4252977 3815994
1.8238066 -1.9116997 4.4224606 2302755
1.8705513 -1.911697 4.4133048 2039583
1.9043955 -1.9116988 4.4072776 2039583
-3.202394 -1.8750628 4.407001 5658198
-3.1921833 -1.8750474 4.4309754 5395026
-3.2024491 -1.8244187 4.4070325 11711154
-3.1923072 -1.8251756 4.4308405 11711154
-3.2024798 -1.774693 4.4071193 11711154
-3.1922941 -1.7751346 4.4310293 11711154
-3.2025096 -1.7249653 4.4072056 11711154
-3.1923189 -1.7249243 4.4311314 11711154
-3.2025762 -1.6747713 4.4072065 11711154
-3.1923969 -1.6748836 4.4311028 11711154
-3.2026074 -1.6250407 4.4072948 11711154
-3.1924598 -1.6248351 4.4311209 11711154
-3.2026374 -1.5753075 4.4073811 11711154
-3.1924739 -1.5749581 4.4312439 11711154
-3.2027042 -1.5251118 4.4073834 11711154
-3.1924889 -1.5250791 4.431366 11711154
-3.2027717 -1.4749161 4.4073834 11711154
-3.1925676 -1.4748619 4.4313402 11711154
-3.2027402 -1.4247288 4.4076152 11711154
-3.1925821 -1.4248126 4.4314628 11711154
-3.2028201 -1.374985 4.407588 11711154
-3.1926622 -1.3749282 4.431437 11711154
-3.2028985 -1.325243 4.4075594 11711154
-3.1927047 -1.3250436 4.4314942 11711154
-3.2028675 -1.2750458 4.4077907 11711154
-3.1926925 -1.274987 4.4316816 11119791
-3.2029355 -1.2248442 4.4077926 4091288
-3.1927893 -1.2251021 4.4316115 2711185
-3.2030399 -1.1751021 4.4077039 2512523
-3.1929135 -1.1755309 4.4314766 2512780
-3.203172 -1.1443228 4.4074922 2643597
-3.1975999 -1.1464487 4.4205666 2644109
-0.21014647 0.090325952 4.4495292 6447714
-0.17506735 0.090297014 4.448103 6447714
-0.12525512 0.090255916 4.4460788 6447714
-0.075487621 0.090214834 4.4440556 6447714
-0.025765965 0.090173826 4.4420352 6447714
0.025749791 0.09013132 4.4399414 6447714
0.075379997 0.090090364 4.4379239 6447714
0.12496459 0.090049461 4.4359088 6447714
0.17450468 0.090008564 4.4338946 6447714
0.2093405 0.08997985 4.4324799 6447714
-3.1668177 -2.0045297 4.4901166 2039583
1.1879511 -2.0058067 4.4963064 6447714
1.2158183 -2.0030322 4.4844532 6447714
-3.1731782 -1.9740518 4.4752812 2039583
1.1883745 -1.9748337 4.4963136 6447714
1.223738 -1.9749882 4.4812508 6447714
1.2725172 -1.9725387 4.4604902 6447714
-3.1736019 -1.9249805 4.4744406 2039583
1.1903689 -1.9303683 4.4957361 6447714
1.2244405 -1.9280032 4.4824328 6447714
1.2742897 -1.9254785 4.4650917 6447714
1.325242 -1.911471 4.4750471 6447714
1.3753296 -1.9115258 4.4754319 6447714
1.4250685 -1.9115765 4.4750319 6447714
1.4747891 -1.9116338 4.4759445 6513507
1.524896 -1.9116828 4.4752855 6381921
1.5750109 -1.9117409 4.4761944 5000268
1.625106 -1.9117903 4.4755378 3487029
1.6748679 -1.9118465 4.4763174 2105376
1.7221277 -1.911864 4.4705305 2039583
1.7727847 -1.9118401 4.4568419 2039583
1.8030603 -1.9118338 4.4500918 2039583
-3.1736021 -1.8750701 4.4745984 5000268
-3.1737142 -1.8250434 4.4744925 11711154
-3.1736159 -1.7750115 4.474884 11711154
-3.1737995 -1.7249885 4.4746113 11711154
-3.1738641 -1.6750659 4.4746175 11711154
-3.173718 -1.6250396 4.4751153 11711154
-3.173959 -1.5748883 4.4747133 11711154
-3.1739006 -1.5249666 4.4750094 11711154
-3.1739335 -1.4749334 4.4750829 11711154
-3.1739855 -1.4248924 4.4751263 11711154
-3.1740561 -1.3749727 4.4751182 11711154
-3.1741033 -1.3249297 4.475163 11711154
-3.1741054 -1.2747748 4.4753208 8032164
-3.174232 -1.2247308 4.475183 2579342
-3.1756856 -1.1829531 4.4719038 2776207
-1.4258525 0.091328986 4.49894 2505554
-1.3748955 0.091286957 4.4968691 9606295
-1.3239846 0.091244966 4.4948001 8620432
-1.275004 0.091204531 4.4928088 10197915
-1.2260667 0.091164164 4.4908199 10197915
-1.1752936 0.091122262 4.4887567 10197915
