# .PCD v0.7 - Point Cloud Data file format
VERSION 0.7
FIELDS x y z rgb
SIZE 4 4 4 4
TYPE F F F U
COUNT 1 1 1 1
WIDTH 1060
HEIGHT 1
VIEWPOINT 0 0 0 1 0 0 0
POINTS 1060
DATA ascii
-0.088081256 -0.1692355 0.42078781 2039583
-0.087412104 -0.12499069 0.41781151 6513507
-0.087246075 -0.074978746 0.41701034 7829367
-0.087115377 -0.025447452 0.41636348 6513507
-0.088786535 0.024994122 0.42353761 8750469
-0.09045022 0.075697035 0.43067887 10066329
-0.3527261 0.11490393 0.44676644 10197915
-0.31966278 0.11497018 0.42785209 10197915
-0.27500731 0.11501665 0.42385033 10197915
-0.22500306 0.11505778 0.42400706 10197915
-0.17500997 0.11510145 0.4235369 10197915
-0.12498085 0.11514515 0.42305475 10066329
-0.093568593 0.11448196 0.41999707 10066329
-0.10380979 -0.20952544 0.48913753 2039583
-0.095920727 -0.20182933 0.45487526 2039583
-0.10295785 -0.17504638 0.48538357 2039583
-0.095813163 -0.17507005 0.45436516 2039583
-0.10273218 -0.12501736 0.48432344 10197915
-0.09561193 -0.12492418 0.45341089 8553090
-0.10295907 -0.078016929 0.48523247 6579300
-0.096388362 -0.071160711 0.45669514 6908265
-0.10488941 -0.024953233 0.49352822 6513507
-0.097470522 -0.025046071 0.46131909 6513507
-0.10466801 0.02508699 0.49248636 8553090
-0.097265087 0.024975706 0.46034724 8618883
-0.10444694 0.075119697 0.49144614 10066329
-0.099031024 0.07296212 0.46793646 10066329
-0.36584553 0.11482472 0.47996911 10197915
-0.32499549 0.11487157 0.47394979 10197915
-0.27500463 0.11491323 0.47414699 10197915
-0.22500856 0.11495539 0.47432378 10197915
-0.17500477 0.11499858 0.47369441 10197915
-0.12554096 0.11497115 0.4726893 10066329
-0.098563962 0.11299343 0.46037379 10066329
-0.11482966 -0.22019069 0.53699702 2039583
-0.11413018 -0.1749725 0.53388768 3487029
-0.11389183 -0.12494174 0.5327723 10526880
-0.11365274 -0.07489904 0.53165394 6513507
-0.11342803 -0.024956729 0.53059822 6513507
-0.11317626 0.02499618 0.52942473 8421504
-0.1129512 0.074957244 0.52836728 10066329
-0.41195294 0.11467711 0.53296268 10197915
-0.37502256 0.1147277 0.5235045 10197915
-0.32504976 0.11476919 0.52370393 10197915
-0.27499852 0.11481126 0.5238741 10197915
-0.22500627 0.11485279 0.52405524 10197915
-0.17498653 0.11489468 0.52424389 10132122
-0.13024293 0.11471684 0.52229095 10066329
-0.12452329 -0.25456521 0.57913637 2039583
-0.12437093 -0.22502644 0.57842767 2039583
-0.12411185 -0.17505659 0.5772227 5987163
-0.12385181 -0.12505366 0.57601357 9605778
-0.12359253 -0.075021647 0.57480747 6513507
-0.12333202 -0.024960311 0.57359588 6513507
-0.12307177 0.025127161 0.57238573 8289918
-0.12281142 0.075239792 0.57117468 10066329
-0.45912707 0.11452295 0.58871818 10197915
-0.42397186 0.11458112 0.57478392 10197915
-0.37494823 0.11462414 0.57399946 10197915
-0.32495347 0.11466825 0.57307959 10197915
-0.27500638 0.11471 0.57325786 10197915
-0.2249991 0.11475167 0.5734694 10197915
-0.17500135 0.11479327 0.57367378 10132122
-0.13616222 0.11464112 0.57205349 10066329
-0.13664854 -0.26310048 0.63179123 2039583
-0.1361241 -0.22507159 0.62945396 2039583
-0.1358632 -0.17502552 0.62824112 8882055
-0.13555653 -0.12492514 0.62682903 8487297
-0.13527231 -0.074904859 0.62551481 6513507
-0.13501093 -0.024965217 0.62429971 6513507
-0.13470536 0.025023891 0.62289286 8092539
-0.13444313 0.075059228 0.62167364 10066329
-0.50584292 0.11437147 0.64334583 10197915
-0.47233525 0.11443271 0.62722981 10197915
-0.42502797 0.11447696 0.62516659 10197915
-0.37505615 0.11452142 0.62398165 10197915
-0.3250322 0.11456599 0.62286103 10197915
-0.27500284 0.11460774 0.62306428 10197915
-0.22500798 0.11464951 0.62327695 10197915
-0.17500579 0.11469109 0.62351447 10066329
-0.14132565 0.11400461 0.62049192 10066329
-0.15067293 -0.30507711 0.69274515 2039583
-0.15048537 -0.27518177 0.69188279 2039583
-0.14087602 -0.28444624 0.65017909 2039583
-0.15017357 -0.22512594 0.69044924 2763306
-0.15000799 -0.19858205 0.68968809 11711154
-0.14985044 -0.17354879 0.68896359 11711154
-0.14954636 -0.12505791 0.68756545 7105644
-0.14923225 -0.075051278 0.6861214 6513507
-0.14891808 -0.024970263 0.68467706 6513507
-0.14860524 0.024900347 0.68323857 7895160
-0.14829193 0.07484325 0.6817981 10066329
-0.55219138 0.11422246 0.69691253 10197915
-0.51951301 0.11428762 0.6785863 10197915
-0.474998 0.11433311 0.67476314 10197915
-0.42500263 0.11437465 0.67499638 10197915
-0.37498423 0.11441947 0.67367041 10197915
-0.32497475 0.11446156 0.67381126 10197915
-0.27499741 0.11450298 0.6741268 10197915
-0.22500166 0.11454467 0.67433649 10132122
-0.17524841 0.1145866 0.67435879 10066329
-0.14716253 0.11315659 0.66619354 10066329
-0.16175658 -0.31584316 0.74088174 2039583
-0.16148068 -0.27486292 0.73961824 2039583
-0.16114534 -0.22475587 0.73808241 5526612
-0.16081034 -0.1748555 0.73654789 11250603
-0.1604736 -0.12485538 0.7350055 6513507
-0.16013639 -0.074759305 0.7334609 6513507
-0.15980057 -0.024873288 0.73192286 6513507
-0.15946411 0.025105976 0.73038179 7763574
-0.15912703 0.075176425 0.72883797 10132122
-0.56503254 0.11414501 0.72937751 10197915
-0.52498215 0.11419097 0.72346306 10197915
-0.47503343 0.11423253 0.72369522 10197915
-0.42502517 0.11427417 0.72397739 10197915
-0.37495863 0.1143159 0.72421283 10197915
-0.32494611 0.11435741 0.72451383 10197915
-0.27499041 0.11439904 0.72476727 10197915
-0.22499809 0.11444067 0.72499931 10132122
-0.17838489 0.11429768 0.72412926 10066329
-0.17467782 -0.35331827 0.79703921 2039583
-0.17447132 -0.32487482 0.79609704 2039583
-0.17410803 -0.27482945 0.79443938 2039583
-0.17374857 -0.22499473 0.79279912 8684676
-0.17338686 -0.17503443 0.79114908 10066329
-0.1730236 -0.12495188 0.78949034 6513507
-0.1726615 -0.075078867 0.78783858 6513507
-0.17229863 -0.025088217 0.78618294 6513507
-0.17193492 0.025017641 0.78452361 7566195
-0.17157274 0.074912414 0.78287107 10132122
-0.61179048 0.11399329 0.78409618 6513507
-0.57485837 0.11404642 0.77337211 7631988
-0.52498597 0.11408816 0.77354932 8618883
-0.47497815 0.11412972 0.77383906 9803157
-0.42501396 0.11417124 0.77412289 10197915
-0.37506709 0.11421289 0.77436948 10197915
-0.3250562 0.1142543 0.77469927 10197915
-0.27503669 0.11429603 0.77495372 10197915
-0.22503366 0.1143376 0.77523023 10132122
-0.18423627 0.11409326 0.77406305 10066329
-0.18679407 -0.024985002 0.8491143 6513507
-0.18640143 0.024915 0.84732944 7303023
-0.18600766 0.074954599 0.84553945 10132122
-0.65805078 0.11384504 0.83733928 6513507
-0.62385982 0.11390081 0.82421374 6513507
-0.57503766 0.11394358 0.82342917 6513507
-0.52504653 0.113985 0.82377863 5987163
-0.47501862 0.11402655 0.82407677 8947848
-0.42498809 0.11406822 0.82434207 10197915
-0.37512568 0.11410966 0.82462728 10197915
-0.32512382 0.11415114 0.82496029 10197915
-0.27498454 0.11419279 0.825266 10197915
-0.22497857 0.1142344 0.82554954 10132122
-0.19009772 0.1137732 0.8248412 10066329
-0.51420563 -0.40090224 0.89802921 2039583
-0.66626215 -0.367892 0.8622545 6513507
-0.62472838 -0.37008122 0.87204123 6513507
-0.57467771 -0.37272087 0.88383591 6513507
-0.5280264 -0.37487173 0.89482933 2500134
-0.18949014 -0.36792204 0.86136991 2039583
-0.66659063 -0.3249993 0.86227459 6513507
-0.62533504 -0.32500333 0.87200075 6513507
-0.57522666 -0.32500014 0.88381356 6513507
-0.52836102 -0.32506493 0.89486235 2500134
-0.18915421 -0.32523984 0.85984308 2039583
-0.66665173 -0.27496585 0.86237246 6513507
-0.62539673 -0.27502283 0.8720997 6513507
-0.57529134 -0.27499247 0.88391101 6513507
-0.52868199 -0.27500328 0.89489841 2500134
-0.18876006 -0.27515045 0.858051 2697513
-0.66643846 -0.22500558 0.86253482 6513507
-0.62516546 -0.22499685 0.87226552 6513507
-0.57535058 -0.22499704 0.88401031 6513507
-0.52895248 -0.22508872 0.89494848 2565927
-0.18836682 -0.22491355 0.85626358 11711154
-0.66649652 -0.17501704 0.86263371 6513507
-0.62495691 -0.17495111 0.87242764 6513507
-0.57515121 -0.17505391 0.88416892 6513507
-0.52915072 -0.17501321 0.89501399 2565927
-0.1879736 -0.1748843 0.85447627 8684676
-0.66660041 -0.12497861 0.86272299 6513507
-0.62501281 -0.12500437 0.87252766 6513507
-0.57518071 -0.12501763 0.88427514 6513507
-0.52951002 -0.12496079 0.89504242 2565927
-0.18758158 -0.12506297 0.85269415 6513507
-0.66667503 -0.075000711 0.86281717 6513507
-0.62507719 -0.074999079 0.87262338 6513507
-0.57520401 -0.074995942 0.88438261 6513507
-0.52969635 -0.075060435 0.89511049 2565927
-0.18718837 -0.075095691 0.85090685 6513507
-0.66670412 -0.025024438 0.86292219 6513507
-0.62511796 -0.024992114 0.87272662 6513507
-0.57501823 -0.024956822 0.88453853 6513507
-0.52970332 -0.025034174 0.89522177 2500134
-0.66677845 0.025028152 0.8630178 6513507
-0.62518293 0.02499136 0.87282264 6513507
-0.57503349 0.02498778 0.88464725 6513507
-0.5300287 0.024967471 0.89525747 2500134
-0.66689605 0.075000495 0.86310202 6513507
-0.62529814 0.074998111 0.87291044 6513507
-0.57508069 0.075001769 0.88474804 6513507
-0.53015262 0.074856609 0.89534062 2565927
-0.66659337 0.10759359 0.86243612 6513507
-0.62491339 0.10812467 0.87082291 6513507
-0.57487309 0.10859377 0.88036633 6513507
-0.52833062 0.10933027 0.88713741 3158064
-0.47499245 0.11392614 0.87303668 10132122
-0.4250356 0.11396778 0.87327522 10197915
-0.37492201 0.11400931 0.87363017 10197915
-0.32489261 0.11405084 0.87393779 10197915
-0.27502719 0.11409221 0.87426472 10197915
-0.22500515 0.11413375 0.87457371 10066329
-0.19571079 0.11417072 0.86860573 10066329
-0.50265908 -0.40153089 0.90074992 2039583
-0.47249866 -0.40508217 0.91679275 11579568
-0.50294614 -0.37456724 0.90074313 2039583
-0.47706854 -0.3749865 0.910294 10329501
-0.50314844 -0.32464698 0.90080804 2039583
-0.47711754 -0.32499892 0.91040337 10263708
-0.50345874 -0.27505496 0.90084612 2039583
-0.47715938 -0.27498913 0.91051179 10197915
-0.50373286 -0.22456396 0.90089542 2039583
-0.47722349 -0.22497967 0.91057932 9934743
-0.50392604 -0.1749144 0.90096158 2039583
-0.47727278 -0.17499484 0.91069341 3158064
-0.50428468 -0.12504461 0.90098912 2039583
-0.47732103 -0.12502 0.91079307 2039583
-0.5045141 -0.074569322 0.90104848 2039583
-0.47734174 -0.075024083 0.91089952 2039583
-0.50472546 -0.025011964 0.90111059 2039583
-0.47746098 -0.025007579 0.91098261 2039583
-0.50509697 0.025084976 0.90113568 2039583
-0.47751173 0.025000846 0.91108143 2039583
-0.50529993 0.075430728 0.90120101 2039583
-0.47749659 0.075002879 0.91119546 2565927
-0.50553733 0.10713033 0.90119445 3750201
-0.4756968 0.10789882 0.91204393 9211020
-0.42504185 0.11386729 0.92225528 10197915
-0.37493244 0.11390871 0.92264932 10197915
-0.32492805 0.11395018 0.92300147 10197915
-0.27498409 0.11399165 0.92333221 10197915
-0.22672506 0.11403348 0.92274922 10066329
-0.19938934 0.11409709 0.90296793 10066329
-0.47488678 -0.41653076 0.97543663 11711154
-0.47459602 -0.37499294 0.97411537 11711154
-0.47465104 -0.32498232 0.97424799 11711154
-0.4746868 -0.27493724 0.97429407 11711154
-0.47474733 -0.22493112 0.97444755 11579568
-0.47478959 -0.17499211 0.97452343 3947580
-0.47483104 -0.1249922 0.97459674 2039583
-0.47488278 -0.074982375 0.97471368 2039583
-0.47493336 -0.0249885 0.97482359 2039583
-0.47498035 0.024991801 0.97492117 2039583
-0.47502398 0.075005546 0.97500515 3618615
-0.46913269 0.11012636 0.97537929 10132122
-0.42504117 0.11376172 0.97369641 10197915
-0.37500438 0.11380304 0.97411472 10197915
-0.32497951 0.11384442 0.97449565 10197915
-0.27502117 0.11388592 0.97479516 10197915
-0.23232047 0.11392452 0.97356075 10132122
-0.48650408 -0.41769776 1.0247142 11711154
-0.48653591 -0.37497413 1.0247601 11711154
-0.48659134 -0.32499969 1.0248924 11711154
-0.48663419 -0.27507645 1.0249721 11711154
-0.48669121 -0.22505108 1.0251104 10658466
-0.4867371 -0.17498644 1.0251999 3947580
-0.48678586 -0.12500273 1.025303 2039583
-0.48682594 -0.075039335 1.0253706 2039583
-0.4868848 -0.025036063 1.0255169 2039583
-0.48693326 0.025039382 1.0256189 2039583
-0.48697487 0.075001724 1.0256928 3750201
-0.47704545 0.11043034 1.0250034 10132122
-0.425019 0.11365905 1.0237308 10197915
-0.37504083 0.11370055 1.0240502 10197915
-0.32502547 0.11374187 1.0244555 10197915
-0.27497503 0.11378334 1.0248173 10197915
-0.23779692 0.11381733 1.0235208 10132122
-0.502105 -0.41777113 1.0908873 11711154
-0.49607956 -0.41779298 1.0653306 11711154
-0.50214565 -0.37504935 1.0909715 11711154
-0.49611747 -0.37495863 1.0654017 11711154
-0.5021922 -0.32500261 1.0910653 11711154
-0.49616447 -0.32500377 1.0654982 11711154
-0.50225556 -0.27494502 1.0912319 11711154
-0.49622053 -0.27520511 1.0656331 11711154
-0.50228542 -0.22497116 1.0912534 9342606
-0.49627122 -0.22517386 1.065745 9868950
-0.50234216 -0.17498396 1.0913923 4079166
-0.49631387 -0.1750246 1.0658218 4013373
-0.50239569 -0.124988 1.0915147 2039583
-0.49636921 -0.12502971 1.0659523 2039583
-0.50244874 -0.07498201 1.0916371 2039583
-0.4964146 -0.075025164 1.0660418 2039583
-0.50249547 -0.024966711 1.0917315 2039583
-0.49646756 -0.025011143 1.0661639 2039583
-0.5025022 0.024471674 1.0916578 2039583
-0.49651596 0.024959149 1.0662661 2039583
-0.50212491 0.074957334 1.0899543 3881787
-0.4965634 0.074993208 1.0663636 3815994
-0.50210637 0.10757907 1.0906394 10066329
-0.47985202 0.11182966 1.0726293 10132122
-0.42489728 0.1135627 1.0707409 10197915
-0.37505478 0.1136038 1.0711759 10197915
-0.32509995 0.11364517 1.0715557 10197915
-0.27503717 0.11368653 1.0719686 10197915
-0.24285017 0.11372 1.0688745 10132122
-0.50498164 -0.41815215 1.1030903 11711154
-0.50502485 -0.3752262 1.1031842 11711154
-0.50507522 -0.3249847 1.1032946 11711154
-0.50512576 -0.27473307 1.1034046 11711154
-0.50995052 -0.21871226 1.1237519 7631988
-0.51016754 -0.17501308 1.1245832 4144959
-0.51023191 -0.12500343 1.1247525 2039583
-0.51026839 -0.074983925 1.124805 2039583
-0.51032978 -0.024997611 1.1249605 2039583
-0.51032126 0.025226371 1.1248206 2039583
-0.50992042 0.074984565 1.1230186 3947580
-0.50887579 0.10835126 1.1247945 10066329
-0.47418213 0.11340863 1.1255826 10197915
-0.42499527 0.11345673 1.1223631 10197915
-0.37514678 0.11349795 1.1227252 10197915
-0.32518199 0.11353906 1.123221 10197915
-0.27532831 0.11358082 1.1233691 10197915
-0.24737611 0.11363268 1.1095761 10197915
-0.52173162 -0.21782307 1.1737216 6513507
-0.52174801 -0.17496206 1.1737013 4276545
-0.52179706 -0.12497874 1.1738086 2039583
-0.52185142 -0.074985683 1.1739347 2039583
-0.52190882 -0.02498352 1.1740746 2039583
-0.52196038 0.02498683 1.1741915 2039583
-0.52200681 0.075008824 1.1742849 4079166
-0.51735622 0.10950025 1.1747859 10132122
-0.4750202 0.11330894 1.1738065 10197915
-0.42498925 0.1133501 1.1743096 10197915
-0.37511411 0.11339118 1.1747751 10197915
-0.32510769 0.11343278 1.17505 10197915
-0.27942035 0.11347256 1.1744465 10197915
-0.53373605 -0.2179579 1.224641 6513507
-0.53377724 -0.17500067 1.2247254 4408131
-0.53382421 -0.12503454 1.2248219 2039583
-0.53389281 -0.07505846 1.2250111 2039583
-0.53394127 -0.025022518 1.2251117 2039583
-0.53399426 0.025025843 1.2252336 2039583
-0.53404623 0.075031035 1.2253504 4210752
-0.52452934 0.11029702 1.2260202 10132122
-0.47494522 0.11320314 1.2253845 10197915
-0.42494443 0.11324459 1.2257423 10197915
-0.37480772 0.11328591 1.2261937 10197915
-0.32483482 0.11332717 1.2266353 10197915
-0.28509173 0.1133633 1.2253654 10197915
-0.55083352 -0.21818358 1.2971617 6513507
-0.54493576 -0.2179796 1.2721453 6513507
-0.55088043 -0.17520645 1.2972721 4605510
-0.54495734 -0.17504288 1.2721478 4539717
-0.55093515 -0.12523656 1.297401 2039583
-0.54501605 -0.1249207 1.2722955 2039583
-0.55098993 -0.075256728 1.2975297 2039583
-0.54506689 -0.074986234 1.272406 2039583
-0.5510444 -0.025266983 1.2976584 2039583
-0.54512435 -0.025042156 1.2725477 2039583
-0.55109918 0.024732664 1.2977873 2039583
-0.54517865 0.02504546 1.2726737 2039583
-0.5511539 0.074742265 1.2979163 4342338
-0.54522938 0.075009413 1.2727847 4276545
-0.55118865 0.10647356 1.2979978 10197915
-0.53115612 0.11066442 1.2749109 10132122
-0.47512287 0.11309986 1.2756416 10197915
-0.42493933 0.11314107 1.2761989 10197915
-0.37471783 0.11318249 1.2766351 10197915
-0.32485405 0.11322374 1.2770351 10197915
-0.29058266 0.1132557 1.275539 10197915
-0.55697459 -0.21812148 1.3232098 6513507
-0.55704361 -0.17496565 1.3234136 4605510
-0.55709714 -0.12501703 1.3235368 2039583
-0.55714899 -0.074990243 1.3236532 2039583
-0.55720782 -0.024953915 1.3237998 2039583
-0.55726296 0.024957206 1.3239305 2039583
-0.55731463 0.075013392 1.3240477 4408131
-0.5566504 0.10793851 1.3254186 10132122
-0.52490366 0.11295972 1.3234985 10197915
-0.47490361 0.11300059 1.3241167 10197915
-0.42500195 0.11304173 1.3245639 10197915
-0.37492976 0.11308313 1.3249801 10197915
-0.32481834 0.11312428 1.3255303 10197915
-0.29543337 0.11316013 1.3201147 10197915
-0.56856745 -0.2179763 1.3723818 6513507
-0.56861818 -0.17499346 1.3725079 4737096
-0.56869173 -0.12496688 1.3727163 2039583
-0.56873512 -0.074930735 1.3727977 2039583
-0.56878942 -0.024956601 1.3729239 2039583
-0.56884569 0.024959914 1.3730607 2039583
-0.56891072 0.074882507 1.3732327 4473924
-0.56508636 0.10912313 1.375455 10197915
-0.52493376 0.11285254 1.3756984 10197915
-0.47494844 0.11289381 1.3761224 10197915
-0.42493075 0.11293443 1.3769326 10197915
-0.37487403 0.11297603 1.3772031 10197915
-0.32681894 0.11301742 1.3767769 10197915
-0.29985574 0.11307881 1.3579469 10197915
-0.58109307 -0.21819049 1.4255106 6513507
-0.58109945 -0.17495029 1.4254491 4868682
-0.58040446 -0.12522598 1.4223981 2039583
-0.58041286 -0.075002633 1.4223307 2039583
-0.58046502 -0.02500386 1.4224494 2039583
-0.58052284 0.025007173 1.4225899 2039583
-0.58058596 0.075025804 1.422754 4671303
-0.57294369 0.10961817 1.4242146 10197915
-0.52499133 0.11275163 1.4248929 10197915
-0.47498846 0.11279269 1.4254122 10197915
-0.42494598 0.11283385 1.425932 10197915
-0.37487021 0.112875 1.4264522 10197915
-0.33212993 0.11291181 1.4260393 10197915
-0.59278667 -0.21826963 1.4751112 6513507
-0.59283394 -0.1749987 1.4752226 5000268
-0.5920704 -0.12474336 1.4718809 2039583
-0.59209919 -0.075001113 1.4718997 2039583
-0.59214622 -0.025004262 1.4719949 2039583
-0.59220499 0.025007579 1.4721408 2039583
-0.59227568 0.075024337 1.472339 4737096
-0.57969803 0.11002482 1.4710419 10197915
-0.52493006 0.11265901 1.4700248 10197915
-0.4747628 0.11270048 1.4704388 10197915
-0.42496157 0.11274141 1.4709693 10197915
-0.37512726 0.11278233 1.4715062 10197915
-0.33706871 0.11281633 1.4705622 10197915
-0.60534847 -0.21814646 1.5283921 4144959
-0.59896547 -0.21831432 1.5013196 6579300
-0.60542142 -0.17510305 1.5286145 3552822
-0.59901655 -0.17541257 1.5014474 5131854
-0.60549736 -0.12508599 1.5288317 2039583
-0.59907651 -0.12504046 1.5015978 2039583
-0.60554171 -0.075058796 1.5289179 2039583
-0.59913641 -0.074658334 1.501748 2039583
-0.6055941 -0.025022859 1.5290356 2039583
-0.5991956 -0.024888296 1.5018963 2039583
-0.60565424 0.025026182 1.5291877 2039583
-0.59925485 0.02489158 1.5020449 2039583
-0.60572261 0.075081989 1.5293736 4868682
-0.59931409 0.074681312 1.5021935 4802889
-0.6054256 0.1070794 1.5295047 10197915
-0.57665741 0.11199947 1.5161277 10197915
-0.52486396 0.11256067 1.517982 10197915
-0.47493821 0.11260223 1.5182574 10197915
-0.42498052 0.11264264 1.519087 10197915
-0.37498286 0.11268394 1.5195006 10197915
-0.34224722 0.11271616 1.5172477 10197915
-0.61690968 -0.21848692 1.5774313 2039583
-0.61696899 -0.17493437 1.5775945 2039583
-0.61703491 -0.12494919 1.5777696 2039583
-0.61706102 -0.075064994 1.5777782 2039583
-0.61713564 -0.025061181 1.5779911 2039583
-0.61719692 0.025064498 1.5781485 2039583
-0.61726642 0.074978851 1.5783389 5000268
-0.61386979 0.10841013 1.5758756 10197915
-0.57506782 0.11241449 1.5685962 10197915
-0.52500832 0.11245583 1.5690163 10197915
-0.47513017 0.11249672 1.5695884 10197915
-0.42499584 0.11253783 1.5701609 10197915
-0.37504488 0.11257876 1.5707324 10197915
-0.34692651 0.11262565 1.5594336 10197915
-0.62811965 -0.21853478 1.6249808 3355443
-0.62821984 -0.17506005 1.6253165 3289650
-0.62826008 -0.12497804 1.6253828 3092271
-0.6283105 -0.075021014 1.6254942 3092271
-0.62838477 -0.025055559 1.625705 3092271
-0.62844723 0.025058892 1.6258677 3092271
-0.62849766 0.075044207 1.625978 6250335
-0.62009501 0.10967089 1.6253213 10197915
-0.57496047 0.11230225 1.6233419 10197915
-0.52516359 0.11234338 1.6237632 10197915
-0.47488582 0.11238455 1.6243583 10197915
-0.42478961 0.11242592 1.6247784 10197915
-0.37900507 0.11246523 1.6244408 10197915
-0.64005774 -0.2183347 1.6756167 6513507
-0.63993007 -0.17580067 1.674987 6513507
-0.63908696 -0.12504724 1.6713071 6513507
-0.63913757 -0.075063288 1.671418 6513507
-0.63921374 -0.025071006 1.6716387 6513507
-0.63927752 0.02507434 1.671805 6513507
-0.63932812 0.075086482 1.6719165 9605778
-0.62840289 0.10950736 1.6719882 10197915
-0.57520729 0.11220275 1.6717273 10197915
-0.52518964 0.1122434 1.6724744 10197915
-0.475474 0.11228405 1.6730802 10197915
-0.42537722 0.11232533 1.6735537 10197915
-0.38450825 0.11235987 1.6735208 10197915
-0.65277171 -0.21831083 1.7295442 6513507
-0.6480788 -0.21815085 1.7096384 6513507
-0.65285897 -0.17509733 1.7298257 6513507
-0.64766526 -0.17101052 1.7077881 6513507
-0.652924 -0.12494453 1.7299979 6513507
-0.64703989 -0.12502845 1.7050399 6513507
-0.65296566 -0.075022444 1.730072 6513507
-0.6471042 -0.074883066 1.7052095 6513507
-0.6530537 -0.025089666 1.730341 6513507
-0.64716864 -0.024727732 1.7053792 6513507
-0.65311855 0.025093004 1.7305135 6513507
-0.64723235 0.024730975 1.7055473 6513507
-0.65316021 0.075045615 1.7305878 9474192
-0.64729691 0.074906185 1.7057173 9474192
-0.65311301 0.10706814 1.7322261 10197915
-0.62736726 0.1112487 1.720861 10197915
-0.5747633 0.1120967 1.723599 10197915
-0.52497375 0.1121382 1.7238193 10197915
-0.47515059 0.11217809 1.7248508 10197915
-0.42504939 0.11221948 1.7252809 10197915
-0.38975456 0.11225537 1.7222828 10197915
-0.66259199 -0.21865429 1.7711995 6513507
-0.66260612 -0.17493707 1.7711689 6513507
-0.66271549 -0.12505138 1.7715296 6513507
-0.66270798 -0.075008526 1.7713954 6513507
-0.66284716 -0.024957951 1.7718829 6513507
-0.66291291 0.024961259 1.7720575 6513507
-0.66290575 0.07503172 1.7719232 9342606
-0.66121262 0.10791672 1.7745236 10197915
-0.62526202 0.111943 1.7777438 10197915
-0.57538927 0.1119837 1.7783905 10197915
-0.52511489 0.11202513 1.7788782 10197915
-0.47480494 0.11206584 1.7796948 10197915
-0.42482284 0.11210669 1.7803431 10197915
-0.39573273 0.11213975 1.7761819 10197915
-0.67544204 -0.21874413 1.8257042 6513507
-0.67549574 -0.1750423 1.8258415 6513507
-0.67559481 -0.12497786 1.8261596 6513507
-0.6756137 -0.074903078 1.826135 6513507
-0.67574525 -0.024971826 1.8265898 6513507
-0.67581218 0.024975127 1.8267719 6513507
-0.67581469 0.074926212 1.8266786 9276813
-0.66975236 0.10860609 1.8260162 10197915
-0.62461132 0.1118485 1.8240696 10197915
-0.57456392 0.11188897 1.8249137 10197915
-0.52485561 0.11192953 1.8255751 10197915
-0.47474101 0.11197075 1.8260636 10197915
-0.42601827 0.11201175 1.8261197 10197915
-0.68777579 -0.21861689 1.878019 6513507
-0.68780309 -0.17486967 1.8780441 6513507
-0.68785959 -0.12489197 1.8781812 6513507
-0.68793952 -0.074904554 1.8784174 6513507
-0.68804038 -0.024906483 1.8787417 6513507
-0.6881085 0.024909763 1.8789279 6513507
-0.68814433 0.07492765 1.8789766 9145227
-0.67612189 0.10943779 1.875694 10197915
-0.62508595 0.1117476 1.8730404 10197915
-0.57524079 0.11178784 1.8739152 10197915
-0.52535999 0.1118289 1.874403 10197915
-0.47544387 0.11186919 1.8752786 10197915
-0.43197283 0.11190679 1.8748231 10197915
-0.7022779 -0.21855584 1.9395314 6513507
-0.69632626 -0.21849656 1.9142864 6513507
-0.70233852 -0.17518044 1.9396986 6513507
-0.6964407 -0.17489924 1.9146819 6513507
-0.70238459 -0.12496944 1.939791 6513507
-0.69646341 -0.12493787 1.9146754 6513507
-0.70247829 -0.074748717 1.9400849 6513507
-0.69657916 -0.074967116 1.9150621 6513507
-0.70254821 -0.024918437 1.9402777 6513507
-0.69660169 -0.024996214 1.9150555 6513507
-0.70261753 0.024921725 1.9404694 6513507
-0.69667089 0.024999524 1.9152455 6513507
-0.70268703 0.074771747 1.9406615 8947848
-0.6967864 0.074990273 1.9156327 9013641
-0.70250428 0.1060976 1.9401556 10197915
-0.67826468 0.11047097 1.9228009 10197915
-0.62519175 0.11164102 1.9249295 10197915
-0.5751605 0.11168179 1.9256322 10197915
-0.52469772 0.11172331 1.9261301 10197915
-0.47499403 0.11176335 1.9270383 10197915
-0.43742576 0.11179736 1.9259033 10197915
-0.71140772 -0.21843106 1.9782566 6513507
-0.7115131 -0.17500874 1.978613 6513507
-0.71163452 -0.12501873 1.979026 6513507
-0.71165419 -0.075018331 1.9790056 6513507
-0.71169937 -0.025010969 1.9790938 6513507
-0.71176988 0.025014279 1.9792906 6513507
-0.71186644 0.075041518 1.9795959 8882055
-0.71001256 0.10768487 1.9806838 10197915
-0.67507553 0.11148882 1.9786104 10197915
-0.62489343 0.11152918 1.9795651 10197915
-0.57507569 0.11156971 1.9802846 10197915
-0.52522141 0.11161026 1.9810048 10197915
-0.47493035 0.11165165 1.9814999 10197915
-0.44305924 0.11168432 1.9786752 10197915
-0.72264951 -0.2190554 2.0259409 6513507
-0.72267616 -0.17486727 2.0259628 6513507
-0.72278452 -0.12507822 2.0263197 6513507
-0.72281897 -0.075278945 2.0263631 6513507
-0.72292775 -0.025188962 2.026721 6513507
-0.72299999 0.025192332 2.0269241 6513507
-0.72303516 0.075302303 2.026969 8816262
-0.71831697 0.10800628 2.0248847 10197915
-0.67510086 0.11140025 2.0217721 10197915
-0.62507313 0.11144094 2.0225101 10197915
-0.57500893 0.11148164 2.0232484 10197915
-0.52490819 0.11152235 2.023988 10197915
-0.47477081 0.11156311 2.0247276 10197915
-0.44801736 0.11158484 2.0251219 10197915
-0.73439825 -0.21927676 2.0757751 6513507
-0.73441863 -0.17522146 2.0757709 6513507
-0.73447567 -0.12514053 2.0759103 6513507
-0.73456454 -0.07504987 2.0761838 6513507
-0.73468196 -0.024948306 2.0765762 6513507
-0.73475456 0.024951613 2.0767817 6513507
-0.73473853 0.074858136 2.0766108 8618883
-0.72410446 0.10888654 2.0718198 10197915
-0.67512143 0.11130831 2.0665691 10197915
-0.62526578 0.11134824 2.0675807 10197915
-0.57536173 0.11138932 2.0680733 10197915
-0.52500564 0.11142913 2.0693524 10197915
-0.47789901 0.11147103 2.0682991 10197915
-0.75032926 -0.21932679 2.1433485 6513507
-0.74490184 -0.21872464 2.1203258 6513507
-0.75039548 -0.17494382 2.1435373 6513507
-0.74496669 -0.1748184 2.1205106 6513507
-0.75047082 -0.12433798 2.1437528 6513507
-0.74500859 -0.12519674 2.1205862 6513507
-0.75054502 -0.074609987 2.1439645 6513507
-0.74514556 -0.075121827 2.1210637 6513507
-0.75061911 -0.024872178 2.1441767 6513507
-0.745157 -0.025048906 2.1210082 6513507
-0.75069338 0.024875453 2.1443887 6513507
-0.74523091 0.025052229 2.1212189 6513507
-0.75076759 0.074632928 2.1446004 8487297
-0.74536818 0.075145096 2.1216967 8553090
-0.75081402 0.10573597 2.1447332 10197915
-0.72780466 0.11009233 2.1285729 10197915
-0.67500991 0.11117826 2.1299696 10197915
-0.62450576 0.11121984 2.1304688 10197915
-0.57484066 0.11125958 2.1315262 10197915
-0.5251404 0.11130048 2.1320131 10197915
-0.48487917 0.11133646 2.1310079 10197915
-0.75778151 -0.21894816 2.174957 6513507
-0.75780189 -0.17511289 2.1749525 6513507
-0.75792277 -0.1249653 2.1753623 6513507
-0.75795192 -0.075107642 2.1753831 6513507
-0.75807315 -0.025238922 2.1757936 6513507
-0.75814909 0.025242301 2.176012 6513507
-0.75817829 0.075130858 2.1760328 8487297
-0.75730044 0.10663846 2.1768086 10197915
-0.72488952 0.11103562 2.178988 10197915
-0.67548305 0.11107565 2.1797738 10197915
-0.62514144 0.11111647 2.1805744 10197915
-0.574763 0.11115731 2.1813757 10197915
-0.5243476 0.11119816 2.182178 10197915
-0.49011716 0.1112259 2.1827219 10197915
-0.95961988 -0.42778569 2.2313433 6513507
-0.92457271 -0.41948843 2.239625 6513507
-0.89029813 -0.41920045 2.2477064 4276545
-0.91464496 -0.38614458 2.2420413 6513507
-0.89060658 -0.37651384 2.2477291 4210752
-0.88560307 -0.34660107 2.2489765 2171169
-0.76928711 -0.21896972 2.2237589 6513507
-0.76941824 -0.17507428 2.224225 6513507
-0.76949495 -0.12502022 2.2244475 6513507
-0.7695235 -0.074959055 2.2244654 6513507
-0.76964808 -0.024886716 2.22489 6513507
-0.76972437 0.024889993 2.2251103 6513507
-0.76975268 0.074982211 2.2251277 8289918
-0.76463562 0.10861926 2.2306731 10197915
-0.72519296 0.11092846 2.2311051 10197915
-0.67951918 0.11098212 2.2237234 10197915
-0.62497413 0.11104561 2.2152035 10197915
-0.57470948 0.11108632 2.2160156 10197915
-0.52440804 0.11112708 2.2168286 10197915
-0.49421087 0.11115152 2.2173164 10197915
-0.86469388 -0.41908014 2.2537432 9408399
-0.82504153 -0.41909343 2.2630918 11711154
-0.78992051 -0.41931325 2.2729204 11711154
-0.86516303 -0.37454212 2.2537329 5460819
-0.82483119 -0.3748354 2.2632413 7566195
-0.78994381 -0.37547174 2.2731113 7631988
-0.86221415 -0.33465132 2.2545173 5329233
-0.82420874 -0.3253133 2.2634983 6513507
-0.78926539 -0.32478645 2.2734361 6513507
-0.81352943 -0.2856364 2.2661064 6513507
-0.7892006 -0.27540666 2.2736642 6513507
-0.78266883 -0.22855777 2.2760715 6513507
-0.78147185 -0.17502709 2.2753515 6513507
-0.78154975 -0.12507592 2.2755792 6513507
-0.78173137 -0.07511659 2.2762468 6513507
-0.78170478 -0.025149908 2.276031 6513507
-0.78178298 0.025153261 2.2762578 6513507
-0.78196484 0.075139828 2.2769263 8224125
-0.77412152 0.10812811 2.2807882 10197915
-0.72456425 0.11081596 2.2861986 10197915
-0.67142951 0.11088886 2.2724946 10197915
-0.6251756 0.11093419 2.2693989 10197915
-0.57509899 0.11097543 2.2698803 10197915
-0.52632648 0.11101642 2.269949 10197915
-0.49843571 0.11107463 2.2530222 10197915
-0.79374397 -0.41891825 2.3279076 11645361
-0.7938869 -0.37490699 2.3284228 6710886
-0.79396588 -0.32477823 2.328655 6513507
-0.79398733 -0.27529007 2.3286433 6513507
-0.7940675 -0.22545633 2.3288817 6513507
-0.79420155 -0.17498483 2.3293459 6513507
-0.79428053 -0.12481619 2.3295782 6513507
-0.79430306 -0.074962564 2.3295703 6513507
-0.79443806 -0.025097579 2.3300395 6513507
-0.7945174 0.025100917 2.3302724 6513507
-0.79453969 0.074985683 2.3302641 8026746
-0.78187448 0.10831992 2.326622 10197915
-0.72508663 0.11073726 2.3243067 10197915
-0.67430121 0.1107783 2.3251688 10197915
-0.62443727 0.11081859 2.326015 10197915
-0.57453698 0.11085893 2.3268614 10197915
-0.53132558 0.11089388 2.3275945 10197915
-0.80482799 -0.4191342 2.374923 10790052
-0.80489886 -0.37489128 2.3751316 6513507
-0.80493426 -0.32523736 2.3751793 6513507
-0.80510283 -0.27506584 2.3757904 6513507
-0.8050943 -0.22491322 2.3756516 6513507
-0.80517435 -0.17472081 2.3758874 6513507
-0.80529803 -0.12502812 2.3763094 6513507
-0.80537826 -0.074827239 2.3765464 6513507
-0.80545837 -0.024616426 2.3767838 6513507
-0.80553746 0.024619639 2.3770161 6513507
-0.80561787 0.074850366 2.3772535 7960953
-0.80529386 0.10586064 2.376034 10197915
-0.77528864 0.11061588 2.3628531 10197915
-0.72465348 0.11065679 2.3637266 10197915
-0.67495608 0.11069694 2.364584 10197915
-0.62522215 0.1107371 2.365442 10197915
-0.574476 0.11077811 2.3663177 10197915
-0.53541607 0.11080964 2.3669915 10197915
-0.81632107 -0.41936183 2.4236724 9803157
-0.81639278 -0.37521422 2.4238851 6513507
-0.81647438 -0.32503733 2.4241273 6513507
-0.81649452 -0.27452412 2.4241097 6513507
-0.81657225 -0.2246546 2.4243367 6513507
-0.81671643 -0.17512673 2.4248459 6513507
-0.81679803 -0.12490989 2.4250884 6513507
-0.81681556 -0.075021513 2.4250591 6513507
-0.8169601 -0.025121689 2.4255693 6513507
-0.81704146 0.02512503 2.4258108 6513507
-0.8170591 0.075044692 2.4257827 7829367
-0.81317151 0.107831 2.4283729 10197915
-0.77542931 0.11048882 2.4246981 10197915
-0.72497666 0.11053038 2.4251773 10197915
-0.67447799 0.1105703 2.4264855 8947848
-0.62494963 0.11061111 2.4269316 7895160
-0.57538152 0.11065023 2.4282398 8553090
-0.54210591 0.11069154 2.4217856 9276813
-0.8258211 -0.41954541 2.4639676 8882055
-0.82589477 -0.37466377 2.4641874 6513507
-0.82597667 -0.32467273 2.464432 6513507
-0.82605857 -0.27467173 2.4646761 6513507
-0.82614011 -0.22466069 2.4649196 6513507
-0.826222 -0.17463982 2.4651639 6513507
-0.8263042 -0.12460911 2.465409 6513507
-0.82638627 -0.074568421 2.4656541 6513507
-0.82646841 -0.024517827 2.4658995 6513507
-0.82654905 0.02452101 2.46614 6513507
-0.82663125 0.074591383 2.4663851 7697781
-0.81899536 0.10911519 2.4834492 10197915
-0.77558273 0.11035574 2.4894803 10197915
-0.72531211 0.11039626 2.4903944 10197915
-0.67500466 0.1104368 2.4913092 7434609
-0.62568802 0.11047652 2.4922054 6513507
-0.57530719 0.11051713 2.4931214 6579300
-0.82405305 0.11022387 2.5338671 10197915
-0.77499229 0.11026335 2.5347757 10197915
-0.72485155 0.11030372 2.5357037 10197915
-0.67467403 0.11034414 2.5366325 6513507
-0.62445968 0.11038456 2.5375619 6513507
-0.57944542 0.11042082 2.5383952 6579300
-0.85728902 0.11010072 2.5801833 10197915
-0.82541156 0.11012635 2.5807841 10197915
-0.77544278 0.11016657 2.5817263 10197915
-0.7254374 0.11020681 2.582669 9276813
-0.67539549 0.11024705 2.5836124 6513507
-0.62531692 0.11028733 2.5845566 6513507
-0.58480221 0.11031992 2.5853207 6513507
-0.60455292 -0.41970789 2.6245663 6513507
-0.59009576 -0.42025483 2.6279869 6513507
-0.60457498 -0.37514102 2.6246612 6513507
-0.59011704 -0.37562999 2.6280825 6513507
-0.60459942 -0.32513544 2.624768 6513507
-0.59014088 -0.32555899 2.628191 6513507
-0.60462397 -0.27512574 2.6248746 6513507
-0.59016502 -0.27548429 2.6282973 6513507
-0.60464877 -0.22511205 2.6249812 6513507
-0.59018922 -0.22540545 2.628401 6513507
-0.60467327 -0.17509422 2.6250885 6513507
-0.590213 -0.17532243 2.6285086 6513507
-0.60469782 -0.12507236 2.6251948 6513507
-0.59023732 -0.12523535 2.628619 6513507
-0.6047225 -0.075046375 2.6253023 6513507
-0.5902614 -0.075144202 2.6287246 6513507
-0.60474706 -0.025016366 2.6254089 6513507
-0.5902853 -0.025048979 2.6288311 6513507
-0.60477173 0.025017725 2.6255155 6513507
-0.59030926 0.025050336 2.6289394 6513507
-0.60479635 0.07505589 2.6256225 6513507
-0.59033346 0.075153708 2.6290438 6513507
-0.86471164 0.10999488 2.6287465 10197915
-0.82465684 0.11002707 2.6295159 10197915
-0.77482748 0.11006713 2.6304729 10197915
-0.72496176 0.11010721 2.6314309 8289918
-0.6750598 0.11014732 2.6323898 6513507
-0.61700422 0.10772659 2.6292672 6513507
-0.59034801 0.10565329 2.6291103 6513507
-0.62720805 0.083848476 2.6986489 6513507
-0.87352055 0.10988396 2.6791477 10197915
-0.82497555 0.10992294 2.6800983 10197915
-0.77529216 0.10996283 2.681071 10197915
-0.72557217 0.11000276 2.6820447 7303023
-0.67471021 0.11004361 2.6830404 6513507
-0.63368905 0.10881214 2.6870677 6513507
-0.63704991 -0.42016202 2.7409945 6513507
-0.63615263 -0.37421381 2.7371333 6513507
-0.63519067 -0.32496077 2.7329953 6513507
-0.63423145 -0.27585757 2.7288682 6513507
-0.63325244 -0.22576481 2.7246561 6513507
-0.63227677 -0.17582665 2.7204576 6513507
-0.63128203 -0.12491302 2.7161779 6513507
-0.63029045 -0.07415814 2.7119112 6513507
-0.62932396 -0.024685668 2.7077532 6513507
-0.62836033 0.024635304 2.7036068 6513507
-0.62770498 0.05818218 2.7007871 6513507
-0.90740901 0.109749 2.7310297 10197915
-0.87480438 0.10977515 2.7316804 10197915
-0.82418287 0.10981577 2.732691 10197915
-0.77464962 0.10985549 2.7336798 9868950
-0.72508073 0.10989526 2.7346697 6513507
-0.67547578 0.10993504 2.7356596 6513507
-0.64389175 0.1099604 2.7362902 6513507
-0.9162727 0.10962968 2.7854936 10197915
-0.87499195 0.10966276 2.7863343 10197915
-0.82450485 0.10970324 2.7873621 10197915
-0.7751292 0.1097428 2.7883677 8750469
-0.72571784 0.10978239 2.7893736 6513507
-0.67512053 0.10982294 2.7904038 6513507
-0.95005596 0.109486 2.8416674 10197915
-0.92432839 0.10950661 2.8422019 10197915
-0.87518811 0.10954593 2.8432231 10197915
-0.82484108 0.10958625 2.8442693 10197915
-0.77445728 0.1096266 2.8453162 7566195
-0.72520924 0.109666 2.8463397 6513507
-0.6817953 0.10970076 2.8472414 6513507
-0.96017212 0.1093563 2.9006815 10197915
-0.92436135 0.10938493 2.9014409 10197915
-0.87419647 0.10942505 2.9025052 10197915
-0.8239947 0.10946519 2.9035697 10000536
-0.77495301 0.10950442 2.9046102 6513507
-0.72587562 0.10954365 2.9056511 6513507
-0.68874645 0.10957335 2.9064388 6513507
-0.97071815 0.10922125 2.9622023 10197915
-0.92439687 0.10925824 2.9632061 10197915
-0.87438411 0.10929819 2.9642894 10197915
-0.8255558 0.10933719 2.9653473 8882055
-0.77547055 0.10937721 2.9664319 6513507
-0.72534877 0.10941724 2.9675176 6513507
-0.69599354 0.10944068 2.9681535 6513507
-1.0066142 0.10906032 3.0258346 10197915
-0.97549552 0.10908516 3.0265229 10197915
-0.92567861 0.1091249 3.0276256 10197915
-0.87582529 0.10916468 3.0287292 10197915
-0.82593572 0.10920447 3.0298333 7566195
-0.77600968 0.1092443 3.0309384 6513507
-0.72854644 0.10928217 3.0319889 6513507
-1.017382 0.10891377 3.0928686 10197915
-0.97539669 0.10894722 3.0938187 10197915
-0.92574501 0.10898679 3.0949423 10197915
-0.87478292 0.1090274 3.0960951 9803157
-0.82505846 0.10906702 3.0972207 6513507
-0.77529758 0.10910666 3.098346 6513507
-0.73571932 0.10913818 3.0992415 6513507
-0.71186495 -0.62063533 3.1125305 6513507
-0.69342339 -0.61982048 3.1168962 6513507
-0.71191609 -0.57487893 3.1126215 6513507
-0.69344485 -0.57464296 3.1169927 6513507
-0.71258372 -0.53348058 3.112556 6513507
-0.69346339 -0.5359174 3.1170766 6513507
-1.0546442 0.10873973 3.1623344 10197915
-1.0247343 0.10876353 3.1630263 10197915
-0.97399008 0.10880391 3.1642005 10197915
-0.92451078 0.10884327 3.1653454 10197915
-0.87499541 0.10888268 3.1664913 8421504
-0.82544434 0.1089221 3.1676381 6513507
-0.77585727 0.10896156 3.1687853 6513507
-0.74452215 0.1089865 3.1695106 6513507
-1.0670224 0.10857899 3.2356265 7697781
-1.025776 0.10861176 3.236603 8355711
-0.97518337 0.10865197 3.2378008 9079434
-0.92455304 0.10869219 3.2390001 9605778
-0.87521923 0.1087314 3.2401681 6908265
-0.82584953 0.10877062 3.2413373 6513507
-0.77778018 0.10880882 3.2424753 6513507
-1.1044906 0.10839099 3.3117974 6579300
-1.0745395 0.10841476 3.3125231 6579300
-1.0241408 0.10845473 3.3137448 6579300
-0.97506851 0.10849369 3.3149347 6579300
-0.92459589 0.10853373 3.3161583 6513507
-0.87408632 0.1085738 3.3173828 6513507
-0.82490611 0.10861282 3.3185754 6513507
-0.78614688 0.1084808 3.3222501 6513507
-0.79272676 -0.36186802 3.3986993 6513507
-0.79182613 -0.32489371 3.3948379 6513507
-0.79061699 -0.27524802 3.3896534 6513507
-0.78937173 -0.22433956 3.3843145 6513507
-0.78816903 -0.17499895 3.3791587 6513507
-0.78697073 -0.12581004 3.3740206 6513507
-0.78574198 -0.075370759 3.3687527 6513507
-0.78451705 -0.025088746 3.3635011 6513507
-0.78329599 0.025036732 3.3582659 6513507
-0.78207856 0.075006418 3.3530467 6513507
-1.117285 0.1082151 3.3923035 6579300
-1.0740571 0.10824934 3.3933773 6513507
-1.0238231 0.10828915 3.3946252 6513507
-0.97494954 0.10832787 3.395839 6579300
-0.92604041 0.10836662 3.3970537 6513507
-0.87569767 0.10840651 3.3983035 6513507
-0.82951808 0.10844309 3.399451 6513507
-0.78140378 0.10270666 3.3501537 6513507
-0.79328197 -0.38466525 3.4010794 6513507
-0.80431682 0.10846305 3.4000766 6513507
-0.79731458 0.10846859 3.4002504 6513507
-1.1564263 0.10800993 3.476162 6579300
-1.125001 0.10803478 3.4769619 6513507
-1.074978 0.10807435 3.4782355 6513507
-1.0249188 0.10811395 3.4795096 6513507
-0.97482246 0.10815357 3.4807854 6513507
-0.92469001 0.10819322 3.4820611 6513507
-0.87452018 0.10823291 3.4833381 6513507
-0.83148932 0.10826694 3.4844332 6513507
-1.1623224 -0.5709672 3.51579 6513507
-1.1243359 -0.57104421 3.5247793 6513507
-1.0751102 -0.57112992 3.5364289 6513507
-1.0345291 -0.57076204 3.5460327 6513507
-1.1622825 -0.52567762 3.5159009 6513507
-1.1246678 -0.52458072 3.5248046 6513507
-1.075292 -0.52532262 3.536489 6513507
-1.0342733 -0.52448553 3.5461981 6513507
-1.1622728 -0.47528988 3.5160174 6513507
-1.1244565 -0.47461417 3.5249665 6513507
-1.0753601 -0.47519758 3.5365858 6513507
-1.0343044 -0.47454873 3.5463033 6513507
-1.1626092 -0.42448992 3.5160515 6513507
-1.1244899 -0.42497489 3.5250723 6513507
-1.0754277 -0.42507008 3.5366828 6513507
-1.0348724 -0.42511594 3.5462811 6513507
-1.1624581 -0.37437674 3.5161998 6513507
-1.124523 -0.37533244 3.5251751 6513507
-1.0755169 -0.37485915 3.5367744 6513507
-1.0357411 -0.37463143 3.5461893 6513507
-1.1624922 -0.32485795 3.5163043 6513507
-1.1245565 -0.3256872 3.525279 6513507
-1.075686 -0.32448632 3.5368476 6513507
-1.0357717 -0.32469019 3.546293 6513507
-1.1625266 -0.27533618 3.5164077 6513507
-1.1243438 -0.27570394 3.5254445 6513507
-1.0756834 -0.2741859 3.5369616 6513507
-1.0358019 -0.27474603 3.5463991 6513507
-1.1625608 -0.22581127 3.5165105 6513507
-1.124554 -0.22508571 3.5255065 6513507
-1.0755733 -0.22420275 3.5371006 6513507
-1.0358326 -0.2247988 3.5465033 6513507
-1.1624352 -0.17524832 3.5166526 6513507
-1.1249703 -0.17431413 3.525522 6513507
-1.0756052 -0.174385 3.5372052 6513507
-1.0358634 -0.17484865 3.5466094 6513507
-1.1627945 -0.12429255 3.5166826 6513507
-1.1246909 -0.12415564 3.525701 6513507
-1.075637 -0.1245644 3.5373096 6513507
-1.0361185 -0.1252294 3.5466599 6513507
-1.1626654 -0.074305803 3.5168278 6513507
-1.1247236 -0.074495569 3.5258055 6513507
-1.0756686 -0.074740782 3.5374138 6513507
-1.0373 -0.074932635 3.546494 6513507
-1.1626993 -0.024769256 3.5169289 6513507
-1.1247565 -0.024832489 3.5259087 6513507
-1.0757008 -0.024914259 3.537519 6513507
-1.0373309 -0.024978211 3.5465984 6513507
-1.1627333 0.024770221 3.5170331 6513507
-1.12479 0.024833478 3.5260122 6513507
-1.0757325 0.024915244 3.5376232 6513507
-1.0373613 0.024979204 3.5467038 6513507
-1.1627679 0.074312612 3.5171368 6513507
-1.1248236 0.074502356 3.5261178 6513507
-1.0757636 0.074747674 3.5377276 6513507
-1.0373926 0.074939542 3.5468099 6513507
-1.1627879 0.10345645 3.5171978 6513507
-1.124843 0.10372061 3.5261781 6513507
-1.0757827 0.10406213 3.5377893 6513507
-1.0374105 0.10432927 3.5468712 6513507
-1.0094721 -0.57095575 3.5519624 6513507
-0.97610801 -0.5711478 3.5598576 6513507
-0.92627293 -0.57116187 3.5716522 6513507
-0.87621748 -0.5706808 3.5834997 6513507
-0.84358156 -0.57131511 3.5912213 6513507
-1.0094994 -0.52535242 3.5520587 6513507
-0.97631735 -0.52495569 3.5599129 6513507
-0.92629808 -0.52530503 3.5717494 6513507
-0.87571818 -0.52457744 3.5837209 6513507
-0.84360456 -0.52520776 3.5913191 6513507
-1.0095292 -0.47533315 3.5521641 6513507
-0.97544944 -0.47473416 3.5602314 6513507
-0.92544246 -0.47536656 3.5720646 6513507
-0.87591046 -0.47494075 3.5837874 6513507
-0.84363002 -0.47463539 3.5914271 6513507
-1.0101795 -0.42434871 3.552125 6513507
-0.97503674 -0.42520317 3.5604403 6513507
-0.92496085 -0.42474782 3.5722926 6513507
-0.87627351 -0.42547357 3.583813 6513507
-0.84408307 -0.42529124 3.5914311 6513507
-1.0109676 -0.37525049 3.5520494 6513507
-0.97515202 -0.37545365 3.5605259 6513507
-0.92498821 -0.37444061 3.5723991 6513507
-0.87609684 -0.37557486 3.5839672 6513507
-0.84508985 -0.37493438 3.5913064 6513507
-1.0109977 -0.32522687 3.5521553 6513507
-0.97525895 -0.32577953 3.5606112 6513507
-0.92501599 -0.32413009 3.572506 6513507
-0.87604469 -0.32518128 3.5840936 6513507
-0.84511447 -0.32584536 3.5914111 6513507
-1.0107566 -0.27469817 3.552326 6513507
-0.97484589 -0.27605674 3.5608215 6513507
-0.92474872 -0.27423841 3.5726819 6513507
-0.8760708 -0.27470484 3.5842011 6513507
-0.84513968 -0.27526569 3.5915194 6513507
-1.0096779 -0.22519104 3.5526924 6513507
-0.97372478 -0.22573033 3.5611999 6513507
-0.92510986 -0.22506818 3.5727062 6513507
-0.87609714 -0.22422521 3.5843074 6513507
-0.84516507 -0.22468305 3.5916269 6513507
-1.009708 -0.17515381 3.5527983 6513507
-0.97375339 -0.17557329 3.5613055 6513507
-0.92535186 -0.17580515 3.5727594 6513507
-0.87574345 -0.17454891 3.5845025 6513507
-0.84519053 -0.17409736 3.5917344 6513507
-1.0100061 -0.12466695 3.5528405 6513507
-0.97378212 -0.12541315 3.5614126 6513507
-0.92495173 -0.12566724 3.5729675 6513507
-0.87636679 -0.12573242 3.5844653 6513507
-0.84521532 -0.1249966 3.5918388 6513507
-1.0111467 -0.075063385 3.5526822 6513507
-0.97381151 -0.075250052 3.561518 6513507
-0.923756 -0.075500354 3.5733638 6513507
-0.87477225 -0.075745292 3.584955 6513507
-0.84523988 -0.07589294 3.5919437 6513507
-1.0111762 -0.025021804 3.5527887 6513507
-0.97384065 -0.025084028 3.5616241 6513507
-0.92378366 -0.02516745 3.5734699 6513507
-0.87479812 -0.025249101 3.5850632 6513507
-0.84526509 -0.025298318 3.5920513 6513507
-1.0112066 0.025022779 3.5528932 6513507
-0.97386968 0.025085023 3.5617304 6513507
-0.92381078 0.025168456 3.573576 6513507
-0.87482458 0.025250101 3.58517 6513507
-0.84529048 0.025299335 3.5921595 6513507
-1.0112361 0.075070351 3.5529993 6513507
-0.97389877 0.07525707 3.5618358 6513507
-0.92383891 0.075507373 3.573683 6513507
-0.87485087 0.075752348 3.5852773 6513507
-0.84531605 0.075900018 3.592268 6513507
-1.0112541 0.10451137 3.553062 6513507
-0.97391576 0.10477129 3.5618985 6513507
-0.92410171 0.10503688 3.5728521 6513507
-0.87482864 0.10533337 3.5811267 6513507
-0.84420025 0.1056769 3.5851061 6513507
