# .PCD v0.7 - Point Cloud Data file format
VERSION 0.7
FIELDS x y z rgb
SIZE 4 4 4 4
TYPE F F F U
COUNT 1 1 1 1
WIDTH 1167
HEIGHT 1
VIEWPOINT 0 0 0 1 0 0 0
POINTS 1167
DATA ascii
-1.0754173 0.11003596 3.5413673 2314627
-1.0257527 0.1100594 3.5421214 2308433
-0.99799109 0.11007255 3.5425448 10000536
-0.90003699 0.11011872 3.5440309 2248840
-0.87370658 0.1101312 3.5444319 2052230
-0.82395601 0.11015467 3.5451877 2834262
-0.77418447 0.11017817 3.5459442 10132122
-0.72439158 0.11020169 3.546701 10197915
-0.6745773 0.1102252 3.5474579 10197915
-0.62474197 0.11024874 3.5482152 10197915
-0.59101838 0.11026465 3.5487273 10197915
-0.058736529 0.1057185 3.544183 9539985
-0.024860002 0.10515064 3.5251453 9408399
0.010160501 0.10456358 3.5054638 9276813
-1.7545052 -1.603448 3.5910974 2039583
-0.15493928 -1.604497 3.5960095 6447714
-0.13870053 -1.6024073 3.5868864 6447714
-1.7631924 -1.5736789 3.5757124 2039583
-0.15500933 -1.575091 3.5960879 6447714
-0.12492266 -1.5746729 3.5791793 6447714
-0.087350532 -1.5711324 3.5580707 6447714
-1.7638427 -1.5249525 3.5746746 2039583
-0.15496668 -1.5252103 3.5961282 6447714
-0.1245817 -1.52501 3.5790534 6447714
-0.086975478 -1.5252635 3.5579193 6447714
-1.7638533 -1.4749755 3.5747819 2039583
-0.15492395 -1.475329 3.5961695 6447714
-0.12453353 -1.4749017 3.5790911 6447714
-0.086977102 -1.4751747 3.5579875 6447714
-1.7638913 -1.4250846 3.5748348 2039583
-0.15494965 -1.4250729 3.5962496 6447714
-0.12455808 -1.4250702 3.5791707 6447714
-0.086978756 -1.4250851 3.5580523 6447714
-1.7639235 -1.375103 3.5749011 5329233
-0.15488419 -1.3748173 3.5962789 6447714
-0.12452132 -1.3751442 3.579216 6447714
-0.086980343 -1.3749925 3.5581179 6447714
-1.7639172 -1.3250333 3.5750358 6447714
-0.15502377 -1.3249249 3.5964227 6447714
-0.12455194 -1.3250309 3.579298 6447714
-0.086942688 -1.3250624 3.5581617 6447714
-1.7640159 -1.2750503 3.5749826 6447714
-0.15498112 -1.2750369 3.5964634 6447714
-0.12461019 -1.2750074 3.5793965 6447714
-0.086983651 -1.2751297 3.5582519 6447714
-1.7672826 -1.2344189 3.5692716 6447714
-0.1549384 -1.2251486 3.5965052 6447714
-0.12452843 -1.2250748 3.5794168 6447714
-0.086985238 -1.2250319 3.5583181 6447714
-0.15489568 -1.1752586 3.5965464 6447714
-0.12457542 -1.1750488 3.5795083 6447714
-0.086245418 -1.1742834 3.5579679 6447714
-0.15496695 -1.1249875 3.5966516 6447714
-0.1244993 -1.1250206 3.5795307 6447714
-0.085434377 -1.1250074 3.5575786 6447714
-0.15503822 -1.0747132 3.5967577 6447714
-0.12461388 -1.0749907 3.5796611 6447714
-0.085497893 -1.0750633 3.5576797 6447714
-0.1549955 -1.0248173 3.5967994 6447714
-0.12459385 -1.0249571 3.5797148 6447714
-0.085419804 -1.025117 3.5576994 6447714
-0.15488307 -0.97530007 3.5968003 6447714
-0.12457372 -0.9749226 3.5797677 6447714
-0.085501067 -0.97516948 3.5578108 6447714
-0.15497845 -0.92538959 3.5969188 6447714
-0.12454812 -0.92479479 3.579818 6447714
-0.085529238 -0.92522037 3.5578921 6447714
-0.15498139 -0.87474072 3.5969868 6447714
-0.12454376 -0.87484938 3.5798821 6447714
-0.085504234 -0.87526703 3.5579436 6447714
-0.15505266 -0.82445407 3.5970926 6447714
-0.12466486 -0.8250891 3.5800149 6447714
-0.085505836 -0.82516587 3.5580091 6447714
-0.15498717 -0.77492619 3.5971208 6447714
-0.12458871 -0.77504677 3.5800374 6447714
-0.085507415 -0.77506328 3.5580754 6447714
-0.15492167 -0.72539836 3.5971482 6447714
-0.12464122 -0.72491026 3.5801337 6447714
-0.085509039 -0.72495842 3.5581417 6447714
-1.763927 -0.67102456 3.5766325 6447714
-0.15499291 -0.67510557 3.5972543 6447714
-0.12455924 -0.67495799 3.5801525 6447714
-0.085519537 -0.67499936 3.558212 6447714
-0.15499583 -0.62444723 3.5973222 6447714
-0.1245051 -0.62509781 3.5801866 6447714
-0.085512206 -0.62503809 3.5582745 6447714
-0.15509129 -0.57451725 3.597441 6447714
-0.12467078 -0.57514179 3.5803471 6447714
-0.085513785 -0.57492745 3.5583398 6447714
-0.15341264 -0.52549738 3.5965621 6447714
-0.12462828 -0.52508926 3.5803862 6447714
-0.085506603 -0.5249629 3.5584009 6447714
-1.7652822 -0.45638326 3.5747514 2039583
-0.15347658 -0.4753274 3.5966637 6447714
-0.12458576 -0.47503594 3.5804276 6447714
-0.085490488 -0.47514403 3.558459 6447714
-1.7661049 -0.44320759 3.5733199 2106666
-0.15347949 -0.42467347 3.5967312 6447714
-0.12454315 -0.42498189 3.5804698 6447714
-0.085474387 -0.42532417 3.5585144 6447714
-0.15348236 -0.37401783 3.5967987 6513507
-0.1244153 -0.37502018 3.5804639 6513507
-0.085458197 -0.37550241 3.5585692 6513507
-0.15348518 -0.32485008 3.5968647 6513507
-0.12463738 -0.32486925 3.5806534 6513507
-0.085442044 -0.32567954 3.5586274 6513507
-0.15348803 -0.27568054 3.596931 6513507
-0.12479632 -0.27462006 3.5808084 6513507
-0.08552333 -0.27570191 3.5587378 6513507
-0.1534909 -0.22501916 3.5969989 6513507
-0.12479391 -0.22464824 3.5808749 6513507
-0.085524924 -0.22557852 3.5588033 6513507
-0.15349382 -0.17435586 3.5970662 6513507
-0.12467321 -0.17495725 3.5808702 6513507
-0.085526526 -0.17545317 3.558871 6513507
-0.15349658 -0.12518087 3.5971329 6513507
-0.12430509 -0.12555671 3.5807288 6513507
-0.085528135 -0.12532604 3.5589373 6513507
-0.15349939 -0.076004006 3.5971985 6513507
-0.12464897 -0.075661443 3.5809851 6513507
-0.085529737 -0.075196996 3.5590024 6513507
-0.15350232 -0.0253351 3.5972662 6513507
-0.12465129 -0.025220912 3.581054 6513507
-0.085531346 -0.025066078 3.5590694 6513507
-0.15350521 0.025335727 3.5973339 6513507
-0.12465364 0.025221547 3.5811203 6513507
-0.085532919 0.025066713 3.5591362 6513507
-0.1535081 0.076008461 3.5974016 6447714
-0.12465595 0.075665884 3.5811889 6447714
-0.08524996 0.075555049 3.5590425 6513507
-0.40756398 0.11035128 3.5515151 1058885
-0.3752453 0.11036652 3.5520058 4543333
-0.32528192 0.11039011 3.5527654 10197915
-0.27529734 0.11041371 3.553525 10197915
-0.22529122 0.11043732 3.5542846 10197915
-0.16773356 0.10885334 3.5697207 10066329
-0.12480318 0.1066854 3.5745783 9868950
-0.084020853 0.10611593 3.5575426 9671571
-1.733179 -1.6118375 3.6290262 2039583
-0.22801955 -1.6135809 3.6370656 6447714
-0.18304025 -1.6080549 3.6117966 6447714
-1.7358023 -1.5750555 3.6244497 2039583
-0.22582276 -1.5749645 3.6358821 6447714
-0.18102038 -1.5751467 3.6107039 6447714
-1.7358303 -1.5249488 3.6245222 2039583
-0.22597429 -1.5249996 3.6360333 6447714
-0.1810663 -1.5251224 3.6107955 6447714
-1.7358904 -1.4749227 3.6245403 2039583
-0.22598404 -1.4750375 3.6361029 6447714
-0.18102734 -1.4749788 3.6108387 6447714
-1.7358863 -1.4249783 3.6246707 4079166
-0.2259538 -1.4249756 3.6361525 6447714
-0.18090293 -1.424951 3.6108341 6447714
-1.7359405 -1.3749481 3.624697 6447714
-0.22596918 -1.3749111 3.6362252 6447714
-0.1810766 -1.375034 3.6109982 6447714
-1.7359912 -1.3250022 3.6247301 6447714
-0.22598518 -1.3250381 3.6362998 6447714
-0.18106568 -1.3249999 3.6110568 6447714
-1.7372257 -1.2775912 3.6226504 6447714
-0.22593679 -1.2750634 3.6363375 6447714
-0.1809267 -1.2750833 3.6110449 6447714
-1.7471172 -1.2459747 3.6051278 6447714
-0.22606416 -1.2250909 3.636476 6447714
-0.18105839 -1.225045 3.6111829 6447714
-0.22596295 -1.1750193 3.6364841 6447714
-0.18099099 -1.1748894 3.6112113 6447714
-0.22593132 -1.1249481 3.6365316 6447714
-0.1809797 -1.1249651 3.6112697 6447714
-0.22605327 -1.0750607 3.6366649 6447714
-0.1811395 -1.0750395 3.6114252 6447714
-0.22595754 -1.0250822 3.6366768 6447714
-0.18102939 -1.0251086 3.6114287 6447714
-0.22580244 -0.97507602 3.6366544 6447714
-0.18091966 -0.97506249 3.6114328 6447714
-0.22447151 -0.92488855 3.6359718 6447714
-0.18113509 -0.92489946 3.6116178 6447714
-0.22451375 -0.87499475 3.6360612 6447714
-0.18112451 -0.87484914 3.6116776 6447714
-0.22429204 -0.82499951 3.6360028 6447714
-0.18092842 -0.82503009 3.6116331 6447714
-0.22463462 -0.77499998 3.6362593 6447714
-0.18108866 -0.7749756 3.6117885 6447714
-1.7307594 -0.70488942 3.6355712 6447714
-0.22432475 -0.72510409 3.6361516 6447714
-0.18107791 -0.724801 3.6118484 6447714
-1.7500743 -0.67585969 3.6012726 6447714
-1.7363195 -0.67667657 3.6257465 6447714
-0.22446822 -0.67499995 3.6362972 6447714
-0.18103796 -0.67509437 3.6118917 6447714
-0.22454697 -0.62499583 3.6364069 6447714
-0.18112694 -0.62514925 3.6120064 6447714
-0.22448871 -0.57509494 3.6364403 6447714
-0.18100317 -0.57497078 3.6120028 6447714
-0.22431819 -0.52488172 3.6364088 6447714
-0.17949523 -0.52502179 3.6112196 6447714
-1.7502151 -0.45657784 3.601563 2039583
-1.7396191 -0.4564262 3.6204188 2039583
-0.22465993 -0.47487736 3.636667 6447714
-0.17969614 -0.47501925 3.6113982 6447714
-1.7502228 -0.44464314 3.6015787 2039583
-1.7399579 -0.44357228 3.6198485 2039842
-0.22447641 -0.42496502 3.6366289 6447714
-0.17952926 -0.42501268 3.6113703 6447714
-0.22432996 -0.37485391 3.6366115 6447714
-0.17930186 -0.37511614 3.6113069 6447714
-1.7358955 -0.31754285 3.6273878 1714489
-0.22477502 -0.32493457 3.6369271 6513507
-0.17972483 -0.32488778 3.6116114 6513507
-1.7358197 -0.27502745 3.6276283 1388105
-0.22418746 -0.27513027 3.6366613 6513507
-0.17973155 -0.27487427 3.6116793 6513507
-1.7357672 -0.22477834 3.627845 1322569
-0.22475298 -0.22479694 3.6370454 6513507
-0.17925671 -0.2253046 3.6114788 6513507
-1.7359672 -0.17521349 3.6276114 1257033
-0.22430353 -0.17509326 3.6368589 6513507
-0.17957857 -0.17506635 3.6117239 6513507
-1.7359163 -0.12474608 3.6278286 1257033
-0.22453855 -0.12506339 3.6370559 6513507
-0.17973827 -0.12440005 3.6118808 6513507
-1.7359473 -0.075149596 3.6278932 1191497
-0.22454286 -0.075340748 3.6371231 6513507
-0.17942204 -0.07503999 3.6117663 6513507
-1.7359791 -0.025551261 3.6279604 1125447
-0.22454698 -0.025616275 3.6371901 6513507
-0.17958862 -0.025438333 3.6119256 6513507
-1.7360115 0.025551908 3.6280293 993605
-0.22455128 0.025616925 3.6372592 6447714
-0.17959206 0.025438972 3.6119943 6447714
-1.736043 0.075153865 3.628094 927299
-0.22455536 0.075345129 3.6373274 6447714
-0.17943205 0.075044364 3.6119702 6447714
-1.7354072 0.10517495 3.6267607 1256005
-1.6100196 0.10963753 3.6252167 1059398
-1.5757078 0.10965372 3.6257522 6714758
-1.5369102 0.10967201 3.6263564 2053001
-1.2799172 0.10979318 3.6303635 1986439
-1.1557006 0.10985174 3.6323001 10000536
-1.1242502 0.10986658 3.6327906 5665680
-1.0748127 0.10988989 3.6335607 1324893
-1.0358474 0.10990827 3.6341686 5003625
-0.91287017 0.10996625 3.6360857 2052745
-0.87535059 0.10998393 3.6366708 1589355
-0.82430559 0.110008 3.6374662 6515831
-0.7747407 0.11003137 3.6382394 10066329
-0.72515434 0.11005475 3.6390121 10197915
-0.67554724 0.11007814 3.6397858 10197915
-0.62591881 0.11010154 3.6405594 10197915
-0.59884065 0.11011427 3.6409805 10197915
-0.41212627 0.11020234 3.643893 1059398
-0.37444553 0.1102201 3.6444802 6384246
-0.32468903 0.11024357 3.6452556 10197915
-0.27491152 0.11026704 3.6460319 10197915
-0.22495781 0.10556058 3.6374407 9474192
-0.18028048 0.10492846 3.6124845 9342606
-1.6948225 -1.6519363 3.6971822 2039583
-0.33331329 -1.6517469 3.6961873 6447714
-1.7096362 -1.621269 3.6708984 2039583
-1.6961292 -1.6249268 3.6949248 2039583
-0.31971073 -1.6245795 3.6885796 6447714
-0.27590668 -1.619684 3.6639698 6447714
-1.7103424 -1.575053 3.6697547 2039583
-1.6961479 -1.5748162 3.6950147 2039583
-0.31934586 -1.5750979 3.6884375 6447714
-0.27467808 -1.5749496 3.6633377 6447714
-1.7103897 -1.5250268 3.6697946 2039583
-1.6961269 -1.5250952 3.6951756 2039583
-0.31939712 -1.5250537 3.6885312 6447714
-0.27478552 -1.524893 3.6634631 6447714
-1.7104368 -1.4749997 3.6698332 2565927
-1.6962227 -1.4749935 3.6951287 3487029
-0.31938758 -1.4751232 3.6885929 6447714
-0.27462396 -1.4749389 3.6634369 6447714
-1.710422 -1.4250872 3.6699841 6316128
-1.6962413 -1.4248761 3.6952198 5395026
-0.31933358 -1.4250746 3.688627 6447714
-0.27473149 -1.4250817 3.6635628 6447714
-1.7105224 -1.3751743 3.6699274 6447714
-1.6962593 -1.3747674 3.6953108 5329233
-0.31947511 -1.3750226 3.6887727 6447714
-0.27474999 -1.3751218 3.6636395 6447714
-1.7104464 -1.3250213 3.6701894 6447714
-1.6962779 -1.3246568 3.6954017 5395026
-0.31942081 -1.3249691 3.6888072 6447714
-0.27467793 -1.3249586 3.6636639 6447714
-1.7131596 -1.2897342 3.6654468 6447714
-1.6979922 -1.298735 3.6924148 6513507
-0.31933582 -1.2750343 3.6888247 6447714
-0.27475989 -1.2749947 3.6637747 6447714
-0.31946278 -1.225091 3.688962 6447714
-0.27471372 -1.2250299 3.6638143 6447714
-0.31939375 -1.1749182 3.6889892 6447714
-0.27473134 -1.1750638 3.6638899 6447714
-0.31941393 -1.1249743 3.6890666 6447714
-0.27482665 -1.1250932 3.6640081 6447714
-0.31849915 -1.075702 3.6886148 6447714
-0.274703 -1.0751256 3.6640041 6447714
-0.31789571 -1.0250466 3.6883411 6447714
-0.27479839 -1.0251487 3.6641238 6447714
-0.31785277 -0.9748947 3.6883838 6447714
-0.27477759 -0.97507733 3.6641765 6447714
-0.24950522 -0.95265633 3.6500039 6447714
-0.31772771 -0.92499822 3.6883779 6447714
-0.27464241 -0.92499655 3.6641665 6447714
-0.24950776 -0.92544693 3.6500406 6447714
-0.31788108 -0.87509251 3.6885288 6447714
-0.27491662 -0.87502056 3.6643851 6447714
-0.24951242 -0.87556159 3.6501086 6447714
-0.31782231 -0.82493967 3.6885629 6447714
-0.27460122 -0.82503998 3.6642735 6447714
-0.24951702 -0.82567441 3.6501763 6447714
-0.31790102 -0.77490675 3.688673 6447714
-0.27491373 -0.77495521 3.6645143 6447714
-0.24952164 -0.77578551 3.650244 6447714
-1.710443 -0.71099514 3.67171 6447714
-1.6991986 -0.7142446 3.6917105 6513507
-0.31784981 -0.72512329 3.6887066 6447714
-0.27471352 -0.72497571 3.6644688 6447714
-0.24952644 -0.72438276 3.6503139 6447714
-1.7117478 -0.67660332 3.6694713 6447714
-1.6992211 -0.67754734 3.6917603 6513507
-0.31789672 -0.67509353 3.6888011 6447714
-0.27485961 -0.6749841 3.6646156 6447714
-0.24953106 -0.67449009 3.650382 6447714
-0.31789395 -0.62505317 3.688864 6447714
-0.27477536 -0.62500322 3.6646333 6447714
-0.24953572 -0.6245954 3.65045 6447714
-0.31772932 -0.57501292 3.6888373 6447714
-0.27471498 -0.57510954 3.6646662 6447714
-0.24954036 -0.57469893 3.6505177 6447714
-0.31810287 -0.52497286 3.6891134 6447714
-0.27495164 -0.52502143 3.6648631 6447714
-0.24954498 -0.52480066 3.6505857 6447714
-0.31778941 -0.47493029 3.6890004 6447714
-0.27472529 -0.47492415 3.6648014 6447714
-0.24954964 -0.47490042 3.6506531 6447714
-0.31775272 -0.42514223 3.6890457 6447714
-0.27489889 -0.42503148 3.6649635 6447714
-0.24955428 -0.42499843 3.6507215 6447714
-0.31821597 -0.37521335 3.6893711 6447714
-0.2748003 -0.37493375 3.6649737 6447714
-0.24955891 -0.3750945 3.6507893 6447714
-0.31763789 -0.32479751 3.6891134 6447714
-0.27479297 -0.32503709 3.6650345 6513507
-0.24956357 -0.32518882 3.6508572 6513507
-0.31793573 -0.27512124 3.6893463 6513507
-0.27492496 -0.27493292 3.6651754 6513507
-0.24956819 -0.27528122 3.6509252 6513507
-0.31819859 -0.22518341 3.6895578 6513507
-0.27463296 -0.22504042 3.6650748 6513507
-0.24957284 -0.22537175 3.6509926 6513507
-0.31768557 -0.17477225 3.6893368 6513507
-0.27509862 -0.17491965 3.6654041 6513507
-0.24957748 -0.17546046 3.6510611 6513507
-0.31795353 -0.12533994 3.6895521 6513507
-0.27464306 -0.12483089 3.6652129 6513507
-0.24958213 -0.12554729 3.6511288 6513507
-0.31795946 -0.074899636 3.689621 6447714
-0.27510884 -0.074699253 3.6655405 6513507
-0.24958675 -0.075632282 3.6511965 6513507
-0.31796536 -0.024457434 3.6896908 6447714
-0.27465329 -0.024613874 3.6653495 6447714
-0.24959138 -0.025715394 3.6512644 6447714
-0.31797114 0.024458028 3.6897566 6447714
-0.27465835 0.024614487 3.6654179 6447714
-0.24959618 0.025716051 3.6513343 6447714
-0.31797722 0.074904002 3.6898267 6447714
-0.27512428 0.074703515 3.6657441 6447714
-0.24960081 0.075636685 3.651402 6447714
-0.31798092 0.10547812 3.689868 9803157
-0.27490112 0.10478605 3.6656585 9539985
-0.2496035 0.10437965 3.6514413 9276813
-1.6761018 -1.6595109 3.7304769 2039583
-0.41467264 -1.662058 3.741894 6447714
-0.37767684 -1.6574528 3.7211101 6447714
-0.34516075 -1.6536988 3.7028427 6447714
-1.6791029 -1.6250041 3.7252212 2039583
-0.41385263 -1.6249748 3.7414837 6447714
-0.37451598 -1.6249028 3.7193751 6447714
-0.34522918 -1.6250757 3.702919 6447714
-1.6791627 -1.5749731 3.7252393 2039583
-0.41388309 -1.5748838 3.741565 6447714
-0.3744694 -1.5748019 3.7194154 6447714
-0.34510484 -1.574491 3.7029147 6447714
-1.6791613 -1.5250342 3.7253644 2039583
-0.41389081 -1.5249653 3.7416348 6447714
-0.37435549 -1.5248028 3.7194173 6447714
-0.34517732 -1.5249124 3.7030203 6447714
-1.6792378 -1.4750948 3.7253528 2039583
-0.41385317 -1.4750444 3.7416787 6447714
-0.37449679 -1.4749053 3.7195618 6447714
-0.34524977 -1.47533 3.703126 6447714
-1.6792358 -1.4249611 3.7254789 2039583
-0.41381511 -1.4249505 3.7417223 6447714
-0.37446338 -1.4250028 3.7196088 6447714
-0.3451255 -1.4247427 3.7031219 6447714
-1.6792606 -1.375019 3.725559 2039583
-0.41391379 -1.3750266 3.7418432 6447714
-0.37443021 -1.3750994 3.7196541 6447714
-0.34519663 -1.3746457 3.7032282 6447714
-1.6814059 -1.3324931 3.7218456 2039583
-0.41398963 -1.3249276 3.7419529 6447714
-0.3744911 -1.3250951 3.7197547 6447714
-0.34526914 -1.3250566 3.7033334 6447714
-0.41392937 -1.2749994 3.7419825 6447714
-0.37455153 -1.2750851 3.7198553 6447714
-0.34520942 -1.2749693 3.7033653 6447714
-0.41395968 -1.225069 3.7420642 6447714
-0.37443805 -1.2250739 3.7198558 6447714
-0.34514987 -1.2248818 3.7033966 6447714
-0.41387638 -1.1749651 3.7420831 6447714
-0.37444478 -1.1749599 3.7199249 6447714
-0.34522232 -1.1752865 3.7035024 6447714
-0.41390729 -1.124862 3.742167 6447714
-0.37453195 -1.1250479 3.7200372 6447714
-0.34529355 -1.1251769 3.7036078 6447714
-0.41398299 -1.0747538 3.742275 6447714
-0.37455246 -1.0750288 3.7201152 6447714
-0.34408379 -1.072758 3.7029965 6447714
-0.41396782 -1.0248148 3.7423322 6447714
-0.37454608 -1.0249097 3.7201781 6447714
-0.34362376 -1.0247293 3.7028005 6447714
-0.41397563 -0.97504783 3.7424016 6447714
-0.37448609 -0.9748916 3.7202103 6447714
-0.34370473 -0.97526789 3.7029109 6447714
-0.41396046 -0.92527801 3.7424576 6446943
-0.37457338 -0.92497069 3.720325 6447714
-0.34363645 -0.92505145 3.7029381 6447714
-0.41366458 -0.87574255 3.7423556 5976886
-0.37451318 -0.87504935 3.7203536 6445401
-0.34356821 -0.8748346 3.7029653 6447714
-0.41219115 -0.82505655 3.7415953 2768466
-0.37441272 -0.82502466 3.7203624 5330523
-0.34364915 -0.82536733 3.7030761 6447714
-0.41244099 -0.77488691 3.7418003 3162709
-0.37466174 -0.77509898 3.7205703 5330780
-0.3437281 -0.77512968 3.7031856 6447714
-0.41242293 -0.72490656 3.7418556 3031380
-0.37460136 -0.72517127 3.7205989 5330780
-0.34358749 -0.72453392 3.7031732 6447714
-0.4124051 -0.67492503 3.7419105 2900052
-0.37451503 -0.67503887 3.7206163 5330780
-0.34366849 -0.67505938 3.7032831 6447714
-0.41238692 -0.62494236 3.7419658 2768467
-0.37457517 -0.62490511 3.7207167 5330780
-0.34377292 -0.62519437 3.703407 6447714
-0.4123691 -0.57495803 3.7420206 2637139
-0.37460858 -0.5749703 3.720803 5330780
-0.3435832 -0.57460338 3.7033665 6447714
-0.41228801 -0.52478158 3.7420416 2440018
-0.37449452 -0.52503473 3.7208035 5330780
-0.34368777 -0.52473456 3.7034907 6447714
-0.41230783 -0.47460011 3.7421181 2177104
-0.37447622 -0.4749974 3.7208569 5330524
-0.34369394 -0.47564539 3.7035584 6447714
-0.41240498 -0.42479971 3.742239 1979983
-0.37483171 -0.42495799 3.7211242 5264731
-0.3437005 -0.42502013 3.7036278 6447714
-0.41241264 -0.37519506 3.7423067 1782861
-0.37471721 -0.37501639 3.7211211 5264732
-0.34370703 -0.37439299 3.7036979 6447714
-1.6690012 -0.32218719 3.7464142 2111568
-0.4124203 -0.32558846 3.7423763 1651277
-0.37450996 -0.32487181 3.7210729 5330524
-0.34371331 -0.32529822 3.7037659 6447714
-1.6696161 -0.27620047 3.7454338 1979983
-0.41251773 -0.27577916 3.7424963 1519948
-0.37440896 -0.27472723 3.7210803 5330781
-0.34379217 -0.27503651 3.7038758 6513507
-1.6696475 -0.22499895 3.7455046 1782605
-0.41254908 -0.22539033 3.7425802 1454412
-0.37465784 -0.22508581 3.7212856 5330781
-0.34365153 -0.224433 3.7038636 6513507
-1.6696789 -0.17379557 3.7455752 1585484
-0.4122431 -0.17444968 3.7424736 1388619
-0.37475982 -0.17564857 3.7214093 5330781
-0.34373254 -0.1749343 3.7039731 6513507
-1.6697093 -0.12414193 3.7456434 1453898
-0.41245127 -0.12404294 3.7426572 1323083
-0.37481436 -0.12507908 3.7215052 5264988
-0.34373879 -0.12583219 3.704041 6513507
-1.6697398 -0.074486487 3.7457113 1256520
-0.41245881 -0.074427113 3.7427263 1257034
-0.37443694 -0.074324854 3.721359 5199195
-0.34374526 -0.075193793 3.7041109 6447714
-1.6697701 -0.024829237 3.74578 1191241
-0.41246647 -0.024809448 3.7427952 1125448
-0.37468576 -0.024668714 3.7215655 5133659
-0.34375176 -0.024553493 3.7041812 6447714
-1.6698008 0.024829833 3.7458479 1191497
-0.4124741 0.024810066 3.7428639 1059655
-0.37469256 0.024669321 3.7216308 5133402
-0.34375811 0.024554089 3.7042484 6447714
-1.6698313 0.074490726 3.7459166 1125704
-0.41248178 0.074431404 3.7429333 993862
-0.3744576 0.07432913 3.7215667 5198938
-0.34376451 0.075198159 3.704318 6447714
-1.6642329 0.10617145 3.7361236 1059655
-1.6251867 0.10947658 3.7218642 6779261
-1.5823048 0.10949677 3.7225502 2184073
-1.3154684 0.1096224 3.7268212 1986952
-1.298579 0.10963033 3.7270908 1655675
-1.1710602 0.10969039 3.7291322 8686741
-1.1249346 0.1097121 3.7298708 1854075
-1.0757141 0.10973529 3.7306595 2965847
-1.0495585 0.10974765 3.7310793 10000536
-0.92484671 0.10980633 3.7330742 2052744
-0.87554157 0.10982954 3.7338629 1388622
-0.82467371 0.10985347 3.7346771 10197915
-0.77378392 0.10987744 3.7354913 10197915
-0.72441494 0.10990068 3.7362823 10197915
-0.67502499 0.10992394 3.7370729 10197915
-0.63179201 0.10994431 3.7377646 10197915
-0.41445649 0.10593732 3.7421215 993605
-0.37573454 0.10510651 3.7223229 7304316
-0.34376848 0.10589239 3.7043607 9868950
-1.6569682 -1.6671667 3.7645063 2039583
-1.6431596 -1.6726052 3.7890651 2039583
-0.50956947 -1.6739618 3.7952077 6447714
-0.475214 -1.6696841 3.7759068 6447714
-0.43897694 -1.6652727 3.7555487 6447714
-1.6574878 -1.6249138 3.7636878 2039583
-1.6433669 -1.625018 3.7888134 2039583
-0.50915641 -1.6253737 3.7950387 6447714
-0.47393313 -1.6249253 3.7752461 6447714
-0.43875372 -1.6253418 3.755475 6447714
-1.6575063 -1.5748731 3.7637775 2039583
-1.643477 -1.5752673 3.7887406 2039583
-0.50773853 -1.5750796 3.7943072 6447714
-0.47382948 -1.575009 3.7752514 6447714
-0.43879598 -1.5750631 3.7555647 6447714
-1.6575364 -1.5250044 3.7638462 2039583
-1.6434597 -1.5252899 3.7888951 2039583
-0.50774807 -1.5254345 3.7943788 6447714
-0.47395077 -1.525092 3.7753866 6447714
-0.43877032 -1.5247875 3.7556159 6447714
-1.6576153 -1.4749603 3.7638292 2039583
-1.6434898 -1.4750873 3.7889657 2039583
-0.5077576 -1.4751594 3.7944496 6447714
-0.47395957 -1.4750684 3.7754557 6447714
-0.43877843 -1.4750257 3.7556865 6447714
-1.6575972 -1.4249148 3.7639852 2039583
-1.6435359 -1.4251081 3.7890079 2039583
-0.50781006 -1.4251974 3.7945449 6447714
-0.47396821 -1.4250433 3.7755256 6447714
-0.43870077 -1.4250039 3.755708 6447714
-1.6576161 -1.374868 3.764076 2039583
-1.643877 -1.3782954 3.7885153 2039583
-0.50777662 -1.3752314 3.7945907 6447714
-0.4739773 -1.3750165 3.7755964 6447714
-0.43884635 -1.3747227 3.7558556 6447714
-1.6605147 -1.3438305 3.7589941 2039583
-0.50778592 -1.3249507 3.7946625 6447714
-0.47391561 -1.325091 3.7756267 6447714
-0.43880305 -1.3246931 3.7558966 6447714
-0.50779557 -1.2749821 3.7947326 6447714
-0.47399479 -1.2751648 3.7757378 6447714
-0.43881103 -1.274924 3.7559664 6447714
-0.50780493 -1.2250116 3.7948036 6447714
-0.47400379 -1.2251316 3.7758076 6447714
-0.43883663 -1.2248939 3.7560453 6447714
-0.50777119 -1.1750399 3.7948489 6447714
-0.47394279 -1.1749924 3.7758384 6447714
-0.43882743 -1.1748617 3.7561054 6447714
-0.50782377 -1.1250654 3.7949433 6447714
-0.47393677 -1.1249565 3.7759013 6447714
-0.4388355 -1.1250868 3.7561748 6447714
-0.50774699 -1.075092 3.7949674 6447714
-0.47403029 -1.0750226 3.7760184 6447714
-0.43882656 -1.075051 3.7562354 6447714
-0.50764489 -1.0338479 3.7949624 5658198
-0.47283021 -1.0265788 3.7754085 5987163
-0.43885198 -1.0250136 3.7563159 6447714
-0.45722929 -0.99626201 3.7666802 6447714
-0.43603051 -0.97889829 3.7547898 6447714
-0.43387148 -0.9247601 3.7536471 6444887
-0.43343228 -0.87344164 3.7534671 4599866
-0.43214917 -0.82442099 3.7528102 1913933
-0.4322339 -0.77428603 3.7529237 1979983
-0.43224201 -0.72454607 3.7529936 2045776
-0.43224999 -0.67480439 3.7530627 1980240
-0.43225795 -0.62506092 3.7531326 1914704
-0.432266 -0.57531536 3.7532017 1783119
-0.43227398 -0.52556813 3.7532716 1651534
-0.43228197 -0.47581905 3.7533419 1520205
-0.43229002 -0.42606807 3.7534103 1454413
-0.43237492 -0.37591258 3.7535241 1388620
-1.658667 -0.32087758 3.7648075 1648954
-1.644941 -0.32311422 3.7892268 2039583
-0.43230623 -0.32500511 3.753552 1323084
-1.6592193 -0.27461055 3.7639387 1649211
-1.6451305 -0.2754963 3.7890077 2039583
-0.43223774 -0.27409744 3.7535794 1257548
-1.6592013 -0.22455625 3.7640948 1517626
-1.6451794 -0.22579634 3.7890446 2039583
-0.43232253 -0.2239358 3.7536933 1257291
-1.6592315 -0.1746581 3.7641635 1451577
-1.6451626 -0.17581964 3.789196 2039583
-0.43233055 -0.17417553 3.7537632 1257290
-1.6592621 -0.12475804 3.7642326 1452090
-1.6451925 -0.12558775 3.7892663 2039583
-0.4323386 -0.12441337 3.7538321 1257033
-1.6592922 -0.074856177 3.7643018 1517883
-1.6452235 -0.075354017 3.7893362 2039583
-0.43234664 -0.074649371 3.7539017 1191497
-1.6593227 -0.024952464 3.7643704 1452346
-1.6452535 -0.025118416 3.7894068 2039583
-0.43235457 -0.024883533 3.7539713 1191497
-1.6593539 0.024953077 3.7644386 1452090
-1.6452837 0.025119027 3.7894776 2039583
-0.43236265 0.024884144 3.7540407 1125704
-1.6593832 0.074860409 3.7645097 1386297
-1.6453147 0.075358331 3.789547 2039583
-0.43237066 0.074653663 3.7541111 1059141
-1.6594015 0.10449374 3.7645502 2109763
-1.6453327 0.10518873 3.789588 4671303
-0.43237543 0.10420512 3.7541521 927556
-1.6180218 -1.7075331 3.8337119 2039583
-0.60250455 -1.7102829 3.8473866 6447714
-0.57798767 -1.7075809 3.8336122 6447714
-0.53977287 -1.702633 3.8121436 6447714
-1.6228006 -1.6749021 3.8252883 2039583
-0.60256898 -1.6744298 3.8474703 6447714
-0.57461154 -1.6749996 3.8317561 6447714
-0.53500861 -1.6750342 3.8095016 6447714
-1.6228297 -1.6250125 3.8253593 2039583
-0.6024673 -1.6250714 3.8474767 6447714
-0.57473242 -1.6251383 3.8318925 6447714
-0.53466809 -1.6246576 3.809376 6447714
-1.6228839 -1.5750223 3.8253856 2039583
-0.60253495 -1.5748785 3.8475807 6447714
-0.57468015 -1.5752766 3.8319285 6447714
-0.53332102 -1.5750531 3.8086848 6447714
-1.6228935 -1.524929 3.8254936 2039583
-0.60260254 -1.5246823 3.8476841 6447714
-0.57474595 -1.5252973 3.8320284 6447714
-0.53335232 -1.5249053 3.8087678 6447714
-1.622934 -1.474933 3.8255444 2039583
-0.60250086 -1.4753211 3.8476915 6447714
-0.57465518 -1.475089 3.8320417 6447714
-0.53329736 -1.4747528 3.8088017 6447714
-1.6229597 -1.4249382 3.8256221 2039583
-0.60256851 -1.4251214 3.8477952 6447714
-0.57468897 -1.4248804 3.8321278 6447714
-0.5333721 -1.4249182 3.8089087 6447714
-1.626644 -1.3877698 3.8191597 2039583
-0.60263616 -1.3749185 3.8478992 6447714
-0.57475442 -1.3748957 3.8322313 6447714
-0.53344744 -1.3750801 3.8090179 6447714
-0.60253441 -1.3255541 3.8479061 6447714
-0.57482845 -1.325024 3.8323371 6447714
-0.53335994 -1.3250811 3.8090334 6447714
-0.60260212 -1.2753472 3.8480096 6447714
-0.57468122 -1.2751501 3.8323209 6447714
-0.53340232 -1.2750807 3.8091214 6447714
-0.60261345 -1.2243565 3.8480818 6447714
-0.57471585 -1.225161 3.8324032 6447714
-0.53333658 -1.2250782 3.8091512 6447714
-0.60262448 -1.1749575 3.8481526 6447714
-0.57479733 -1.1749412 3.8325124 6447714
-0.53335685 -1.1750758 3.809227 6447714
-0.60263133 -1.1446799 3.8481963 6447714
-0.57360971 -1.14311 3.8318903 6447714
-0.53169268 -1.1263736 3.808356 6447714
-0.52997196 -1.0747927 3.8074563 6447714
-0.52868831 -1.0387869 3.8067815 6447714
-1.6199694 -0.35099503 3.8335955 6061989
-1.6272249 -0.32494462 3.8207488 4153989
-1.6273869 -0.27497751 3.8205838 4287382
-1.6272004 -0.22489336 3.8210382 3892883
-1.6271721 -0.17468813 3.8212123 3301519
-1.6273119 -0.12505545 3.8210878 2907276
-1.6275057 -0.075547412 3.820864 2644363
-1.6273718 -0.025329335 3.8212266 2513033
-1.6274027 0.025329966 3.8212984 2381191
-1.6275963 0.075551786 3.8210766 2183811
-1.6261142 0.10552041 3.8214991 2249348
-1.359268 0.10943933 3.8284404 2185100
-1.3419213 0.1094475 3.8287261 1788546
-1.2125268 0.10950832 3.8308547 10197915
-1.1746272 0.10952614 3.8314776 3957901
-1.1240765 0.10954991 3.8323092 1192017
-1.0877302 0.10956699 3.832907 6844795
-0.96279961 0.10962573 3.8349612 2118537
-0.92481893 0.10964358 3.8355858 1589870
-0.87415957 0.10966739 3.8364193 5858674
-0.82506245 0.10969048 3.8372269 10197915
-0.77594435 0.10971358 3.8380346 10197915
-0.72522032 0.10973743 3.8388686 10197915
-0.67447424 0.10976128 3.8397038 10197915
-0.63957417 0.10977769 3.8402774 10197915
-1.6043929 -1.7132797 3.8579504 2039583
-1.5899658 -1.7187775 3.8836095 2039583
-0.67256308 -1.7195587 3.8867443 6447714
-0.62849915 -1.7140375 3.8619893 6447714
-1.6045589 -1.6749316 3.8577502 2039583
-1.5906767 -1.6750875 3.8824539 2039583
-0.67129773 -1.6749957 3.8860898 6447714
-0.62699622 -1.6751144 3.8611956 6447714
-1.6036741 -1.6248069 3.859448 2039583
-1.5898169 -1.6250646 3.8841062 2039583
-0.67134541 -1.6248665 3.8861849 6447714
-0.62712002 -1.625021 3.8613317 6447714
-1.603727 -1.5749487 3.8594768 2039583
-1.5898876 -1.5750476 3.8841016 2039583
-0.67146367 -1.5749873 3.8863151 6447714
-0.6271227 -1.5750623 3.8613982 6447714
-1.6037796 -1.5250897 3.8595064 2039583
-1.5898458 -1.5248715 3.8843031 2039583
-0.67137039 -1.5251026 3.8863277 6447714
-0.62709677 -1.5249647 3.861449 6447714
-1.6038092 -1.4749109 3.8595777 2039583
-1.5899526 -1.4748523 3.8842349 2039583
-0.67140031 -1.4750948 3.886411 6447714
-0.62703317 -1.4748669 3.8614783 6447714
-1.6038879 -1.4259595 3.8595581 2039583
-1.5908015 -1.4325348 3.8828299 2039583
-0.67143047 -1.4250854 3.886493 6447714
-0.62719494 -1.425033 3.8616343 6447714
-1.6075039 -1.3999811 3.8531878 2039583
-0.67146057 -1.3750731 3.8865759 6447714
-0.62708485 -1.3750665 3.8616369 6447714
-0.67149079 -1.3250585 3.8866587 6447714
-0.62713432 -1.3249602 3.861732 6447714
-0.67136216 -1.2750446 3.8866501 6447714
-0.62718296 -1.2751224 3.861824 6447714
-0.67155057 -1.2250232 3.886822 6447714
-0.62718558 -1.225148 3.8618908 6447714
-0.6714223 -1.1750072 3.886816 6447714
-0.62713158 -1.1749042 3.8619244 6447714
-0.67137611 -1.1438007 3.8868301 6447714
-0.6272518 -1.1435843 3.8620343 6447714
-0.66958284 -0.41117325 3.8867791 2039583
-0.64148372 -0.4121519 3.8709884 2039583
-0.67007905 -0.37493747 3.8871055 5131854
-0.64149255 -0.37527186 3.8710413 5066061
-0.66968095 -0.32489944 3.8869493 6447714
-0.64159161 -0.32514557 3.8711619 6447714
-0.67021185 -0.27496639 3.8873098 6447714
-0.64143205 -0.27546552 3.8711379 6447714
-0.66970593 -0.22506829 3.8870916 6447714
-0.64152843 -0.2245342 3.871259 6447714
-0.67023695 -0.17512389 3.8874545 6447714
-0.64154041 -0.17481913 3.8713305 6447714
-0.66973084 -0.12522957 3.8872364 6447714
-0.64155227 -0.12510222 3.871402 6447714
-0.67026156 -0.075274102 3.8875992 6447714
-0.64156419 -0.075383477 3.8714738 6447714
-0.6697557 -0.025383506 3.8873823 6447714
-0.64157617 -0.025662882 3.8715456 6447714
-0.66976857 0.025384128 3.8874569 6447714
-0.64158827 0.02566353 3.8716195 6447714
-0.67029917 0.075278431 3.8878191 6447714
-0.64160019 0.07538785 3.8716912 6447714
-0.67004317 0.10469116 3.8877134 9474192
-0.64160711 0.10426083 3.871733 9211020
-1.5595907 -1.7559751 3.9375701 2039583
-0.76908964 -1.7565216 3.9409404 6447714
-0.73812002 -1.7527064 3.923542 6447714
-1.5660521 -1.7247742 3.9261503 2039583
-0.76715004 -1.7249626 3.9398921 6447714
-0.72535515 -1.7247329 3.9164054 6447714
-0.6981312 -1.7236285 3.9011075 6447714
-1.5663048 -1.6749169 3.9258218 2039583
-0.76730758 -1.675047 3.9400444 6447714
-0.72344786 -1.6750559 3.9153991 6447714
-0.69641328 -1.6755931 3.9002049 6447714
-1.5662925 -1.6249602 3.9259672 2039583
-0.76710761 -1.6248072 3.9399996 6447714
-0.72341824 -1.6251475 3.915446 6447714
-0.69642639 -1.6255333 3.9002776 6447714
-1.566337 -1.5750005 3.9260111 2039583
-0.76719302 -1.5748838 3.9401121 6447714
-0.72351652 -1.575123 3.9155679 6447714
-0.69643939 -1.5754718 3.9003501 6447714
-1.5663738 -1.524933 3.92607 2039583
-0.76726753 -1.5251249 3.9402194 6447714
-0.7235297 -1.5248644 3.9156404 6447714
-0.6964522 -1.5254081 3.900423 6447714
-1.5670387 -1.4752122 3.9250085 2039583
-0.7671743 -1.4750421 3.9402318 6447714
-0.72342604 -1.4748343 3.9156475 6447714
-0.69646531 -1.475343 3.9004958 6447714
-1.5729327 -1.4425647 3.9146028 2039583
-0.76729572 -1.4249514 3.9403663 6447714
-0.72369987 -1.4249209 3.9158666 6447714
-0.69647831 -1.4252758 3.9005685 6447714
-0.76709455 -1.3750229 3.9403172 6447714
-0.72331929 -1.3750032 3.9157181 6447714
-0.69649124 -1.3752065 3.9006412 6447714
-0.7674315 -1.324935 3.9405723 6447714
-0.72365934 -1.3250847 3.9159729 6447714
-0.69650418 -1.3251356 3.9007142 6447714
-0.76730269 -1.2750019 3.9405653 6447714
-0.72359729 -1.2751641 3.9160044 6447714
-0.69651723 -1.2750628 3.9007864 6447714
-0.76717424 -1.2250701 3.9405582 6447714
-0.72347635 -1.2251266 3.9160023 6447714
-0.69653016 -1.224988 3.9008591 6447714
-0.76650834 -1.1758326 3.9402487 6447714
-0.7236914 -1.1750852 3.9161863 6447714
-0.69654316 -1.1749115 3.9009321 6447714
-0.75597942 -1.1461898 3.9343705 6447714
-0.72359782 -1.143927 3.9161763 6447714
-0.69655108 -1.1442184 3.9009764 6447714
-0.76571321 -0.41160142 3.9408014 2039583
-0.72370201 -0.41139749 3.9171929 2039583
-0.69494522 -0.41211843 3.9010315 2039583
-0.76546204 -0.37479457 3.9407082 5131854
-0.7236712 -0.3751215 3.917223 5131854
-0.69495481 -0.37495211 3.9010854 5131854
-0.76573807 -0.32490307 3.9409289 6447714
-0.72411942 -0.32504287 3.9175396 6447714
-0.69496787 -0.32485676 3.9011581 6447714
-0.76599157 -0.27536845 3.9411352 6447714
-0.72348839 -0.2748675 3.9172506 6447714
-0.69498086 -0.27475959 3.9012313 6447714
-0.76553249 -0.22478868 3.9409444 6447714
-0.72416097 -0.22523768 3.9176946 6447714
-0.69499373 -0.22466056 3.9013038 6447714
-0.76578099 -0.17470643 3.9411495 6447714
-0.72362274 -0.17494766 3.9174571 6447714
-0.69500679 -0.17455964 3.9013767 6447714
-0.76579487 -0.12572558 3.9412212 6447714
-0.72390723 -0.1249747 3.9176824 6447714
-0.69501972 -0.12445688 3.9014494 6447714
-0.76580918 -0.075110167 3.9412956 6447714
-0.72392094 -0.07466159 3.9177563 6447714
-0.69503266 -0.07435222 3.9015222 6447714
-0.76582366 -0.02449286 3.9413693 6447714
-0.72393405 -0.024346571 3.917829 6447714
-0.69504571 -0.024245691 3.9015954 6447714
-0.76583761 0.024493452 3.941442 6447714
-0.72394741 0.024347167 3.9179001 6447714
-0.69505817 0.024246274 3.9016654 6447714
-0.76585221 0.075114511 3.9415159 6447714
-0.72396123 0.074665889 3.9179738 6447714
-0.69507116 0.074356481 3.9017386 6447714
-1.4022846 0.10924776 3.9358211 2383247
-1.3844538 0.10925609 3.9361212 1920389
-1.2546983 0.10931701 3.9383161 10197915
-1.2254823 0.10933072 3.9388094 6848148
-1.1751503 0.10935436 3.939661 1589354
-1.1280462 0.10937647 3.9404576 4149346
-1.0012572 0.10943594 3.9426005 2117768
-0.97523153 0.1094482 3.9430418 2053001
-0.92479122 0.10947187 3.9438949 1388879
-0.87432927 0.10949554 3.9447479 10197915
-0.82547432 0.10951851 3.9455745 10197915
-0.77045107 0.10675415 3.9422495 10000536
-0.7239694 0.10550725 3.9180186 9737364
-0.69507909 0.10507005 3.9017832 9539985
-1.5508968 -1.7588841 3.9530342 2039583
-1.5358883 -1.7653792 3.9797254 2039583
-0.86227477 -1.7682269 3.9932923 6447714
-0.82618022 -1.7637473 3.9730139 6447714
-0.79314482 -1.7598721 3.9544542 6447714
-1.5509166 -1.7245142 3.953084 2039583
-1.5373079 -1.7251734 3.9772987 2039583
-0.86190259 -1.7249705 3.9931397 6447714
-0.82448596 -1.7249564 3.9721119 6447714
-0.79291451 -1.7250745 3.9543705 6447714
-1.5509446 -1.6754131 3.9531553 2039583
-1.5373555 -1.6750118 3.9773374 2039583
-0.861848 -1.6749011 3.9931743 6447714
-0.82440674 -1.6751131 3.9721341 6447714
-0.79295933 -1.6747304 3.9544618 6447714
-1.5509733 -1.6246732 3.953229 2039583
-1.5373845 -1.6248488 3.9774106 2039583
-0.86193442 -1.6248276 3.9932876 6447714
-0.82444084 -1.625141 3.9722176 6447714
-0.79291356 -1.6247923 3.9545014 6447714
-1.5510024 -1.5739316 3.9533029 2039583
-1.5374224 -1.5749358 3.9774656 2039583
-0.86195034 -1.5749892 3.9933622 6447714
-0.8245132 -1.5749162 3.9723246 6447714
-0.79286796 -1.5748535 3.9545395 6447714
-1.5510305 -1.5248249 3.9533744 2039583
-1.5374508 -1.5251491 3.9775393 2039583
-0.86196661 -1.5251492 3.9934371 6447714
-0.82449049 -1.5248133 3.9723761 6447714
-0.79306406 -1.5249122 3.9547155 6447714
-1.5518755 -1.4724072 3.9519994 2039583
-1.5375184 -1.4751066 3.9775426 2039583
-0.86194682 -1.4753046 3.9934909 6447714
-0.82456279 -1.4749635 3.9724815 6447714
-0.79301852 -1.4749695 3.954756 6447714
-1.5510734 -1.4495248 3.9534838 2039583
-1.5362905 -1.4492617 3.9797902 2039583
-0.86210507 -1.4252259 3.9936442 6447714
-0.8245405 -1.4249847 3.9725349 6447714
-0.79297262 -1.4250258 3.9547954 6447714
-0.86062574 -1.3760691 3.9928777 6447714
-0.82449937 -1.3748784 3.9725773 6447714
-0.79292691 -1.3750811 3.9548345 6447714
-0.86014616 -1.3249472 3.9926744 6447714
-0.8245517 -1.3250228 3.9726708 6447714
-0.79312342 -1.325127 3.9550102 6447714
-0.8601622 -1.2747962 3.9927495 6447714
-0.82458591 -1.2752901 3.9727554 6447714
-0.79307723 -1.2751782 3.955049 6447714
-0.86024022 -1.22492 3.9928596 6447714
-0.82467687 -1.2253031 3.9728732 6447714
-0.79294276 -1.2248241 3.9550402 6447714
-0.85567009 -1.1958855 3.9903278 6447714
-0.82034439 -1.1874436 3.9704876 6447714
-0.79208225 -1.1785431 3.9546165 6447714
-0.86043864 -0.41201523 3.9940333 2039583
-0.82487059 -0.41147047 3.9740453 2039583
-0.79145718 -0.41129375 3.9552686 2039583
-0.86045057 -0.37561738 3.9940867 5066061
-0.8247683 -0.37487683 3.9740355 5131854
-0.79146779 -0.37524909 3.9553218 5131854
-0.86046624 -0.32598233 3.9941599 6447714
-0.824615 -0.32473624 3.9740162 6447714
-0.79162645 -0.32542104 3.9554768 6447714
-0.86064619 -0.2757757 3.9943273 6447714
-0.82491237 -0.27496272 3.9742484 6447714
-0.79135543 -0.27466589 3.9553905 6447714
-0.86043811 -0.22478239 3.9942772 6447714
-0.82492763 -0.2255723 3.9743204 6447714
-0.79151231 -0.22450653 3.9555435 6447714
-0.86041158 -0.17404477 3.9943285 6447714
-0.82528013 -0.17565779 3.9745829 6447714
-0.79152662 -0.17534772 3.9556153 6447714
-0.86053103 -0.12411428 3.9944611 6447714
-0.82462931 -0.12464842 3.9742856 6447714
-0.79168528 -0.12550813 3.9557693 6447714
-0.86054695 -0.074469879 3.9945343 6447714
-0.824974 -0.074097238 3.9745445 6447714
-0.79141438 -0.074753597 3.9556854 6447714
-0.8605628 -0.024823705 3.9946089 6447714
-0.82498938 -0.024699476 3.9746177 6447714
-0.7915712 -0.024582775 3.9558382 6447714
-0.86025369 0.024137458 3.9944985 6447714
-0.8250044 0.024700072 3.9746921 6447714
-0.79158568 0.024583369 3.9559119 6447714
-0.85871035 0.074454434 3.9936974 6447714
-0.8250199 0.074101463 3.9747636 6447714
-0.79145843 0.074757904 3.9559047 6447714
-0.85871994 0.10423727 3.9937422 9211020
-0.82502872 0.10374309 3.9748082 9079434
-0.79253262 0.10408551 3.9565475 9539985
-1.5039291 -1.803269 4.0365028 2039583
-1.4985538 -1.8053056 4.0460629 2039583
-0.95726436 -1.8055556 4.0466232 6447714
-0.93947065 -1.8028952 4.0366278 6447714
-1.5121826 -1.7738905 4.0218873 2039583
-1.4985706 -1.7751529 4.0461087 2039583
-0.95727503 -1.7753991 4.046669 6447714
-0.92671657 -1.7747443 4.0294981 6447714
-0.88875926 -1.7717195 4.0081706 6447714
-1.5126355 -1.7250614 4.0212021 2039583
-1.498598 -1.7248971 4.0461826 2039583
-0.95729291 -1.725137 4.0467448 6447714
-0.92639697 -1.7250774 4.0293827 6447714
-0.88828647 -1.7249883 4.0079646 6447714
-1.5126628 -1.6751148 4.0212779 2039583
-1.4986256 -1.6746396 4.046258 2039583
-0.9573108 -1.6748725 4.0468197 6447714
-0.92653322 -1.6751562 4.0295248 6447714
-0.88837433 -1.6749679 4.0080805 6447714
-1.5126905 -1.6251658 4.0213504 2039583
-1.4986537 -1.62438 4.0463324 2039583
-0.9573288 -1.6246065 4.0468955 6447714
-0.92645234 -1.624976 4.0295448 6447714
-0.8883909 -1.625183 4.0081553 6447714
-1.5127788 -1.575076 4.021318 2039583
-1.4986461 -1.5749515 4.0464678 2039583
-0.9573468 -1.5743388 4.0469718 6447714
-0.92656779 -1.5747951 4.0296745 6447714
-0.88833678 -1.5749241 4.0081897 6447714
-1.5127466 -1.5249854 4.0215001 2039583
-1.4987077 -1.5255303 4.0464797 2039583
-0.95745224 -1.5246202 4.0470963 6447714
-0.92652571 -1.5248674 4.0297165 6447714
-0.88842422 -1.5246598 4.0083046 6447714
-1.5128126 -1.4748921 4.0215044 2039583
-1.4987357 -1.4752655 4.0465531 2039583
-0.9573822 -1.4749135 4.047122 6447714
-0.92660195 -1.4749402 4.0298243 6447714
-0.88844055 -1.4748693 4.008379 6447714
-1.5104712 -1.4493256 4.0257354 2039583
-1.4997605 -1.4494891 4.0447946 2039583
-0.9573999 -1.4246399 4.0471973 6447714
-0.92661899 -1.4248813 4.0298986 6447714
-0.88845706 -1.4250768 4.0084534 6447714
-0.95741773 -1.3749232 4.0472722 6447714
-0.92665625 -1.3749489 4.0299854 6447714
-0.88704914 -1.3743042 4.0077281 6447714
-0.95743537 -1.3252044 4.0473471 6447714
-0.92665321 -1.3250155 4.0300488 6447714
-0.8865959 -1.3248981 4.0075388 6447714
-0.95736521 -1.2754943 4.0473728 6447714
-0.92659217 -1.2750802 4.0300798 6447714
-0.88661271 -1.2751133 4.0076122 6447714
-0.95691097 -1.2467375 4.0471549 6447714
-0.92187911 -1.2378068 4.0274796 6447714
-0.88569874 -1.2288141 4.0071607 6447714
-0.95389467 -0.41072744 4.0465527 3359830
-0.92296499 -0.41166916 4.0291705 2174266
-0.88507861 -0.41129759 4.0078807 2039583
-0.95390785 -0.37385085 4.0466089 3228501
-0.92304868 -0.3752073 4.0292654 3490383
-0.88497555 -0.37478191 4.0078692 5131854
-0.95401329 -0.32410014 4.0467329 2965588
-0.92304575 -0.32539311 4.0293288 3950935
-0.88485098 -0.324276 4.0078659 6447714
-0.95385289 -0.27553076 4.0467067 2637140
-0.92318177 -0.27544466 4.0294709 3885142
-0.8850444 -0.27397969 4.0080419 6447714
-0.95396024 -0.22633468 4.0468311 2308690
-0.92319918 -0.22536792 4.0295444 3753814
-0.88506126 -0.22416936 4.0081153 6447714
-0.95397824 -0.17604136 4.0469069 1979984
-0.92321634 -0.17528939 4.0296211 3622228
-0.88507771 -0.17435722 4.0081887 6447714
-0.95399612 -0.12574616 4.0469823 1717326
-0.92323381 -0.12520911 4.0296965 3490900
-0.88509399 -0.12454312 4.0082641 6447714
-0.95401382 -0.075449072 4.0470581 1586254
-0.92325079 -0.075126797 4.0297713 3490900
-0.8851105 -0.07472723 4.0083389 6447714
-0.95403171 -0.025150111 4.0471349 1454925
-0.92326826 -0.025042677 4.0298467 3425363
-0.88512683 -0.024909489 4.0084128 6447714
-0.95404977 0.025150737 4.0472097 1323083
-0.92328531 0.025043307 4.029922 3425107
-0.88472259 0.025461018 4.0082512 6447714
-0.95406759 0.075453475 4.0472856 1125449
-0.92330241 0.07513117 4.0299978 3359314
-0.88326663 0.07471171 4.0074978 6447714
-1.4294386 0.10905346 4.0497079 1986952
-0.95407826 0.10563595 4.0473313 1059656
-0.92331284 0.1051847 4.0300417 4609381
-0.88327646 0.10459744 4.0075421 9408399
-1.4798965 -1.8123751 4.079246 2039583
-1.0512782 -1.8172334 4.0994406 6447714
-1.0257726 -1.8138278 4.0851121 6447714
-0.98196828 -1.8083824 4.060503 6447714
-1.4823594 -1.7748376 4.0749564 2039583
-1.0512948 -1.7748029 4.0995054 6447714
-1.0236079 -1.7749678 4.0839467 6447714
-0.98059422 -1.7749699 4.0597744 6447714
-1.4823263 -1.7249472 4.0751386 2039583
-1.0513148 -1.7238843 4.0995831 6447714
-1.0235046 -1.7250236 4.0839543 6447714
-0.98049599 -1.7249191 4.0597849 6447714
-1.482339 -1.6749343 4.0752392 2039583
-1.051334 -1.6746613 4.0996585 6447714
-1.0236876 -1.6750757 4.0841212 6447714
-0.98071778 -1.6748657 4.0599732 6447714
-1.482282 -1.624916 4.0754619 2039583
-1.0513533 -1.6254362 4.0997334 6447714
-1.0236446 -1.6251249 4.0841627 6447714
-0.98050272 -1.6250005 4.0599184 6447714
-1.4824435 -1.5748978 4.0752993 2039583
-1.0513731 -1.5745119 4.0998106 6447714
-1.0237247 -1.5753069 4.0842729 6447714
-0.98063797 -1.5749414 4.0600595 6447714
-1.4824412 -1.5249981 4.0754294 2039583
-1.0513924 -1.5252832 4.0998855 6447714
-1.0236833 -1.5252231 4.0843148 6447714
-0.98071486 -1.5248836 4.0601692 6447714
-1.4824626 -1.4749758 4.0755129 2039583
-1.0514116 -1.4760528 4.0999613 6447714
-1.0238045 -1.4750096 4.0844479 6447714
-0.98061633 -1.4750084 4.0601778 6447714
-1.4821053 -1.4494772 4.0762115 2039583
-1.0237614 -1.4250528 4.0844893 6447714
-0.98075092 -1.4249463 4.0603199 6447714
-1.0237192 -1.3750958 4.0845313 6447714
-0.98062396 -1.3748823 4.0603132 6447714
-1.023821 -1.3250053 4.0846539 6447714
-0.98064166 -1.3250041 4.0603876 6447714
-1.0192389 -1.2870629 4.0821285 6447714
-0.97970843 -1.277464 4.0599265 6447714
-0.96520579 -1.2472137 4.0518155 6447714
-1.0204806 -0.41127473 4.0839715 4350077
-0.97886556 -0.41200492 4.0605841 3102591
-1.0204548 -0.3746722 4.0840034 5207708
-0.97913331 -0.37516049 4.0607824 3168384
-1.0201322 -0.32516107 4.0838881 5274275
-0.97915214 -0.32469636 4.0608582 3037055
-1.0200561 -0.27549082 4.0839105 4682656
-0.97917002 -0.27423066 4.060935 2839934
-1.0202928 -0.22503561 4.0841098 4091037
-0.97946626 -0.22425134 4.0611682 2576765
-1.020312 -0.174279 4.0841861 3565465
-0.97913945 -0.17514639 4.0610476 2247544
-1.0205586 -0.12489018 4.0843892 3105687
-0.9790135 -0.125864 4.0610428 2116472
-1.0201319 -0.075850375 4.0842142 2908566
-0.97924268 -0.075713396 4.0612354 2050935
-1.0203682 -0.025381774 4.0844126 2711700
-0.97926068 -0.025238216 4.0613127 1985400
-1.020388 0.025382413 4.0844903 2513808
-0.97927916 0.025238847 4.0613885 1919607
-1.0201154 0.075705767 4.0844026 2250637
-0.979298 0.075717822 4.0614643 1788021
-1.4110948 0.10906202 4.0500259 1787517
-1.2725875 0.10912697 4.0524373 8818583
-1.2241544 0.10914965 4.0532799 1920383
-1.1740302 0.10917314 4.0541525 1979727
-1.1439466 0.10918728 4.054677 10197915
-1.0202674 0.10573754 4.0774579 2118794
-0.979469 0.10606633 4.0597196 1721715
-1.4431587 -1.8518126 4.1445236 2039583
-1.1332523 -1.852109 4.1454616 6447714
-1.4578638 -1.8216137 4.1184301 2039583
-1.4447976 -1.8248296 4.141674 2039583
-1.1214678 -1.8247555 4.1388745 6447714
-1.0783839 -1.8204055 4.1146688 6447714
-1.4585062 -1.7751833 4.1174011 2039583
-1.4447513 -1.775099 4.1418796 2039583
-1.1214879 -1.7750579 4.1389518 6447714
-1.0771745 -1.7749962 4.1140466 6447714
-1.458439 -1.7248015 4.1176462 2039583
-1.4448507 -1.7253739 4.1418242 2039583
-1.1214538 -1.7250209 4.1389976 6447714
-1.0772175 -1.7250297 4.1141381 6447714
-1.4586084 -1.6747934 4.1174684 2039583
-1.4448587 -1.6752062 4.1419358 2039583
-1.121419 -1.6749835 4.1390433 6447714
-1.0770444 -1.674921 4.1141071 6447714
-1.4585084 -1.6249733 4.1177688 2039583
-1.4448674 -1.6250496 4.1420431 2039583
-1.1214674 -1.6249394 4.1391349 6447714
-1.0773703 -1.6248138 4.1143532 6447714
-1.458567 -1.5751519 4.1177869 2039583
-1.444876 -1.5748906 4.1421518 2039583
-1.1215022 -1.5750725 4.1392188 6447714
-1.0772886 -1.574985 4.1143727 6447714
-1.4586253 -1.5249516 4.1178079 2039583
-1.4448842 -1.5247134 4.142261 2039583
-1.1214136 -1.5250224 4.1392355 6447714
-1.0772071 -1.525157 4.1143928 6447714
-1.4585888 -1.4749316 4.1179957 2039583
-1.4449834 -1.4749867 4.1422071 2039583
-1.1216552 -1.4749808 4.1394367 6447714
-1.0773513 -1.4750396 4.1145401 6447714
-1.4621218 -1.4496378 4.1117721 2039583
-1.4460212 -1.4494519 4.1404228 2039583
-1.1215791 -1.4251014 4.1394591 6447714
-1.0753138 -1.4250704 4.1134601 6447714
-1.121516 -1.3750501 4.1394882 6447714
-1.0753125 -1.375021 4.113524 6447714
-1.1190227 -1.3372422 4.1381378 6447714
-1.0738235 -1.3270526 4.1127501 6447714
-1.0569482 -1.2966378 4.1033068 6447714
-1.4573114 -0.86506045 4.1217752 4485278
-1.4450768 -0.86860889 4.143539 2644365
-1.4580052 -0.82521188 4.1206384 4485279
-1.4453657 -0.82478291 4.1431322 2579086
-1.4579513 -0.77507573 4.1208572 4288414
-1.445246 -0.77500969 4.1434679 2710928
-1.4579874 -0.72493494 4.1209173 4091292
-1.4454184 -0.72525531 4.1432838 2644879
-1.457985 -0.67694068 4.1210413 3828379
-1.4452925 -0.67718804 4.1436257 2513037
-1.4581224 -0.45673311 4.1213408 2907537
-1.4465483 -0.45644405 4.1419377 2249866
-1.4581845 -0.42493862 4.1213088 2908051
-1.4465157 -0.42497161 4.1420736 2447757
-1.4580853 -0.37499821 4.1216083 2842515
-1.4466395 -0.37525102 4.1419749 2580111
