# .PCD v0.7 - Point Cloud Data file format
VERSION 0.7
FIELDS x y z rgb
SIZE 4 4 4 4
TYPE F F F U
COUNT 1 1 1 1
WIDTH 1213
HEIGHT 1
VIEWPOINT 0 0 0 1 0 0 0
POINTS 1213
DATA ascii
-1.375392 0.11076274 2.5956976 6447714
-1.3254274 0.11081105 2.5968299 6447714
-1.2717835 0.11089499 2.5777497 6447714
-1.2383009 0.11096004 2.557862 6447714
0.93057466 0.11311471 2.5702968 2894892
0.97153729 0.11316787 2.562638 2894892
1.0254654 0.11323491 2.554431 2894892
1.0745969 0.11328245 2.5555036 2894892
1.1248397 0.1133311 2.5566008 2894892
1.1751248 0.11337978 2.5576992 2894892
1.2243822 0.11342746 2.5587745 2894892
1.2747535 0.11347624 2.5598748 2894892
1.3251677 0.11352502 2.5609756 2894892
1.3745515 0.11357281 2.5620539 2894892
1.425052 0.11362173 2.5631573 2894892
1.4755954 0.11367062 2.56426 2894892
1.5251058 0.11371857 2.5653417 2894892
1.5746584 0.11376654 2.5664239 2894892
1.6242522 0.11381453 2.5675068 2894892
1.6749719 0.11386391 2.56862 2894892
1.7257318 0.1139131 2.5697298 2894892
1.7754537 0.11396124 2.5708158 2894892
1.8252175 0.1140094 2.5719025 2894892
1.8750237 0.11405764 2.5729904 2894892
1.9248718 0.11410587 2.5740788 2894892
1.974762 0.11415416 2.5751681 2894892
2.0246949 0.11420253 2.5762589 2894892
1.084738 -0.30847529 2.6159399 2894892
1.1041156 -0.30839732 2.6441112 2894892
0.94096023 -0.2869561 2.6212232 2894892
0.97489148 -0.28692555 2.6234286 2894892
1.0247058 -0.28687489 2.6229651 2894892
1.0769224 -0.28983307 2.6208725 2894892
1.1043491 -0.29361615 2.644495 2894892
-2.0706387 0.11001295 2.6291778 6447714
-2.0256886 0.11005634 2.6302147 6447714
-1.9753469 0.11010498 2.6313784 6447714
-1.9249606 0.11015365 2.6325414 6447714
-1.8756031 0.11020133 2.6336799 6447714
-1.8251284 0.11025012 2.634846 6447714
-1.7746093 0.1102989 2.6360126 6447714
-1.7251217 0.11034671 2.6371543 6447714
-1.675591 0.11039457 2.6382987 6447714
-1.6249386 0.11044347 2.639468 6447714
-1.5742425 0.11049248 2.6406381 6447714
-1.524581 0.11054046 2.6417851 6447714
-1.474876 0.11058847 2.6429322 6447714
-1.4251281 0.11063653 2.6440811 6447714
-1.3753369 0.11068463 2.6452308 6447714
-1.3255023 0.11073276 2.6463811 6447714
-1.2853879 0.11077153 2.6473076 6447714
0.94463933 0.11300562 2.6482587 2894892
0.97809184 0.11307073 2.628324 2894892
1.0210099 0.1131348 2.6149809 2894892
1.074945 0.11320866 2.6024833 2894892
1.1250225 0.11325711 2.6035972 2894892
1.1751425 0.11330559 2.6047115 2894892
1.2253059 0.11335412 2.6058273 2894892
1.2755121 0.11340271 2.6069438 2894892
1.3257614 0.1134513 2.6080611 2894892
1.3749599 0.1134989 2.6091557 2894892
1.4241997 0.11354654 2.6102502 2894892
1.4745764 0.11359525 2.6113708 2894892
1.5249968 0.11364405 2.6124923 2894892
1.5754601 0.11369286 2.6136146 2894892
1.6248683 0.11374065 2.6147132 2894892
1.6743182 0.1137885 2.615813 2894892
1.7249129 0.11383762 2.6169422 2894892
1.7755479 0.11388659 2.618068 2894892
1.8251251 0.11393459 2.6191709 2894892
1.8747436 0.11398258 2.6202741 2894892
1.9255078 0.11403168 2.6214035 2894892
1.9752116 0.11407977 2.6225085 2894892
2.0249562 0.11412787 2.6236145 2894892
2.0692091 0.11417072 2.6245995 2894892
1.12675 -0.30852148 2.6770165 2894892
0.94677824 -0.28700244 2.6542554 2894892
0.97648466 -0.28700316 2.6735735 2894892
1.0252095 -0.28695512 2.6741142 2894892
1.0824616 -0.28095084 2.6819763 2894892
1.1174953 -0.27165961 2.6861269 2894892
1.0977976 -0.22470199 2.6984136 2894892
1.1171134 -0.22513235 2.68804 2894892
1.0978119 -0.17439781 2.6984484 2894892
1.1168969 -0.17496219 2.6882095 2894892
1.0978259 -0.12521027 2.6984828 2894892
1.1171011 -0.12491554 2.6882107 2894892
1.0978403 -0.074903518 2.6985178 2894892
1.1163799 -0.075136974 2.6881154 2894892
1.0978543 -0.024595467 2.6985528 2894892
1.1157955 -0.024688805 2.6877329 2894892
1.0978681 0.024595885 2.6985872 2894892
1.1158265 0.024689686 2.6878037 2894892
1.0978826 0.074906513 2.6986222 2894892
1.1157238 0.074789919 2.6879945 2894892
-2.1156328 0.10988862 2.6792619 6447714
-2.0752971 0.10992754 2.6802108 6447714
-2.0251119 0.109976 2.681392 6447714
-1.974882 0.11002448 2.682574 6447714
-1.924608 0.11007301 2.6837575 6447714
-1.8742903 0.11012159 2.6849422 6447714
-1.8250225 0.11016915 2.6861014 6447714
-1.7757127 0.11021677 2.6872623 6447714
-1.7252626 0.11026547 2.6884496 6447714
-1.6747681 0.11031419 2.6896379 6447714
-1.6242294 0.110363 2.6908278 6447714
-1.5747455 0.11041076 2.6919918 6447714
-1.5252191 0.11045856 2.6931579 6447714
-1.4745475 0.1105075 2.694351 6447714
-1.424934 0.11055538 2.6955183 6447714
-1.3752778 0.11060333 2.6966872 6447714
-1.3244734 0.11065236 2.6978829 6447714
-1.2968454 0.11067906 2.6985338 6447714
0.9774757 0.11295758 2.6995516 2894892
1.0354089 0.11309338 2.6503153 2894892
1.0830487 0.11114259 2.6674793 2894892
1.1174005 0.10796747 2.6819553 2894892
1.1751597 0.11322851 2.653482 2894892
1.2251511 0.11327682 2.6546144 2894892
1.2751852 0.11332517 2.6557477 2894892
1.3252622 0.11337361 2.6568823 2894892
1.3753819 0.11342205 2.6580176 2894892
1.4255443 0.11347053 2.6591544 2894892
1.4746335 0.11351802 2.6602666 2894892
1.5248812 0.11356658 2.6614048 2894892
1.5751717 0.11361521 2.6625445 2894892
1.6243862 0.11366277 2.6636591 2894892
1.674762 0.11371149 2.6648004 2894892
1.7251824 0.1137603 2.6659448 2894892
1.7745267 0.11380825 2.6670682 2894892
1.8250309 0.11385705 2.6682122 2894892
1.8755788 0.11390595 2.6693575 2894892
1.9250458 0.11395378 2.6704783 2894892
1.9745542 0.11400162 2.6715996 2894892
2.0241041 0.11404953 2.6727228 2894892
2.0748229 0.11409855 2.6738715 2894892
2.1143007 0.11413676 2.6747665 2894892
1.1471071 -0.30836204 2.7066116 2894892
1.1557208 -0.30813572 2.7191348 2894892
0.98476434 -0.28707924 2.7269835 2894892
1.0249842 -0.28704023 2.7278063 2894892
1.0840234 -0.27138209 2.709305 2894892
1.1472189 -0.27474877 2.706876 2894892
1.1560289 -0.27492204 2.7196827 2894892
1.0873793 -0.22475 2.7055807 2894892
1.147388 -0.22431764 2.707274 2894892
1.1561961 -0.22537841 2.7200758 2894892
1.0872958 -0.17486531 2.7056816 2894892
1.1475532 -0.17499284 2.707664 2894892
1.1564312 -0.17524992 2.7205696 2894892
1.0873095 -0.12554599 2.7057171 2894892
1.1477184 -0.12565383 2.7080541 2894892
1.1564708 -0.12456518 2.7207816 2894892
1.0873233 -0.075104281 2.7057521 2894892
1.146017 -0.070760906 2.7057474 2894892
1.1567059 -0.074407265 2.7212751 2894892
1.0873374 -0.024661398 2.7057874 2894892
1.145143 -0.024650203 2.7046168 2894892
1.1568736 -0.024805613 2.7216697 2894892
1.0864718 0.024667334 2.7064264 2894892
1.1453083 0.024654936 2.7050066 2894892
1.1570411 0.024810405 2.7220643 2894892
1.0865208 0.075025357 2.7064378 2894892
1.1454766 0.075095378 2.7054052 2894892
1.1572086 0.074440815 2.7224588 2894892
-2.161267 0.1097607 2.7313211 6447714
-2.1246083 0.10979605 2.7322011 6447714
-2.0745838 0.10984433 2.733402 6447714
-2.024514 0.1098926 2.7346036 6447714
-1.9744015 0.10994094 2.7358057 6447714
-1.9253596 0.10998823 2.7369835 6447714
-1.875159 0.11003666 2.7381887 6447714
-1.8249153 0.11008517 2.7393951 6447714
-1.7746257 0.11013364 2.7406013 6447714
-1.7242931 0.1101822 2.7418098 6447714
-1.6750355 0.11022974 2.7429924 6447714
-1.6257352 0.11027727 2.7441754 6447714
-1.5752709 0.11032598 2.7453873 6447714
-1.5247616 0.11037468 2.7465992 6447714
-1.4753319 0.11042235 2.7477858 6447714
-1.4258596 0.1104701 2.7489736 6447714
-1.3921053 0.11050267 2.7497838 6447714
0.99890721 0.11297831 2.7000468 2894892
1.0248641 0.11300338 2.7006459 2894892
1.0828017 0.10821524 2.7052443 2894892
1.1455609 0.10801187 2.7049942 2894892
1.1681421 0.11063571 2.7106624 2894892
1.2249918 0.11319669 2.7052662 2894892
1.2759811 0.11324599 2.7064438 2894892
1.3258802 0.11329418 2.7075958 2894892
1.3758216 0.1133424 2.7087486 2894892
1.425806 0.11339073 2.7099032 2894892
1.4758321 0.11343902 2.7110574 2894892
1.5259018 0.11348742 2.7122138 2894892
1.5760137 0.11353581 2.713371 2894892
1.6250284 0.11358317 2.7145021 2894892
1.6740838 0.11363058 2.7156353 2894892
1.7243221 0.11367908 2.7167947 2894892
1.7746052 0.11372776 2.7179577 2894892
1.8249314 0.11377648 2.7191222 2894892
1.8752991 0.11382515 2.7202849 2894892
1.9257095 0.11387383 2.7214487 2894892
1.9750166 0.11392149 2.7225876 2894892
2.0243642 0.11396912 2.7237263 2894892
2.0749032 0.11401797 2.7248933 2894892
2.1254845 0.11406683 2.7260611 2894892
2.159996 0.1141002 2.7268586 2894892
0.99241763 -0.28713924 2.7698491 2894892
1.0249798 -0.28710976 2.7718666 2894892
1.0704354 -0.28706032 2.7694297 2894892
-2.2075748 0.10962866 2.7854674 6447714
-2.1747351 0.1096603 2.7862716 6447714
-2.1248758 0.10970836 2.7874928 6447714
-2.0749726 0.10975645 2.7887144 6447714
-2.0250263 0.10980462 2.7899382 6447714
-1.9750354 0.10985277 2.791162 6447714
-1.9250013 0.109901 2.7923877 6447714
-1.8749225 0.10994928 2.7936141 6447714
-1.8248004 0.10999758 2.7948413 6447714
-1.7746339 0.11004594 2.7960703 6447714
-1.7244229 0.11009433 2.7972994 6447714
-1.6741683 0.11014277 2.7985303 6447714
-1.6318753 0.11018352 2.7995658 6447714
-1.3662114 0.1105276 2.7504048 6447714
-1.3346742 0.11055805 2.7511625 6447714
0.98745173 0.11288416 2.7522979 2894892
1.0242639 0.11291973 2.7531652 2894892
1.0714599 0.11296527 2.7542756 2894892
1.1867334 0.11307657 2.756989 2894892
1.2248251 0.11311334 2.7578852 2894892
1.2756506 0.11316241 2.7590818 2894892
1.3253635 0.11321038 2.7602513 2894892
1.3751193 0.11325845 2.7614231 2894892
1.4249165 0.11330648 2.7625947 2894892
1.474757 0.11335462 2.7637682 2894892
1.5246389 0.11340278 2.7649422 2894892
1.5745639 0.11345094 2.7661173 2894892
1.624531 0.11349921 2.7672939 2894892
1.67454 0.11354747 2.7684698 2894892
1.7245924 0.11359581 2.7696488 2894892
1.7746872 0.11364415 2.7708275 2894892
1.8248278 0.11369275 2.7720127 2894892
1.8750104 0.11374132 2.7731969 2894892
1.9252337 0.11378983 2.7743795 2894892
1.9743296 0.1138372 2.7755344 2894892
2.0246384 0.11388581 2.7767191 2894892
2.0749888 0.11393438 2.7779033 2894892
2.1242099 0.1139819 2.7790623 2894892
2.1746459 0.11403059 2.7802498 2894892
2.2063355 0.11406121 2.7809961 2894892
0.99877304 -0.28719085 2.80654 2894892
1.0213093 -0.2871727 2.8093517 2894892
-2.2557588 0.10949142 2.8418078 6447714
-2.2257338 0.10952034 2.8425589 6447714
-2.1748898 0.10956929 2.8438294 6447714
-2.1251574 0.1096172 2.8450723 6447714
-2.0753813 0.10966513 2.8463166 6447714
-2.0244021 0.10971422 2.8475909 6447714
-1.9745386 0.10976226 2.8488376 6447714
-1.9385637 0.10979687 2.8497357 6447714
-1.6078576 0.1102067 2.8001544 6447714
-1.5758152 0.11023757 2.8009386 6447714
-1.5254298 0.11028615 2.8021734 6447714
-1.4749992 0.11033472 2.8034074 6447714
-1.424525 0.1103834 2.8046439 6447714
-1.3751546 0.11043098 2.8058529 6447714
-1.3487316 0.11045647 2.8065007 6447714
0.99782735 0.11280799 2.8071506 2894892
1.0248139 0.11283406 2.8077989 2894892
1.0752972 0.11288273 2.8090105 2894892
1.1081916 0.11291447 2.8098001 2894892
1.1987513 0.11300182 2.811974 2894892
1.2246531 0.11302684 2.8125963 2894892
1.2741301 0.1130745 2.8137834 2894892
1.3248291 0.11312346 2.8150008 2894892
1.3755713 0.11317237 2.8162186 2894892
1.425176 0.11322025 2.817409 2894892
1.4748229 0.11326812 2.8186011 2894892
1.5245115 0.11331606 2.8197935 2894892
1.5742429 0.11336405 2.8209879 2894892
1.6240152 0.11341203 2.8221819 2894892
1.6750172 0.11346125 2.8234065 2894892
1.726063 0.11351047 2.8246315 2894892
1.775965 0.11355861 2.8258297 2894892
1.825909 0.11360682 2.827029 2894892
1.8758975 0.11365514 2.8282311 2894892
1.9259273 0.11370344 2.8294337 2894892
1.975999 0.11375178 2.830636 2894892
2.0261128 0.11380009 2.8318379 2894892
2.0750747 0.11384733 2.8330138 2894892
2.1240773 0.1138946 2.8341906 2894892
2.1743171 0.11394306 2.8353963 2894892
2.2246003 0.11399157 2.8366034 2894892
2.2533512 0.11401934 2.8372943 2894892
-1.9130191 0.1098215 2.8503749 6447714
-1.8746789 0.10985842 2.8513331 6447714
-1.8246834 0.10990655 2.8525832 6447714
-1.774644 0.10995474 2.8538334 6447714
-1.7245612 0.11000299 2.8550858 6447714
-1.6744337 0.11005124 2.856338 6447714
-1.6254301 0.11009847 2.8575635 6447714
-1.5752159 0.11014681 2.8588183 6447714
-1.5249575 0.1101952 2.8600743 6447714
-1.4746553 0.11024368 2.8613322 6447714
-1.4243082 0.11029214 2.8625901 6447714
-1.3868139 0.11032826 2.863528 6447714
1.0325685 0.11275164 2.8648169 2894892
1.0744947 0.1127921 2.8658442 2894892
1.1188473 0.1128348 2.8669298 2894892
1.2364863 0.11294822 2.8698113 2894892
1.2749513 0.11298528 2.8707535 2894892
1.3242706 0.11303282 2.8719611 2894892
1.3748353 0.11308156 2.8731992 2894892
1.4254442 0.11313035 2.8744392 2894892
1.4748893 0.11317797 2.875649 2894892
1.5243776 0.1132257 2.876862 2894892
1.5751148 0.1132746 2.878104 2894892
1.6246868 0.11332238 2.8793185 2894892
1.6743004 0.11337018 2.8805332 2894892
1.7251678 0.11341923 2.8817787 2894892
1.7748667 0.11346713 2.8829961 2894892
1.8246069 0.11351506 2.8842137 2894892
1.8756049 0.11356423 2.8854637 2894892
1.9254345 0.1136125 2.8866894 2894892
1.9753042 0.11366066 2.8879132 2894892
2.0252149 0.11370878 2.8891358 2894892
2.0751672 0.11375691 2.8903592 2894892
2.1251621 0.1138051 2.8915837 2894892
2.1752 0.11385334 2.8928089 2894892
2.2252793 0.1139016 2.8940356 2894892
2.2754023 0.11394993 2.8952632 2894892
2.3023131 0.11397589 2.8959229 2894892
-2.3035731 0.10935063 2.9005308 6447714
-2.2752976 0.10937785 2.9012527 6447714
-2.2257845 0.10942548 2.9025161 6447714
-2.1750479 0.10947431 2.9038112 6447714
-2.1242661 0.10952317 2.9051075 6447714
-2.0746212 0.10957092 2.9063742 6447714
-2.0249333 0.10961875 2.9076428 6447714
-1.9752017 0.10966656 2.9089115 6447714
-1.9254271 0.10971449 2.9101825 6447714
-1.8756083 0.10976242 2.9114537 6447714
-1.825747 0.10981039 2.9127262 6447714
-1.7758417 0.10985842 2.914 6447714
-1.7258922 0.10990647 2.9152744 6447714
-1.6758997 0.10995461 2.9165516 6447714
-1.6258625 0.11000271 2.9178278 6447714
-1.5757822 0.11005093 2.9191067 6447714
-1.5256579 0.11009914 2.9203854 6447714
-1.4754895 0.11014742 2.9216652 6447714
-1.4264735 0.11019459 2.9229169 6447714
1.0430909 0.11266835 2.924264 2894892
1.0748836 0.11269899 2.9250593 2894892
1.1250499 0.11274729 2.9263129 2894892
1.1556588 0.11277677 2.9270782 2894892
1.248813 0.11286648 2.9294066 2894892
1.2745812 0.11289133 2.9300511 2894892
1.3249189 0.11293975 2.9313083 2894892
1.3753002 0.11298832 2.932569 2894892
1.4244941 0.11303566 2.9337978 2894892
1.4749614 0.11308429 2.9350595 2894892
1.5254713 0.11313293 2.9363222 2894892
1.5747919 0.11318044 2.9375548 2894892
1.6241537 0.11322796 2.9387889 2894892
1.6747922 0.11327674 2.9400539 2894892
1.7254747 0.11332557 2.9413216 2894892
1.7749627 0.1133732 2.9425578 2894892
1.8244932 0.11342094 2.9437966 2894892
1.8740642 0.11346862 2.945035 2894892
1.9249189 0.11351761 2.9463067 2894892
1.9758196 0.11356679 2.9475825 2894892
2.0255196 0.11361469 2.9488258 2894892
2.0615768 0.11364945 2.9497283 2894892
1.5593091 -0.41871488 2.9990666 2894892
1.5593239 -0.37523168 2.9990947 2894892
1.5593405 -0.32553563 2.9991271 2894892
1.5593574 -0.27583846 2.9991596 2894892
1.5593747 -0.22489782 2.9991925 2894892
1.5593921 -0.17395605 2.9992259 2894892
1.5594089 -0.12425563 2.9992583 2894892
1.5594257 -0.074554175 2.9992909 2894892
1.5594426 -0.024851631 2.9993234 2894892
1.5594594 0.024851987 2.9993558 2894892
1.5594764 0.074556686 2.9993882 2894892
-2.3534088 0.10920405 2.9617362 6447714
-2.3257518 0.10923065 2.9624572 6447714
-2.2752163 0.10927922 2.9637744 6447714
-2.2246358 0.10932785 2.9650934 6447714
-2.175216 0.10937534 2.9663823 6447714
-2.1257532 0.1094229 2.9676716 6447714
-2.0750401 0.10947166 2.9689939 6447714
-2.024281 0.10952046 2.9703171 6447714
-1.9746872 0.10956814 2.9716113 6447714
-1.9250494 0.10961584 2.972904 6447714
-1.8753693 0.10966363 2.9742002 6447714
-1.8256452 0.10971139 2.9754958 6447714
-1.7746638 0.10976043 2.9768255 6447714
-1.7248523 0.10980833 2.9781244 6447714
-1.6749969 0.10985623 2.979424 6447714
-1.6250989 0.10990421 2.9807255 6447714
-1.5751562 0.10995221 2.9820271 6447714
-1.5251708 0.11000029 2.983331 6447714
-1.4751408 0.11004836 2.9846346 6447714
-1.4409512 0.11008126 2.985527 6447714
1.0790331 0.11260542 2.9868641 2894892
1.1240132 0.11264871 2.988013 2894892
1.1677748 0.11269081 2.9891288 2894892
1.2867243 0.11280527 2.9921656 2894892
1.3243392 0.11284146 2.9931254 2894892
1.3745277 0.11288975 2.9944065 2894892
1.4247593 0.11293809 2.9956884 2894892
1.4750339 0.11298648 2.9969718 2894892
1.5253514 0.11303488 2.9982557 2894892
1.5691048 0.11138492 2.9994371 2894892
2.086457 0.11367336 2.9503486 2894892
2.1250439 0.11371055 2.9513137 2894892
2.1748691 0.11375853 2.952559 2894892
2.2247367 0.11380656 2.9538059 2894892
2.2746456 0.11385461 2.9550533 2894892
2.3245974 0.11390275 2.9563022 2894892
2.3508377 0.11392803 2.9569588 2894892
1.4928529 -0.41902366 3.0449617 2894892
1.5246246 -0.41827834 3.0230203 2894892
1.5651542 -0.41880566 3.0127587 2894892
1.4925665 -0.3754282 3.0451982 2894892
1.5243102 -0.37482521 3.0232749 2894892
1.5650107 -0.37543049 3.0127635 2894892
1.4925002 -0.32549959 3.0452886 2894892
1.5243032 -0.32482058 3.0233254 2894892
1.5652454 -0.32552919 3.0132086 2894892
1.4925158 -0.27503756 3.0453212 2894892
1.5243332 -0.27490816 3.0233476 2894892
1.5653424 -0.27507111 3.0133898 2894892
1.4925325 -0.22457437 3.0453546 2894892
1.5243636 -0.22499532 3.0233705 2894892
1.5647391 -0.22505541 3.0127616 2894892
1.4925083 -0.17428394 3.0454156 2894892
1.5244818 -0.17517586 3.023334 2894892
1.5619988 -0.17455736 3.009599 2894892
1.4926071 -0.12509333 3.0453918 2894892
1.5243385 -0.12525906 3.0234771 2894892
1.5621303 -0.12469423 3.009851 2894892
1.4925809 -0.075701647 3.0454531 2894892
1.5243547 -0.075156219 3.02351 2894892
1.5622625 -0.074822687 3.0101039 2894892
1.4925971 -0.025234133 3.0454865 2894892
1.5243721 -0.025052302 3.0235441 2894892
1.5623938 -0.024942756 3.0103588 2894892
1.4926138 0.025234494 3.0455203 2894892
1.5243881 0.025052687 3.0235748 2894892
1.5625263 0.024945544 3.0106094 2894892
1.49263 0.075704217 3.0455544 2894892
1.5244049 0.075158767 3.0236099 2894892
1.5626575 0.074842229 3.0108631 2894892
-2.4029343 0.10905335 3.0256412 6447714
-2.3746929 0.10908049 3.0263939 6447714
-2.3255465 0.10912766 3.0277028 6447714
-2.2751279 0.10917611 3.029047 6447714
-2.2246642 0.10922458 3.0303912 6447714
-2.1753883 0.10927191 3.0317042 6447714
-2.124836 0.10932047 3.033052 6447714
-2.0742385 0.10936904 3.0343995 6447714
-2.0248325 0.10941652 3.0357165 6447714
-1.9753828 0.10946397 3.0370336 6447714
-1.9258912 0.10951153 3.0383532 6447714
-1.8751159 0.10956027 3.0397055 6447714
-1.8242972 0.10960911 3.0410604 6447714
-1.7746732 0.10965677 3.042382 6447714
-1.7250065 0.10970448 3.0437057 6447714
-1.6752964 0.10975222 3.0450304 6447714
-1.6255429 0.10979998 3.0463557 6447714
-1.5757464 0.10984783 3.0476832 6447714
-1.525906 0.10989567 3.0490108 6447714
-1.4947356 0.10992563 3.0498416 6447714
1.4926404 0.10724835 3.0455747 2894892
1.5244147 0.10647562 3.0236299 2894892
1.5651391 0.106525 3.0102589 2894892
1.6248555 0.11313062 3.0007954 2894892
1.6740408 0.11317798 3.0020514 2894892
1.7245286 0.11322652 3.0033388 2894892
1.775061 0.11327519 3.0046296 2894892
1.8256359 0.11332381 3.0059197 2894892
1.8749889 0.11337132 3.0071793 2894892
1.9243829 0.11341883 3.0084398 2894892
1.9750866 0.11346762 3.0097351 2894892
2.0258381 0.11351671 3.0110362 2894892
2.0753613 0.11356448 3.0123029 2894892
2.1249239 0.11361216 3.0135677 2894892
2.1758008 0.11366113 3.0148673 2894892
2.2254467 0.11370888 3.0161333 2894892
2.2751358 0.1137567 3.0174022 2894892
2.3248656 0.11380454 3.018671 2894892
2.3746388 0.11385246 3.0199423 2894892
2.4014554 0.11387829 3.0206273 2894892
1.4312656 -0.41853714 3.0874958 2894892
1.4677835 -0.41858849 3.0622754 2894892
1.6158575 -0.41867304 3.078263 2894892
1.4313626 -0.37498081 3.0874686 2894892
1.4679451 -0.37492174 3.0622015 2894892
1.6157167 -0.37537238 3.0781901 2894892
1.4312884 -0.32496509 3.0875602 2894892
1.4677684 -0.32491538 3.0623684 2894892
1.6162301 -0.32528001 3.0790858 2894892
1.431357 -0.27508199 3.0875578 2894892
1.4677736 -0.27497062 3.062408 2894892
1.6165649 -0.27473715 3.0797234 2894892
1.4315015 -0.22486484 3.0875022 2894892
1.4680978 -0.22523262 3.0622308 2894892
1.5959289 -0.20470345 3.050056 2894892
1.6168969 -0.22459829 3.0803576 2894892
1.4312031 -0.17497168 3.0877545 2894892
1.4678818 -0.17508397 3.0624232 2894892
1.5961273 -0.17439783 3.0504348 2894892
1.6172286 -0.17486383 3.0809879 2894892
1.4315319 -0.12509653 3.0875676 2894892
1.4677464 -0.12459629 3.0625608 2894892
1.5964495 -0.12513658 3.0510507 2894892
1.6173798 -0.12468981 3.0813591 2894892
1.4312342 -0.07519424 3.0878217 2894892
1.4680711 -0.075130895 3.0623806 2894892
1.596772 -0.07585527 3.051667 2894892
1.6180743 -0.074902549 3.0825155 2894892
1.431563 -0.025323968 3.0876372 2894892
1.4679303 -0.025375273 3.0625215 2894892
1.5971025 -0.02528975 3.052299 2894892
1.6180394 -0.025127597 3.0826161 2894892
1.4315796 0.025324335 3.0876734 2894892
1.4679465 0.025375657 3.0625572 2894892
1.5974337 0.025296733 3.0529313 2894892
1.6183726 0.025134495 3.0832508 2894892
1.4312804 0.075196818 3.087919 2894892
1.4681189 0.07513345 3.0624816 2894892
1.5977646 0.075904183 3.0535641 2894892
1.6190674 0.074950188 3.0844076 2894892
-2.454648 0.10889618 3.0923691 6447714
-2.4245422 0.10892507 3.0931897 6447714
-2.3743327 0.10897324 3.0945575 6447714
-2.324079 0.10902146 3.0959268 6447714
-2.2750392 0.10906852 3.0972631 6447714
-2.2259567 0.10911562 3.0986006 6447714
-2.1881731 0.10915186 3.0996299 6447714
-1.4760242 0.10994361 3.0503407 6447714
1.0910195 0.11251532 3.0515411 2894892
1.1254867 0.11254849 3.0524406 2894892
1.1753052 0.11259637 3.0537395 2894892
1.2059826 0.11262586 3.0545392 2894892
1.3262981 0.11274154 3.0576768 2894892
1.3750055 0.11278834 3.0589464 2894892
1.4303344 0.1073359 3.083035 2894892
1.4676988 0.10662686 3.0623295 2894892
1.5979716 0.10754366 3.0539596 2894892
1.6227902 0.10971952 3.0727224 2894892
1.6745478 0.11307631 3.066756 2894892
1.7248353 0.11312466 3.0680676 2894892
1.7751653 0.11317305 3.0693798 2894892
1.825539 0.11322148 3.0706933 2894892
1.8746623 0.1132687 3.071974 2894892
1.9251211 0.11331721 3.0732896 2894892
1.9756229 0.11336576 3.0746062 2894892
2.0248716 0.1134131 3.0758903 2894892
2.0741634 0.11346062 3.0771782 2894892
2.1247954 0.11350936 3.0785012 2894892
2.1754687 0.11355809 3.0798221 2894892
2.2248845 0.11360561 3.081111 2894892
2.2743411 0.11365313 3.0824003 2894892
2.3251436 0.11370198 3.0837252 2894892
2.3759885 0.11375084 3.0850501 2894892
2.4255726 0.11379853 3.0863438 2894892
2.452991 0.11382492 3.0870593 2894892
1.3971406 -0.41888446 3.1110609 2894892
1.4058585 -0.41860297 3.1050406 2894892
1.6424987 -0.41836768 3.1168406 2894892
1.6589553 -0.4189671 3.1406686 2894892
1.3971539 -0.37506628 3.1110909 2894892
1.4060738 -0.37489071 3.1049309 2894892
1.6427939 -0.37453145 3.1174009 2894892
1.6592563 -0.37479579 3.1412385 2894892
1.3971694 -0.3248032 3.1111248 2894892
1.4059588 -0.32526359 3.1050537 2894892
1.6429889 -0.32487196 3.1178343 2894892
1.6596017 -0.32410964 3.1418924 2894892
1.3971846 -0.27453899 3.1111586 2894892
1.4060602 -0.27510837 3.1050289 2894892
1.6436081 -0.27455556 3.1188834 2894892
1.6599381 -0.27470267 3.1425292 2894892
1.3454545 -0.21902773 3.1469326 2894892
1.3752519 -0.21923985 3.126354 2894892
1.4060333 -0.22512034 3.1050916 2894892
1.6438042 -0.22485542 3.119318 2894892
1.6602747 -0.2252757 3.1431668 2894892
1.345428 -0.17566869 3.1469891 2894892
1.3745643 -0.17504409 3.126869 2894892
1.4060484 -0.17495257 3.1051259 2894892
1.6439996 -0.1751446 3.1197524 2894892
1.6606117 -0.17582865 3.1438041 2894892
1.3455207 -0.12484642 3.1469703 2894892
1.374182 -0.12529071 3.1271772 2894892
1.4060639 -0.12478371 3.1051595 2894892
1.6436296 -0.12810296 3.1193588 2894892
1.6587763 -0.12156428 3.1413109 2894892
1.3454971 -0.07431528 3.1470311 2894892
1.3747118 -0.074783392 3.1268542 2894892
1.4060791 -0.074613735 3.1051927 2894892
1.6393578 -0.074808501 3.1133347 2894892
1.6556457 -0.074740462 3.1369197 2894892
1.3455113 -0.024771996 3.1470656 2894892
1.374472 -0.024614548 3.1270649 2894892
1.4060944 -0.024442665 3.1052275 2894892
1.6396954 -0.024510762 3.1139762 2894892
1.6561264 -0.024698023 3.1377671 2894892
1.3455257 0.024772348 3.1470995 2894892
1.3744873 0.02461491 3.1270998 2894892
1.4061093 0.024443012 3.1052604 2894892
1.6400249 0.024517318 3.1146016 2894892
1.6564614 0.024704678 3.1384025 2894892
1.3455403 0.074317776 3.1471336 2894892
1.3747563 0.074785896 3.1269577 2894892
1.4061247 0.074616261 3.1052945 2894892
1.640363 0.074856184 3.1152437 2894892
1.6566596 0.074787989 3.1388409 2894892
-2.1629701 0.10917606 3.100317 6447714
-2.1251416 0.10921234 3.1013472 6447714
-2.0746675 0.10926078 3.1027229 6447714
-2.024148 0.10930924 3.104099 6447714
-1.9748491 0.10935657 3.1054428 6447714
-1.9255062 0.10940387 3.106786 6447714
-1.874855 0.1094525 3.1081672 6447714
-1.824158 0.10950112 3.1095476 6447714
-1.7746857 0.10954862 3.1108966 6447714
-1.7251694 0.1095961 3.1122446 6447714
-1.67434 0.10964487 3.1136301 6447714
-1.6247373 0.10969248 3.1149819 6447714
-1.5750914 0.1097401 3.1163344 6447714
-1.5254027 0.10978776 3.1176884 6447714
-1.4986312 0.1098135 3.1184185 6447714
1.128328 0.11244491 3.1197381 2894892
1.1753291 0.11249008 3.1209915 2894892
1.2197524 0.11253271 3.122174 2894892
1.3441437 0.10743485 3.14151 2894892
1.3738018 0.10697591 3.126905 2894892
1.4061346 0.10677912 3.1053157 2894892
1.6374967 0.10808211 3.1111941 2894892
1.6692162 0.11062976 3.1362367 2894892
1.7238338 0.11301686 3.135607 2894892
1.7739528 0.113065 3.1369426 2894892
1.8241143 0.11311318 3.1382792 2894892
1.874319 0.1131614 3.1396167 2894892
1.9245664 0.11320967 3.1409562 2894892
1.9748561 0.11325797 3.1422961 2894892
2.0251892 0.11330631 3.1436374 2894892
2.0755651 0.11335467 3.1449795 2894892
2.1259875 0.11340332 3.1463284 2894892
2.1751256 0.1134507 3.1476433 2894892
2.2242999 0.11349792 3.1489534 2894892
2.2562175 0.11352857 3.1498039 2894892
1.6813632 -0.41802859 3.1731186 2894892
1.6816617 -0.37471339 3.173682 2894892
1.6820061 -0.32481679 3.1743312 2894892
1.6821455 -0.27534598 3.174684 2894892
1.269734 -0.21869111 3.1992264 2894892
1.6824986 -0.22540231 3.1753461 2894892
1.2697462 -0.17495458 3.1992562 2894892
1.6830407 -0.17501342 3.1762843 2894892
1.2704371 -0.12935546 3.1988194 2894892
1.6833854 -0.12503496 3.1769352 2894892
1.2708138 -0.075533196 3.1986074 2894892
1.6837306 -0.075035997 3.1775863 2894892
1.2708278 -0.02517798 3.198642 2894892
1.6840757 -0.025016554 3.1782377 2894892
1.6844208 0.025023382 3.1788881 2894892
1.6847663 0.075083852 3.1795409 2894892
-2.5074089 0.10873298 3.162138 6447714
-2.4753551 0.10876371 3.1630313 6447714
-2.425318 0.10881164 3.1644256 6447714
-2.3752372 0.10885967 3.165822 6447714
-2.3251121 0.10890771 3.1672192 6447714
-2.2749424 0.1089558 3.168618 6447714
-2.2247288 0.10900392 3.1700175 6447714
-2.1744709 0.10905209 3.171418 6447714
-2.1254585 0.10909908 3.1727848 6447714
-2.0751121 0.10914733 3.1741879 6447714
-2.0247223 0.10919565 3.1755929 6447714
-1.9755803 0.10924271 3.1769621 6447714
-1.925102 0.10929114 3.17837 6447714
-1.8745781 0.10933953 3.1797771 6447714
-1.825308 0.10938679 3.1811519 6447714
-1.7746952 0.10943526 3.1825616 6447714
-1.724039 0.10948386 3.1839747 6447714
-1.6746374 0.10953119 3.1853511 6447714
-1.6251941 0.10957859 3.1867294 6447714
-1.5757068 0.109626 3.188108 6447714
-1.5405211 0.10965975 3.18909 6447714
1.1406405 0.11234581 3.1903293 2894892
1.1753556 0.11237915 3.1912763 2894892
1.2247899 0.11242656 3.1926227 2894892
1.258214 0.11245864 3.1935337 2894892
1.6849843 0.10671077 3.1799521 2894892
2.2814999 0.11355288 3.1504781 2894892
2.3254361 0.11359505 3.1516485 2894892
2.3747361 0.1136424 3.1529624 2894892
2.424077 0.11368979 3.1542771 2894892
2.4747949 0.11373852 3.1556289 2894892
2.5055125 0.11376804 3.1564481 2894892
1.7157778 -0.41925195 3.2229474 2894892
1.7160873 -0.37525672 3.2235289 2894892
1.7162335 -0.32502481 3.2238915 2894892
1.7167929 -0.27521423 3.2248542 2894892
1.1978987 -0.21804452 3.2488358 2894892
1.225533 -0.21893315 3.2297494 2894892
1.2594131 -0.2181991 3.2063541 2894892
1.7171474 -0.22493726 3.2255197 2894892
1.19791 -0.1749756 3.2488658 2894892
1.2258164 -0.17500752 3.2295938 2894892
1.2592319 -0.17434168 3.2065184 2894892
1.7172928 -0.17464152 3.225883 2894892
1.1979229 -0.12517622 3.2489016 2894892
1.2254182 -0.1246568 3.2299089 2894892
1.2602816 -0.12478766 3.205837 2894892
1.7180613 -0.12476462 3.2271461 2894892
1.1979361 -0.075375706 3.2489367 2894892
1.2258141 -0.075161219 3.229691 2894892
1.2603854 -0.075703278 3.2058091 2894892
1.7179894 -0.075329959 3.2271919 2894892
1.1979491 -0.025574151 3.2489719 2894892
1.225632 -0.025423652 3.2298553 2894892
1.2603996 -0.025234671 3.2058437 2894892
1.7185524 -0.02540949 3.2281587 2894892
1.1979624 0.02557453 3.2490084 2894892
1.2256458 0.025424043 3.2298872 2894892
1.2604134 0.025235035 3.2058797 2894892
1.7189103 0.02541654 3.2288308 2894892
1.1979752 0.075378291 3.2490435 2894892
1.2258532 0.075163804 3.2297893 2894892
1.2604275 0.075705849 3.205914 2894892
1.71905 0.07537812 3.2291849 2894892
-2.5612981 0.10856366 3.2351699 6447714
-2.5245855 0.10859881 3.2362168 6447714
-2.474725 0.10864656 3.2376399 6447714
-2.4248211 0.10869433 3.2390635 6447714
-2.3748734 0.10874215 3.240489 6447714
-2.3248811 0.10879001 3.2419155 6447714
-2.2748454 0.10883792 3.2433426 6447714
-2.2247651 0.10888586 3.2447717 6447714
-2.1746414 0.10893389 3.246202 6447714
-2.1244724 0.1089819 3.2476332 6447714
-2.07426 0.10902999 3.2490661 6447714
-2.0451717 0.10905787 3.249897 6447714
1.1979834 0.10633788 3.2490659 2894892
1.2249379 0.10591235 3.2304504 2894892
1.2604356 0.10625447 3.2059355 2894892
1.7239801 0.10994295 3.2171528 2894892
1.7753865 0.11295488 3.2076254 2894892
1.8253292 0.11300278 3.2089856 2894892
1.8753141 0.11305077 3.2103484 2894892
1.9253416 0.11309875 3.2117112 2894892
1.9754118 0.11314681 3.2130754 2894892
2.0255241 0.11319485 3.2144403 2894892
2.0756791 0.113243 3.2158079 2894892
2.1245196 0.11328985 3.2171378 2894892
2.1747608 0.11333814 3.2185092 2894892
2.2250457 0.11338655 3.2198837 2894892
2.2753706 0.11343483 3.2212546 2894892
2.3257387 0.11348315 3.2226272 2894892
2.3747861 0.1135302 3.2239635 2894892
2.4252393 0.11357861 3.2253387 2894892
2.4757349 0.11362706 3.2267137 2894892
2.5249076 0.11367427 3.2280538 2894892
2.5590782 0.11370707 3.228986 2894892
1.7392988 -0.41829488 3.257009 2894892
1.7570879 -0.41822639 3.2827673 2894892
1.7396066 -0.375182 3.2575853 2894892
1.7577885 -0.37479287 3.2839131 2894892
1.7399626 -0.32531396 3.2582507 2894892
1.7579821 -0.32519448 3.2843444 2894892
1.7403185 -0.27542585 3.2589178 2894892
1.7581768 -0.27558661 3.2847764 2894892
1.179572 -0.21889389 3.261493 2894892
1.7406754 -0.22551723 3.2595868 2894892
1.7588676 -0.22527762 3.2859294 2894892
1.1793644 -0.1750154 3.2616737 2894892
1.7410325 -0.17558819 3.2602549 2894892
1.7589037 -0.17495643 3.2861345 2894892
1.1798142 -0.12504451 3.2614079 2894892
1.741389 -0.12563848 3.2609224 2894892
1.7594256 -0.12528311 3.2870409 2894892
1.1793903 -0.075022891 3.261745 2894892
1.7417555 -0.074317597 3.2616084 2894892
1.7597888 -0.074912541 3.287719 2894892
1.1798396 -0.025059039 3.2614796 2894892
1.7421119 -0.024326591 3.2622764 2894892
1.7601522 -0.024521373 3.2883978 2894892
1.1798526 0.025059409 3.2615139 2894892
1.7424592 0.024333052 3.2629263 2894892
1.7605059 0.024527933 3.2890584 2894892
1.1794287 0.075025424 3.261852 2894892
1.7428161 0.074364662 3.2635949 2894892
1.7608693 0.074960366 3.2897375 2894892
-2.0200338 0.10908188 3.2506123 6447714
-1.9750262 0.109125 3.2518976 6447714
-1.9260061 0.1091719 3.2532954 6447714
-1.8756186 0.10922019 3.2547338 6447714
-1.8251859 0.10926844 3.2561719 6447714
-1.7747093 0.10931681 3.2576134 6447714
-1.7241869 0.10936514 3.2590542 6447714
-1.6749525 0.10941233 3.2604594 6447714
-1.6256739 0.10945946 3.2618642 6447714
-1.5830224 0.10950034 3.263082 6447714
1.1786307 0.10682651 3.2619181 2894892
1.7430477 0.10682766 3.264029 2894892
1.771831 0.11075317 3.2843127 2894892
1.8252157 0.1128858 3.2829094 2894892
1.8749695 0.11293348 3.2842951 2894892
1.9247665 0.11298123 3.2856843 2894892
1.9746045 0.11302897 3.2870729 2894892
2.0244856 0.11307682 3.2884638 2894892
2.0744076 0.11312465 3.2898548 2894892
2.1243732 0.11317255 3.2912481 2894892
2.1743805 0.11322048 3.2926414 2894892
2.224431 0.11326849 3.2940383 2894892
2.2745309 0.11331686 3.2954452 2894892
2.3246653 0.11336492 3.2968423 2894892
2.3748429 0.11341301 3.2982416 2894892
2.4194801 0.11345581 3.2994859 2894892
1.7819854 -0.41864344 3.3188183 2894892
1.8004252 -0.41857409 3.3455195 2894892
1.7820727 -0.37538505 3.3190756 2894892
1.8007522 -0.37428945 3.346127 2894892
1.7822721 -0.32525912 3.3195164 2894892
1.8011203 -0.3244504 3.3468108 2894892
1.7828058 -0.27512294 3.320441 2894892
1.8014886 -0.274591 3.3474958 2894892
1.7833405 -0.22495514 3.3213677 2894892
1.8018583 -0.22471125 3.3481824 2894892
1.783541 -0.17477112 3.3218102 2894892
1.8022275 -0.17481105 3.3488684 2894892
1.7837411 -0.12457726 3.3222518 2894892
1.8025962 -0.12489033 3.3495531 2894892
1.7842755 -0.07434383 3.3231783 2894892
1.8028115 -0.095761329 3.3499534 2894892
1.7846383 -0.02478575 3.3238535 2894892
1.7850004 0.024792459 3.3245285 2894892
1.7853628 0.074390814 3.3252039 2894892
-2.6163902 0.10838746 3.3116891 6447714
-2.5748017 0.10842721 3.3129039 6447714
-2.5251253 0.10847475 3.3143559 6447714
-2.4754052 0.10852227 3.3158083 6447714
-2.4256418 0.10856988 3.3172626 6447714
-2.3744872 0.10861879 3.3187573 6447714
-2.3246357 0.10866649 3.3202143 6447714
-2.2747393 0.10871418 3.3216717 6447714
-2.2247996 0.10876197 3.3231316 6447714
-2.1748157 0.10880976 3.3245921 6447714
-2.1247888 0.10885761 3.3260546 6447714
-2.0747166 0.10890548 3.3275166 6447714
-2.0246015 0.10895343 3.3289821 6447714
-1.9744407 0.10900138 3.3304472 6447714
-1.9242374 0.10904941 3.3319142 6447714
-1.8753471 0.10909615 3.3333428 6447714
-1.8250562 0.10914427 3.3348129 6447714
-1.7747202 0.1091924 3.3362832 6447714
-1.7257024 0.10923929 3.3377161 6447714
-1.6752785 0.10928749 3.3391891 6447714
-1.6261754 0.10933448 3.3406239 6447714
1.7855947 0.10608842 3.3256352 2894892
2.4446023 0.11347985 3.300185 2894892
2.4753256 0.11350933 3.3010421 2894892
2.5256312 0.11355754 3.3024445 2894892
2.575979 0.1136058 3.3038478 2894892
2.6151681 0.11364339 3.3049412 2894892
1.8194289 -0.41921806 3.3730345 2894892
1.819752 -0.37596473 3.3736334 2894892
1.8201269 -0.32571632 3.3743291 2894892
1.8205026 -0.27544719 3.3750257 2894892
1.820879 -0.22515729 3.3757226 2894892
1.8212547 -0.17484654 3.3764198 2894892
1.8214427 -0.12522642 3.376842 2894892
1.8164078 -0.074160092 3.3697054 2894892
1.8160262 -0.025124649 3.3693023 2894892
1.8164002 0.025131546 3.3699965 2894892
1.8167741 0.075408429 3.3706906 2894892
-2.6741555 0.10820291 3.391921 6447714
-2.626085 0.10824879 3.3933597 6447714
-2.5752256 0.10829741 3.3948834 6447714
-2.5243189 0.108346 3.3964071 6447714
-2.4747455 0.10839338 3.3978922 6447714
-2.4265065 0.10843942 3.3993359 6447714
1.8229318 0.10981361 3.3649035 2894892
1.8746126 0.1128109 3.3617365 2894892
1.9255826 0.11285966 3.3631895 2894892
1.9751805 0.11290719 3.3646059 2894892
2.0248194 0.11295468 3.3660212 2894892
2.0745003 0.11300228 3.3674393 2894892
2.1242228 0.11304985 3.3688571 2894892
2.1754103 0.1130989 3.3703187 2894892
2.2252173 0.11314655 3.3717389 2894892
2.2750676 0.11319431 3.3731618 2894892
2.3249636 0.11324227 3.3745911 2894892
2.3748984 0.1132901 3.3760169 2894892
2.4248743 0.11333796 3.3774426 2894892
2.4748931 0.11338583 3.37887 2894892
2.5249534 0.11343377 3.3802977 2894892
2.5750575 0.11348179 3.3817282 2894892
2.6252019 0.11352976 3.3831577 2894892
2.6710868 0.11357374 3.3844686 2894892
1.7928199 -0.61828882 3.445272 2894892
1.8219495 -0.61868078 3.4251564 2894892
1.8568406 -0.61894107 3.4266012 2894892
1.7927178 -0.57498461 3.4453819 2894892
1.8219535 -0.57495344 3.4251904 2894892
1.8571758 -0.57503694 3.4272199 2894892
2.6790528 -0.56831294 3.4361069 2894892
2.7066236 -0.56784064 3.4170699 2894892
1.7929176 -0.52596855 3.4452877 2894892
1.8219826 -0.52503568 3.4252157 2894892
1.8575544 -0.52544904 3.4279184 2894892
2.6791422 -0.52502978 3.4360862 2894892
2.7066514 -0.52484441 3.4170876 2894892
1.7980418 -0.49763408 3.4417737 2894892
1.8279333 -0.48030102 3.4211457 2894892
1.8579328 -0.47584078 3.428616 2894892
2.679148 -0.47494575 3.4361274 2894892
2.7068255 -0.47513819 3.4170125 2894892
1.8400108 -0.43010247 3.4056318 2894892
1.8583219 -0.42479417 3.4293356 2894892
2.6790626 -0.42500135 3.4362307 2894892
2.7067513 -0.42470014 3.4171081 2894892
1.8390533 -0.374856 3.4015856 2894892
1.8585179 -0.37442815 3.4297714 2894892
2.679337 -0.37498203 3.4360859 2894892
2.7067263 -0.37497222 3.4171691 2894892
1.8394356 -0.32419086 3.4022932 2894892
1.8592737 -0.32477337 3.4310162 2894892
2.678993 -0.32496566 3.4363666 2894892
2.7068393 -0.32543746 3.4171352 2894892
1.8398074 -0.27491298 3.4029803 2894892
1.8592753 -0.2750763 3.43117 2894892
2.6793616 -0.27514514 3.4361551 2894892
2.7068181 -0.27464628 3.4171951 2894892
1.8401803 -0.2256151 3.4036703 2894892
1.8600335 -0.2253654 3.4324176 2894892
2.679256 -0.22486754 3.4362733 2894892
2.7068419 -0.22509861 3.417223 2894892
1.8405637 -0.17488794 3.4043789 2894892
1.8600357 -0.17564358 3.4325726 2894892
2.6791863 -0.1750396 3.4363678 2894892
2.7068639 -0.17555003 3.4172516 2894892
1.8409467 -0.12413958 3.4050875 2894892
1.8606095 -0.12517746 3.4335561 2894892
2.6793492 -0.12515496 3.4362977 2894892
2.7068856 -0.12458497 3.4172807 2894892
1.8413191 -0.074780755 3.4057763 2894892
1.860989 -0.075406097 3.4342563 2894892
2.6791797 -0.075318441 3.4364605 2894892
2.706908 -0.075034738 3.4173095 2894892
1.8416915 -0.025401764 3.4064655 2894892
1.8613687 -0.025614219 3.4349577 2894892
2.6793945 -0.025502194 3.4363551 2894892
2.7069328 -0.025483688 3.4173384 2894892
1.8420743 0.025408804 3.4071741 2894892
1.8617597 0.025621384 3.4356787 2894892
2.6794167 0.025502482 3.4363844 2894892
2.7069552 0.02548397 3.4173667 2894892
1.8424474 0.074828148 3.4078636 2894892
1.8621396 0.075454295 3.4363797 2894892
2.6792483 0.075320393 3.4365475 2894892
2.7069759 0.075036697 3.4173954 2894892
-2.4016838 0.10846315 3.4000795 6447714
-2.3754671 0.10848822 3.4008651 6447714
-2.325762 0.10853567 3.4023526 6447714
-2.276015 0.10858321 3.4038432 6447714
-2.2262232 0.10863075 3.4053335 6447714
-2.1750033 0.1086797 3.406868 6447714
-2.1237369 0.10872865 3.4084022 6447714
-2.0738125 0.10877636 3.4098978 6447714
-2.0238428 0.10882407 3.4113936 6447714
-1.9738306 0.10887186 3.4128919 6447714
-1.9237741 0.10891965 3.4143901 6447714
-1.8736736 0.10896753 3.4158907 6447714
-1.8249223 0.10901409 3.4173505 6447714
-1.7761292 0.1090607 3.4188118 6447714
-1.7258991 0.10910868 3.4203155 6447714
-1.6756244 0.10915671 3.4218214 6447714
-1.6462793 0.10918476 3.4227006 6447714
1.8426816 0.10590132 3.4082966 2894892
1.8738054 0.10987442 3.4399858 2894892
1.924986 0.11273073 3.4443941 2894892
1.9743282 0.11277788 3.4458344 2894892
2.025167 0.11282655 3.4473212 2894892
2.0760477 0.11287516 3.448807 2894892
2.1095064 0.11290717 3.449785 2894892
2.6793597 0.10677744 3.4364951 2894892
2.7069912 0.1061845 3.417413 2894892
1.7321563 -0.61858028 3.4871681 2894892
1.7684666 -0.61885673 3.4620934 2894892
1.8835087 -0.61873412 3.4652166 2894892
1.9038904 -0.61822098 3.4947314 2894892
1.7321701 -0.5749895 3.487196 2894892
1.7685155 -0.57499045 3.4620941 2894892
1.8836535 -0.57506841 3.4655595 2894892
1.9042292 -0.57488811 3.495353 2894892
2.5935371 -0.56867564 3.4951673 2894892
2.6248014 -0.56825918 3.473578 2894892
2.6539736 -0.5679937 3.4534299 2894892
1.7322545 -0.52612805 3.4871819 2894892
1.7685736 -0.52597153 3.4621024 2894892
1.8842295 -0.52562505 3.4665439 2894892
1.9046135 -0.52575934 3.4960585 2894892
2.5934012 -0.52542859 3.4953008 2894892
2.624922 -0.52487147 3.473532 2894892
2.6539927 -0.52507609 3.4534545 2894892
1.8846183 -0.47545794 3.4672582 2894892
1.9050102 -0.47516516 3.4967871 2894892
2.5934703 -0.47496301 3.495297 2894892
2.6248858 -0.47495091 3.4736011 2894892
2.6540155 -0.47500473 3.4534838 2894892
1.8850064 -0.42527005 3.4679725 2894892
1.9054062 -0.42454976 3.4975135 2894892
2.5935409 -0.42449796 3.4952939 2894892
2.624862 -0.42502582 3.4736638 2894892
2.654038 -0.42493251 3.4535127 2894892
1.8853948 -0.37506136 3.4686875 2894892
1.9057909 -0.37536022 3.4982197 2894892
2.593514 -0.37505394 3.4953556 2894892
2.624861 -0.37494352 3.4737089 2894892
2.6540601 -0.37485939 3.453542 2894892
1.8857837 -0.32483217 3.4694026 2894892
1.9061871 -0.32470319 3.4989471 2894892
2.5934877 -0.32560718 3.4954176 2894892
2.6249926 -0.32496151 3.4736595 2894892
2.6540818 -0.32478547 3.4535706 2894892
1.8859737 -0.2753005 3.4698284 2894892
1.906572 -0.27547356 3.4996538 2894892
2.5936038 -0.27494091 3.495383 2894892
2.6250722 -0.27509487 3.473649 2894892
2.6541047 -0.27471074 3.4536006 2894892
1.8867501 -0.22502939 3.4711053 2894892
2.59358 -0.22445866 3.4954438 2894892
2.6246932 -0.22505467 3.4739561 2894892
2.6541271 -0.22463511 3.453629 2894892
1.8867538 -0.17474709 3.4712629 2894892
2.5936015 -0.17522402 3.4954727 2894892
2.6253145 -0.17480905 3.4735711 2894892
2.6541493 -0.1745587 3.4536583 2894892
1.8873302 -0.12514961 3.4722478 2894892
2.5935745 -0.12577227 3.4955347 2894892
2.6249881 -0.12520787 3.4738419 2894892
2.6541712 -0.12448142 3.4536872 2894892
1.8877196 -0.074817076 3.4729645 2894892
2.5936904 -0.075106271 3.4954991 2894892
2.6250086 -0.074837506 3.4738688 2894892
2.6541936 -0.074403293 3.4537158 2894892
1.8881093 -0.024463965 3.4736812 2894892
2.5936661 -0.024618842 3.4955609 2894892
2.6250331 -0.024466282 3.4739013 2894892
2.6542158 -0.024324335 3.4537451 2894892
1.8884881 0.024470501 3.4743786 2894892
2.5936887 0.024619114 3.4955897 2894892
2.6250534 0.024466554 3.4739306 2894892
2.6542373 0.0243246 3.453773 2894892
1.8888781 0.074864812 3.4750953 2894892
2.5937865 0.074907482 3.4955659 2894892
2.6250739 0.074839436 3.4739575 2894892
2.6542602 0.074405238 3.4538019 2894892
-2.7572808 0.10798751 3.4754405 6447714
-2.7249415 0.10801837 3.4764338 6447714
-2.6742878 0.10806666 3.4779882 6447714
-2.624999 0.10811371 3.4795027 6447714
-2.5756655 0.10816075 3.4810159 6447714
-2.5248804 0.10820924 3.4825768 6447714
-2.4740469 0.10825769 3.4841361 6447714
-2.4245846 0.10830492 3.485656 6447714
-2.3750765 0.1083521 3.487175 6447714
-2.3241107 0.10840078 3.4887409 6447714
-2.2745152 0.10844806 3.4902627 6447714
-2.2248781 0.10849544 3.4917879 6447714
-2.1751959 0.10854281 3.4933121 6447714
-2.1254721 0.10859028 3.4948399 6447714
-2.0742807 0.10863909 3.4964113 6447714
-2.0244682 0.10868663 3.4979413 6447714
-1.9788865 0.1087301 3.4993403 6447714
1.8891228 0.10655095 3.4755464 2894892
2.1342509 0.11293086 3.4505091 2894892
2.1750281 0.11296982 3.4516995 2894892
2.2245812 0.11301723 3.4531481 2894892
2.2741754 0.11306465 3.4545968 2894892
2.3238118 0.11311214 3.4560475 2894892
2.3749561 0.11316126 3.4575491 2894892
2.4261441 0.11321043 3.4590509 2894892
2.4759078 0.11325799 3.4605043 2894892
2.5257139 0.11330565 3.4619606 2894892
2.5869503 0.10910042 3.4841244 2894892
2.625428 0.10756149 3.4723594 2894892
2.6542742 0.10731575 3.4538214 2894892
1.6457435 -0.61862379 3.5468445 2894892
1.6756262 -0.61883616 3.5262048 2894892
1.7073549 -0.61919606 3.5042946 2894892
1.9246521 -0.61915368 3.5247922 2894892
1.6457571 -0.5745461 3.5468736 2894892
1.6756163 -0.57501489 3.5262542 2894892
1.7072959 -0.57515508 3.5043747 2894892
1.9249979 -0.57544833 3.5254247 2894892
2.5323164 -0.56845343 3.5374496 2894892
2.5684192 -0.56828672 3.5125167 2894892
1.6457722 -0.52605975 3.5469058 2894892
1.6756043 -0.52611142 3.5263047 2894892
1.7074314 -0.52605468 3.5043242 2894892
1.9253894 -0.52589685 3.5261421 2894892
2.5323744 -0.52489769 3.5374451 2894892
2.5684493 -0.52487105 3.5125322 2894892
1.9255879 -0.47558022 3.526582 2894892
2.5324066 -0.47491074 3.5374732 2894892
2.568382 -0.47486091 3.512625 2894892
1.926391 -0.42456129 3.5279 2894892
2.532433 -0.42492354 3.5374947 2894892
2.5684574 -0.4249261 3.5126147 2894892
1.9265904 -0.37420285 3.5283408 2894892
2.5324585 -0.37493575 3.5375216 2894892
2.5685613 -0.37491584 3.5125892 2894892
1.9269826 -0.32456943 3.5290592 2894892
2.5325112 -0.32486597 3.5375314 2894892
2.5686769 -0.32483098 3.5125515 2894892
1.9267859 -0.2742283 3.528928 2894892
2.5325568 -0.27471504 3.537545 2894892
2.5685213 -0.27504623 3.5127075 2894892
1.9208361 -0.22508642 3.5204611 2894892
2.5326555 -0.22448482 3.5375164 2894892
2.5684891 -0.22549015 3.5127695 2894892
1.9212292 -0.17504773 3.5211825 2894892
2.5325365 -0.17440695 3.5376492 2894892
2.5683589 -0.17539065 3.5129032 2894892
1.9213612 -0.12451008 3.5215278 2894892
2.5325556 -0.12457746 3.5376754 2894892
2.5688417 -0.12455634 3.5126178 2894892
1.9220233 -0.074427865 3.5226362 2894892
2.5325775 -0.074747093 3.5377073 2894892
2.5686076 -0.074221298 3.512826 2894892
1.9224143 -0.024813771 3.5233529 2894892
2.5326011 -0.02491587 3.5377352 2894892
2.5686288 -0.024740621 3.5128534 2894892
1.9228047 0.024820501 3.5240698 2894892
2.532619 0.024916153 3.5377665 2894892
2.5686519 0.024740899 3.5128798 2894892
1.9231961 0.074474975 3.5247874 2894892
2.5326393 0.074749 3.5377932 2894892
2.5686717 0.07422325 3.5129085 2894892
-1.9532318 0.10875457 3.5001271 6447714
-1.9247109 0.10878181 3.5010035 6447714
-1.8747667 0.10882945 3.502537 6447714
-1.824779 0.10887713 3.5040722 6447714
-1.7747473 0.10892487 3.5056086 6447714
-1.7246718 0.10897263 3.5071456 6447714
-1.6903108 0.10900544 3.5082016 6447714
1.9285508 0.10849953 3.5260804 2894892
1.9749264 0.11264386 3.5311356 2894892
2.0240443 0.11269073 3.5326049 2894892
2.0746951 0.11273915 3.5341227 2894892
2.1253877 0.11278754 3.5356398 2894892
2.1746321 0.11283459 3.5371151 2894892
2.2239172 0.11288168 3.5385904 2894892
2.2747395 0.11293022 3.5401125 2894892
2.3256044 0.1129788 3.5416355 2894892
2.3750155 0.113026 3.5431151 2894892
2.4244695 0.11307328 3.5445969 2894892
2.4754686 0.11312222 3.5461314 2894892
2.5315425 0.10725537 3.5381799 2894892
2.568686 0.10624162 3.5129285 2894892
1.5849819 -0.61883038 3.5888069 2894892
1.6212126 -0.61888045 3.5637856 2894892
1.9457436 -0.61863124 3.5553341 2894892
1.9672475 -0.61810172 3.5864739 2894892
1.5850687 -0.57486808 3.5887854 2894892
1.6211694 -0.57516676 3.563854 2894892
1.9460841 -0.57601649 3.5559561 2894892
1.9678202 -0.57435358 3.587435 2894892
2.4465756 -0.56880498 3.5966613 2894892
2.476063 -0.56843013 3.576297 2894892
2.50775 -0.56840485 3.5544147 2894892
1.5848989 -0.52496117 3.5889473 2894892
1.6211433 -0.5263626 3.5639153 2894892
1.9464836 -0.52603602 3.5566862 2894892
1.9677771 -0.52545571 3.5875216 2894892
2.446701 -0.52562594 3.5966134 2894892
2.4758162 -0.5248704 3.5765059 2894892
2.5077689 -0.5257045 3.5544391 2894892
1.5848907 -0.47494271 3.5889964 2894892
1.602018 -0.47571486 3.577168 2894892
1.9468834 -0.476035 3.5574167 2894892
1.9683981 -0.47573954 3.5885715 2894892
2.4466765 -0.47532895 3.5966754 2894892
2.4759169 -0.47479373 3.5764837 2894892
2.5077887 -0.47564146 3.5544696 2894892
1.5849389 -0.42492354 3.5890086 2894892
1.6020333 -0.42533165 3.5772018 2894892
1.9472845 -0.42601368 3.5581491 2894892
1.967821 -0.4278931 3.5878806 2894892
2.446697 -0.42467052 3.5967062 2894892
2.4759364 -0.42489308 3.5765131 2894892
2.5078111 -0.42557752 3.5544999 2894892
1.5850759 -0.37511942 3.5889585 2894892
1.6020488 -0.37494755 3.5772359 2894892
1.9476843 -0.37597156 3.5588806 2894892
1.9619814 -0.37519285 3.5795846 2894892
2.4466727 -0.37437019 3.5967677 2894892
2.4760263 -0.37511352 3.5764942 2894892
2.5078318 -0.37551263 3.554529 2894892
1.5851729 -0.3253164 3.5889349 2894892
1.6020638 -0.3245624 3.5772703 2894892
1.9480845 -0.32590884 3.5596113 2894892
1.9623876 -0.32483885 3.5803256 2894892
2.446785 -0.32522774 3.5967333 2894892
2.4758642 -0.32509241 3.5766516 2894892
2.5078523 -0.32544702 3.5545588 2894892
1.5848109 -0.28675246 3.5892189 2894892
