# .PCD v0.7 - Point Cloud Data file format
VERSION 0.7
FIELDS x y z rgb
SIZE 4 4 4 4
TYPE F F F U
COUNT 1 1 1 1
WIDTH 1163
HEIGHT 1
VIEWPOINT 0 0 0 1 0 0 0
POINTS 1163
DATA ascii
-0.22505386 0.11272108 1.8634762 10197915
-0.17521323 0.11268968 1.8631536 10197915
-0.12500632 0.1126584 1.8626366 10197915
-0.071756251 0.11258245 1.8848083 10197915
-0.025013193 0.11254893 1.8866737 10197915
0.025003973 0.11251782 1.8861518 10197915
0.052346557 0.11250079 1.8858668 9868950
-1.5185496 0.11342246 1.9319785 9934743
-1.4750371 0.11340246 1.9277585 9934743
-1.4251304 0.11337142 1.9272306 9934743
-1.3752517 0.11334039 1.9267031 9934743
-1.3250031 0.11330952 1.925963 9934743
-1.2747774 0.11327788 1.9256407 9934743
-1.2249806 0.1132469 1.9251138 10000536
-1.1748184 0.11321609 1.9243751 10197915
-1.1246722 0.11318449 1.9240533 10197915
-1.074563 0.11315373 1.923315 10197915
-1.024474 0.11312217 1.9229937 10197915
-0.97481394 0.11309128 1.9224688 10197915
-0.92479098 0.11306056 1.9217315 10197915
-0.87478095 0.11302905 1.9214106 10197915
-0.82481086 0.11299836 1.920674 10197915
-0.77485758 0.1129669 1.9203537 10197915
-0.72494096 0.11293624 1.9196182 10197915
-0.67504448 0.11290479 1.9192984 10197915
-0.6251806 0.11287418 1.9185634 10197915
-0.57493943 0.1128429 1.9180319 10197915
-0.52513444 0.11281154 1.917713 10197915
-0.47495046 0.11278032 1.9171823 10197915
-0.42479408 0.11274911 1.9166523 10197915
-0.37506947 0.11271858 1.9159186 10197915
-0.32496664 0.1126874 1.9153892 10197915
-0.27529696 0.11265613 1.915071 10197915
-0.22525117 0.11262497 1.9145421 10197915
-0.17483865 0.11259401 1.9138014 10197915
-0.12524763 0.11256276 1.9134841 10197915
-0.079263426 0.11252131 1.9198354 10197915
-0.024729824 0.11247569 1.9254717 10197915
0.02472081 0.11244493 1.9249452 10197915
0.052625656 0.11242758 1.9246482 9934743
-1.5658468 0.11334661 1.9883245 9934743
-1.5250527 0.11333158 1.9824009 9934743
-1.474961 0.11330087 1.9816289 9934743
-1.4248997 0.11326933 1.981312 9934743
-1.3748612 0.11323866 1.9805405 9934743
-1.324857 0.11320713 1.9802246 9934743
-1.2752866 0.11317634 1.9796857 9934743
-1.225334 0.11314573 1.9789149 10132122
-1.1754081 0.11311426 1.9785995 10197915
-1.125508 0.11308367 1.9778299 10197915
-1.0748148 0.11305174 1.977506 10197915
-1.0245569 0.11302052 1.9769597 10197915
-0.97474337 0.11298997 1.9761909 10197915
-0.92495304 0.11295862 1.9758767 10197915
-0.87519199 0.1129281 1.9751087 10197915
-0.82504237 0.11289693 1.9745636 10197915
-0.77493232 0.11286494 1.974473 10197915
-0.72484165 0.11283465 1.9734744 10197915
-0.67477512 0.11280351 1.9729303 10197915
-0.62515491 0.11277226 1.9726173 10197915
-0.57514524 0.11274118 1.9720739 10197915
-0.52475613 0.11271029 1.9712999 10197915
-0.47521412 0.11267909 1.9709873 10197915
-0.42528701 0.11264805 1.9704448 10197915
-0.37498501 0.11261721 1.9696712 10197915
-0.32511127 0.1125862 1.9691292 10197915
-0.27486518 0.11255456 1.9688096 10197915
-0.22504832 0.11252358 1.9682677 10197915
-0.17525892 0.11249264 1.9677265 10197915
-0.1250976 0.1124619 1.9669546 10197915
-0.074952796 0.1124303 1.9666359 10197915
-0.024845207 0.11239959 1.965865 10197915
0.024836108 0.11236872 1.965325 10197915
0.05332198 0.11234769 1.9667734 9934743
-1.6055242 0.11330149 2.0258136 9934743
-1.5750481 0.11328255 2.025475 9934743
-1.5251219 0.11325155 2.0249202 9934743
-1.4752228 0.11322057 2.0243664 9934743
-1.4253515 0.11318958 2.0238125 9934743
-1.3746625 0.11315811 2.0232496 9934743
-1.3248457 0.11312716 2.0226967 9934743
-1.2750565 0.11309623 2.0221434 10066329
-1.2244512 0.11306481 2.0215816 10197915
-1.1747166 0.11303391 2.0210292 10197915
-1.1225731 0.1129781 2.0328786 10197915
-1.0746588 0.11294408 2.0346029 10197915
-1.024645 0.11291302 2.0340436 10197915
-0.97508758 0.11288272 2.0332406 10197915
-0.92512679 0.1128517 2.0326812 10197915
-0.87478143 0.11281998 2.0323675 10197915
-0.82487756 0.11278899 2.0318091 10197915
-0.77500117 0.11275802 2.0312512 10197915
-0.72473741 0.11272727 2.0304401 10197915
-0.67491359 0.11269632 2.0298831 10197915
-0.62470496 0.11266468 2.0295696 10197915
-0.5749383 0.11263378 2.0290132 10197915
-0.52519929 0.11260291 2.0284567 10197915
-0.4750751 0.11257225 2.027648 10197915
-0.42496684 0.11254065 2.0273359 10197915
-0.37489608 0.11251005 2.0265281 10197915
-0.32484514 0.11247849 2.0262153 10197915
-0.27482763 0.11244792 2.0254078 10197915
-0.224834 0.11241639 2.0250971 10197915
-0.17486969 0.11238584 2.0242908 10197915
-0.12493317 0.11235438 2.0239797 10197915
-0.075022019 0.11232384 2.023174 10197915
-0.025142603 0.11229239 2.0228631 10197915
0.025133289 0.11226117 2.0223007 10197915
0.054449122 0.11224297 2.0219731 10000536
-1.6550806 0.1132196 2.0861619 9934743
-1.6223618 0.11322261 2.0734086 9934743
-1.5749202 0.11319888 2.0698278 9934743
-1.5247566 0.11316776 2.0692494 9934743
-1.4750668 0.11313643 2.0689514 9934743
-1.4249609 0.11310534 2.0683825 9934743
-1.3748821 0.11307425 2.0678141 9934743
-1.3252684 0.11304396 2.0669856 9934743
-1.2752426 0.11301291 2.0664268 10132122
-1.2248247 0.11298111 2.0661111 10197915
-1.1748559 0.11295009 2.0655434 10197915
-1.1283761 0.11290387 2.0742581 10197915
-1.0743181 0.11285928 2.0795221 10197915
-1.024933 0.11282863 2.0789576 10197915
-0.97557485 0.11279801 2.078393 10197915
-0.92537802 0.11276685 2.0778191 10197915
-0.87520903 0.11273573 2.0772457 10197915
-0.8250677 0.1127046 2.0766723 10197915
-0.77495408 0.11267352 2.0760994 10197915
-0.72486818 0.11264244 2.075527 10197915
-0.67480981 0.11261138 2.0749545 10197915
-0.62477911 0.11258035 2.0743825 10197915
-0.57477593 0.11254931 2.0738111 10197915
-0.52480024 0.1125183 2.0732398 10197915
-0.47485217 0.11248731 2.0726686 10197915
-0.42493156 0.11245634 2.0720978 10197915
-0.37503847 0.11242539 2.0715272 10197915
-0.32517284 0.11239444 2.0709577 10197915
-0.27533466 0.11236353 2.0703874 10197915
-0.22552386 0.1123326 2.0698183 10197915
-0.17282481 0.1122946 2.0720325 10197915
-0.12432991 0.11224062 2.0841508 10197915
-0.0746627 0.1122103 2.083307 10197915
-0.025027137 0.11217901 2.0830069 10197915
0.0250179 0.11214799 2.0824304 10197915
0.055205196 0.11212925 2.0820827 10000536
-1.6109042 -0.95266855 2.1353998 2039583
-1.5926048 -0.95509583 2.1460185 2039583
-1.6605363 -0.9212392 2.1066389 2039583
-1.6253326 -0.92456698 2.1270669 2039583
-1.5930376 -0.92498481 2.145813 2039583
-1.6607819 -0.87488317 2.1065662 2039583
-1.6257244 -0.87502795 2.1269166 2039583
-1.5930842 -0.87492669 2.1458614 2039583
-1.6602141 -0.82497644 2.1069713 2039583
-1.6251404 -0.82500619 2.1273289 2039583
-1.59314 -0.82494038 2.1459048 2039583
-1.6602734 -0.77504683 2.1070127 2039583
-1.6250178 -0.77490419 2.1274803 2039583
-1.5929868 -0.77539557 2.1460686 2039583
-1.6603109 -0.72506732 2.1070662 2039583
-1.6246316 -0.72503293 2.1277766 2039583
-1.5927458 -0.72534317 2.1462841 2039583
-1.6603633 -0.67493761 2.1071115 2039583
-1.6246369 -0.67501926 2.1278479 2039583
-1.5932437 -0.67490822 2.1460705 2039583
-1.6604153 -0.6249041 2.1071575 2039583
-1.6247193 -0.62500119 2.1278737 2039583
-1.5932875 -0.62495637 2.1461213 2039583
-1.6604098 -0.5749644 2.1072357 2039583
-1.6247505 -0.57498229 2.1279359 2039583
-1.5933309 -0.57500237 2.1461709 2039583
-1.660506 -0.5250721 2.107255 2039583
-1.624814 -0.52498192 2.1279681 2039583
-1.59339 -0.52495742 2.1462133 2039583
-1.6605177 -0.47502977 2.1073239 2039583
-1.6248283 -0.47502217 2.1280417 2039583
-1.5934228 -0.47491026 2.1462688 2039583
-1.6605623 -0.42498538 2.1073747 2039583
-1.6248552 -0.42501619 2.1281021 2039583
-1.5934423 -0.42503768 2.1463332 2039583
-1.6605693 -0.37503782 2.107445 2039583
-1.624876 -0.37496501 2.1281624 2039583
-1.5934812 -0.37525156 2.1463866 2039583
-1.6606597 -0.32498789 2.1074679 2039583
-1.6249627 -0.32497722 2.1281867 2039583
-1.593485 -0.32528308 2.1464586 2039583
-1.6607003 -0.2749373 2.1075196 2039583
-1.6249855 -0.27498472 2.1282535 2039583
-1.5935419 -0.27513689 2.1465018 2039583
-1.6606569 -0.22497925 2.107621 2039583
-1.6250538 -0.22501351 2.1282873 2039583
-1.593599 -0.224989 2.1465445 2039583
-1.6608472 -0.17512144 2.1075859 2039583
-1.6251076 -0.17505875 2.1283278 2039583
-1.5936904 -0.17466505 2.1465669 2039583
-1.6607947 -0.12486628 2.107692 2039583
-1.6250083 -0.12508278 2.1284678 2039583
-1.5936779 -0.12450629 2.1466503 2039583
-1.6608355 -0.075096205 2.1077437 2039583
-1.6251591 -0.074845381 2.1284528 2039583
-1.5937163 -0.074705623 2.146703 2039583
-1.6608765 -0.025323683 2.1077955 2039583
-1.6252276 -0.024800725 2.1284883 2039583
-1.5941169 -0.025533296 2.1465454 2039583
-1.6609175 0.025324529 2.1078479 2039583
-1.6252704 0.024801539 2.12854 2039583
-1.5944164 0.024899038 2.1464477 2039583
-1.6609585 0.075101979 2.1078994 2039583
-1.6252787 0.074851073 2.1286097 2039583
-1.5944563 0.074698754 2.1465003 2039583
-1.6609836 0.1065415 2.1079326 8684676
-1.6247183 0.1070976 2.1279316 9013641
-1.585551 0.10929315 2.1399291 9211020
-1.5252954 0.11304994 2.1319821 9934743
-1.4749862 0.11301928 2.1311116 9934743
-1.4247075 0.11298756 2.1308057 9934743
-1.374897 0.1129567 2.1302238 9934743
-1.3246751 0.11292609 2.1293545 10066329
-1.2744755 0.11289443 2.1290495 10197915
-1.2247466 0.11286362 2.128468 10197915
-1.1746117 0.11283307 2.1276002 10197915
-1.1244904 0.11280144 2.127296 10197915
-1.0744082 0.11277092 2.1264291 10197915
-1.0243446 0.11273935 2.1261249 10197915
-0.97475225 0.11270861 2.125545 10197915
-0.92475677 0.11267814 2.1246796 10197915
-0.87477118 0.11264659 2.1243761 10197915
-0.82482845 0.1126162 2.1235108 10197915
-0.77489978 0.11258472 2.1232085 10197915
-0.72500974 0.1125543 2.122344 10197915
-0.67513818 0.11252286 2.1220419 10197915
-0.62530077 0.11249249 2.1211784 10197915
-0.57504213 0.11246132 2.1205912 10197915
-0.52526414 0.11242994 2.1202896 10197915
-0.47506329 0.11239881 2.1197026 10197915
-0.42489007 0.1123677 2.1191161 10197915
-0.37519202 0.11233743 2.1182547 10197915
-0.3250719 0.11230635 2.1176686 10197915
-0.27498418 0.11227424 2.1176436 10197915
-0.22493249 0.11224426 2.1164982 10197915
-0.17615369 0.11221237 2.1167989 10197915
-0.12539941 0.112152 2.1315761 10197915
-0.075042672 0.11212078 2.1309829 10197915
-0.024713788 0.11208957 2.1303899 10197915
0.02470479 0.11205894 2.1298079 10197915
0.055578738 0.11203981 2.1294444 10066329
-1.5663574 -0.95847231 2.1612475 2039583
-1.5233247 -0.96407771 2.1862183 2039583
-1.5680418 -0.92501122 2.1603179 2039583
-1.5253981 -0.92498887 2.1850765 2039583
-1.5680666 -0.87504071 2.1603873 2039583
-1.5253782 -0.87498772 2.1851633 2039583
-1.5681187 -0.8250041 2.1604218 2039583
-1.5254335 -0.82498616 2.1852052 2039583
-1.5681386 -0.77496463 2.1604974 2039583
-1.5255129 -0.77500504 2.1852319 2039583
-1.5683678 -0.72477549 2.16043 2039583
-1.5254611 -0.72502077 2.1853395 2039583
-1.5688875 -0.67501253 2.1602173 2039583
-1.5255725 -0.67498827 2.1853499 2039583
-1.5688984 -0.62506449 2.1602743 2039583
-1.5256034 -0.62495261 2.1854105 2039583
-1.5689154 -0.5750528 2.1603427 2039583
-1.5256035 -0.57496154 2.1854832 2039583
-1.5688554 -0.52488273 2.1604543 2039583
-1.5255183 -0.52508545 2.185607 2039583
-1.5683978 -0.47496042 2.1607907 2039583
-1.5250539 -0.47499499 2.1859534 2039583
-1.5684196 -0.42495936 2.160862 2039583
-1.5251337 -0.42500582 2.1859844 2039583
-1.5685095 -0.37501588 2.1608746 2039583
-1.5253537 -0.37511912 2.1859312 2039583
-1.5684655 -0.32501003 2.1609864 2039583
-1.5258253 -0.32496116 2.1857295 2039583
-1.5685103 -0.2749714 2.1610248 2039583
-1.5257833 -0.27501705 2.1858313 2039583
-1.5685545 -0.22495998 2.1610832 2039583
-1.5259132 -0.22504736 2.1858325 2039583
-1.5686241 -0.17500639 2.1611156 2039583
-1.5259556 -0.17502348 2.1858842 2039583
-1.568729 -0.12517165 2.1611309 2039583
-1.5259783 -0.12487756 2.185945 2039583
-1.5686584 -0.075211741 2.1612501 2039583
-1.5258795 -0.075068317 2.1860774 2039583
-1.5690839 -0.024874171 2.1610711 2039583
-1.5261176 -0.025190625 2.1860154 2039583
-1.5693635 0.025067709 2.1609969 2039583
-1.5261695 0.025167298 2.1860623 2039583
-1.5694022 0.075204849 2.1610374 2039583
-1.5259795 0.075049251 2.18625 2039583
-1.5694261 0.10654164 2.1610754 9079434
-1.5259385 0.10677833 2.1856382 8947848
-1.475268 0.11292614 2.1806304 9934743
-1.4251893 0.11289512 2.1800313 9934743
-1.3751374 0.11286411 2.1794326 10000536
-1.3251133 0.11283311 2.1788342 10197915
-1.2751168 0.11280216 2.1782362 10197915
-1.2251475 0.1127712 2.1776383 10197915
-1.1752055 0.11274024 2.1770411 10197915
-1.1252912 0.11270934 2.1764438 10197915
-1.0744973 0.11267787 2.1758366 10197915
-1.0246381 0.11264699 2.17524 10197915
-0.97480631 0.11261611 2.174644 10197915
-0.92500168 0.11258526 2.1740482 10197915
-0.87522447 0.11255441 2.1734526 10197915
-0.82457 0.11252306 2.1728468 10197915
-0.77484775 0.11249224 2.1722517 10197915
-0.72515267 0.11246146 2.1716573 10197915
-0.67458194 0.11243014 2.1710529 10197915
-0.62494171 0.11239939 2.1704588 10197915
-0.57532871 0.11236865 2.1698649 10197915
-0.52484143 0.11233737 2.1692612 10197915
-0.47438222 0.11230612 2.1686578 10197915
-0.4248513 0.11227543 2.1680651 10197915
-0.37534767 0.11224478 2.1674731 10197915
-0.32497165 0.11221355 2.1668706 10197915
-0.27247906 0.11217485 2.1695297 10197915
-0.2246885 0.11212003 2.1823409 10197915
-0.17491411 0.11208803 2.1823583 10197915
-0.12516671 0.11205838 2.1811416 10197915
-0.074984483 0.11202671 2.1808448 10197915
-0.024841627 0.11199624 2.1799321 10197915
0.024832532 0.11196549 2.1793334 10197915
0.056423169 0.11194322 2.1803908 10066329
-1.4218867 -1.0021876 2.2450404 2039583
-1.4737042 -0.97053337 2.2150111 2039583
-1.4314708 -0.97482949 2.2395194 2039583
-1.4751053 -0.92499918 2.2142656 2039583
-1.4315735 -0.92502153 2.2395337 2039583
-1.4751271 -0.87497634 2.2143288 2039583
-1.4316489 -0.87497604 2.2395666 2039583
-1.4751558 -0.82500058 2.2143891 2039583
-1.4316633 -0.82496214 2.2396331 2039583
-1.4752172 -0.77502209 2.2144289 2039583
-1.4317076 -0.77498019 2.2396836 2039583
-1.4752265 -0.72501522 2.2144976 2039583
-1.4320701 -0.72528154 2.2395484 2039583
-1.4752718 -0.67500854 2.2145457 2039583
-1.4324594 -0.67504936 2.2393982 2039583
-1.4753085 -0.62499857 2.2146022 2039583
-1.4324628 -0.62500215 2.2394714 2039583
-1.4753605 -0.57500947 2.2146473 2039583
-1.4325509 -0.57498711 2.2394953 2039583
-1.4753901 -0.52501929 2.2147055 2039583
-1.432554 -0.52497041 2.2395697 2039583
-1.4754149 -0.47502464 2.2147672 2039583
-1.4326347 -0.47498667 2.2395988 2039583
-1.4754965 -0.42502961 2.2147946 2039583
-1.4326535 -0.42500055 2.2396617 2039583
-1.5011384 -0.3591066 2.2000105 2039583
-1.4754571 -0.37503034 2.2148933 2039583
-1.4326422 -0.37494066 2.2397456 2039583
-1.5011634 -0.3253887 2.2000468 2039583
-1.4755625 -0.32500553 2.2149096 2039583
-1.4326826 -0.32491332 2.2397964 2039583
-1.5012004 -0.27526557 2.2001014 2039583
-1.4755163 -0.27500215 2.2150104 2039583
-1.432719 -0.27491951 2.2398531 2039583
-1.5012375 -0.22513993 2.2001553 2039583
-1.4755962 -0.22499558 2.2150381 2039583
-1.4327776 -0.224959 2.239892 2039583
-1.5012743 -0.17501183 2.2002099 2039583
-1.4756362 -0.17496464 2.2150919 2039583
-1.4328523 -0.17510419 2.2399251 2039583
-1.5008094 -0.12137505 2.200561 2039583
-1.4751729 -0.12512931 2.2154374 2039583
-1.4328638 -0.12521106 2.2399938 2039583
-1.5006952 -0.074761145 2.2006977 2039583
-1.4752189 -0.074774221 2.2154856 2039583
-1.432851 -0.075170852 2.2400765 2039583
-1.5007322 -0.024617018 2.2007518 2039583
-1.4750322 -0.024783885 2.2156684 2039583
-1.4329857 -0.025179742 2.2400753 2039583
-1.5007684 0.024617812 2.2008047 2039583
-1.4750687 0.024784677 2.215723 2039583
-1.4335999 0.025053933 2.2397916 2039583
-1.5008059 0.074766859 2.2008595 2039583
-1.4753271 0.074779883 2.2156484 2039583
-1.4336374 0.075163402 2.2398474 2039583
-1.5008293 0.10668107 2.2008936 9211020
-1.4744877 0.10676168 2.2157495 9079434
-1.4314067 0.10775511 2.2369976 9342606
-1.3749189 0.11276697 2.2309029 10132122
-1.3251113 0.11273555 2.2306252 10197915
-1.2748568 0.11270441 2.23001 10197915
-1.225099 0.11267424 2.2290683 10197915
-1.1753676 0.11264283 2.2287922 10197915
-1.125196 0.1126118 2.2281773 10197915
-1.0750518 0.11258197 2.2269108 10197915
-1.0249498 0.11254974 2.2269499 10197915
-0.97486115 0.11251874 2.2263365 10197915
-0.92479968 0.11248776 2.2257226 10197915
-0.87476581 0.11245678 2.2251105 10197915
-0.82523346 0.11242676 2.2241719 10197915
-0.77525204 0.1123958 2.223573 10197915
-0.72484404 0.11236399 2.223274 10197915
-0.67492056 0.1123331 2.2226639 10197915
-0.62502426 0.1123022 2.2220516 10197915
-0.57516474 0.11227257 2.2207909 10197915
-0.52532846 0.11224051 2.2208314 10197915
-0.47551444 0.11220967 2.220222 10197915
-0.42526793 0.11217918 2.2192869 10197915
-0.37505424 0.1121475 2.2189903 10197915
-0.32532272 0.11211672 2.2183816 10197915
-0.27647388 0.11208522 2.2184567 10197915
-0.22497021 0.11202164 2.2346733 10197915
-0.17492872 0.11199065 2.2340555 10197915
-0.12491488 0.11195973 2.2334387 10197915
-0.074928693 0.11192879 2.2328219 10197915
-0.024970097 0.11189788 2.2322049 10197915
0.024960903 0.11186699 2.2315886 10197915
0.057309918 0.11184697 2.2311895 10066329
-1.4059618 -1.0043803 2.2542808 2039583
-1.3714513 -1.0087388 2.2743058 2039583
-1.3376242 -1.0132506 2.2939336 2039583
-1.4063649 -0.97502482 2.2540922 2039583
-1.3745561 -0.974989 2.2725537 2039583
-1.3380133 -0.97504926 2.2937658 2039583
-1.4063827 -0.92489982 2.2541564 2039583
-1.3745854 -0.92503506 2.272614 2039583
-1.3387284 -0.92498797 2.2934265 2039583
-1.4064448 -0.87495929 2.254195 2039583
-1.3746749 -0.87505126 2.2726364 2039583
-1.3387758 -0.87490696 2.2934737 2039583
-1.4064686 -0.82511163 2.2542565 2039583
-1.3746562 -0.82501292 2.2727239 2039583
-1.338802 -0.82494867 2.2935352 2039583
-1.4064995 -0.77507216 2.2543147 2039583
-1.3746991 -0.77494729 2.2727733 2039583
-1.3388662 -0.77505094 2.2935719 2039583
-1.4068944 -0.72430307 2.2541621 2039583
-1.3747593 -0.72498274 2.2728145 2039583
-1.3388637 -0.72502506 2.2936494 2039583
-1.4072464 -0.6749779 2.2540329 2039583
-1.3747538 -0.67498952 2.2728939 2039583
-1.3388751 -0.67505944 2.2937174 2039583
-1.4072994 -0.6250782 2.2540793 2039583
-1.3748504 -0.6249941 2.2729127 2039583
-1.3389761 -0.62496543 2.293736 2039583
-1.4073107 -0.57500392 2.2541468 2039583
-1.3748037 -0.57502234 2.2730145 2039583
-1.3389624 -0.57493109 2.2938194 2039583
-1.4073728 -0.52501255 2.2541864 2039583
-1.3748764 -0.52499634 2.2730477 2039583
-1.3389814 -0.52502036 2.2938838 2039583
-1.4074261 -0.47501931 2.2542303 2039583
-1.3749617 -0.47499254 2.2730749 2039583
-1.3390499 -0.47492072 2.2939203 2039583
-1.407428 -0.42493856 2.2543039 2039583
-1.3748984 -0.42498744 2.273186 2039583
-1.3390509 -0.42494202 2.2939944 2039583
-1.4074209 -0.37493861 2.254385 2039583
-1.3749815 -0.37503287 2.2732148 2039583
-1.3391485 -0.37502462 2.2940145 2039583
-1.4074972 -0.3250232 2.2544162 2039583
-1.3750213 -0.3250477 2.2732666 2039583
-1.3391273 -0.32504237 2.2941015 2039583
-1.4075981 -0.27519351 2.2544327 2039583
-1.3750433 -0.27498299 2.2733307 2039583
-1.339106 -0.2750558 2.2941883 2039583
-1.4075662 -0.22509958 2.2545242 2039583
-1.3751173 -0.2250461 2.2733617 2039583
-1.3395518 -0.22521061 2.2940063 2039583
-1.4076021 -0.17466657 2.2545834 2039583
-1.3750178 -0.17508118 2.273494 2039583
-1.3399372 -0.17485848 2.2938578 2039583
-1.40757 -0.12481911 2.2546751 2039583
-1.3753123 -0.12493164 2.2733994 2039583
-1.339945 -0.12537523 2.2939277 2039583
-1.4077353 -0.075328149 2.2546537 2039583
-1.374902 -0.074981458 2.2737138 2039583
-1.3400277 -0.075012565 2.2939579 2039583
-1.4078139 -0.024935393 2.2546859 2039583
-1.3753864 -0.025071546 2.2735066 2039583
-1.340036 -0.024709992 2.2940278 2039583
-1.4084249 0.025217392 2.2544076 2039583
-1.37542 0.025072349 2.2735646 2039583
-1.3400694 0.024710795 2.2940831 2039583
-1.408528 0.075348526 2.2544231 2039583
-1.3750032 0.074987292 2.2738805 2039583
-1.3401266 0.075018279 2.2941263 2039583
-1.408192 0.10614058 2.2546644 9276813
-1.3753383 0.10642015 2.2737119 9276813
-1.3365213 0.10784087 2.2919917 9868950
-1.2755382 0.11260306 2.284025 10197915
-1.2250478 0.11257183 2.2833917 10197915
-1.1745849 0.11254064 2.2827585 10197915
-1.1251014 0.11251003 2.2821383 10197915
-1.075645 0.11247945 2.2815177 10197915
-1.0252651 0.11244828 2.2808855 10197915
-0.97491306 0.11241717 2.2802541 10197915
-0.925538 0.11238661 2.279635 10197915
-0.87524122 0.11235552 2.2790041 10197915
-0.82497227 0.11232444 2.2783735 10197915
-0.77473104 0.11229337 2.2777431 10197915
-0.72451758 0.11226232 2.2771134 10197915
-0.67527866 0.11223185 2.2764959 10197915
-0.62512028 0.11220086 2.275867 10197915
-0.5749895 0.11216986 2.275238 10197915
-0.52488655 0.11213888 2.2746096 10197915
-0.47481108 0.11210791 2.2739813 10197915
-0.4247635 0.11207697 2.2733533 10197915
-0.37474331 0.11204603 2.2727263 10197915
-0.32475087 0.11201511 2.272099 10197915
-0.27478588 0.11198422 2.2714727 10197915
-0.22484866 0.11195335 2.2708461 10197915
-0.17493874 0.11192247 2.27022 10197915
-0.12505654 0.11189163 2.2695944 10197915
-0.075201645 0.1118608 2.2689691 10197915
-0.025374375 0.11182999 2.2683439 10197915
0.025364887 0.11179862 2.2677078 10197915
0.058237329 0.1117783 2.2672954 10066329
-1.2419676 -1.0502219 2.3494015 2039583
-1.3132436 -1.0163378 2.3080802 2039583
-1.2738812 -1.0214543 2.3309214 2039583
-1.2449733 -1.0249841 2.3476954 2039583
-1.3131038 -0.97478628 2.3082244 2039583
-1.2746154 -0.97507834 2.3305669 2039583
-1.2449749 -0.97508073 2.3477693 2039583
-1.3137369 -0.92497635 2.3079324 2039583
-1.2745439 -0.92498863 2.330677 2039583
-1.2451185 -0.92558593 2.3477612 2039583
-1.3137562 -0.87503904 2.3079951 2039583
-1.2745864 -0.87499899 2.3307374 2039583
-1.2458178 -0.87507313 2.3474314 2039583
-1.3138177 -0.82500356 2.3080366 2039583
-1.2746167 -0.82500726 2.3307853 2039583
-1.2458023 -0.82490897 2.3475168 2039583
-1.3138525 -0.77501398 2.3080907 2039583
-1.2746447 -0.77501357 2.3308561 2039583
-1.2458445 -0.77493954 2.3475673 2039583
-1.3138877 -0.72502202 2.3081477 2039583
-1.2747087 -0.72501653 2.3308799 2039583
-1.2459213 -0.72516584 2.3475978 2039583
-1.3138927 -0.67502677 2.3082199 2039583
-1.2747262 -0.6749891 2.3309615 2039583
-1.2459173 -0.67499417 2.3476765 2039583
-1.3139478 -0.62507713 2.3082638 2039583
-1.2747213 -0.62495899 2.3310258 2039583
-1.2459131 -0.62481868 2.3477545 2039583
-1.3139948 -0.57507777 2.3083115 2039583
-1.2747777 -0.57492602 2.3310826 2039583
-1.2460135 -0.57523596 2.3477709 2039583
-1.3140132 -0.52507579 2.3083766 2039583
-1.2748054 -0.52491975 2.3311276 2039583
-1.246009 -0.52525038 2.3478494 2039583
-1.3140038 -0.47507092 2.3084579 2039583
-1.274868 -0.47499594 2.3311789 2039583
-1.2460397 -0.4746823 2.347908 2039583
-1.3140507 -0.42506322 2.3085058 2039583
-1.274839 -0.42501226 2.3312609 2039583
-1.2460471 -0.42488623 2.3479781 2039583
-1.3141174 -0.37500623 2.308543 2039583
-1.2748697 -0.37494156 2.3313293 2039583
-1.2461241 -0.37529346 2.3480089 2039583
-1.3141477 -0.32494745 2.3086002 2039583
-1.274949 -0.32495382 2.3313489 2039583
-1.2461318 -0.32490891 2.3480802 2039583
-1.314121 -0.27497989 2.3086915 2039583
-1.2749779 -0.2750206 2.3314152 2039583
-1.2461277 -0.27471334 2.3481584 2039583
-1.3144439 -0.22472163 2.3085804 2039583
-1.2749395 -0.22502705 2.3315086 2039583
-1.2462277 -0.22511968 2.3481753 2039583
-1.3149358 -0.17496154 2.3083704 2039583
-1.2749932 -0.17500262 2.3315532 2039583
-1.2463424 -0.17592606 2.3481839 2039583
-1.315098 -0.1246938 2.308351 2039583
-1.275146 -0.12514825 2.3315413 2039583
-1.2469987 -0.1245053 2.3478804 2039583
-1.3149949 -0.074597396 2.3084879 2039583
-1.2751126 -0.075262763 2.331634 2039583
-1.2470293 -0.074899524 2.3479376 2039583
-1.3150272 -0.024866343 2.3085427 2039583
-1.2750677 -0.025116194 2.3317428 2039583
-1.2470597 -0.025291294 2.347995 2039583
-1.3150592 0.024867177 2.3086007 2039583
-1.2750994 0.025117014 2.331789 2039583
-1.2470907 0.025292147 2.3480535 2039583
-1.3150921 0.074603088 2.3086567 2039583
-1.2752072 0.075268529 2.331815 2039583
-1.2471211 0.074905246 2.3481102 2039583
-1.3151124 0.10616747 2.308692 9145227
-1.2749664 0.1069091 2.3308232 9737364
-1.2364862 0.10914891 2.3350589 9671571
-1.1746879 0.11247002 2.3203228 10197915
-1.1243904 0.11243891 2.3196814 10197915
-1.075087 0.11240842 2.3190529 10197915
-1.0258107 0.11237799 2.3184247 10197915
-0.97559518 0.11234698 2.3177843 10197915
-0.92540771 0.11231597 2.3171449 10197915
-0.87524784 0.11228497 2.3165052 10197915
-0.8251158 0.11225399 2.315866 10197915
-0.77501136 0.11222302 2.3152273 10197915
-0.72493434 0.11219204 2.3145888 10197915
-0.67488515 0.11216111 2.3139505 10197915
-0.62486356 0.11213022 2.313313 10197915
-0.57486945 0.11209933 2.3126752 10197915
-0.52490288 0.11206843 2.3120387 10197915
-0.47066912 0.11201467 2.322087 10197915
-0.42519844 0.11197109 2.3297169 10197915
-0.37538764 0.11193959 2.3294554 10197915
-0.32511404 0.11190853 2.3288095 10197915
-0.27535778 0.11187851 2.3277907 10197915
-0.22562385 0.11184709 2.3275306 10197915
-0.17495476 0.11181646 2.326515 10197915
-0.12431411 0.11178447 2.3262281 10197915
-0.074662864 0.11175454 2.3252113 10197915
-0.025044348 0.11172317 2.3249516 10197915
0.025035104 0.11169226 2.3243074 10197915
0.058727819 0.11167141 2.3238745 10066329
-1.2150357 -1.0541273 2.3650279 2039583
-1.1850046 -1.058044 2.3824534 2039583
-1.2202622 -1.0250266 2.3620384 2039583
-1.1861053 -1.025043 2.3818648 2039583
-1.220273 -0.97496349 2.3621092 2039583
-1.1861355 -0.9750151 2.3819218 2039583
-1.2204571 -0.92488098 2.3620765 2039583
-1.1854818 -0.92493755 2.3823783 2039583
-1.2211105 -0.87501687 2.3617737 2039583
-1.1853826 -0.87498027 2.3825097 2039583
-1.2211453 -0.82503217 2.3618279 2039583
-1.1854763 -0.82497317 2.3825331 2039583
-1.2211591 -0.77500868 2.361897 2039583
-1.1855042 -0.77496457 2.3825908 2039583
-1.2212275 -0.72494799 2.3619308 2039583
-1.1855181 -0.72500396 2.382658 2039583
-1.2212055 -0.6749894 2.362021 2039583
-1.1855245 -0.6749391 2.3827302 2039583
-1.2212433 -0.62502998 2.3620727 2039583
-1.1855677 -0.62492174 2.3827822 2039583
-1.22136 -0.57499683 2.3620822 2039583
-1.1856341 -0.57500631 2.3828182 2039583
-1.221258 -0.52499545 2.362216 2039583
-1.1856003 -0.52503687 2.3829136 2039583
-1.2213665 -0.4750289 2.3622286 2039583
-1.1856446 -0.4750126 2.3829632 2039583
-1.2213978 -0.42498723 2.3622868 2039583
-1.1857216 -0.42498785 2.3829939 2039583
-1.2213758 -0.37497982 2.3623743 2039583
-1.1857196 -0.37506089 2.3830712 2039583
-1.2214681 -0.32507467 2.3623962 2039583
-1.1858011 -0.32502934 2.3830976 2039583
-1.2214727 -0.27502674 2.3624687 2039583
-1.185681 -0.27499619 2.3832443 2039583
-1.2215242 -0.22497621 2.3625162 2039583
-1.185829 -0.22496001 2.383234 2039583
-1.2215785 -0.17488767 2.3625588 2039583
-1.1859159 -0.17497574 2.3832595 2039583
-1.2224674 -0.12493038 2.3621194 2039583
-1.1857942 -0.12529385 2.3834035 2039583
-1.2221106 -0.075013481 2.3623998 2039583
-1.1859314 -0.074942783 2.3834012 2039583
-1.2225275 -0.025114665 2.3622355 2039583
-1.1859071 -0.024686197 2.3834901 2039583
-1.2225585 0.025115479 2.3622911 2039583
-1.1859355 0.024686994 2.3835495 2039583
-1.2222006 0.075019255 2.3625765 2039583
-1.1860188 0.074948527 2.3835764 2039583
-1.2225809 0.106536 2.3618643 9474192
-1.1821266 0.10797721 2.3808124 9934743
-1.1252646 0.11232846 2.3785629 10197915
-1.0757011 0.11229786 2.3779154 10197915
-1.0256681 0.1122677 2.3768678 10197915
-0.97517133 0.11223506 2.3769939 10197915
-0.92471397 0.11220536 2.3755479 10197915
-0.87475812 0.1121738 2.3752875 10197915
-0.82484931 0.11214373 2.3742425 10197915
-0.77495122 0.11211216 2.3739834 10197915
-0.72509414 0.11208214 2.3729389 10197915
-0.67475909 0.11205105 2.3722808 10197915
-0.62495726 0.11201957 2.3720224 10197915
-0.57516861 0.11198958 2.3709793 10197915
-0.52492797 0.11195707 2.3711069 10197915
-0.47842449 0.11192082 2.374495 10197915
-0.42466643 0.11185824 2.3893905 10197915
-0.37506896 0.11182762 2.3887365 10197915
-0.32549867 0.11179703 2.388083 10197915
-0.27496493 0.11176583 2.3874168 10197915
-0.22445929 0.11173467 2.3867509 10197915
-0.17497131 0.11170411 2.3860989 10197915
-0.12551039 0.11167359 2.3854465 10197915
-0.075088196 0.11164249 2.3847818 10197915
-0.024693906 0.11161137 2.3841174 10197915
0.024684917 0.11158091 2.3834662 10197915
0.059234999 0.11155958 2.3830109 10066329
-1.1729794 0.11224189 2.4407854 10197915
-1.125158 0.11221238 2.4401438 10197915
-1.075328 0.11218167 2.4394758 10197915
-1.0255257 0.11215095 2.4388077 10197915
-0.9747349 0.11211964 2.4381266 10197915
-0.92498732 0.11208894 2.4374595 10197915
-0.87526721 0.11205827 2.4367924 10197915
-0.82456034 0.112027 2.4361126 10197915
-0.77489501 0.11199638 2.4354467 10197915
-0.72525698 0.11196577 2.4347811 10197915
-0.67463374 0.11193455 2.4341021 10197915
-0.62505025 0.11190394 2.4334371 10197915
-0.57549405 0.1118734 2.4327722 10197915
-0.52495438 0.11184224 2.4320946 10197915
-0.47444284 0.11181109 2.4314167 10197915
-0.42496863 0.11178058 2.4307537 10197915
-0.37552169 0.11175007 2.4300902 10197915
-0.3250933 0.11171896 2.4294136 10197915
-0.27469298 0.11168789 2.4287379 10197915
-0.22432071 0.11165681 2.4280627 10197915
-0.17498301 0.11162638 2.4274008 10197915
-0.1256723 0.111596 2.4267395 10197915
-0.075382888 0.11156496 2.426065 10197915
-0.025121426 0.11153395 2.4253907 10197915
0.025112128 0.111503 2.4247174 10197915
0.060259979 0.11148131 2.4242461 10066329
-1.2082787 0.11218259 2.4842572 10197915
-1.1751314 0.11216217 2.4838049 10197915
-1.1254312 0.11213153 2.4831266 10197915
-1.0757587 0.11210092 2.4824486 10197915
-1.0250789 0.11206968 2.4817567 10197915
-0.97442746 0.11203847 2.4810658 10197915
-0.92483693 0.11200791 2.4803889 10197915
-0.8752737 0.11197736 2.4797122 10197915
-0.8257373 0.11194684 2.4790363 10197915
-0.77519697 0.11191569 2.4783466 10197915
-0.72468466 0.11188456 2.4776573 10197915
-0.67523026 0.11185408 2.4769824 10197915
-0.62477356 0.11182297 2.4762936 10197915
-0.57434481 0.11179191 2.4756055 10197915
-0.5249725 0.11176148 2.4749315 10197915
-0.47562686 0.11173106 2.4742582 10197915
-0.42528111 0.11170002 2.4735711 10197915
-0.37496313 0.11166901 2.4728844 10197915
-0.32467324 0.11163804 2.472198 10197915
-0.27441111 0.11160705 2.4715121 10197915
-0.22520185 0.11157671 2.4708407 10197915
-0.17499503 0.11154578 2.4701555 10197915
-0.1248159 0.11151486 2.4694703 10197915
-0.074664772 0.11148395 2.4687862 10197915
-0.024541231 0.11145306 2.4681017 10197915
0.024532355 0.11142283 2.467432 10197915
0.060299266 0.11140078 2.466944 10066329
-1.2195429 0.11210569 2.5289569 10197915
-1.1752532 0.1120784 2.528342 10197915
-1.1246624 0.11204725 2.5276389 10197915
-1.0751524 0.11201676 2.5269508 10197915
-1.0256699 0.11198629 2.5262635 10197915
-0.97516209 0.11195517 2.525562 10197915
-0.92468256 0.11192409 2.5248606 10197915
-0.8742308 0.11189301 2.5241597 10197915
-0.82485723 0.11186261 2.5234737 10197915
-0.77551061 0.11183222 2.5227883 10197915
-0.7251417 0.11180121 2.5220885 10197915
-0.67480069 0.11177021 2.521389 10197915
-0.62448764 0.11173923 2.5206902 10197915
-0.57420248 0.11170825 2.5199916 10197915
-0.52499181 0.11167794 2.5193081 10197915
-0.47580805 0.11164764 2.5186245 10197915
-0.42560527 0.11161675 2.5179272 10197915
-0.37543014 0.11158586 2.51723 10197915
-0.32528296 0.11155496 2.5165336 10197915
-0.27516341 0.11152411 2.5158372 10197915
-0.22507162 0.11149325 2.515141 10197915
-0.17500757 0.11146242 2.5144458 10197915
-0.12497117 0.1114316 2.513751 10197915
-0.074962445 0.11140081 2.513056 10197915
-0.024981342 0.11137003 2.5123618 10197915
0.024972146 0.11133926 2.5116675 10197915
0.061380073 0.11131684 2.5111618 10066329
-1.2559264 0.11204101 2.5756409 10000536
-1.2247733 0.11202183 2.5752001 10000536
-1.1743046 0.11199079 2.5744865 10000536
-1.1249367 0.11196042 2.5737879 10132122
-1.0755955 0.11193004 2.5730898 10197915
-1.0252095 0.11189905 2.5723774 10197915
-0.97485125 0.11186806 2.5716648 10197915
-0.92559153 0.11183774 2.5709684 10197915
-0.87528855 0.11180679 2.5702565 10197915
-0.82501334 0.11177585 2.5695453 10197915
-0.77476615 0.11174494 2.5688345 10197915
-0.72454643 0.11171402 2.5681241 10197915
-0.67542219 0.11168379 2.5674288 10197915
-0.62525755 0.11165293 2.5667198 10197915
-0.57512051 0.1116221 2.5660105 10197915
-0.52501142 0.11159125 2.5653017 10197915
-0.47492978 0.11156043 2.5645933 10197915
-0.42487606 0.11152964 2.563885 10197915
-0.37484956 0.11149884 2.5631773 10197915
-0.32485101 0.11146807 2.56247 10197915
-0.27487984 0.11143732 2.5617635 10197915
-0.22493638 0.11140659 2.5610566 10197915
-0.17502032 0.11137589 2.5603507 10197915
-0.12513195 0.11134517 2.5596447 10197915
-0.075270899 0.11131449 2.5589395 10197915
-0.025437495 0.11128382 2.5582345 10197915
0.025427954 0.11125252 2.5575154 10197915
0.062500268 0.11122971 2.5569906 10066329
-1.2674075 0.11195791 2.6237061 10000536
-1.2247293 0.11193167 2.623091 10000536
-1.1744155 0.11190071 2.622366 10000536
-1.1241297 0.11186981 2.6216414 10000536
-1.074964 0.11183958 2.6209328 10000536
-1.0258249 0.11180937 2.6202247 10000536
-0.9756214 0.11177851 2.6195014 10132122
-0.9254452 0.11174764 2.6187782 10197915
-0.87529677 0.11171682 2.6180561 10197915
-0.82517624 0.11168599 2.6173334 10197915
-0.77508336 0.11165519 2.6166117 10197915
-0.72501796 0.1116244 2.6158903 10197915
-0.67498022 0.11159365 2.6151693 10197915
-0.62496996 0.11156289 2.6144488 10197915
-0.57498735 0.11153215 2.613729 10197915
-0.52503216 0.11150146 2.6130087 10197915
-0.47510466 0.11147075 2.6122894 10197915
-0.42520452 0.11144008 2.6115704 10197915
-0.37533185 0.11140942 2.610852 10197915
-0.32548663 0.11137875 2.6101339 10197915
-0.27566886 0.11134813 2.6094158 10197915
-0.22587846 0.11131751 2.6086984 10197915
-0.17503399 0.11128625 2.6079655 10197915
-0.12421788 0.11125501 2.6072335 10197915
-0.074510708 0.11122442 2.6065173 10197915
-0.024830837 0.11119389 2.6058013 10197915
0.024821753 0.11116337 2.6050861 10197915
0.062583469 0.11114016 2.6045418 10066329
-1.3049819 0.11188725 2.6739717 4013373
-1.2748619 0.11186876 2.6735296 5921370
-1.2246817 0.11183792 2.6727929 9342606
-1.1745293 0.11180711 2.6720564 10000536
-1.1244044 0.11177632 2.6713209 10000536
-1.0754203 0.11174624 2.6706018 10000536
-1.0253502 0.11171548 2.6698663 10000536
-0.9753074 0.11168475 2.669132 10000536
-0.92529219 0.111654 2.6683974 10000536
-0.87530446 0.11162329 2.6676633 10000536
-0.82534432 0.11159259 2.6669297 10132122
-0.77541161 0.11156192 2.6661971 10197915
-0.72550648 0.11153127 2.6654639 10197915
-0.67452055 0.11149993 2.6647155 10197915
-0.62467068 0.11146931 2.6639833 10197915
-0.57484835 0.11143871 2.6632524 10197915
-0.52505308 0.11140811 2.6625211 10197915
-0.47528553 0.11137753 2.6617904 10197915
-0.42444006 0.1113463 2.6610436 10197915
-0.37472743 0.11131577 2.6603141 10197915
-0.32504222 0.11128523 2.6595845 10197915
-0.274281 0.11125406 2.658839 10197915
-0.22465062 0.11122356 2.6581106 10197915
-0.17504773 0.11119308 2.6573822 10197915
-0.1243705 0.11116195 2.6566381 10197915
-0.074822299 0.11113152 2.6559105 10197915
-0.025301425 0.1111011 2.6551836 10197915
0.02529199 0.11107001 2.6544406 10197915
0.063768886 0.11104637 2.6538761 10066329
-1.3178593 0.11179779 2.7258105 2039583
-1.2757821 0.11177196 2.7251806 2039583
-1.2257689 0.11174125 2.7244318 3158064
-1.1757833 0.11171059 2.7236841 8882055
-1.1258248 0.11167991 2.7229364 10000536
-1.0758941 0.11164927 2.7221892 10000536
-1.0259907 0.11161864 2.7214422 10000536
-0.97498131 0.11158734 2.7206788 10000536
-0.92400056 0.11155601 2.7199156 10000536
-0.87418038 0.11152545 2.7191706 10000536
-0.82438755 0.1114949 2.718425 10000536
-0.77462196 0.11146435 2.7176805 10000536
-0.72488368 0.1114338 2.7169359 10000536
-0.67517269 0.1114033 2.716192 10197915
-0.62548882 0.1113728 2.7154486 10197915
-0.57583213 0.11134234 2.7147055 10197915
-0.52507514 0.11131117 2.7139454 10197915
-0.47434637 0.11128003 2.7131865 10197915
-0.42477229 0.11124961 2.7124445 10197915
-0.37522545 0.11121918 2.7117033 10197915
-0.32570565 0.11118878 2.7109621 10197915
-0.27508852 0.11115772 2.7102044 10197915
-0.22449945 0.11112666 2.7094476 10197915
-0.17506199 0.11109632 2.7087076 10197915
-0.12565154 0.11106601 2.707968 10197915
-0.075146131 0.111035 2.7072124 10197915
-0.024668677 0.111004 2.7064569 10197915
0.024659712 0.11097374 2.7057188 10197915
0.063879728 0.11094967 2.7051315 10066329
-1.3556125 0.11171999 2.7800765 2039583
-1.3254473 0.11170138 2.7796135 2039583
-1.2755809 0.11167078 2.7788525 2039583
-1.2245829 0.11163952 2.778074 3750201
-1.1747717 0.11160897 2.7773137 10000536
-1.124988 0.11157846 2.7765543 10000536
-1.075231 0.11154793 2.7757947 10000536
-1.0255017 0.11151743 2.7750356 10000536
-0.97464377 0.11148625 2.77426 10000536
-0.92496908 0.11145578 2.7735016 10000536
-0.87532175 0.11142533 2.7727442 10000536
-0.82454777 0.1113942 2.7719691 10000536
-0.77495521 0.11136378 2.7712123 10000536
-0.72538984 0.11133337 2.7704558 10000536
-0.67469954 0.11130229 2.7696824 10000536
-0.62518871 0.11127194 2.7689273 9934743
-0.57570499 0.11124159 2.7681723 10000536
-0.52509838 0.11121054 2.7673993 10197915
-0.47451994 0.11117952 2.7666278 10197915
-0.42511827 0.11114924 2.7658734 10197915
-0.37574369 0.11111896 2.7651205 10197915
-0.32524851 0.11108799 2.7643499 10197915
-0.2747815 0.11105705 2.7635794 10197915
-0.2243426 0.11102612 2.7628098 10197915
-0.17507708 0.1109959 2.7620578 10197915
-0.12583856 0.11096571 2.7613065 10197915
-0.075482592 0.11093483 2.7605383 10197915
-0.025154639 0.11090396 2.7597704 10197915
0.025145316 0.1108731 2.7590027 10197915
0.065137431 0.11084858 2.7583923 10066329
-1.3700323 0.1116235 2.836153 2039583
-1.3250566 0.11159597 2.8354533 2039583
-1.2741871 0.11156468 2.8346584 2039583
-1.22453 0.11153427 2.8338857 7631988
-1.1748995 0.11150384 2.8331125 10000536
-1.1252965 0.11147347 2.832341 10000536
-1.0757201 0.11144307 2.8315685 10000536
-1.0249918 0.111412 2.8307793 10000536
-0.97429132 0.11138095 2.8299899 10000536
-0.92479736 0.11135063 2.8292193 10000536
-0.87533033 0.11132029 2.828449 10000536
-0.82471353 0.11128931 2.8276613 10000536
-0.77412468 0.11125831 2.826874 10000536
-0.72473961 0.11122806 2.8261051 10000536
-0.67538154 0.11119782 2.8253369 10000536
-0.62487608 0.11116686 2.8245506 10000536
-0.5743984 0.11113594 2.8237643 10000536
-0.52512199 0.11110575 2.8229976 9934743
-0.47470009 0.11107486 2.8222127 9934743
-0.42430601 0.11104397 2.8214283 10132122
-0.37511104 0.11101383 2.8206625 10197915
-0.32477257 0.11098299 2.8198786 10197915
-0.27446175 0.11095218 2.8190958 10197915
-0.22534804 0.11092208 2.818331 10197915
-0.17509273 0.1108913 2.8175488 10197915
-0.12486504 0.11086052 2.8167667 10197915
-0.074665472 0.11082976 2.8159854 10197915
-0.024493519 0.11079903 2.8152041 10197915
0.024484677 0.11076902 2.8144422 10197915
0.065280192 0.11074401 2.8138068 10132122
-1.4092152 0.11153787 2.894923 2039583
-1.3753796 0.11151717 2.8943851 2039583
-1.3246481 0.11148613 2.8935792 2039583
-1.2751515 0.11145581 2.8927932 3487029
-1.2256825 0.11142557 2.8920081 10000536
-1.1750343 0.11139456 2.8912036 10000536
-1.124414 0.11136359 2.8903995 10000536
-1.0750263 0.11133337 2.8896146 10000536
-1.0256656 0.11130314 2.8888309 10000536
-0.97512871 0.11127221 2.8880277 10000536
-0.92461979 0.1112413 2.8872259 10000536
-0.87413877 0.11121041 2.8864238 10000536
-0.82488692 0.11118027 2.8856413 10000536
-0.77566177 0.11115012 2.8848591 10000536
-0.7252636 0.11111926 2.884059 10000536
-0.67489332 0.11108845 2.8832583 10000536
-0.62455112 0.11105763 2.8824582 10000536
-0.57423675 0.11102683 2.881659 10000536
-0.52395028 0.11099607 2.8808606 9934743
-0.47488794 0.11096601 2.8800807 9934743
-0.42585236 0.11093601 2.879302 9934743
-0.37564808 0.11090528 2.8785043 10000536
-0.3254717 0.11087457 2.8777072 10132122
-0.275323 0.11084386 2.8769107 10197915
-0.22520217 0.1108132 2.8761144 10197915
-0.17510904 0.11078254 2.8753185 10197915
-0.12504362 0.11075189 2.8745232 10197915
-0.075005889 0.11072127 2.8737285 10197915
-0.024995815 0.11069066 2.8729336 10197915
0.02498661 0.11066006 2.8721402 10197915
0.066618167 0.11063458 2.8714783 10132122
-1.0595491 0.11120987 2.9498475 10000536
-1.0251378 0.11118881 2.9492893 10000536
-0.9747715 0.11115803 2.9484723 10000536
-0.92566073 0.11112799 2.9476755 10000536
-0.87534994 0.11109725 2.9468596 10000536
-0.82506645 0.1110665 2.9460442 10000536
-0.77481127 0.11103576 2.9452291 10000536
-0.72458351 0.11100505 2.9444146 10000536
-0.6756078 0.11097511 2.9436202 10000536
-0.62543517 0.11094443 2.9428067 10000536
-0.57529008 0.11091377 2.9419932 9934743
-0.52517289 0.11088312 2.9411807 9934743
-0.47508317 0.11085249 2.9403679 9934743
-0.42502141 0.1108219 2.9395561 9934743
-0.37498698 0.1107913 2.9387445 9934743
-0.32498044 0.11076071 2.9379334 10000536
-0.27500123 0.11073016 2.9371228 10000536
-0.22504985 0.11069961 2.9363127 10132122
-0.17512578 0.11066909 2.935503 10197915
-0.12522948 0.1106386 2.9346936 10197915
-0.07536044 0.11060808 2.9338851 10197915
-0.025519107 0.11057762 2.9330769 10197915
0.025509514 0.1105464 2.9322493 10197915
0.068012036 0.11052042 2.9315593 10132122
-1.4241381 0.11143292 2.9557633 2039583
-1.3747846 0.11140274 2.9549632 2039583
-1.3242245 0.11137183 2.9541433 2039583
-1.2749245 0.11134169 2.9533439 7895160
-1.2256515 0.11131157 2.9525447 10000536
-1.175173 0.11128058 2.9517231 10000536
-1.1247236 0.11124971 2.9509044 10000536
-1.0841378 0.1112249 2.9502461 10000536
-0.2659525 0.11060623 2.9997652 10000536
-0.22489102 0.11058116 2.9990849 10000536
-0.17390004 0.11055001 2.9982402 10000536
-0.12418052 0.11051965 2.9974167 10132122
-0.074488297 0.11048931 2.9965937 10197915
-0.024823371 0.11045896 2.9957709 10197915
0.024814293 0.11042865 2.9949481 10197915
0.068225399 0.11040212 2.9942293 10132122
-1.4649173 0.11133869 3.0196297 2039583
-1.4258316 0.11131482 3.0189824 2039583
-1.3754218 0.11128404 3.0181475 2039583
-1.3250401 0.11125326 3.0173128 4276545
-1.2746861 0.11122251 3.016479 10000536
-1.2243599 0.11119177 3.0156446 10000536
-1.1740619 0.11116105 3.014812 10000536
-1.1250465 0.11113099 3.0139968 10000536
-1.0760585 0.11110105 3.013185 10000536
-1.0258423 0.11107037 3.0123527 10000536
-0.97565365 0.11103974 3.0115216 10000536
-0.92549276 0.1110091 3.0106907 10000536
-0.87535942 0.11097847 3.0098603 10000536
-0.82525378 0.11094786 3.0090301 10000536
-0.77517593 0.11091729 3.0082004 10000536
-0.72512543 0.11088671 3.0073714 10000536
-0.67510265 0.11085615 3.0065427 10000536
-0.62510741 0.1108256 3.0057147 10000536
-0.57513976 0.1107951 3.0048871 9934743
-0.52519953 0.1107646 3.0040593 9934743
-0.47528681 0.11073409 3.0032327 9934743
-0.42540163 0.11070363 3.0024066 9934743
-0.37554386 0.11067317 3.0015802 10000536
-0.32571346 0.11064275 3.0007551 10000536
-0.2908476 0.11062145 3.0001776 10000536
-1.5062107 0.11123967 3.0862994 2039583
-1.4752749 0.11122082 3.0857763 2039583
-1.4250244 0.11119016 3.0849257 2039583
-1.3748018 0.11115953 3.0840755 2039583
-1.3246063 0.1111289 3.083226 9013641
-1.2744389 0.1110983 3.082377 10000536
-1.2242991 0.1110677 3.0815277 10000536
-1.1754713 0.11103792 3.0807016 10000536
-1.125386 0.11100736 3.0798535 10000536
-1.0753272 0.11097671 3.0790036 10000536
-1.0252967 0.11094614 3.0781553 10000536
-0.97529382 0.11091564 3.0773091 10000536
-0.9253186 0.11088514 3.0764632 10000536
-0.87537074 0.11085469 3.0756176 10000536
-0.82545054 0.11082423 3.0747724 10000536
-0.77555758 0.11079378 3.0739281 10000536
-0.72569215 0.11076336 3.0730841 10000536
-0.67457646 0.11073218 3.0722187 10000536
-0.62476623 0.11070176 3.0713758 9934743
-0.57498372 0.11067142 3.0705328 9934743
-0.5252282 0.11064105 3.0696907 9934743
-0.47550011 0.11061071 3.0688488 9934743
-0.42452517 0.11057961 3.067986 9934743
-0.37485212 0.1105493 3.0671453 10000536
-0.32520658 0.11051901 3.0663047 10000536
-0.2743161 0.11048796 3.0654435 10000536
-0.22472535 0.11045771 3.0646038 10000536
-0.17516197 0.11042746 3.063765 10000536
-0.12435584 0.11039646 3.0629048 10000536
-0.074847162 0.11036626 3.062067 10000536
-0.025365794 0.11033608 3.0612292 10132122
0.025356319 0.11030513 3.0603709 10197915
0.069715358 0.11027806 3.0596199 10132122
-1.2018974 0.1109243 3.1499624 10000536
-1.1756291 0.11090829 3.1495078 10000536
-1.1257379 0.11087789 3.1486449 10000536
-1.075874 0.11084753 3.1477818 10000536
-1.0260369 0.11081708 3.1469176 10000536
-0.97491658 0.11078584 3.1460304 10000536
-0.92382574 0.11075471 3.1451464 10000536
-0.87407243 0.1107244 3.1442854 10000536
-0.82434642 0.11069408 3.143425 10000536
-0.77464771 0.1106638 3.1425648 10000536
-0.72497618 0.11063351 3.1417053 10000536
-0.67533159 0.11060327 3.140846 9934743
-0.62571442 0.11057303 3.1399872 9934743
-0.5748198 0.11054204 3.1391068 9934743
-0.52395338 0.11051103 3.1382263 9934743
-0.47441879 0.11048084 3.1373692 9934743
-0.42491135 0.11045067 3.1365123 10000536
-0.37543085 0.1104205 3.1356564 10000536
-0.32597741 0.11039037 3.1348004 10000536
-0.2752507 0.11035947 3.1339226 10000536
-0.2245522 0.11032856 3.133045 10000536
-0.17518106 0.11029848 3.1321905 10000536
-0.12583683 0.11026841 3.1313369 10000536
-0.075222157 0.11023758 3.130461 10000536
-0.024635559 0.11020675 3.1295855 10000536
0.024626622 0.1101767 3.1287332 10000536
0.06997627 0.11014909 3.1279483 10000536
-1.522998 0.11111996 3.1555188 2039583
-1.4755518 0.11109106 3.1546977 2039583
-1.4254962 0.11106057 3.153832 2039583
-1.3754677 0.11103006 3.152966 5658198
-1.3254669 0.1109996 3.1521008 10000536
-1.2754935 0.11096914 3.1512358 10000536
-1.2268616 0.11093952 3.1503949 10000536
0.043746989 0.11003051 3.199872 10000536
0.071574263 0.11001356 3.1993792 9934743
-1.566183 0.11101038 3.2283683 2039583
-1.525721 0.11098573 3.2276516 2039583
-1.4744937 0.11095455 3.2267449 2039583
-1.4246421 0.11092421 3.2258627 2763306
-1.3748183 0.11089391 3.2249811 10000536
-1.3250211 0.11086358 3.2240994 10000536
-1.2752517 0.11083329 3.2232187 10000536
-1.2255092 0.11080302 3.2223384 10000536
-1.1757939 0.11077276 3.221458 10000536
-1.1247634 0.1107417 3.2205551 10000536
-1.0751029 0.11071149 3.219676 10000536
-1.0254698 0.11068127 3.2187974 10000536
-0.97452354 0.11065028 3.217896 10000536
-0.92494512 0.11062011 3.2170191 10000536
-0.87539381 0.11058994 3.2161415 10000536
-0.82453138 0.11055899 3.2152412 10000536
-0.77503467 0.11052886 3.214365 10000536
-0.72556525 0.11049874 3.2134895 9934743
-0.67478663 0.11046784 3.2125907 9934743
-0.62403649 0.11043697 3.2116923 9934743
-0.57464898 0.11040691 3.2108181 9934743
-0.52528858 0.11037683 3.2099442 10066329
-0.47462198 0.110346 3.2090473 10197915
-0.42398366 0.11031518 3.2081509 10066329
-0.37470499 0.1102852 3.207279 10000536
-0.32545331 0.11025522 3.2064071 10000536
-0.27489826 0.11022443 3.2055123 10000536
-0.22437146 0.11019369 3.204618 10000536
-0.17520124 0.11016378 3.2037475 10000536
-0.126058 0.11013386 3.2028778 10000536
-0.075614177 0.11010315 3.2019846 10000536
-0.025198476 0.11007246 3.2010925 10000536
0.018561315 0.11004583 3.2003174 10000536
-1.3520982 0.11073808 3.2999668 10000536
-1.3259339 0.11072222 3.2994943 10000536
-1.2750006 0.11069126 3.2985711 10000536
-1.2240956 0.11066031 3.2976491 10000536
-1.1745937 0.11063024 3.2967529 10000536
-1.1251187 0.11060015 3.295857 10000536
-1.0756708 0.11057009 3.294961 10000536
-1.0248773 0.11053922 3.2940409 10000536
-0.97411186 0.11050836 3.2931213 10000536
-0.92474598 0.11047836 3.292227 10000536
-0.87540555 0.11044823 3.2913294 10000536
-0.82472384 0.1104174 3.2904105 10000536
-0.7740702 0.11038661 3.2894926 9934743
-0.72481275 0.11035667 3.2886009 9934743
-0.67558217 0.11032674 3.2877092 9934743
-0.62501198 0.11029601 3.2867932 9934743
-0.57446963 0.11026528 3.2858775 10000536
-0.52532047 0.11023539 3.284987 10197915
-0.47483385 0.11020471 3.2840724 10197915
-0.42437518 0.11017403 3.2831583 10197915
-0.37530726 0.11014421 3.2822697 10197915
-0.32490423 0.11011356 3.2813566 10197915
-0.27452892 0.11008294 3.2804439 10197915
-0.22554217 0.11005317 3.2795565 10132122
-0.17522237 0.11002258 3.278645 10000536
