# .PCD v0.7 - Point Cloud Data file format
VERSION 0.7
FIELDS x y z rgb
SIZE 4 4 4 4
TYPE F F F U
COUNT 1 1 1 1
WIDTH 1151
HEIGHT 1
VIEWPOINT 0 0 0 1 0 0 0
POINTS 1151
DATA ascii
0.025007339 0.11496044 0.67351454 10197915
0.074961759 0.11492979 0.6749317 10197915
0.12500244 0.11490165 0.67481017 10197915
0.17498364 0.1148738 0.67463768 10197915
0.2249777 0.11484578 0.67448938 10197915
0.27498454 0.114818 0.67430526 10197915
0.32509717 0.11478986 0.67417741 10197915
0.37511167 0.11476196 0.67396754 10197915
0.4250263 0.11473393 0.67384052 10197915
0.47502893 0.11470602 0.67366439 10197915
0.51922786 0.11467423 0.6776697 10197915
0.55168283 0.11462457 0.69597012 10197915
-0.56578439 0.11519588 0.73109365 10197915
-0.5249964 0.11518493 0.72402561 10197915
-0.47502336 0.11515682 0.72390252 10197915
-0.42503172 0.11512902 0.72367465 10197915
-0.37510106 0.11510064 0.72372246 10197915
-0.3248724 0.11506983 0.72521031 10197915
-0.27500179 0.11504187 0.72503972 10197915
-0.22499311 0.11501401 0.72483557 10197915
-0.17498626 0.114986 0.72468758 10197915
-0.12497957 0.11495806 0.72450811 10197915
-0.074974462 0.11493015 0.72430038 10197915
-0.024994086 0.11490213 0.72415596 10197915
0.025032088 0.11487418 0.72396952 10197915
0.075010113 0.11484627 0.72379988 10197915
0.12498703 0.11481839 0.72360724 10197915
0.17500879 0.11479039 0.72345215 10197915
0.22500628 0.1147625 0.72325838 10197915
0.27500242 0.1147345 0.72309256 10197915
0.32527533 0.11470547 0.72347617 10197915
0.37490401 0.1146755 0.72462189 10197915
0.42497519 0.11464742 0.72443777 10197915
0.47498009 0.11461949 0.72426504 10197915
0.52498168 0.11459163 0.72406137 10197915
0.56567228 0.11455685 0.73096019 10197915
-0.61157084 0.11513253 0.78326362 10197915
-0.57499784 0.11512747 0.77411431 10197915
-0.52498782 0.11509968 0.77387238 10197915
-0.47500321 0.11507167 0.77370834 10197915
-0.42464048 0.11504074 0.77517533 10197915
-0.3748886 0.11501213 0.77547228 10197915
-0.32490608 0.11498416 0.77528256 10197915
-0.27500251 0.1149563 0.77508098 10197915
-0.22501567 0.11492845 0.7748794 10197915
-0.17502628 0.11490049 0.77472103 10197915
-0.12503466 0.1148726 0.77451968 10197915
-0.075013541 0.11484474 0.77430451 10197915
-0.024990572 0.11481666 0.77415454 10197915
0.02498248 0.11478879 0.77396578 10197915
0.074983463 0.11476094 0.77374208 10197915
0.12501414 0.11473288 0.7735858 10197915
0.17502025 0.11470508 0.77338362 10197915
0.22502878 0.11467712 0.77319741 10197915
0.27501285 0.11464913 0.77301139 10197915
0.32449856 0.11462051 0.77341253 10197915
0.37496188 0.11458968 0.77476197 10197915
0.42501789 0.11456166 0.7745831 10197915
0.47502095 0.11453377 0.77439326 10197915
0.52497095 0.1145059 0.77421999 10197915
0.57489675 0.11447793 0.77406055 10197915
0.61139172 0.114442 0.78301394 10197915
-0.65907371 0.11506249 0.83990782 8026746
-0.6237936 0.1150675 0.82532817 9342606
-0.5749945 0.11504216 0.82400078 9737364
-0.52499622 0.11501431 0.82380933 10197915
-0.47499067 0.11498639 0.82359022 10197915
-0.4254331 0.11495558 0.82523835 10197915
-0.37491468 0.11492644 0.82560909 10197915
-0.32493094 0.11489855 0.82541817 10197915
-0.27497262 0.11487054 0.82521504 10197915
-0.22496952 0.11484275 0.82500428 10197915
-0.17499119 0.11481484 0.82480747 10197915
-0.12500246 0.1147869 0.8246274 10197915
-0.075004309 0.11475904 0.82441735 10197915
-0.024996327 0.11473114 0.82421708 10197915
0.024988266 0.11470324 0.82401574 10197915
0.075015888 0.11467531 0.82381672 10197915
0.12501915 0.11464735 0.82360178 10197915
0.17496426 0.11461954 0.82341146 10197915
0.22495328 0.11459161 0.82321525 10197915
0.27498594 0.11456372 0.82300484 10197915
0.32502791 0.11453575 0.82282388 10197915
0.37501261 0.11450789 0.82259297 10197915
0.42500401 0.1144758 0.82484972 10197915
0.47499683 0.11444785 0.82464188 10197915
0.52496433 0.11442 0.82443017 10197915
0.57497048 0.11439211 0.82421076 10197915
0.62378275 0.11436281 0.82523894 10197915
0.65899724 0.1143181 0.83975762 10197915
-0.56964403 -0.40093684 0.89795762 2039583
0.43047699 -0.40090525 0.89788717 2894892
-0.66941679 -0.36879027 0.86593479 6513507
-0.62495089 -0.36882624 0.86660159 6513507
-0.57803351 -0.37057191 0.87448257 2697513
0.43707108 -0.37310308 0.88558573 5000268
0.4749175 -0.37246615 0.88315642 6513507
0.52512604 -0.37278634 0.88391221 6513507
0.57514715 -0.37288252 0.88466531 6513507
0.62506294 -0.37305287 0.88541597 6513507
0.67520094 -0.37332138 0.88617074 6513507
0.70264786 -0.37317795 0.88658494 6513507
-0.66947299 -0.32505035 0.86600381 6513507
-0.6251846 -0.32505393 0.86667216 6513507
-0.57863826 -0.32495281 0.87350744 2763306
0.43726876 -0.32503283 0.88544142 5066061
0.47496176 -0.32493272 0.88323802 6513507
0.52525496 -0.32509044 0.88399547 6513507
0.57501858 -0.32490215 0.88474476 6513507
0.62511837 -0.32503149 0.8854993 6513507
0.67526692 -0.32509267 0.88625467 6513507
0.70271409 -0.32472458 0.88666821 6513507
-0.66920882 -0.27482027 0.86609513 6513507
-0.62483901 -0.2750856 0.86676455 6513507
-0.57868987 -0.27500457 0.87356138 2763306
0.43729243 -0.27501309 0.88553929 5066061
0.47508445 -0.2750859 0.88332552 6513507
0.52499974 -0.2750341 0.88407809 6513507
0.57501394 -0.2748425 0.88483107 6513507
0.62480646 -0.27516362 0.88558 6513507
0.67487222 -0.27492821 0.88633472 6513507
0.70278192 -0.27479368 0.88675416 6513507
-0.66924912 -0.22499709 0.86618179 6513507
-0.62480533 -0.2249032 0.86684883 6513507
-0.57872134 -0.22497831 0.87355936 2763306
0.43736115 -0.22496511 0.88558769 5066061
0.47497866 -0.22497417 0.88340914 6513507
0.52490807 -0.22490576 0.8841601 6513507
0.57484448 -0.22509763 0.88491207 6513507
0.62495494 -0.22514561 0.88566685 6513507
0.67492789 -0.22480629 0.88641864 6513507
0.70285028 -0.22485287 0.88684058 6513507
-0.66931391 -0.17513414 0.86626065 6513507
-0.62500131 -0.17500348 0.86693066 6513507
-0.57869661 -0.17501508 0.87364686 2763306
0.437372 -0.17491859 0.885692 5066061
0.47510046 -0.17495754 0.88349503 6513507
0.52495784 -0.17510675 0.88424569 6513507
0.57496393 -0.17517366 0.88499844 6513507
0.62484676 -0.17489614 0.88575029 6513507
0.67504382 -0.17481944 0.88650733 6513507
0.70291823 -0.17490247 0.88692647 6513507
-0.66937876 -0.12490284 0.86634851 6513507
-0.62499368 -0.12499915 0.86701471 6513507
-0.57877177 -0.12505406 0.87362778 2763306
0.43740246 -0.12509455 0.88577473 5066061
0.47514433 -0.12519154 0.88358247 6513507
0.52507174 -0.12501197 0.88433337 6513507
0.57489574 -0.12495722 0.88508385 6513507
0.624991 -0.12477679 0.88583851 6513507
0.67486489 -0.12496557 0.88658923 6513507
0.70273042 -0.12421196 0.88700956 6513507
-0.66944337 -0.075020649 0.86643398 6513507
-0.62505603 -0.07507848 0.86709833 6513507
-0.57873696 -0.075072676 0.87371922 2763306
0.43747458 -0.074991904 0.88582516 5131854
0.47518972 -0.075048536 0.88366586 6513507
0.52499753 -0.074828878 0.8844164 6513507
0.57501531 -0.074809484 0.88516986 6513507
0.62504947 -0.074873246 0.88592321 6513507
0.67480373 -0.074936606 0.8866722 6513507
0.70268267 -0.074972004 0.88709253 6513507
-0.66950905 -0.025128687 0.86651248 6513507
-0.62511605 -0.025148053 0.86718464 6513507
-0.57882142 -0.025093744 0.87369418 2763306
0.43766871 -0.024907308 0.88554657 5197647
0.4752391 -0.024896305 0.88375145 6513507
0.52511084 -0.024917496 0.88450372 6513507
0.57506853 -0.024938663 0.88525617 6513507
0.62511235 -0.024959903 0.88600963 6513507
0.67486924 -0.024980985 0.88675976 6513507
0.70275092 -0.024992827 0.88717884 6513507
-0.66957361 0.025131894 0.86660188 6513507
-0.62517619 0.025151353 0.86726969 6513507
-0.57884777 0.025095144 0.87373137 2763306
0.4377076 0.024910221 0.88562506 5197647
0.47491536 0.024899421 0.88383287 6513507
0.52479273 0.024920454 0.88458478 6513507
0.57512295 0.024941819 0.88534272 6513507
0.62517476 0.02496315 0.886096 6513507
0.67493361 0.024984235 0.88684464 6513507
0.70281917 0.024996053 0.88726473 6513507
-0.6696381 0.075043291 0.86668426 6513507
-0.62511241 0.075181305 0.86735409 6513507
-0.57870454 0.07500717 0.87385601 2763306
0.43776989 0.075013719 0.88568449 5197647
0.4748987 0.074989483 0.88391715 6513507
0.5248428 0.074768059 0.88466966 6513507
0.574947 0.074745715 0.88542324 6513507
0.62499768 0.074981414 0.88617724 6513507
0.67499948 0.074959204 0.88693017 6513507
0.70288718 0.074994639 0.88735068 6513507
-0.66939873 0.10820422 0.86600822 6513507
-0.62493277 0.10838173 0.86643457 6513507
-0.57654643 0.10900643 0.87300277 4079166
-0.52500546 0.1149265 0.87514395 10197915
-0.47498021 0.1148987 0.87487125 10197915
-0.42497861 0.11487076 0.87466562 10197915
-0.37496158 0.11484294 0.87446296 10197915
-0.32496777 0.11481502 0.87427688 10197915
-0.27503964 0.11478719 0.87402028 10197915
-0.22501452 0.11475924 0.87382835 10197915
-0.17497335 0.11473142 0.87361449 10197915
-0.12499687 0.1147034 0.87341869 10197915
-0.075004391 0.11467565 0.87319112 10197915
-0.024996508 0.11464775 0.87296855 10197915
0.024988415 0.11461991 0.8727566 10197915
0.074987754 0.11459194 0.87257123 10197915
0.12500367 0.11456408 0.8723315 10197915
0.1750349 0.11453619 0.87212902 10197915
0.22547604 0.1145044 0.87402678 10197915
0.27499437 0.11447573 0.87442887 10197915
0.32508832 0.11444774 0.87425274 10197915
0.37508675 0.11441996 0.87399369 10197915
0.43122894 0.110339 0.88073748 6447714
0.47516048 0.10897096 0.8800894 6710886
0.5249151 0.10875072 0.88077569 6776679
0.57489771 0.10882991 0.88125896 6776679
0.62492466 0.10887393 0.88183063 6842472
0.67413485 0.10868729 0.88338441 6710886
0.70289755 0.10734531 0.88732308 6513507
-0.57014382 -0.40825072 0.93087208 2039583
0.42997289 -0.40830892 0.93108708 2894892
-0.57002097 -0.3749887 0.92405289 2039583
0.4300923 -0.37500399 0.92444676 2894892
-0.56999177 -0.32498851 0.92398733 2039583
0.43012142 -0.325003 0.92449886 2894892
-0.56996131 -0.27499405 0.92395914 2039583
0.4301495 -0.27501965 0.92457241 2894892
-0.56993049 -0.22500454 0.92389679 2039583
0.43017855 -0.22500509 0.92462099 2894892
-0.56990397 -0.17488334 0.92404765 2039583
0.43020725 -0.17495909 0.92467862 2894892
-0.56987965 -0.12500614 0.9244464 2039583
0.4302358 -0.12496865 0.92476749 2894892
-0.5698489 -0.075013176 0.92436767 2039583
0.43026429 -0.075008281 0.9247961 2894892
-0.56981891 -0.025016431 0.92434865 2039583
0.43030491 -0.025004039 0.92408448 2894892
-0.56978941 0.025024192 0.92429614 2039583
0.43033341 0.025006203 0.92414391 2894892
-0.5697583 0.075019948 0.92423642 2039583
0.43036205 0.07499779 0.92419302 2894892
-0.56766808 0.10898668 0.92421991 4144959
-0.52497667 0.11484287 0.92402434 10197915
-0.47500041 0.114815 0.92384654 10197915
-0.42500076 0.11478736 0.92348856 10197915
-0.37497768 0.11475933 0.9233579 10197915
-0.32497752 0.11473145 0.92313397 10197915
-0.27495509 0.1147037 0.92285752 10197915
-0.22495684 0.11467569 0.92270714 10197915
-0.17503032 0.11464788 0.92246127 10197915
-0.12503237 0.1146201 0.92219126 10197915
-0.075011142 0.11459208 0.92204249 10197915
-0.024990849 0.1145592 0.92477369 10197915
0.025025239 0.11453121 0.92459136 10197915
0.075015366 0.1145034 0.92438608 10197915
0.12502442 0.11447554 0.92412108 10197915
0.17500918 0.11444765 0.92392546 10197915
0.22441868 0.11441627 0.92594576 10197915
0.27502608 0.11438665 0.92653799 10197915
0.32518202 0.11435869 0.92630637 10197915
0.37517163 0.11433087 0.92606622 10197915
0.42511612 0.10962384 0.92475468 4473924
-0.57084525 -0.41859025 0.97708356 2039583
0.42928252 -0.41845053 0.97653103 2894892
-0.57077897 -0.37500215 0.97435647 2039583
0.42934629 -0.37500066 0.97399735 2894892
-0.57074857 -0.32500967 0.97429883 2039583
0.42937505 -0.32499981 0.97405756 2894892
-0.57071793 -0.27501088 0.97425067 2039583
0.42940283 -0.27499264 0.97416455 2894892
-0.57068741 -0.22500618 0.97419596 2039583
0.42943236 -0.22499286 0.97418785 2894892
-0.57066083 -0.17514317 0.97435707 2039583
0.42946059 -0.17500134 0.97426891 2894892
-0.57063812 -0.12499703 0.97480816 2039583
0.4294889 -0.12501742 0.97433633 2894892
-0.5706076 -0.074996665 0.97473311 2039583
0.42951772 -0.075012386 0.97438931 2894892
-0.57057691 -0.024990557 0.97470611 2039583
0.429546 -0.025001395 0.97447842 2894892
-0.57054704 0.024988778 0.97465223 2039583
0.42957443 0.025003618 0.97454691 2894892
-0.57051605 0.074984238 0.97457963 2039583
0.42960361 0.074999124 0.97456861 2894892
-0.56804127 0.10916282 0.97483397 4342338
-0.52503675 0.1147552 0.9753502 10132122
-0.47506922 0.11472738 0.97510725 10197915
-0.42502525 0.11469962 0.97481078 10197915
-0.37500617 0.11467166 0.97463357 10197915
-0.32506028 0.11464385 0.9743973 10197915
-0.27503905 0.11461607 0.97413546 10197915
-0.22499114 0.11458818 0.97388935 10197915
-0.17496756 0.11456023 0.97368902 10197915
-0.12496859 0.11453249 0.97341645 10197915
-0.075043775 0.11450461 0.97323471 10197915
-0.025079731 0.11447114 0.97630858 10197915
0.025014095 0.11444314 0.97613192 10197915
0.075024419 0.11441528 0.97587734 10197915
0.12501107 0.11438745 0.97565699 10197915
0.17497323 0.11435974 0.97534132 10197915
0.22496878 0.11433177 0.97516644 10197915
0.27499783 0.11430384 0.97496033 10197915
0.32482889 0.11427615 0.97469068 10197915
0.37481022 0.11424834 0.97445613 10197915
0.42453402 0.10954991 0.97446334 4408131
-0.57174569 -0.45662689 1.035376 2510451
0.42837712 -0.45670444 1.0351549 2894892
-0.57157159 -0.42493799 1.025051 2374736
0.42855832 -0.42500633 1.0243307 2894892
-0.57154047 -0.37499446 1.0249435 2308687
0.42858997 -0.37500757 1.0242687 2894892
-0.57151008 -0.32499096 1.0248886 2242638
0.42861804 -0.32498896 1.0243568 2894892
-0.57147932 -0.27497965 1.0248363 2111309
0.42864698 -0.27497944 1.0244104 2894892
-0.5714494 -0.22497366 1.0247808 2045003
0.42867473 -0.22498083 1.0244797 2894892
-0.57141858 -0.17500015 1.0247328 2045003
0.42870319 -0.17500746 1.0245725 2894892
-0.57138872 -0.12500465 1.0246527 2111052
0.42873231 -0.12501128 1.0245943 2894892
-0.57135767 -0.07500162 1.0246025 2044746
0.4287608 -0.074992023 1.0246841 2894892
-0.57132828 -0.025004352 1.0245785 1912647
0.42878842 -0.024999388 1.0247557 2894892
-0.57129729 0.025002578 1.024526 1846341
0.42881736 0.02498531 1.0248303 2894892
-0.57126683 0.075002477 1.0244293 1846597
0.42884845 0.074844584 1.0247006 2894892
-0.56899881 0.10890367 1.0246322 5528161
-0.5250057 0.11467009 1.0251212 10132122
-0.47498789 0.11464203 1.0249665 10197915
-0.42499363 0.11461457 1.0245804 10197915
-0.37502518 0.11458659 1.0244066 10197915
-0.32500803 0.11455879 1.0241369 10197915
-0.27494571 0.11453081 1.0239407 10197915
-0.22497833 0.11450323 1.0235854 10197915
-0.1750354 0.11447525 1.0234222 10197915
-0.12420223 0.11444275 1.0256568 10197915
-0.074980266 0.11441308 1.0267223 10197915
-0.024968373 0.11438544 1.0263623 10197915
0.025021017 0.11435756 1.0261685 10197915
0.07504499 0.11432976 1.0258992 10197915
0.12504523 0.11430191 1.0256693 10197915
0.17502093 0.1142742 1.0253283 10197915
0.22503318 0.11424632 1.0251514 10197915
0.2750212 0.11421834 1.0249745 10197915
0.32486278 0.1141908 1.0246152 10197915
0.37486356 0.11416296 1.0243686 10197915
0.42360887 0.10965098 1.0240029 4473924
-0.57211101 -0.46199086 1.0594258 2843540
0.42788702 -0.46378276 1.0674316 2894892
-0.57208204 -0.42498171 1.0589541 2843539
0.42793289 -0.4249883 1.0659148 2894892
-0.57205176 -0.37499246 1.0589048 2776976
0.42796019 -0.37496221 1.066061 2894892
-0.57202113 -0.3250083 1.0588332 2381707
0.42798916 -0.32501844 1.0661023 2894892
-0.57199121 -0.27502972 1.0588096 2251149
0.42801729 -0.27503797 1.0661983 2894892
-0.57196009 -0.22501209 1.0587327 1986439
0.42804551 -0.2250219 1.0662749 2894892
-0.57192993 -0.17500043 1.0586618 2118793
0.42807454 -0.17496997 1.0663245 2894892
-0.57190162 -0.12469625 1.0587547 2250890
0.42810285 -0.1249697 1.0664078 2894892
-0.57188135 -0.075011626 1.0593692 2052230
0.42813149 -0.07499285 1.0664619 2894892
-0.57185185 -0.025016593 1.0593687 1722241
0.42815971 -0.024979902 1.0665549 2894892
-0.57182157 0.025014833 1.059312 1589629
0.42818835 0.02498213 1.066626 2894892
-0.57179022 0.074999243 1.0592009 1721983
0.42822039 0.075238407 1.0664767 2894892
-0.56774133 0.11088739 1.0668639 7767187
-0.52498186 0.1145898 1.0720588 10132122
-0.47504833 0.11456201 1.0718127 10197915
-0.42499104 0.11453416 1.0715637 10197915
-0.37503219 0.11450642 1.0712789 10197915
-0.32509598 0.11447863 1.071044 10197915
-0.27503794 0.11445084 1.0707612 10197915
-0.22477323 0.11441616 1.0744368 10197915
-0.17498498 0.11438833 1.0742658 10197915
-0.1259664 0.11435661 1.0766013 10197915
-0.075027466 0.1143254 1.0780184 10197915
-0.025004117 0.11429776 1.0776819 10197915
0.024995999 0.11426993 1.0774196 10197915
0.0749707 0.11424202 1.0772314 10197915
0.12492067 0.11421442 1.0768712 10197915
0.17499587 0.11418656 1.0766101 10197915
0.22504619 0.11415869 1.0763707 10197915
0.2749978 0.11413081 1.0761702 10197915
0.32492512 0.11410316 1.0758471 10197915
0.37497774 0.11407537 1.0755496 10197915
0.42237401 0.11009333 1.0702145 5460819
-0.60542005 0.11451694 1.1412553 2183815
-0.57381809 0.11452712 1.1248771 6189963
-0.52503395 0.11450183 1.1235201 10066329
-0.4750374 0.11447424 1.123149 10197915
-0.42506537 0.1144462 1.1230577 10197915
-0.37511802 0.11441871 1.1226318 10197915
-0.32503763 0.1143908 1.1224025 10197915
-0.27498356 0.11436303 1.122086 10197915
-0.22536686 0.1143281 1.1261247 10197915
-0.1749495 0.11429967 1.12611 10197915
-0.124814 0.11427176 1.1258682 10197915
-0.074888714 0.11424424 1.1254597 10197915
-0.024989564 0.11421628 1.1253215 10197915
0.025074443 0.11418858 1.1249815 10197915
0.075019091 0.11416071 1.1247741 10197915
0.1249398 0.11413311 1.1244 10197915
0.17492902 0.11410519 1.124227 10197915
0.22489493 0.11407758 1.1238539 10197915
0.27492833 0.11404956 1.1237139 10197915
0.32493749 0.11402195 1.12334 10197915
0.37492388 0.11399417 1.1230664 10197915
0.42198774 0.11396559 1.1242408 9934743
0.45048356 0.11392082 1.1409948 2894892
-0.60921073 -0.50791484 1.1533351 2778002
-0.57507759 -0.50815493 1.1538793 2182519
-0.54726017 -0.51025921 1.1629971 1585741
-0.60923839 -0.47496724 1.153387 2711696
-0.57506233 -0.47514692 1.1539322 2182262
-0.54730445 -0.47505981 1.1618487 1717326
-0.60924017 -0.42512369 1.1534674 2645390
-0.57518423 -0.42498049 1.1540107 2115953
-0.54728293 -0.42495114 1.161865 1648954
-0.60936266 -0.37497744 1.1535465 2315402
-0.57518339 -0.37485108 1.1540942 2049132
-0.54726952 -0.3750293 1.1618223 2039583
-0.60936493 -0.32499468 1.1536268 2316684
-0.57522315 -0.32514799 1.1541717 2049645
-0.54725122 -0.32318321 1.1639606 1974047
-0.60937321 -0.27518103 1.1537067 2053000
-0.57506573 -0.27505535 1.1546047 1786992
-0.54725766 -0.27853414 1.1668688 1059911
-0.60948229 -0.22501336 1.1537856 1985669
-0.57530296 -0.22476597 1.1543336 1852527
-0.54723799 -0.22495295 1.1617724 1586254
-0.60914075 -0.17471278 1.1538723 2184841
-0.57499808 -0.17513685 1.1544168 2050159
-0.54722744 -0.1750422 1.1617444 1714746
-0.60891789 -0.12552285 1.1539545 2315912
-0.5748986 -0.12530363 1.1544963 2049130
-0.54722309 -0.12494843 1.161678 2039583
-0.6086275 -0.0750622 1.1540406 1919874
-0.57495654 -0.075088188 1.1545805 1785190
-0.54720777 -0.074893825 1.1616921 2039583
-0.60866964 -0.024862906 1.15412 1654907
-0.57498801 -0.024874492 1.1546592 1520222
-0.54719597 -0.024989512 1.1616862 2039583
-0.6087113 0.024865208 1.1541996 1456759
-0.57502699 0.024876783 1.1547366 1454172
-0.54718572 0.024988875 1.1616627 2039583
-0.60875386 0.075078338 1.1542798 1589627
-0.57514733 0.074941404 1.154871 2049655
-0.54714227 0.07705345 1.1647352 3960997
-0.60878128 0.10760087 1.1543318 1986180
-0.57467788 0.10745159 1.1548904 1851757
-0.5378179 0.11001398 1.1742084 5004139
-0.47496957 0.11438578 1.1748739 10197915
-0.42492574 0.11435792 1.1746279 10197915
-0.37510258 0.11433025 1.1743428 10197915
-0.3251057 0.11430242 1.1740968 10197915
-0.27494144 0.11427484 1.1736583 10197915
-0.2248971 0.1142468 1.1735257 10197915
-0.17497504 0.11421916 1.1732013 10197915
-0.12507732 0.11419138 1.1729566 10197915
-0.075008437 0.11416385 1.1725184 10197915
-0.024966083 0.11413579 1.1723857 10197915
0.024957998 0.11410808 1.1721007 10197915
0.074951701 0.11408056 1.171663 10197915
0.12502022 0.11405248 1.1715295 10197915
0.17506376 0.11402484 1.1711694 10197915
0.22508249 0.11399698 1.1709203 10197915
0.27507728 0.11396933 1.1705995 10197915
0.32504657 0.11394145 1.1703888 10197915
0.37509069 0.11391379 1.170029 10197915
0.42531937 0.11387783 1.1744642 10132122
0.4586077 0.11384591 1.182129 9408399
-0.54778641 -0.30287161 1.224547 2039583
-0.56134492 -0.2857503 1.2296209 927556
-0.54786718 -0.29230967 1.2240676 1256777
-0.56056404 0.094251908 1.2284479 3044279
-0.54764676 0.096895166 1.2249758 1454669
-0.53706157 0.11032263 1.2255669 5464431
-0.47497365 0.11429805 1.2261912 10132122
-0.42498481 0.11427038 1.2258509 10197915
-0.37512398 0.11424273 1.2255529 10197915
-0.32518274 0.11421485 1.225345 10197915
-0.27496356 0.11418717 1.2249581 10197915
-0.22497097 0.11415935 1.2247033 10197915
-0.1750029 0.11413176 1.2243221 10197915
-0.12495727 0.11410396 1.2240649 10197915
-0.074936792 0.11407597 1.2238984 10197915
-0.024940304 0.1140484 1.2234697 10197915
0.024932239 0.11402074 1.2231722 10197915
0.074981138 0.11399284 1.222963 10197915
0.12510744 0.11396509 1.2226224 10197915
0.17510767 0.11393744 1.222279 10197915
0.22508436 0.11390955 1.2220694 10197915
0.27503678 0.11388215 1.2215995 10197915
0.32506448 0.11385409 1.2214738 10197915
0.37496942 0.11382654 1.2210896 10197915
0.42447141 0.11379079 1.2256657 10132122
0.46757886 0.11376306 1.2276181 9737364
-0.54858404 -0.30292928 1.2744371 2180455
-0.60191029 -0.28583634 1.2975049 1125960
-0.57195431 -0.28582105 1.2771879 1125703
-0.54861844 -0.29255477 1.2744682 1454670
-0.60210103 0.094162367 1.2987839 4690905
-0.5718872 0.094176054 1.2794018 3636931
-0.54839081 0.09694466 1.275269 1651791
-0.53859329 0.10999456 1.2757177 5267054
-0.47509259 0.11421251 1.2762598 10132122
-0.42515439 0.11418456 1.2761042 10197915
-0.37524056 0.11415719 1.2756412 10197915
-0.32521623 0.11412932 1.2753942 10197915
-0.27508548 0.11410147 1.2751141 10197915
-0.22511236 0.11407399 1.2746811 10197915
-0.17503014 0.11404598 1.2745247 10197915
-0.1248409 0.11401826 1.2741529 10197915
-0.074938938 0.11399065 1.2737807 10197915
-0.02506288 0.11396289 1.2735341 10197915
0.02505473 0.11393511 1.2732238 10197915
0.075015046 0.11390734 1.2729447 10197915
0.12494992 0.11387984 1.2725431 10197915
0.17499374 0.11385196 1.2722946 10197915
0.22488062 0.11382428 1.2720162 10197915
0.27487639 0.11379676 1.2715867 10197915
0.32510802 0.11376871 1.2713952 10197915
0.37518695 0.11374101 1.2710547 10197915
0.42510891 0.11371323 1.2708062 10132122
0.47578475 0.11367769 1.2748475 9934743
0.50534701 0.11363143 1.2921344 8421504
0.52433026 -0.60090816 1.3459277 2894892
0.52445841 -0.57411516 1.338474 2894892
0.52449155 -0.52511454 1.3381983 2894892
0.52451855 -0.47503352 1.3383723 2894892
0.52454716 -0.4250856 1.3384187 2894892
0.52457559 -0.37506297 1.3384987 2894892
-0.54936683 -0.30294886 1.3234173 2316944
0.52460486 -0.32503515 1.338526 2894892
-0.60952497 -0.28588337 1.3293372 1191754
-0.57496291 -0.28589609 1.3245935 1125960
-0.54936272 -0.29280573 1.3232094 1652049
0.52463216 -0.27507177 1.3386631 2894892
0.524661 -0.22503251 1.3387129 2894892
0.52468997 -0.17498887 1.3387629 2894892
0.52471769 -0.1250083 1.3388697 2894892
0.52474731 -0.074954361 1.3388816 2894892
0.52477461 -0.024963198 1.3390263 2894892
0.52480298 0.024964992 1.3390986 2894892
-0.60968703 0.094112337 1.3324624 5282269
-0.57504916 0.094098642 1.3283836 3966408
-0.54917026 0.096960329 1.3255635 1914448
0.52483273 0.074967042 1.3391001 2894892
-0.53843504 0.11016449 1.3251996 5596017
-0.47490299 0.11412999 1.3244557 10132122
-0.42486668 0.1141023 1.3241338 10197915
-0.37513232 0.11407484 1.3237433 10197915
-0.32514372 0.11404712 1.3234264 10197915
-0.27490866 0.11401922 1.3231697 10197915
-0.22496946 0.11399151 1.3228486 10197915
-0.17505626 0.11396375 1.3225961 10197915
-0.12516707 0.1139362 1.3222072 10197915
-0.075026929 0.11390854 1.3218184 10197915
-0.02491302 0.11388065 1.3215623 10197915
0.024904978 0.11385307 1.3212421 10197915
0.074970178 0.11382546 1.3208541 10197915
0.12501274 0.11379762 1.3205981 10197915
0.17489317 0.11376992 1.3203118 10197915
0.225023 0.11374234 1.3198893 10197915
0.27512789 0.11371429 1.3197368 10197915
0.32520747 0.11368684 1.3192455 10197915
0.37512937 0.11365908 1.3189905 10197915
0.42502394 0.11363155 1.3186038 10197915
0.47335246 0.11359844 1.3220067 10066329
0.51876915 0.10989949 1.3359795 4276545
0.52379513 -0.60899055 1.3811382 2894892
0.52391422 -0.57478756 1.3745726 2894892
0.52394235 -0.52479619 1.3746667 2894892
0.5239712 -0.47502205 1.3747072 2894892
0.52399909 -0.42502171 1.3748116 2894892
0.52402741 -0.3750149 1.3748921 2894892
-0.55028117 -0.30298045 1.3806143 3435420
-0.54988259 -0.30297056 1.3556755 3041176
0.52405632 -0.32497147 1.3749377 2894892
-0.62001473 -0.2859506 1.3746345 1191497
-0.56832421 -0.28788292 1.3745204 1322570
-0.54987866 -0.29296729 1.3558133 1849170
0.52408469 -0.27495423 1.375021 2894892
0.52411991 -0.22531986 1.3746476 2894892
0.52416325 -0.1750555 1.3737334 2894892
0.52419144 -0.12501296 1.3738201 2894892
0.52421975 -0.07496468 1.3739096 2894892
0.52424878 -0.024979614 1.3739501 2894892
0.52427727 0.024981417 1.3740239 2894892
-0.62025189 0.094044834 1.377995 5018842
-0.5689435 0.094739109 1.3786504 3502504
-0.54977101 0.096992709 1.3640693 2111569
0.52430493 0.074977309 1.3741339 2894892
-0.55018824 0.10700807 1.3902432 2440277
-0.53526485 0.11116774 1.371915 6779259
-0.47512534 0.11404155 1.3762493 10066329
-0.42513037 0.11401366 1.3760684 10197915
-0.37530106 0.11398609 1.3756974 10197915
-0.3252086 0.11395831 1.375404 10197915
-0.2750006 0.11393052 1.3750652 10197915
-0.22496004 0.11390316 1.3745412 10197915
-0.17494167 0.11387508 1.3743969 10197915
-0.12494826 0.11384761 1.3739492 10197915
-0.07498011 0.11381964 1.3738077 10197915
-0.025036408 0.1137923 1.3732822 10197915
0.025028283 0.11376461 1.3729465 10197915
0.075065918 0.1137365 1.3728423 10197915
0.12507807 0.11370938 1.3722022 10197915
0.17506884 0.11368161 1.3719449 10197915
0.22503258 0.11365351 1.3718405 10197915
0.27497444 0.11362624 1.3712777 10197915
0.32517365 0.1135983 1.3710203 10197915
0.37520936 0.11357056 1.3707217 10197915
0.42493436 0.11354311 1.3703537 10197915
0.4749186 0.11351562 1.369905 10066329
0.52137202 0.10835823 1.374704 3487029
0.52308989 -0.61935049 1.4275701 2894892
0.52315086 -0.57485402 1.4252492 2894892
0.52317858 -0.52480227 1.4253594 2894892
0.52320826 -0.47493148 1.4253814 2894892
0.52323627 -0.42498145 1.4254646 2894892
0.52326399 -0.37495181 1.4255913 2894892
-0.55097312 -0.30306408 1.4239005 3369370
0.52329284 -0.32495373 1.4256343 2894892
-0.65837449 -0.28602055 1.4317963 1586510
-0.62499905 -0.28602692 1.4235722 1388875
-0.56724751 -0.2884061 1.4236618 1388363
0.52332127 -0.27498737 1.4257078 2894892
0.52335876 -0.22465111 1.4252176 2894892
0.52340108 -0.17497636 1.4243386 2894892
0.52342963 -0.12496474 1.4244168 2894892
0.52345848 -0.07501778 1.4244634 2894892
0.52348644 -0.025031131 1.4245673 2894892
0.52351469 0.025032954 1.424643 2894892
-0.65843242 0.093975872 1.4344103 6200800
-0.62508184 0.093969055 1.4265504 4689879
-0.56591791 0.095108382 1.4256163 3303320
0.5235433 0.075030372 1.4246939 2894892
-0.55073214 0.10707679 1.4247473 2440533
-0.52504283 0.11398526 1.4256709 10000536
-0.4749243 0.11395773 1.4252114 10066329
-0.42482749 0.11393003 1.4248649 10197915
-0.37515223 0.11390256 1.4245182 10197915
-0.32530105 0.11387498 1.4241761 10197915
-0.27508312 0.1138472 1.4238288 10197915
-0.22508347 0.11381951 1.4234824 10197915
-0.17511083 0.11379168 1.4232495 10197915
-0.12516227 0.11376425 1.4227908 10197915
-0.075038984 0.11373653 1.4224447 10197915
-0.024943134 0.1137088 1.422098 10197915
0.024935057 0.11368122 1.4217529 10197915
0.074982204 0.11365353 1.4214066 10197915
0.12500805 0.11362586 1.4210607 10197915
0.17536373 0.11359723 1.4211655 10197915
0.22489753 0.11355811 1.4276847 10197915
0.27495551 0.11353049 1.4272938 10197915
0.32528353 0.11350258 1.4269865 10197915
0.3752951 0.11347515 1.4265074 10197915
0.4251307 0.11344744 1.4262494 10197915
0.47509295 0.11341972 1.4259452 10132122
0.5201081 0.10866253 1.4249297 3552822
0.52221882 -0.65702033 1.4839255 2894892
0.52237529 -0.62505847 1.4747732 2894892
0.52240443 -0.57499248 1.4747901 2894892
0.52243209 -0.52499741 1.4749377 2894892
0.52246118 -0.47504213 1.4749718 2894892
0.52249008 -0.42499837 1.4750184 2894892
0.52251697 -0.37499049 1.4751841 2894892
-0.55178666 -0.30304664 1.4748082 3237785
0.52254677 -0.32501733 1.4751778 2894892
-0.66914296 -0.2860893 1.4781687 1520718
-0.62502748 -0.2861113 1.4756992 1323083
-0.56752759 -0.2885381 1.4754503 1585741
0.52257448 -0.27503905 1.4753094 2894892
0.52260256 -0.2249739 1.4753871 2894892
0.52263141 -0.17498434 1.4754553 2894892
0.52265984 -0.12507133 1.4755193 2894892
0.52268791 -0.075030103 1.4756269 2894892
0.5227161 -0.02498569 1.475702 2894892
0.52274477 0.0249875 1.4757817 2894892
-0.667472 0.093918502 1.4731534 6463457
-0.62467021 0.093895093 1.4721134 4426708
-0.5663662 0.095056735 1.4782337 3038866
0.52277344 0.075002186 1.4758312 2894892
-0.5515064 0.10712536 1.4740728 2637654
-0.52487499 0.11390865 1.4704322 10000536
-0.47501302 0.11388151 1.4698255 10000536
-0.42517799 0.11385354 1.469721 10197915
-0.37536451 0.11382622 1.4692392 10197915
-0.32537073 0.1137986 1.4688851 10197915
-0.27355915 0.11375987 1.4744009 10197915
-0.22486241 0.11372997 1.475778 10197915
-0.17498612 0.1137021 1.4756088 10197915
-0.12498137 0.11367469 1.4751102 10197915
-0.075002201 0.11364666 1.4749889 10197915
-0.025047407 0.11361945 1.474393 10197915
0.025039274 0.11359179 1.474034 10197915
0.074945472 0.11356378 1.4739134 10197915
0.12497994 0.11353663 1.4732711 10197915
0.17470308 0.11350833 1.4733857 10197915
0.22509395 0.11346757 1.480576 10197915
0.27511749 0.11344015 1.4800867 10197915
0.32491302 0.11341286 1.4796009 10197915
0.37488219 0.1133848 1.4794959 10197915
0.42483339 0.11335742 1.4790074 10197915
0.47475982 0.11332961 1.4787757 10132122
0.51983231 0.10837369 1.4765004 3355443
0.52156276 -0.66657591 1.5270778 2894892
0.52162892 -0.62492663 1.5243497 2894892
0.52165782 -0.57502371 1.5243909 2894892
0.5216862 -0.52506793 1.5244861 2894892
0.52171361 -0.4750644 1.5245982 2894892
0.52174252 -0.42505473 1.5246392 2894892
0.52176988 -0.37499431 1.5247982 2894892
-0.5525806 -0.30312917 1.5244703 2974872
0.52179974 -0.3249737 1.5247766 2894892
-0.70703042 -0.28615594 1.5330856 1652047
-0.67501938 -0.28616139 1.5247897 1586255
-0.62499917 -0.28619123 1.5249975 1323084
-0.56799394 -0.28863832 1.524801 1717327
0.52182698 -0.27499244 1.5249293 2894892
0.52185529 -0.22500601 1.5250115 2894892
0.52188456 -0.17496899 1.5250537 2894892
0.52191216 -0.12492676 1.525178 2894892
0.52194047 -0.074969038 1.5252571 2894892
0.52196926 -0.025006965 1.5253042 2894892
0.52199763 0.025008785 1.5253876 2894892
-0.70671791 0.093841173 1.5351506 7120354
-0.67457449 0.093845822 1.5206395 6332384
-0.62523991 0.093817867 1.5200143 4427222
-0.56480813 0.095237382 1.5274513 3234440
0.52202553 0.074981637 1.5255051 2894892
-0.55230969 0.10711318 1.5252538 2834775
-0.52511674 0.11382727 1.5180992 10000536
-0.47511125 0.11379988 1.5175918 10000536
-0.42512715 0.11377228 1.5172236 10132122
-0.37538058 0.1137448 1.516857 10197915
-0.32353482 0.11370835 1.5210251 10197915
-0.27672118 0.11366713 1.5296659 10197915
-0.22515063 0.11363348 1.5323049 10197915
-0.17495854 0.11360574 1.5319314 10197915
-0.12500107 0.11357792 1.5317006 10197915
-0.075066313 0.11355057 1.5311873 10197915
-0.024947397 0.11352291 1.5308141 10197915
0.024939321 0.11349536 1.5304427 10197915
0.075009458 0.11346771 1.5300696 10197915
0.1250588 0.11344007 1.5296972 10197915
0.17508011 0.11341246 1.5293248 10197915
0.2250808 0.11338483 1.5289522 10197915
0.27484179 0.11335713 1.5287218 10197915
0.32458147 0.11332991 1.528211 10197915
0.37472117 0.11330198 1.5279789 10197915
0.42504191 0.11327441 1.5274632 10197915
0.47512794 0.11324699 1.5269521 10132122
0.51918548 0.108321 1.5258253 3289650
-0.72015786 -0.7062397 1.5891467 1717070
-0.67532885 -0.70626545 1.5888107 1652047
-0.62514192 -0.70629513 1.5888209 1389134
-0.57527041 -0.70654386 1.5891768 1520205
0.52064216 -0.70488572 1.5867295 2894892
0.52085274 -0.67448848 1.5739409 2894892
0.52088791 -0.62509453 1.5735521 2894892
0.52091509 -0.57517958 1.5736986 2894892
0.52094388 -0.52515477 1.5737387 2894892
0.5209713 -0.47502911 1.5738926 2894892
0.52100027 -0.4249959 1.5739399 2894892
0.52102822 -0.37500769 1.5740318 2894892
-0.55336744 -0.30317849 1.573692 2711701
0.52105665 -0.32501447 1.5741192 2894892
-0.71701789 -0.28622073 1.5767124 1783375
-0.67494249 -0.2862407 1.5737717 1717840
-0.62498844 -0.28627044 1.57399 1389134
-0.56843263 -0.28872347 1.5738419 1783119
0.52108538 -0.27496549 1.5741814 2894892
0.52111256 -0.2249608 1.574334 2894892
0.52114195 -0.17500144 1.5743526 2894892
0.52117032 -0.12503636 1.5744292 2894892
0.5211975 -0.075066261 1.5745755 2894892
0.52122676 -0.025041141 1.5746006 2894892
0.52125531 0.025042953 1.5746868 2894892
-0.71584821 0.093784057 1.5737417 6397662
-0.67522889 0.093763411 1.5717695 5740763
-0.62522638 0.093735054 1.5711521 4164308
-0.56600964 0.095153302 1.5724699 3366540
0.52128243 0.075078927 1.574832 2894892
-0.55304009 0.10728092 1.5743029 2966360
-0.52493966 0.11374048 1.5688035 10000536
-0.47478005 0.1137128 1.5684222 10000536
-0.42464107 0.11368512 1.5680399 10132122
-0.37453014 0.11365741 1.5676579 10197915
-0.32704556 0.11362497 1.5709349 10197915
-0.27482772 0.11358725 1.5757666 10197915
-0.22483897 0.11355983 1.5752689 10197915
-0.1748648 0.11353207 1.5750011 10197915
-0.12492333 0.11350469 1.5745038 10197915
-0.074998878 0.11347699 1.5742368 10197915
-0.025104722 0.11344963 1.5737399 10197915
0.025096547 0.1134219 1.5733556 10197915
0.077280529 0.11338329 1.5786742 10197915
0.12470885 0.11335167 1.581516 10197915
0.17489783 0.11332372 1.5812838 10197915
0.22506219 0.1132963 1.5807437 10197915
0.27520534 0.11326863 1.5803577 10197915
0.32488453 0.1132412 1.5799714 10197915
0.37476119 0.11321371 1.5795919 10197915
0.4250451 0.11318595 1.5792042 10197915
0.47509059 0.11315832 1.5788187 10197915
0.51841658 0.10838919 1.575783 3158064
-0.7559979 -0.70629406 1.6356493 1717070
-0.72489548 -0.7062934 1.6239935 1848398
-0.67512506 -0.70632207 1.623692 1585741
-0.62499481 -0.70635176 1.6237907 1257292
-0.57215452 -0.708386 1.6244259 1849946
0.52001792 -0.7141152 1.6278203 2894892
0.52009779 -0.67495251 1.6240441 2894892
0.520127 -0.6249373 1.624118 2894892
0.52015448 -0.57517797 1.6242503 2894892
0.52018261 -0.52520162 1.6242939 2894892
0.52020967 -0.47496554 1.624464 2894892
0.52023858 -0.42498142 1.6245418 2894892
0.52026713 -0.37499177 1.6245823 2894892
-0.55416501 -0.30319664 1.6235954 2513552
0.52029526 -0.32504809 1.6246433 2894892
-0.75652766 -0.28629807 1.6388073 1717069
-0.72475171 -0.28629631 1.6262187 1782862
-0.67505431 -0.28632542 1.6261482 1585741
-0.62497586 -0.28635538 1.6264069 1257292
-0.56933701 -0.28881472 1.6238041 1717327
0.52032346 -0.27504784 1.6247926 2894892
0.52035159 -0.22499023 1.6248616 2894892
0.5203802 -0.17503084 1.6249346 2894892
0.52040887 -0.12501365 1.6250067 2894892
0.52043724 -0.074991345 1.6250923 2894892
0.52046406 -0.025017302 1.6252574 2894892
0.52049232 0.025019126 1.6253457 2894892
-0.75312263 0.093718924 1.6274592 4557264
-0.72402632 0.093719736 1.6164163 5214421
-0.67460805 0.093675166 1.6260563 4622801
-0.62497997 0.093645439 1.6264017 3506125
-0.56835628 0.094796143 1.6252713 3170451
0.52052176 0.075003952 1.6253563 2894892
-0.55381626 0.10719892 1.6244876 2900824
-0.52520096 0.11364798 1.623004 10000536
-0.47532392 0.11361989 1.6229488 10000536
-0.42524377 0.11359248 1.6223869 10132122
-0.37474287 0.11356463 1.6219894 10197915
-0.32471123 0.11353704 1.6215906 10197915
-0.27493227 0.1135096 1.6212031 10197915
-0.22494978 0.11348174 1.6209755 10197915
-0.17499331 0.11345451 1.6204157 10197915
-0.12506042 0.11342723 1.6198516 10197915
-0.075154766 0.11339914 1.6197946 10197915
-0.025046717 0.11337179 1.6192343 10197915
0.025038576 0.11334417 1.6188402 10197915
0.072691686 0.11331071 1.6226786 10197915
0.12540838 0.11327261 1.6275275 10197915
0.17526144 0.11324511 1.6271324 10197915
0.22508752 0.1132181 1.6264822 10197915
0.27488726 0.11319019 1.6263433 10197915
0.32466778 0.11316275 1.6259487 10197915
0.37476075 0.11313534 1.6254261 10197915
0.42482445 0.1131075 1.6251552 10197915
0.4748697 0.11308014 1.6246327 10132122
0.51854771 0.10779558 1.6252431 3026478
0.51901871 -0.75369936 1.6926118 2894892
-0.76577663 -0.70635724 1.6782972 1848654
-0.72509044 -0.70637292 1.6733588 1979983
-0.67506647 -0.70640278 1.6733203 1717070
-0.62499684 -0.70643181 1.6733627 1257292
-0.57172275 -0.70911384 1.6738595 1850204
0.51927447 -0.72360104 1.6768161 2894892
0.51931888 -0.67500848 1.6757751 2894892
0.51934522 -0.62505525 1.6759937 2894892
0.51937348 -0.57521033 1.6760645 2894892
0.51940483 -0.52518976 1.6759564 2894892
0.51945639 -0.47528133 1.6744883 2894892
0.51949167 -0.42503786 1.6741064 2894892
0.51951885 -0.3750574 1.6742712 2894892
-0.55498153 -0.30321541 1.674674 2381198
0.51954812 -0.32500857 1.6742897 2894892
-0.76626402 -0.28635988 1.6804941 1782862
-0.72498554 -0.28637996 1.6779274 1979983
-0.67500848 -0.28640938 1.6779113 1651278
-0.62501979 -0.28643936 1.6782752 1257036
-0.5690493 -0.28885379 1.675055 1585742
0.51957572 -0.27495432 1.6744212 2894892
0.51960367 -0.22502071 1.6745454 2894892
0.51963323 -0.17501836 1.6745291 2894892
0.51965964 -0.12501094 1.6747475 2894892
0.51969028 -0.07499788 1.674666 2894892
0.51971489 -0.024981111 1.6749841 2894892
0.51974308 0.024982907 1.675074 2894892
-0.76571369 0.093640305 1.6806161 4163022
-0.72497553 0.093626678 1.6742692 4754899
-0.67560685 0.093580954 1.6846042 4558549
-0.62518352 0.093550585 1.6850668 3638736
-0.56752074 0.094946876 1.680661 2906506
0.51977527 0.074947461 1.6749078 2894892
-0.55460232 0.10720952 1.6757073 2900568
-0.52489454 0.11356482 1.6715273 10000536
-0.4749198 0.11353724 1.6711211 10000536
-0.42496932 0.11350972 1.6707156 10066329
-0.37470111 0.11348227 1.6701717 10197915
-0.32415769 0.11345298 1.6705912 10197915
-0.27529427 0.11341033 1.6794037 10197915
-0.2251419 0.11338267 1.6789992 10197915
-0.17501801 0.11335506 1.6785854 10197915
-0.12514885 0.11332725 1.6783669 10197915
-0.075068764 0.11330032 1.6775864 10197915
-0.02502062 0.11327211 1.6775498 10197915
0.025012497 0.11324453 1.6771417 10197915
0.075011961 0.1132176 1.6763617 10197915
0.12499462 0.11318944 1.6763258 10197915
0.17494901 0.11316255 1.6755465 10197915
0.22487952 0.11313439 1.6755105 10197915
0.27501884 0.11310709 1.6749187 10197915
0.32489923 0.11307961 1.6745062 10197915
0.3747597 0.11305213 1.6741046 10197915
0.42505562 0.1130241 1.6738756 10197915
0.47509253 0.11299717 1.673098 10132122
0.51687652 0.10835984 1.6746023 3026478
0.51844507 -0.76205945 1.7303689 2894892
-0.80499226 -0.70643383 1.7397552 1783119
-0.77440375 -0.70642972 1.7262461 2045776
-0.72502947 -0.70645612 1.7243274 2506068
-0.6749565 -0.70648521 1.7243131 2111826
-0.62493318 -0.7065146 1.7242417 1454670
-0.57291883 -0.70884353 1.7245302 1718361
0.51852721 -0.72489792 1.7263727 2894892
0.51855588 -0.67493469 1.7264315 2894892
0.51858246 -0.62503129 1.7266073 2894892
0.51861304 -0.57473409 1.7265861 2894892
0.51864105 -0.52468622 1.7266756 2894892
0.51869673 -0.47468174 1.7249426 2894892
0.51873118 -0.42495134 1.7245976 2894892
0.51877451 -0.37557599 1.7236655 2894892
-0.5557816 -0.30331644 1.7247263 2975127
0.51882041 -0.32503313 1.722597 2894892
-0.8040458 -0.28642794 1.7362701 1717326
-0.77431363 -0.28642625 1.7244526 1980240
-0.72492427 -0.28645518 1.7243255 2505811
-0.67484576 -0.28648472 1.7244064 2046034
-0.62504554 -0.28651437 1.7246321 1454413
-0.56960464 -0.28908944 1.7245895 1585742
0.51884878 -0.27502799 1.72268 2894892
0.51887661 -0.22501738 1.7227954 2894892
0.51890665 -0.1750012 1.7227967 2894892
0.51893193 -0.1249799 1.7230531 2894892
0.51896417 -0.074952915 1.7228901 2894892
0.51898819 -0.024987238 1.7232639 2894892
0.51901615 0.024989054 1.7233568 2894892
-0.80087227 0.093589894 1.7244685 3834315
-0.77138466 0.093565285 1.728986 3636424
-0.72482622 0.093525939 1.7364525 4427733
-0.6749776 0.0934975 1.7359245 4427734
-0.62480652 0.093468569 1.7355806 3638736
-0.56763649 0.094918385 1.7308222 2643591
0.51904863 0.074965537 1.7231683 2894892
-0.55527669 0.10737643 1.7255347 3097433
-0.5250423 0.1134771 1.7228731 10000536
-0.47496685 0.11345022 1.7220526 10000536
-0.42492023 0.11342197 1.7220364 10000536
-0.3746562 0.11339463 1.7214177 10197915
-0.32510775 0.11336663 1.721406 10197915
-0.27469942 0.11332128 1.7312864 10197915
-0.22479366 0.11329407 1.7307117 10197915
-0.17492107 0.11326635 1.7304472 10197915
-0.12470737 0.1132387 1.7300248 10197915
-0.074877284 0.11321153 1.7294513 10197915
-0.02507437 0.11318383 1.7291869 10197915
0.025066214 0.11315621 1.728765 10197915
0.074820787 0.11312909 1.7281917 10197915
0.12455421 0.11310145 1.7279282 10197915
0.17497703 0.11307397 1.7273537 10197915
0.22537541 0.11304593 1.72708 10197915
0.2750358 0.11301887 1.726508 10197915
0.32466963 0.11299129 1.7262448 10197915
0.37463981 0.11296377 1.7258245 10197915
0.42493832 0.11293634 1.7252517 10197915
0.47521564 0.1129084 1.7249788 10066329
0.51707518 0.10777679 1.7236776 2960685
0.51743633 -0.80163616 1.7958003 2894892
0.51773828 -0.7721945 1.7769001 2894892
-0.81398714 -0.70649022 1.7779857 1783119
-0.77499354 -0.70650744 1.7744269 2242897
-0.72491848 -0.70653719 1.7747442 2702932
-0.67494905 -0.70656699 1.7748179 2177619
-0.62498081 -0.70659572 1.774641 1454157
-0.57272977 -0.70925665 1.7743534 1587034
0.5177899 -0.7249788 1.7753431 2894892
0.51781827 -0.67492855 1.7754186 2894892
0.51784593 -0.62494612 1.7755426 2894892
0.51787496 -0.5747391 1.7755785 2894892
0.51790291 -0.52474165 1.7756706 2894892
0.51792908 -0.47503978 1.7758955 2894892
0.51795948 -0.42503425 1.7758368 2894892
0.5180068 -0.37439421 1.7747073 2894892
-0.5565877 -0.30332494 1.7751529 2711955
0.51804978 -0.3249926 1.773782 2894892
-0.81383389 -0.28648943 1.7778186 1783118
-0.77491015 -0.28650472 1.7730775 2177105
-0.72502977 -0.28653467 1.7734843 2702675
-0.67513984 -0.28656405 1.7734885 2177619
-0.62499481 -0.28659406 1.7738523 1388620
-0.57043332 -0.28902945 1.7741281 1454157
0.51808023 -0.27497247 1.7737241 2894892
0.51810634 -0.22501402 1.7739607 2894892
0.51813608 -0.1749831 1.7739431 2894892
0.51816237 -0.12494704 1.774166 2894892
0.51819426 -0.074972115 1.7740062 2894892
0.51821768 -0.024993757 1.7744106 2894892
0.51824582 0.024995556 1.7745075 2894892
-0.81097645 0.093524836 1.7683572 3637449
-0.77729756 0.093510404 1.7650715 3307204
-0.72487897 0.093461402 1.7763402 4296148
-0.67536855 0.093433186 1.7758036 4230611
-0.62514979 0.093404539 1.7752599 3506637
-0.56509316 0.095355533 1.7753776 2378870
0.51827842 0.074984752 1.7742952 2894892
-0.55608851 0.10724289 1.7765423 3031640
-0.52495265 0.11338404 1.7772423 10000536
-0.4751451 0.11335693 1.7766449 10000536
-0.42535242 0.11332922 1.7763834 10000536
-0.37485436 0.11330172 1.7757851 10132122
-0.32474244 0.11327418 1.7753479 10197915
-0.27503034 0.11324652 1.775087 10197915
-0.22496855 0.11321899 1.7746552 10197915
-0.17493114 0.11319146 1.7742237 10197915
-0.12492111 0.11316451 1.7734625 10197915
-0.07493861 0.11313645 1.7733613 10197915
-0.024974145 0.11310894 1.7729304 10197915
0.024966057 0.11308146 1.7724997 10197915
0.07524503 0.1130541 1.7719036 10197915
0.12550257 0.11302614 1.7716327 10197915
0.17500076 0.11299921 1.7710385 10197915
0.22447519 0.11297171 1.7707791 10197915
0.27465951 0.11294438 1.770184 10197915
0.32481658 0.11291649 1.7699138 10197915
0.37495342 0.11288917 1.7693192 10197915
0.42506009 0.11286134 1.769049 10197915
0.47478193 0.11283398 1.7686204 10000536
0.5163399 0.10776661 1.7733132 2894892
0.51691514 -0.80944443 1.8301011 2894892
0.51701856 -0.77500045 1.8245667 2894892
-0.85371947 -0.70656991 1.8415564 1519948
-0.82351148 -0.70656163 1.8251885 1980240
-0.7749508 -0.70658791 1.8240968 2505554
-0.7248736 -0.70661765 1.8242102 3031382
-0.67490256 -0.70664698 1.8243848 2243154
-0.62499136 -0.70667642 1.8241608 1520206
-0.57316923 -0.70936996 1.8242424 1653084
0.51704705 -0.72507566 1.8246417 2894892
0.51707691 -0.67514646 1.8246423 2894892
0.51710248 -0.62506014 1.8249007 2894892
0.51713276 -0.57481962 1.8248725 2894892
0.51715904 -0.52479452 1.8250616 2894892
0.51718861 -0.47491986 1.8250543 2894892
0.51721537 -0.42496458 1.8252517 2894892
0.51724476 -0.37500101 1.8252665 2894892
-0.55739456 -0.30327657 1.8256366 2645649
0.51727134 -0.32503453 1.8254508 2894892
-0.8536067 -0.28656888 1.8413094 1454156
-0.82367355 -0.28656179 1.8260843 1914447
-0.77507526 -0.28658879 1.8250995 2440018
-0.72509277 -0.28661883 1.8254652 2965590
-0.67494708 -0.28664848 1.8255974 2177362
-0.62494135 -0.28667837 1.8259037 1454670
-0.57105082 -0.28909352 1.8256962 1388878
0.51730102 -0.2750611 1.8254657 2894892
0.5173288 -0.22500733 1.8255943 2894892
0.51735586 -0.1749482 1.8257561 2894892
0.51738375 -0.12495842 1.8258617 2894892
0.51741564 -0.074964538 1.8257389 2894892
0.51743877 -0.024965616 1.8261219 2894892
0.5174672 0.024967413 1.8262205 2894892
-0.8508575 0.09344238 1.8337343 3572934
-0.82250136 0.093446903 1.8206664 3572681
-0.77525836 0.093422391 1.8186721 3374535
-0.72493398 0.093394108 1.8179021 4099025
-0.67464083 0.093365118 1.8175567 4164818
-0.62513399 0.093337275 1.8167893 3572171
-0.56975281 0.094705574 1.8197204 2249349
0.51749903 0.074977167 1.8260357 2894892
-0.55674428 0.10742711 1.8244637 3163482
-0.52498484 0.11330519 1.8233707 10000536
-0.47501323 0.11327773 1.8229284 10000536
-0.42506576 0.11325026 1.8224864 10000536
-0.37477005 0.1132229 1.8218651 10132122
-0.32486951 0.11319547 1.8214183 10197915
-0.2753785 0.11316796 1.8211621 10197915
-0.22514774 0.11314064 1.8205415 10197915
-0.1749514 0.11311274 1.8202734 10197915
-0.12514934 0.11308536 1.8198326 10197915
-0.074995175 0.11305808 1.8192127 10197915
-0.024868721 0.11303023 1.8189455 10197915
0.024860708 0.11300289 1.8185054 10197915
0.074938431 0.11297565 1.8178866 10197915
0.12499509 0.11294782 1.8176194 10197915
0.17502558 0.11292062 1.817001 10197915
0.225032 0.11289281 1.8167342 10197915
0.27501529 0.11286564 1.8161162 10197915
0.32497153 0.11283787 1.8158499 10197915
0.37490773 0.11281072 1.8152325 10197915
0.42481375 0.11278297 1.8149666 10197915
0.47470292 0.11275585 1.8143495 9868950
0.51557583 0.10779085 1.8239623 2894892
0.5162161 -0.81967896 1.8761147 2894892
0.51627582 -0.77505887 1.8738991 2894892
-0.86243838 -0.70662469 1.8784947 1388106
-0.82506061 -0.70663965 1.8743469 1980240
-0.77494115 -0.70666969 1.8745366 2768724
-0.72482175 -0.70669925 1.8744617 3425624
-0.67488509 -0.70672846 1.8747102 2440020
-0.62501413 -0.70675749 1.874558 1652048
-0.57369763 -0.70944089 1.874706 1719390
0.51630324 -0.72515392 1.87404 2894892
0.51633114 -0.67506951 1.8741417 2894892
0.51635808 -0.6249795 1.8743341 2894892
0.51638824 -0.57488728 1.8742905 2894892
0.51641387 -0.52495635 1.8745569 2894892
0.51644421 -0.47502336 1.8744935 2894892
0.51647252 -0.4249984 1.8745936 2894892
0.51649874 -0.37505576 1.8748056 2894892
-0.55815327 -0.30336004 1.8730958 2447244
0.51652753 -0.32501927 1.874854 2894892
-0.86238915 -0.28662494 1.879107 1388105
-0.82496274 -0.28664047 1.875144 1980240
-0.77501851 -0.28666997 1.8751483 2768468
-0.72490591 -0.28669962 1.8752773 3359832
-0.67509699 -0.28672963 1.8757263 2374483
-0.62511969 -0.28675893 1.8757305 1586511
-0.57150257 -0.28918403 1.8753154 1520463
0.51655567 -0.27497834 1.8749541 2894892
0.51658368 -0.22493178 1.8750577 2894892
0.51661098 -0.17496531 1.8752141 2894892
0.51664025 -0.12508167 1.8752233 2894892
0.5166679 -0.07501781 1.8753618 2894892
0.51669538 -0.024951419 1.8755014 2894892
0.5167231 0.024953229 1.8756024 2894892
-0.86289531 0.093369551 1.8830972 3176639
