# .PCD v0.7 - Point Cloud Data file format
VERSION 0.7
FIELDS x y z rgb
SIZE 4 4 4 4
TYPE F F F U
COUNT 1 1 1 1
WIDTH 1195
HEIGHT 1
VIEWPOINT 0 0 0 1 0 0 0
POINTS 1195
DATA ascii
0.59460765 0.10579408 1.4191335 10197915
0.62515485 0.10566991 1.4248025 10197915
0.67501605 0.10552692 1.4231203 10197915
0.72493744 0.10538554 1.4210916 10197915
0.77600819 0.10520491 1.4256393 10197915
0.82513052 0.10506058 1.4246103 10197915
0.87446541 0.10491701 1.4233149 10197915
0.92505962 0.10473552 1.4282858 10197915
0.97520965 0.10459302 1.4263426 10197915
1.0252264 0.10445087 1.4244041 10197915
1.075104 0.10430915 1.4224713 10197915
1.1164448 0.1041702 1.4248155 10197915
1.1527578 0.1039224 1.4499756 10197915
0.63003939 0.10541449 1.4690059 10197915
0.67507046 0.10527846 1.4687483 10197915
0.72538179 0.10509364 1.4744912 10197915
0.77373743 0.10492101 1.4790888 10197915
0.82504791 0.10476509 1.4789549 10197915
0.87512124 0.10462382 1.4768219 10197915
0.92486119 0.10448283 1.4748316 10197915
0.97486001 0.1043411 1.4728338 10197915
1.0251222 0.10419857 1.4708228 10197915
1.0750481 0.10405637 1.4689502 10197915
1.1261046 0.10387687 1.4732974 10197915
1.1654768 0.10369149 1.4852808 10197915
0.63947982 0.10513347 1.5153584 10197915
0.67491961 0.10501201 1.5178038 10197915
0.72681719 0.10480076 1.5275085 10197915
0.77493662 0.10463568 1.530851 10197915
0.82497674 0.10449496 1.5286397 10197915
0.87508476 0.1043533 1.5265671 10197915
0.92506003 0.10421197 1.5244998 10197915
0.97489697 0.10407106 1.5224385 10197915
1.0248072 0.10392919 1.520514 10197915
1.074985 0.10378879 1.5181614 10197915
1.1231453 0.10361867 1.5224105 10197915
1.1751605 0.10341126 1.5313491 10197915
1.2118791 0.10325836 1.5388521 10197915
0.64743191 0.104902 1.5534374 10197915
0.67670977 0.1047297 1.5686729 10197915
0.72265971 0.10457652 1.5710461 10197915
0.77512884 0.10439499 1.5749724 10197915
0.82685292 0.10423356 1.5756336 10197915
0.87483191 0.10406443 1.5797895 10197915
0.92506015 0.10392281 1.5776392 10197915
0.97515053 0.10378075 1.575648 10197915
1.0251011 0.10364072 1.5733564 10197915
1.0751321 0.10349967 1.5712152 10197915
1.1250232 0.10335898 1.5690795 10197915
1.1746899 0.10317121 1.5757205 10197915
1.2237643 0.10302712 1.5746762 10197915
1.2569084 0.10287242 1.5845127 10197915
0.68678021 0.10441039 1.6217073 10197915
0.7250312 0.10428149 1.6239318 10197915
0.77511168 0.10414056 1.6217417 10197915
0.82345045 0.10399561 1.6212643 10197915
0.87493706 0.10380656 1.6271162 10197915
0.92491412 0.10366601 1.6249126 10197915
0.9750796 0.10352557 1.6225752 10197915
1.0277116 0.10334609 1.6260394 10197915
1.0750679 0.10319199 1.6277891 10197915
1.1250198 0.10305063 1.6257484 10197915
1.1750505 0.10290908 1.6236972 10197915
1.2249444 0.10276971 1.621316 10197915
1.2698994 0.10261595 1.6243608 10197915
1.3012903 0.10244778 1.6376579 10197915
0.69592804 0.10414783 1.6648339 10197915
0.72494841 0.10400969 1.6739312 10197915
0.77487171 0.10387184 1.6712587 10197915
0.82730383 0.10370122 1.6732038 10197915
0.87504876 0.10353369 1.6772112 10197915
0.9249866 0.10339254 1.6751301 10197915
0.97500688 0.1032543 1.6724846 10197915
1.0225264 0.10309867 1.6744068 10197915
1.0750529 0.10291583 1.6785579 10197915
1.1249759 0.10277735 1.6759931 10197915
1.1747646 0.10263622 1.6739974 10197915
1.2247596 0.1024968 1.6715732 10197915
1.2755599 0.10234842 1.6703429 10197915
1.3195328 0.10213856 1.6842402 10197915
0.73272586 0.10372183 1.722469 10197915
0.7748431 0.1035833 1.7243029 10197915
0.82290959 0.10343558 1.7244797 10197915
0.87505007 0.10324359 1.7305135 10197915
0.92506027 0.10310284 1.7283232 10197915
0.97493112 0.10296417 1.7258301 10197915
1.0246701 0.10282419 1.7236521 10197915
1.0749652 0.10268432 1.7211438 10197915
1.1251252 0.10254318 1.7189413 10197915
1.177516 0.1023614 1.7229576 10197915
1.2250171 0.10220332 1.7253557 10197915
1.2745291 0.10206386 1.7232239 10197915
1.3252958 0.10186415 1.7314438 10197915
1.3644564 0.1017337 1.7334524 10197915
0.74383575 0.10339011 1.7772048 10197915
0.77493513 0.10327706 1.7805279 10197915
0.82508856 0.1031362 1.778283 10197915
0.87509966 0.10299754 1.7757084 10197915
0.92498106 0.10285742 1.7734767 10197915
0.97472346 0.10271952 1.7709152 10197915
1.0246924 0.10258003 1.7685161 10197915
1.0748754 0.10243909 1.766264 10197915
1.1257331 0.10223964 1.7743918 10197915
1.172454 0.10207697 1.7780769 10197915
1.2249384 0.10189546 1.7819852 10197915
1.2748766 0.10175442 1.779888 10197915
1.3246837 0.1016156 1.7774597 10197915
1.3747087 0.10147709 1.7748555 10197915
1.408958 0.10132541 1.78352 10197915
0.77941179 0.10301228 1.826679 10197915
0.82490724 0.10287812 1.8258096 10197915
0.87478316 0.10273827 1.8235279 10197915
0.92489731 0.10259879 1.8210516 10197915
0.97523767 0.1024596 1.8183875 10197915
1.0254452 0.10231886 1.8160839 10197915
1.0770125 0.10215649 1.8170007 10197915
1.1238747 0.10192315 1.8335943 10197915
1.1748977 0.10176904 1.8332872 10197915
1.2248701 0.10163012 1.8307849 10197915
1.2750697 0.10149153 1.8280904 10197915
1.3251313 0.1013514 1.8257633 10197915
1.3750571 0.10121355 1.8230836 10197915
1.4223298 0.10107221 1.8225452 10197915
1.4532119 0.10092805 1.8317146 10197915
0.78941947 0.10272006 1.8747691 10197915
0.82509673 0.10260383 1.8761138 10197915
0.87482816 0.10246469 1.8737885 10197915
0.92480904 0.10232592 1.8712506 10197915
0.97502697 0.10218755 1.8685091 10197915
1.0251129 0.10204744 1.8661581 10197915
1.0727215 0.1019083 1.8650244 10197915
1.1292511 0.10164802 1.8811417 10197915
1.1749461 0.10149014 1.8845227 10197915
1.2251731 0.10135195 1.8817403 10197915
1.2752737 0.10121197 1.8793579 10197915
1.3252267 0.10107453 1.8765904 10197915
1.3750533 0.10093535 1.874221 10197915
1.4247341 0.10079866 1.8714683 10197915
1.4693288 0.10065512 1.8728311 10197915
0.79825115 0.10246211 1.9172164 10197915
0.82674831 0.10231505 1.9282507 10197915
0.87487543 0.10217556 1.9268973 10197915
0.9247154 0.10203755 1.9242949 10197915
0.97480392 0.10190001 1.9214705 10197915
1.0251493 0.10176063 1.9188423 10197915
1.0749633 0.10162158 1.9164509 10197915
1.1212975 0.10147522 1.9173561 10197915
1.1753638 0.10126995 1.9247509 10197915
1.2288989 0.10107137 1.9312094 10197915
1.2747104 0.10092065 1.9332088 10197915
1.32495 0.10078176 1.9305489 10197915
1.3750418 0.10064097 1.9283222 10197915
1.4250027 0.10050518 1.9252503 10197915
1.4748297 0.10036743 1.9226117 10197915
1.5154639 0.10022473 1.926039 10132122
1.4827995 0.099954911 1.9939599 10132122
1.5289918 0.099882901 1.981274 10132122
1.5633684 0.099769756 1.982787 10132122
0.83650571 0.10199524 1.9815494 10197915
0.87492532 0.1018695 1.9831047 10197915
0.92501724 0.10173248 1.9801843 10197915
0.97496647 0.10159336 1.9777293 10197915
1.0247885 0.1014571 1.9748241 10197915
1.0748676 0.10131638 1.9725896 10197915
1.1248059 0.10118106 1.96945 10197915
1.1746172 0.10104352 1.9667737 10197915
1.2205083 0.10088968 1.9693089 10197915
1.2753552 0.10068642 1.9758928 10197915
1.3251183 0.10054918 1.9731995 10197915
1.3785506 0.10034636 1.9804981 10197915
1.424894 0.10019417 1.9824699 10132122
1.4711164 0.10010852 1.9722769 10132122
1.5118953 0.10003404 1.9630903 10132122
1.4285462 0.099939764 2.0271642 10132122
1.4753535 0.099811114 2.0245545 10132122
1.525256 0.099673897 2.0217717 10132122
1.5794017 0.099470042 2.0288672 10197915
1.6126292 0.099290386 2.0432467 10197915
0.84643954 0.10170726 2.0289166 10197915
0.87517202 0.1016281 2.0273378 10197915
0.92515147 0.10149051 2.0245926 10197915
0.97499579 0.10135324 2.0218542 10197915
1.0285556 0.10114256 2.0305221 10197915
1.075169 0.10099572 2.0313606 10197915
1.1249832 0.10085861 2.028604 10197915
1.1750591 0.1007195 2.026082 10197915
1.2254126 0.10058095 2.0232956 10197915
1.2752217 0.10044526 2.0202899 10197915
1.3248931 0.10030725 2.0177894 10197915
1.3707258 0.10015003 2.0209684 10197915
1.403483 0.10000868 2.0285623 10197915
1.2901074 0.099974699 2.098408 10197915
1.3273724 0.099888541 2.0933375 10132122
1.3752367 0.099829033 2.0774252 10132122
1.425334 0.099693097 2.0743034 10132122
1.4753029 0.099554643 2.0717151 10132122
1.5251261 0.09941946 2.0686102 10197915
1.570919 0.09926594 2.0711265 10197915
1.6245522 0.099058412 2.0791757 10197915
1.6509175 0.098986194 2.0776596 10197915
0.87993133 0.10137695 2.0708191 10197915
0.92487562 0.10123853 2.0710442 10197915
0.9750278 0.10110079 2.0682263 10197915
1.0204895 0.10094037 2.0722005 10197915
1.0745732 0.10074179 2.0783629 10197915
1.1246973 0.1006042 2.0755243 10197915
1.1746854 0.10046702 2.0726943 10197915
1.2245369 0.1003302 2.0698714 10197915
1.2742375 0.10015096 2.0749269 10197915
1.32301 0.10005995 2.0642958 10197915
1.2321508 0.099952184 2.1350665 10197915
1.2748822 0.099835306 2.13257 10197915
1.3251803 0.099697776 2.1296322 10132122
1.3753399 0.099560574 2.1267016 10132122
1.4253618 0.099423803 2.1237803 10132122
1.4752464 0.099287376 2.1208656 10197915
1.5249944 0.099151336 2.1179597 10197915
1.5774858 0.098927297 2.1296787 10197915
1.6251112 0.098783337 2.1294134 10197915
1.670984 0.098635487 2.1308544 10197915
1.7017188 0.098483205 2.1415923 10197915
0.89029461 0.10107005 2.1213984 10197915
0.92458397 0.10097609 2.1194265 10197915
0.97929245 0.10076818 2.1269555 10197915
1.0255028 0.10060846 2.1303806 10197915
1.0752363 0.10047234 2.1274979 10197915
1.1252507 0.10033699 2.124316 10197915
1.1751454 0.10019886 2.1217072 10197915
1.2208763 0.10012618 2.1094096 10197915
1.2564902 0.10006678 2.1003404 10197915
1.1476955 0.099995464 2.1744776 10197915
1.1747478 0.099921592 2.1728714 10197915
1.2252665 0.099783748 2.1698732 10197915
1.275645 0.099646203 2.1668823 10132122
1.3278832 0.099423319 2.1785443 10132122
1.3745828 0.099279866 2.1787043 10132122
1.4245174 0.099145368 2.1754055 10197915
1.474757 0.099008352 2.1724107 10197915
1.5252823 0.098868944 2.1696856 10197915
1.5720214 0.098678596 2.1784508 10197915
1.6256881 0.098499544 2.1812496 10197915
1.6757762 0.098363094 2.1782274 10197915
1.7154063 0.098255128 2.1758368 10197915
0.89710426 0.10086844 2.154639 10197915
0.92670155 0.10070398 2.1682501 10197915
0.97084963 0.10054248 2.1731615 10197915
1.0249915 0.1003304 2.181761 10197915
1.0750458 0.10019375 2.1787896 10197915
1.1232169 0.1000623 2.1759307 10197915
1.0889859 0.099936619 2.2182336 10197915
1.1251101 0.099763133 2.2298579 10197915
1.1747835 0.09962976 2.2265017 10197915
1.2247721 0.099493638 2.2234728 10132122
1.275057 0.099355042 2.2207365 10132122
1.3208158 0.099175163 2.2281218 10132122
1.3746752 0.098984465 2.2329595 10197915
1.424527 0.098848917 2.2299018 10197915
1.4751285 0.098711342 2.2267985 10197915
1.5255903 0.098574139 2.2237031 10197915
1.5750294 0.098439708 2.2206709 10197915
1.6252135 0.098303273 2.2175932 10197915
1.675259 0.098167188 2.2145231 10197915
1.7269167 0.097934492 2.2283068 10197915
1.7657543 0.09775155 2.2401345 10197915
0.93654335 0.10037699 2.2228251 10197915
0.97511536 0.1002719 2.2204978 10197915
1.0252335 0.10013539 2.2174747 10197915
1.0627366 0.10003321 2.2152121 10197915
0.97670573 0.099858463 2.2955837 10197915
1.0251441 0.099828929 2.2738402 10197915
1.0736779 0.099697128 2.2708368 10197915
1.1243417 0.099457882 2.286375 10197915
1.1748188 0.099320941 2.2832272 10132122
1.2251573 0.099184334 2.280087 10132122
1.2753569 0.099048145 2.2769563 10132122
1.3254193 0.098912321 2.2738338 10197915
1.3753443 0.098776869 2.2707198 10197915
1.4251333 0.098641783 2.2676144 10197915
1.4747852 0.098507069 2.2645171 10197915
1.5294737 0.098298974 2.2720869 10197915
1.5752589 0.098130591 2.2773428 10197915
1.625369 0.097992852 2.2745442 10197915
1.6753492 0.097859323 2.2710474 10197915
1.7222949 0.097651146 2.2829685 10197915
1.7754701 0.097480848 2.2844393 10197915
1.8079162 0.097393006 2.2823811 10197915
0.9444443 0.1001542 2.2593472 10197915
0.97544211 0.10006992 2.2574456 10197915
1.0009403 0.10000057 2.2558815 10197915
0.98461127 0.099621981 2.3346167 10197915
1.0250688 0.099512428 2.3320491 10197915
1.0748183 0.099377766 2.3288934 10197915
1.1244316 0.099243432 2.3257453 10132122
1.1748444 0.099106945 2.3225472 10132122
1.2251185 0.098970838 2.3193569 10132122
1.2752548 0.098835081 2.3161759 10197915
1.325254 0.098699756 2.313004 10197915
1.3791083 0.098494396 2.3205214 10197915
1.4246902 0.098320521 2.3269045 10197915
1.4747145 0.098185234 2.3237028 10197915
1.5212308 0.098034509 2.3253038 10197915
1.5754961 0.097803153 2.337379 10197915
1.6255369 0.097667962 2.3341475 10197915
1.67544 0.097533174 2.3309262 10197915
1.7252051 0.097398743 2.3277133 10197915
1.7748332 0.097264662 2.3245091 10197915
1.8224959 0.097135924 2.3214333 10197915
0.99278778 0.099377222 2.3749967 10197915
1.024372 0.099291876 2.3729575 10197915
1.0749927 0.099155158 2.3696899 10132122
1.1254752 0.099018782 2.366431 10132122
1.1748697 0.098885342 2.3632417 10132122
1.2250773 0.098749749 2.3600008 10197915
1.2768995 0.09850239 2.376384 10197915
1.3254633 0.098366529 2.3741128 10197915
1.3717431 0.098212369 2.376483 10197915
1.4251788 0.097981445 2.3889453 10197915
1.4746352 0.097848147 2.3856959 10197915
1.5249038 0.097712673 2.3823926 10197915
1.5750344 0.097577572 2.3790987 10197915
1.6250257 0.097442858 2.3758137 10197915
1.6748793 0.097308479 2.3725374 10197915
1.7245961 0.097174533 2.3692715 10197915
1.7751094 0.097038366 2.3659515 10197915
1.8254824 0.096902616 2.3626423 10197915
1.8636388 0.096799798 2.3601348 10197915
1.0265722 0.09905573 2.415138 10197915
1.0751758 0.098924711 2.4119439 10132122
1.1255885 0.098788865 2.4086318 10132122
1.17802 0.098544218 2.424175 10132122
1.225015 0.098402239 2.4239092 10197915
1.2719939 0.098188907 2.4367661 10197915
1.3247194 0.098015524 2.4390497 10197915
1.3743784 0.097882032 2.4357283 10197915
1.4248723 0.097746246 2.4323497 10197915
1.4752265 0.097610869 2.4289804 10197915
1.5254413 0.097475879 2.4256215 10197915
1.5755171 0.097341225 2.4222708 10197915
1.6254553 0.097206995 2.4189303 10197915
1.6752554 0.097073086 2.4155982 10197915
1.7249185 0.096939571 2.4122756 10197915
1.7744458 0.096806414 2.408962 10197915
1.8290198 0.096585192 2.4189949 10197915
1.8750859 0.096414916 2.4244437 10197915
1.9182054 0.096223123 2.4354992 10197915
1.0357896 0.098792322 2.4583805 10132122
1.0781687 0.098644286 2.4618058 10132122
1.1247712 0.098429643 2.4751058 10132122
1.1711417 0.098229602 2.4858534 10132122
1.2249473 0.098037519 2.4909577 10132122
1.2748053 0.09790384 2.4875612 10197915
1.3245271 0.097770482 2.4841726 10197915
1.3751037 0.097634859 2.4807265 10197915
1.4255413 0.097499616 2.4772899 10197915
1.474853 0.097367324 2.4739292 10197915
1.525014 0.097232834 2.4705119 10197915
1.5750371 0.097098678 2.4671028 10197915
1.6249213 0.096964881 2.4637041 10197915
1.6756431 0.096828885 2.460248 10197915
1.7252513 0.096695811 2.4568675 10197915
1.7788013 0.096460223 2.4701285 10197915
1.8210257 0.096277975 2.479938 10197915
1.8754005 0.096042313 2.4927418 10197915
1.925386 0.095908649 2.4892721 10197915
1.9635192 0.095806621 2.486625 10197915
1.0443323 0.098521933 2.5032656 10132122
1.0745844 0.098315738 2.5241935 10132122
1.1249295 0.0980497 2.5448425 10197915
1.1749843 0.097915828 2.5413682 10197915
1.2249011 0.097782299 2.5379021 10197915
1.2746834 0.097649127 2.5344465 10197915
1.324329 0.097516365 2.5309997 10197915
1.3748491 0.097381212 2.5274918 10197915
1.4252299 0.097246476 2.5239952 10197915
1.475471 0.097112067 2.5205069 10197915
1.5255734 0.096978046 2.5170283 10197915
1.5755382 0.096844427 2.5135601 10197915
1.6253648 0.096711121 2.5101004 10197915
1.6750553 0.096578225 2.5066509 10197915
1.7269137 0.096411489 2.5081983 10197915
1.7699983 0.096142776 2.5333982 10197915
1.8245331 0.095917441 2.544215 10197915
1.8746201 0.095783837 2.5406709 10197915
1.9245675 0.095650569 2.5371358 10197915
1.9743768 0.095517732 2.533613 10197915
2.0061872 0.09543287 2.5313613 10197915
1.0885197 0.09788081 2.5962934 10197915
1.1239978 0.097786151 2.5937824 10197915
1.1750139 0.097650081 2.5901732 10197915
1.2258888 0.097514369 2.5865734 10197915
1.2755883 0.097381763 2.5830562 10197915
1.3251535 0.097249597 2.5795503 10197915
1.3745832 0.097117715 2.576052 10197915
1.4249046 0.09698347 2.5724912 10197915
1.4750885 0.09684962 2.5689404 10197915
1.5251319 0.096716106 2.5653992 10197915
1.5750397 0.096582979 2.5618684 10197915
1.6248091 0.096450225 2.5583467 10197915
1.6754532 0.096315101 2.5547631 10197915
1.7259184 0.096137069 2.5591817 10197915
1.7756258 0.095776498 2.5975657 10197915
1.8247852 0.095645703 2.5940185 10197915
1.8748311 0.095512599 2.590409 10197915
1.924738 0.095379829 2.5868077 10197915
1.9745057 0.09524744 2.5832174 10197915
2.0251474 0.095112763 2.5795641 10197915
1.0996335 0.097574651 2.6463337 10197915
1.1251565 0.097506754 2.6444924 10197915
1.1750468 0.097374029 2.640893 10197915
1.224803 0.097241692 2.6373031 10197915
1.2744223 0.097109683 2.6337235 10197915
1.3249593 0.096975274 2.6300778 10197915
1.3753568 0.096841216 2.6264422 10197915
1.4256148 0.096707515 2.6228158 10197915
1.4757348 0.096574217 2.6192009 10197915
1.5257163 0.096441247 2.6155946 10197915
1.5755602 0.096308656 2.6119983 10197915
1.6252681 0.096176468 2.6084132 10197915
1.6748387 0.096044593 2.6048369 10197915
1.7211896 0.095921278 2.6014926 10197915
1.7843208 0.095471188 2.648809 10197915
1.8250477 0.095363148 2.6458116 10197915
1.8740095 0.095233269 2.6422083 10197915
1.9249141 0.095098302 2.6384635 10197915
1.9756745 0.094963647 2.6347277 10197915
2.0252597 0.09483216 2.6310792 10197915
2.0695655 0.094714656 2.6278195 10197915
1.1350356 0.097193196 2.6965859 10197915
1.1750814 0.097086966 2.6936381 10197915
1.2247508 0.09695527 2.6899841 10197915
1.2742854 0.096823879 2.6863389 10197915
1.3247577 0.096689999 2.6826241 10197915
1.3750925 0.096556522 2.6789215 10197915
1.4252867 0.096423388 2.6752279 10197915
1.4753438 0.096290618 2.6715438 10197915
1.5252625 0.096158244 2.6678715 10197915
1.5750448 0.096026205 2.6642075 10197915
1.6246897 0.095894538 2.6605549 10197915
1.6752511 0.095760442 2.6568344 10197915
1.7256712 0.095626689 2.6531241 10197915
1.7592119 0.095537759 2.6506562 10197915
1.8359625 0.095040798 2.6989124 10197915
1.8752762 0.09493684 2.69596 10197915
1.9250952 0.094805121 2.6922197 10197915
1.9747777 0.094673768 2.6884897 10197915
2.0243208 0.094542749 2.6847694 10197915
2.0747783 0.094409369 2.6809814 10197915
2.1146264 0.09430401 2.6779895 10197915
1.1773231 0.096782267 2.7483649 10197915
1.224695 0.096656986 2.744808 10197915
1.2752382 0.096523389 2.7410138 10197915
1.3256413 0.096390091 2.7372284 10197915
1.3759056 0.096257202 2.7334542 10197915
1.4260317 0.096124679 2.7296915 10197915
1.4760196 0.095992468 2.7259376 10197915
1.5258709 0.095860712 2.7221951 10197915
1.5755851 0.095729239 2.7184625 10197915
1.6251624 0.095598124 2.7147393 10197915
1.6746055 0.095467433 2.7110279 10197915
1.7249824 0.095334239 2.7072449 10197915
1.7752203 0.095201381 2.7034724 10197915
1.8104147 0.095108368 2.7008309 10197915
1.9263682 0.09449704 2.7481327 10197915
1.974923 0.094369091 2.7444117 10197915
2.0244212 0.094238631 2.7406182 10197915
2.0748537 0.094105698 2.7367516 10197915
2.1251464 0.093973182 2.7328985 10197915
2.160377 0.093880318 2.7301974 10197915
1.1464136 0.096863993 2.7506862 10197915
1.1530426 0.096846461 2.7501884 10197915
1.2751126 0.096213467 2.7980492 10197915
1.3243293 0.096083738 2.7942772 10197915
1.3745269 0.095951423 2.7904289 10197915
1.4245882 0.095819518 2.7865927 10197915
1.4745103 0.095687926 2.7827659 10197915
1.5254009 0.095553793 2.7788651 10197915
1.5750484 0.095422991 2.7750609 10197915
1.6245583 0.095292464 2.7712655 10197915
1.6750296 0.095159434 2.7673967 10197915
1.7253608 0.095026828 2.76354 10197915
1.7755504 0.094894521 2.7596924 10197915
1.8256019 0.094762623 2.7558565 10197915
1.8755134 0.094631091 2.7520313 10197915
1.9015052 0.094562575 2.7500386 10197915
2.0300109 0.093907051 2.7984059 10197915
2.0749319 0.093789026 2.7948895 10197915
2.1241064 0.093659855 2.7910399 10197915
2.1742363 0.093528196 2.7871172 10197915
2.2068579 0.093442507 2.7845633 10197915
1.1819111 0.096459091 2.8051929 10197915
1.2257622 0.09634351 2.8018308 10197915
1.3856031 0.095599659 2.8488455 10197915
1.4242147 0.095498227 2.8458235 10197915
1.4740669 0.095367305 2.8419223 10197915
1.5249093 0.095233753 2.8379414 10197915
1.5756111 0.095100574 2.8339732 10197915
1.6250491 0.094970748 2.8301034 10197915
1.6743516 0.094841212 2.8262446 10197915
1.7246354 0.094709136 2.8223083 10197915
1.7747808 0.094577432 2.8183839 10197915
1.824785 0.09444607 2.8144693 10197915
1.8746525 0.094315119 2.8105664 10197915
1.9243808 0.094184481 2.8066738 10197915
1.9750717 0.094051316 2.8027055 10197915
2.0047641 0.093973324 2.8003814 10197915
2.1475456 0.093268879 2.8497534 10197915
2.1753559 0.093196087 2.8475292 10197915
2.2253156 0.093065359 2.8435347 10197915
2.2552297 0.092987031 2.8411419 10197915
1.1935879 0.096104033 2.8638763 10197915
1.225726 0.096019618 2.8613596 10197915
1.2749795 0.095890224 2.8575039 10197915
1.3241001 0.095761232 2.8536608 10197915
1.3605735 0.09566541 2.8508053 10197915
1.5347748 0.09487278 2.8987586 10197915
1.5750514 0.09476734 2.8955376 10197915
1.624416 0.094638161 2.8915908 10197915
1.6747893 0.094506308 2.8875623 10197915
1.7250221 0.094374806 2.8835437 10197915
1.7751161 0.094243713 2.8795385 10197915
1.8250705 0.094112948 2.8755429 10197915
1.874886 0.093982533 2.8715584 10197915
1.9245652 0.09385255 2.8675871 10197915
1.9752299 0.093719915 2.8635345 10197915
2.0257523 0.093587659 2.859493 10197915
2.0750153 0.093458749 2.8555548 10197915
2.121912 0.093335964 2.8518035 10197915
1.2303792 0.095669508 2.9231024 10197915
1.2748415 0.095553115 2.9195459 10197915
1.3250284 0.095421776 2.9155331 10197915
1.3750758 0.095290773 2.911531 10197915
1.4249868 0.095160112 2.9075384 10197915
1.4747611 0.095029853 2.9035585 10197915
1.5094118 0.094939172 2.9007878 10197915
1.6974417 0.09409865 2.9497843 10197915
1.7254263 0.094025634 2.9474957 10197915
1.7754654 0.093895152 2.9434052 10197915
1.8253684 0.093765058 2.9393265 10197915
1.8751309 0.093635254 2.9352579 10197915
1.9247572 0.09350583 2.931201 10197915
1.9742463 0.093376808 2.9271562 10197915
2.0247443 0.093245097 2.9230278 9671571
2.0751002 0.09311378 2.9189103 9342606
2.1253159 0.092982844 2.9148064 10197915
2.1753893 0.092852242 2.9107125 10197915
2.2253227 0.092722036 2.9066305 10197915
2.2751167 0.09259221 2.9025609 10197915
2.3033514 0.092518561 2.9002521 10197915
1.2436168 0.095282108 2.9868832 10197915
1.2746991 0.095201053 2.9843419 10197915
1.3248056 0.09507037 2.9802456 10197915
1.3747759 0.094940074 2.9761617 10197915
1.4246085 0.094810121 2.9720871 10197915
1.4743048 0.094680496 2.9680243 10197915
1.5250442 0.094548225 2.9638777 10197915
1.5756422 0.094416253 2.9597406 10197915
1.6249268 0.094287716 2.9557114 10197915
1.6717418 0.09416566 2.9518852 10197915
1.8978323 0.093213767 2.9999664 10197915
1.924955 0.093143299 2.9976983 10197915
1.9755654 0.093011819 2.9934673 8618883
2.0248609 0.092883788 2.9893467 5131854
2.0751882 0.09275303 2.9851382 2105376
2.1253755 0.092622675 2.980943 5789784
2.1754217 0.092492692 2.9767599 10197915
2.2253273 0.09236303 2.9725864 10197915
2.2750928 0.092233755 2.9684258 10197915
2.3247206 0.09210486 2.9642775 10197915
2.3523643 0.092033029 2.9619663 10197915
1.3245715 0.094702885 3.0478923 10197915
1.3756745 0.094570152 3.0436203 10197915
1.4254229 0.09444093 3.0394609 10197915
1.4750341 0.094312042 3.0353131 10197915
1.5257163 0.09418039 3.031076 10197915
1.575056 0.09405224 3.0269513 10197915
1.6242597 0.093924403 3.0228374 10197915
1.6745265 0.093793817 3.018635 10197915
1.7246537 0.09366364 3.0144451 10197915
1.7746412 0.093533754 3.0102649 10197915
1.8244907 0.093404271 3.0060971 10197915
1.8730214 0.093278222 3.0020409 10197915
2.1385586 0.092211977 3.0490324 2039583
2.1742687 0.092119604 3.0459783 3421236
2.2241495 0.091990575 3.0417118 10197915
2.2750716 0.091858797 3.0373549 10197915
2.32585 0.091727436 3.033011 10197915
2.3753071 0.091599509 3.0287809 10197915
2.4035118 0.091526531 3.0263679 10197915
2.3375301 -1.3658881 3.0881052 2039583
2.3633225 -1.3616599 3.0701001 2039583
2.400682 -1.3676066 3.0938158 2039583
2.3382559 -1.3250515 3.0876784 2039583
2.3627856 -1.3249756 3.0695527 2039583
2.4009855 -1.3254766 3.0942066 2039583
2.3385458 -1.2749466 3.0878015 2039583
2.3629577 -1.2752367 3.0697711 2039583
2.4013529 -1.2743962 3.0946803 2039583
2.3386533 -1.2249084 3.0881226 2039583
2.3632202 -1.2251213 3.0701401 2039583
2.4017119 -1.2245774 3.0951428 2039583
2.3388693 -1.175027 3.088326 2039583
2.3633239 -1.1749952 3.0703409 2039583
2.4020703 -1.1747437 3.0956054 2039583
2.3394611 -1.1254612 3.0881193 2039583
2.3637958 -1.1249524 3.0707366 2039583
2.4024296 -1.1248956 3.0960677 2039583
2.3399026 -1.0750778 3.0880828 2039583
2.3639312 -1.0749886 3.0710866 2039583
2.4027882 -1.0750324 3.0965302 2039583
2.3400733 -1.0251738 3.0883338 2039583
2.364006 -1.0250219 3.0712621 2039583
2.403147 -1.0251541 3.0969927 2039583
2.339596 -0.97498024 3.0892875 2039583
2.3635035 -0.97497988 3.072067 2039583
2.4035063 -0.97526091 3.0974555 2039583
2.3397522 -0.92495173 3.0895576 2039583
2.3635745 -0.92492133 3.072283 2039583
2.4038653 -0.92535281 3.0979185 2039583
2.3399527 -0.87501311 3.0897782 2039583
2.3639102 -0.875117 3.0727077 2039583
2.4042249 -0.87542999 3.0983815 2039583
2.3403699 -0.82538211 3.0897586 2039583
2.3642373 -0.8251251 3.0729415 2039583
2.4045846 -0.82549208 3.0988452 2039583
2.3409569 -0.77505422 3.0895655 2039583
2.3642175 -0.7749548 3.0731642 2039583
2.4049447 -0.7755394 3.0993087 2039583
2.3412404 -0.72509611 3.0896969 2039583
2.3646066 -0.72486091 3.0735877 2039583
2.4053042 -0.72557169 3.0997727 2039583
2.3413544 -0.6749289 3.0900095 2039583
2.3647959 -0.67492968 3.0738115 2039583
2.3412983 -0.62544107 3.0905044 2039583
2.3646357 -0.62451208 3.0743141 2039583
2.341032 -0.57501447 3.0912313 2039583
2.3643055 -0.57491302 3.0748076 2039583
2.341229 -0.52500248 3.0914555 2039583
2.3645172 -0.52504748 3.0752032 2039583
2.3420227 -0.47529399 3.0910325 2039583
2.3647568 -0.4750064 3.0754263 2039583
2.3423293 -0.42494035 3.0911396 2039583
2.3651121 -0.42488092 3.0756989 2039583
2.3424067 -0.37490493 3.0914962 2039583
2.3651621 -0.37489894 3.0761547 2039583
2.3427396 -0.3248719 3.0915723 2039583
2.365483 -0.32515508 3.0762577 2039583
2.342737 -0.27492917 3.0920115 2039583
2.3656533 -0.27499747 3.0765848 2039583
2.3425839 -0.22548802 3.0926092 2039583
2.3651085 -0.22453466 3.0773664 2039583
2.3427775 -0.17575213 3.0928364 2039583
2.3630586 -0.17517887 3.0763626 2039583
2.4001782 -0.17446445 3.096473 2039583
2.3434496 -0.12514475 3.0925517 2039583
2.3632331 -0.12491746 3.076777 2039583
2.4005365 -0.12445267 3.0969355 2039583
2.343487 -0.075158112 3.0929468 2039583
2.3634477 -0.075212099 3.0770564 2039583
2.4008956 -0.074425817 3.0973985 2039583
2.3438139 -0.025214508 3.0930309 2039583
2.3636613 -0.025497666 3.0773351 2039583
2.4012544 -0.024384143 3.0978615 2039583
2.3440058 0.025076292 3.0932631 2039583
2.3638823 0.025500828 3.077621 2039583
2.4016039 0.024388876 3.0983129 2039583
1.28188 0.094813809 3.0514619 10197915
1.5473753 0.093741417 3.0996044 10197915
1.5756738 0.093668245 3.0971851 10197915
1.6247915 0.093541168 3.0929832 10197915
1.6749982 0.093411267 3.0886874 10197915
1.7250677 0.093281738 3.0844052 10197915
1.7749968 0.093152583 3.0801337 10197915
1.8247887 0.093023732 3.0758739 10197915
1.8744425 0.092895284 3.0716267 10000536
1.925166 0.09276408 3.0672879 6974058
1.9757458 0.092633203 3.0629599 3355443
2.0249846 0.092505813 3.0587487 2039583
2.0740879 0.092378795 3.0545487 2039583
2.1135151 0.092276782 3.0511754 2039583
2.3439975 0.071184285 3.0936756 8158332
2.3640797 0.071407437 3.0778782 8224125
2.4154427 0.081670597 3.0973845 9079434
2.4557307 0.091000468 3.0937333 10197915
2.2868009 -1.4030246 3.1426141 2039583
2.4464896 -1.4018917 3.1361053 2039583
2.4558432 -1.4031529 3.1447556 2039583
2.2901943 -1.3750482 3.1391916 2039583
2.3126216 -1.371834 3.1149757 2039583
2.4295444 -1.372605 3.1205053 2039583
2.456054 -1.3746077 3.1450245 2039583
2.2904131 -1.3248343 3.1393929 2039583
2.3134727 -1.3248497 3.1144674 2039583
2.4284303 -1.3249981 3.1195984 2039583
2.4564168 -1.3252918 3.1454902 2039583
2.2905862 -1.2748077 3.1396434 2039583
2.3136735 -1.2748308 3.1146896 2039583
2.4287965 -1.2750446 3.1200686 2039583
2.45678 -1.275961 3.1459556 2039583
2.2907522 -1.2249758 3.1399004 2039583
2.3138249 -1.2250094 3.1149583 2039583
2.4291587 -1.2250711 3.1205342 2039583
2.4571531 -1.2253171 3.1464331 2039583
2.2909472 -1.1750354 3.1401255 2039583
2.3140361 -1.17511 3.1151674 2039583
2.429714 -1.1750895 3.1211784 2039583
2.4575264 -1.1746577 3.1469107 2039583
2.2910669 -1.1250861 3.1404316 2039583
2.3146152 -1.1247469 3.1149821 2039583
2.4298892 -1.1248293 3.1214719 2039583
2.45789 -1.1252826 3.1473763 2039583
2.2916796 -1.0755917 3.1402023 2039583
2.314795 -1.0748032 3.115226 2039583
2.430155 -1.0750765 3.1218488 2039583
2.4582539 -1.075893 3.1478422 2039583
2.2914357 -1.0247778 3.1409094 2039583
2.3145745 -1.025147 3.1158972 2039583
2.4309947 -1.0250324 3.1227558 2039583
2.4586275 -1.0251882 3.1483207 2039583
2.2916281 -0.9749319 3.1411386 2039583
2.3147025 -0.97500193 3.1161966 2039583
2.4307919 -0.9747507 3.1226995 2039583
2.4590003 -0.97446805 3.1487989 2039583
2.2918475 -0.92496216 3.1413381 2039583
2.3149347 -0.92497218 3.1163828 2039583
2.4294872 -0.92656326 3.1216192 2039583
2.456382 -0.92088068 3.1465161 2039583
2.2920187 -0.8749851 3.1415899 2039583
2.3151257 -0.87499321 3.1166117 2039583
2.4271657 -0.87495601 3.1196074 2039583
2.4550397 -0.87567979 3.1453929 2039583
2.2921753 -0.82511598 3.1418562 2039583
2.3154881 -0.82474196 3.1166608 2039583
2.4275315 -0.82467604 3.1200769 2039583
2.45116 -0.82631147 3.141933 2039583
2.2926385 -0.77562839 3.1417882 2039583
2.3161414 -0.77505201 3.1163888 2039583
2.4276545 -0.7750228 3.1203215 2039583
2.451093 -0.77450836 3.1420069 2039583
2.2932551 -0.72494054 3.141566 2039583
2.316407 -0.72504902 3.1165383 2039583
2.4283149 -0.72504145 3.1210625 2039583
2.4514551 -0.72515106 3.1424711 2039583
2.293189 -0.67550611 3.1420689 2039583
2.3162158 -0.67465633 3.1171839 2039583
2.4239342 -0.67515057 3.1171398 2039583
2.4518173 -0.67577916 3.1429348 2039583
2.2928843 -0.62497765 3.1428385 2039583
2.3160169 -0.62489671 3.1178346 2039583
2.4243894 -0.62513489 3.1176918 2039583
2.4521887 -0.62509274 3.1434119 2039583
2.2931135 -0.57496661 3.143029 2039583
2.316174 -0.5750156 3.1181016 2039583
2.4245651 -0.5751071 3.117986 2039583
2.4525609 -0.57439113 3.1438885 2039583
2.2932749 -0.52494854 3.143291 2039583
2.3164015 -0.52506745 3.1182914 2039583
2.425308 -0.52480334 3.1188047 2039583
2.4529235 -0.52497464 3.1443532 2039583
2.29336 -0.47506356 3.1436341 2039583
2.3171535 -0.47491187 3.1179173 2039583
2.425287 -0.47501004 3.1189172 2039583
2.4532852 -0.47554332 3.1448166 2039583
2.2942886 -0.42513755 3.1430678 2039583
2.3174281 -0.42493799 3.1180573 2039583
2.4258401 -0.42519048 3.1195579 2039583
2.4536574 -0.42479619 3.1452942 2039583
2.2945199 -0.37487656 3.1432576 2039583
2.3176565 -0.37496668 3.1182489 2039583
2.4260139 -0.37510347 3.1198502 2039583
2.4540298 -0.37403378 3.1457717 2039583
2.2947409 -0.32460934 3.1434567 2039583
2.3177674 -0.32503569 3.1185629 2039583
2.4266627 -0.32499862 3.1205819 2039583
2.4543931 -0.32455802 3.1462369 2039583
2.2946875 -0.27544615 3.1439457 2039583
2.3177814 -0.2747969 3.1189871 2039583
2.4268367 -0.27488422 3.1208732 2039583
2.4547567 -0.27506772 3.146703 2039583
2.2943115 -0.22539254 3.1447899 2039583
2.3173914 -0.22494455 3.1198442 2039583
2.4272928 -0.22500664 3.1214259 2039583
2.4551198 -0.22556272 3.1471684 2039583
2.2944558 -0.17570503 3.145067 2039583
2.318203 -0.17470442 3.1194043 2039583
2.4273701 -0.17511973 3.1216276 2039583
2.4554832 -0.17604308 3.1476343 2039583
2.2950761 -0.12589048 3.1448331 2039583
2.3183765 -0.12520897 3.119653 2039583
2.4282095 -0.12521045 3.1225348 2039583
2.4558563 -0.12520495 3.1481123 2039583
2.2955794 -0.07426089 3.1447387 2039583
2.318753 -0.074818328 3.1196852 2039583
2.4281967 -0.074783027 3.1226552 2039583
2.4562297 -0.074351519 3.1485908 2039583
2.2957559 -0.024755321 3.1449819 2039583
2.3188379 -0.024558933 3.1200333 2039583
2.4287472 -0.024584336 3.1232955 2039583
2.456593 -0.024787104 3.1490571 2039583
2.2959325 0.024757855 3.1452243 2039583
2.3190167 0.024561433 3.1202714 2039583
2.4291046 0.024589149 3.123755 2039583
2.4569566 0.024791999 3.1495237 2039583
1.2968858 0.094389498 3.1210337 10197915
1.3255758 0.094315268 3.1185787 10197915
1.3753737 0.094186418 3.1143184 10197915
1.4250369 0.09405797 3.1100712 10197915
1.4745637 0.093929835 3.105834 10197915
1.5214905 0.093808398 3.101819 10197915
1.8325483 0.092605799 3.1483102 7960953
1.8759295 0.092494041 3.1445098 5197647
1.9253836 0.092366666 3.1401796 2236962
1.9747012 0.092239633 3.1358607 2039583
2.0251105 0.09210974 3.1314454 2039583
2.0753798 0.091980264 3.1270432 2039583
2.1255066 0.091851145 3.1226535 2039583
2.1754932 0.091722354 3.1182754 2039583
2.2253397 0.091593944 3.1139102 3618615
2.2924662 0.074006215 3.1392589 8355711
2.3191957 0.07065589 3.1198976 8026746
2.4294331 0.069893129 3.1241779 7631988
2.4572349 0.062638119 3.1498795 6052956
2.2409027 -1.4140935 3.1921294 2039583
2.262888 -1.4087871 3.1684117 2763306
2.4823995 -1.4088497 3.1693099 2039583
2.5033693 -1.413512 3.1886976 2039583
2.241951 -1.3753875 3.1913359 2039583
2.2652795 -1.3750207 3.1661227 2763306
2.4797218 -1.3749791 3.1669211 2039583
2.5036559 -1.3753586 3.1890628 2039583
2.2423398 -1.324782 3.1913574 2039583
2.2654309 -1.3249058 3.1664007 2763306
2.4799087 -1.3249947 3.1672237 2039583
2.5040314 -1.3253522 3.1895409 2039583
2.2425256 -1.2750375 3.1915901 2039583
2.2656074 -1.2748445 3.1666431 2763306
2.4804657 -1.2749946 3.1678703 2039583
2.5044072 -1.2753308 3.1900194 2039583
2.2426872 -1.2252825 3.1918509 2039583
2.2658343 -1.2249631 3.1668324 2763306
2.4808993 -1.2249789 3.1684022 2039583
2.5047829 -1.2252942 3.1904976 2039583
2.2428627 -1.1751251 3.1920991 2039583
2.2659993 -1.1749492 3.1670911 2763306
2.4812105 -1.1749468 3.1688206 2039583
2.5051587 -1.1752428 3.1909766 2039583
2.2430491 -1.1250921 3.192337 2039583
2.2661474 -1.1249276 3.1673696 2763306
2.4815195 -1.1249019 3.1692383 2039583
2.5055344 -1.1251762 3.1914551 2039583
2.2430966 -1.0759535 3.1927133 2039583
2.2668011 -1.0745729 3.1671014 2697513
2.481771 -1.0745201 3.1696036 2039583
2.5059109 -1.0750946 3.1919346 2039583
2.2434134 -1.0249685 3.1928172 2039583
2.2664838 -1.0249842 3.1678815 2697513
2.4823284 -1.0244396 3.1702507 2039583
2.5062864 -1.0249979 3.1924136 2039583
2.2435381 -0.97511178 3.1931183 2039583
2.2666957 -0.97507471 3.1680856 2697513
2.4826989 -0.97467601 3.170723 2039583
2.5066628 -0.97488612 3.1928926 2039583
2.2437723 -0.9252463 3.1933017 2039583
2.2668581 -0.92504334 3.1683495 2697513
2.4830697 -0.92489737 3.1711953 2039583
2.5070393 -0.92475951 3.1933718 2039583
2.2439115 -0.87520641 3.1935873 2039583
2.2670593 -0.87500459 3.16857 2697513
2.4834394 -0.87510359 3.171669 2039583
2.5074155 -0.87461776 3.1938517 2039583
2.2440712 -0.82516038 3.1938522 2039583
2.2672422 -0.82495791 3.1688082 2697513
2.4790704 -0.82493961 3.167758 2039583
2.5077927 -0.82446092 3.1943314 2039583
2.2442608 -0.77510434 3.1940849 2039583
2.2677388 -0.77462006 3.1687133 2631720
2.4793427 -0.77492398 3.1681402 2039583
2.5081692 -0.77428907 3.1948109 2039583
2.2448826 -0.72583079 3.1938446 2039583
2.2683003 -0.72487372 3.1685395 2631720
2.4798133 -0.72489393 3.1687069 2039583
2.5085456 -0.72410208 3.1952913 2039583
2.2453635 -0.67498887 3.1937695 2039583
2.2684782 -0.67487997 3.168787 2631720
2.4801829 -0.67510968 3.1691785 2039583
2.5089226 -0.67390001 3.1957712 2039583
2.2450132 -0.62573171 3.1945775 2039583
2.2681313 -0.62473613 3.1695974 2631720
2.4805539 -0.6250484 3.1696527 2039583
2.50929 -0.62500465 3.1962385 2039583
2.2449806 -0.57514083 3.1950548 2039583
2.2680984 -0.57497066 3.1700675 2631720
2.4786699 -0.57642519 3.1680377 2039583
2.5063636 -0.57144922 3.1936715 2039583
2.2451677 -0.52532518 3.1952882 2039583
2.268311 -0.52489555 3.170274 2631720
2.4763391 -0.52500904 3.1660163 2039583
2.5052128 -0.52511495 3.1927285 2039583
2.2453098 -0.47527534 3.1955719 2039583
2.2684512 -0.47491747 3.1705601 2631720
2.4768953 -0.47490713 3.1666617 2039583
2.5055892 -0.47492334 3.193208 2039583
2.2455177 -0.42520699 3.195785 2039583
2.2693379 -0.42495167 3.1700382 2565927
2.4772639 -0.42511785 3.1671333 2039583
2.5059655 -0.42471656 3.1936879 2039583
2.2464137 -0.37462303 3.1952586 2039583
2.2695487 -0.37502459 3.1702478 2565927
2.4776325 -0.37531379 3.1676049 2039583
2.5063422 -0.37449479 3.1941671 2039583
2.2465892 -0.32434559 3.1955078 2039583
2.2697299 -0.32514089 3.1704867 2565927
2.4779427 -0.3251659 3.1680219 2039583
2.5067182 -0.32425788 3.1946464 2039583
2.2467318 -0.2743164 3.1957917 2039583
2.2699327 -0.27519885 3.1707056 2565927
2.4783762 -0.27500612 3.1685541 2039583
2.5072205 -0.27465877 3.195241 2039583
2.2468176 -0.22548065 3.196126 2039583
2.2699916 -0.2249772 3.1710827 2565927
2.4785626 -0.22483119 3.1688592 2039583
2.5051966 -0.22980565 3.1934857 2039583
2.2463975 -0.17551163 3.1970162 2039583
2.2695713 -0.17492822 3.1719756 2565927
2.4791193 -0.17464012 3.1695054 2039583
2.5029988 -0.17585719 3.1915939 2039583
2.2465301 -0.12583725 3.1973069 2039583
2.2700782 -0.1246167 3.1718612 2565927
2.4794881 -0.12476136 3.1699774 2039583
2.5033743 -0.12563094 3.1920731 2039583
2.2470031 -0.077280976 3.1972198 2039583
2.2705595 -0.074899398 3.1717796 2565927
2.4798586 -0.074867703 3.1704502 2039583
2.5037508 -0.075389653 3.192553 2039583
2.2476349 -0.025164718 3.1969929 2039583
2.2707353 -0.024968201 3.1720245 2565927
2.4802277 -0.024959212 3.1709223 2039583
2.5041268 -0.025133239 3.193032 2039583
2.2478108 0.025167339 3.197243 2039583
2.2709112 0.02497077 3.1722744 2565927
2.4805977 0.024964171 3.1713951 2039583
2.5045028 0.025138268 3.1935112 2039583
1.3368361 0.093882792 3.1917231 10197915
1.3750573 0.093784325 3.1883752 10197915
1.4246298 0.093656607 3.1840339 10197915
1.4753339 0.093526021 3.1795948 10197915
1.5258963 0.093395755 3.1751649 10197915
1.5750595 0.093269065 3.1708593 10197915
1.62409 0.093142822 3.1665671 10197915
1.6742389 0.093013614 3.1621745 10197915
1.7242492 0.092884779 3.1577938 10197915
1.774122 0.092756331 3.1534274 10197915
1.8064703 0.092672996 3.150594 10197915
2.1305828 0.091424428 3.1982381 2039583
2.1755338 0.09130916 3.1942055 2039583
2.2410078 0.076661237 3.1950879 2039583
2.2711487 0.070882432 3.1723876 4144959
2.4797075 0.073704243 3.1692343 8026746
2.5058076 0.076598041 3.1845384 8289918
2.1899164 -1.451426 3.2469161 2039583
2.1930549 -1.4249551 3.2437549 2039583
2.2151179 -1.4203016 3.2199461 2039583
2.1933086 -1.3750041 3.2439172 2039583
2.2169394 -1.3747535 3.2183769 2039583
2.1940913 -1.3253205 3.2435055 2039583
2.2173777 -1.3248726 3.2183366 2039583
2.1943777 -1.2748682 3.2436366 2039583
2.2175078 -1.2748264 3.2186341 2039583
2.1945961 -1.2250555 3.2438371 2039583
2.2176912 -1.2249463 3.2188725 2039583
2.1947553 -1.1748431 3.2441025 2039583
2.2178464 -1.1750017 3.219142 2039583
2.1949131 -1.1250124 3.2443669 2039583
2.2180221 -1.1249903 3.2193894 2039583
2.1950729 -1.075173 3.2446322 2039583
2.2183261 -1.0748836 3.2195001 2039583
2.1953642 -1.0256493 3.2447488 2039583
2.2191265 -1.0250512 3.2190704 2039583
2.1954436 -0.97523248 3.2451031 2039583
2.2185643 -0.97498637 3.2201128 2039583
2.1955986 -0.92502892 3.2453756 2039583
2.2187562 -0.92495084 3.2203445 2039583
2.195802 -0.87508297 3.2455912 2039583
2.2189355 -0.8749603 3.2205884 2039583
2.1958904 -0.82485282 3.2459342 2039583
2.2189994 -0.82501674 3.2209527 2039583
2.1961603 -0.77516574 3.2460766 2039583
2.2192242 -0.77501047 3.2211468 2039583
2.1962824 -0.72492164 3.2463851 2039583
2.2199183 -0.72482324 3.2208371 2039583
2.1967702 -0.67615581 3.2462835 2039583
2.2203178 -0.67497188 3.2208412 2039583
2.1974313 -0.62500197 3.246016 2039583
2.2205343 -0.62493104 3.2210445 2039583
2.1975298 -0.57493562 3.2463479 2039583
2.2207177 -0.5749861 3.2212837 2039583
2.1970987 -0.5259611 3.247241 2039583
2.2201247 -0.5248571 3.2223599 2039583
2.1971366 -0.47494742 3.2476466 2039583
2.2202952 -0.47494844 3.222614 2039583
2.1973066 -0.42519817 3.2478969 2039583
2.22047 -0.42494527 3.2228632 2039583
2.1974764 -0.37544125 3.2481492 2039583
2.2213607 -0.37502906 3.2223363 2039583
2.1982265 -0.3264887 3.2477651 2039583
2.2216313 -0.32509014 3.2224767 2039583
2.1986175 -0.27517676 3.2477913 2039583
2.221669 -0.2749978 3.222877 2039583
2.1987693 -0.22472091 3.248069 2039583
2.2219884 -0.22489689 3.2229669 2039583
2.5123699 -0.21477754 3.2001622 2039583
2.1989391 -0.17494594 3.2483206 2039583
2.2220862 -0.17484048 3.2233 2039583
2.5126684 -0.17502435 3.200542 2039583
2.1991091 -0.12516318 3.2485716 2039583
2.2219977 -0.12481504 3.2238348 2039583
2.5130365 -0.12598273 3.2010112 2039583
2.1987143 -0.078269765 3.2494082 2039583
2.2223799 -0.074997671 3.2238567 2039583
2.5134149 -0.075600773 3.201493 2039583
2.1986582 -0.02962039 3.2498937 2039583
2.2225299 -0.025378294 3.2241271 2039583
2.5137932 -0.025203628 3.2019749 2039583
2.2227054 0.025380982 3.2243807 2039583
2.5141718 0.025208686 3.202457 2039583
1.5769979 0.092844039 3.2478991 10197915
1.6246425 0.092721865 3.2436252 10197915
1.6747272 0.092593446 3.2391331 10197915
1.7246739 0.092465349 3.2346516 9605778
1.7744815 0.092337601 3.2301826 6579300
1.8254251 0.092207 3.2256141 3158064
1.8749558 0.09207996 3.2211699 2039583
1.9243491 0.091953263 3.2167377 2039583
1.97487 0.091823742 3.2122073 2039583
2.0252473 0.091694556 3.2076874 2039583
2.0754828 0.091565713 3.2031803 2039583
2.1055624 0.091488555 3.2004812 2039583
2.2228625 0.070803776 3.2246091 2039583
2.5183868 0.072632849 3.2072227 7763574
2.5624728 0.089887843 3.2383494 10197915
2.1454744 -1.4620916 3.2948604 2039583
2.164727 -1.4574077 3.2740908 2039583
2.1458316 -1.4248453 3.2948005 2039583
2.1688499 -1.4250114 3.2699199 2039583
2.1457591 -1.3757842 3.2953076 2039583
2.1687691 -1.3748401 3.2704456 2039583
2.1453459 -1.3248863 3.2961993 2039583
2.1690938 -1.3247417 3.2705295 2039583
2.1456604 -1.2758002 3.2962878 2039583
2.1693683 -1.274895 3.2706711 2039583
2.1464529 -1.2251363 3.2958739 2039583
2.1694858 -1.2250178 3.2709792 2039583
2.1466746 -1.1750505 3.296073 2039583
2.1697564 -1.1750251 3.2711253 2039583
2.1467657 -1.1249512 3.2964113 2039583
2.1698439 -1.1249691 3.2714674 2039583
2.1469662 -1.0748487 3.2966335 2039583
2.1699815 -1.0750138 3.2717519 2039583
2.1471672 -1.0247407 3.2968538 2039583
2.1703806 -1.0249104 3.2717593 2039583
2.1472669 -0.97495562 3.2971811 2039583
2.1711285 -0.97496867 3.2713892 2039583
2.1478374 -0.92663759 3.2969871 2039583
2.1713595 -0.92500037 3.2715743 2039583
2.147922 -0.87676567 3.297332 2039583
2.1708663 -0.87477803 3.2725475 2039583
2.1478014 -0.82523644 3.2979133 2039583
2.1708713 -0.82497156 3.2729778 2039583
2.1479456 -0.77541387 3.2981918 2039583
2.1711178 -0.77506155 3.2731485 2039583
2.1481578 -0.72494042 3.2984035 2039583
2.1711583 -0.72504389 3.2735417 2039583
2.1483023 -0.67510247 3.2986832 2039583
2.1718225 -0.67467618 3.2732654 2039583
2.1484475 -0.62525564 3.2989624 2039583
2.172338 -0.6249308 3.2731414 2039583
2.1491487 -0.57841921 3.2986135 2039583
2.1725206 -0.57504529 3.2733791 2039583
2.1496067 -0.52476078 3.2985871 2039583
2.1726706 -0.52500594 3.2736549 2039583
2.1497715 -0.47560072 3.2988391 2039583
2.1728466 -0.47500911 3.2739005 2039583
2.1499267 -0.42916501 3.299077 2039583
2.1729541 -0.42482713 3.2742217 2039583
2.1722884 -0.374926 3.2753787 2039583
2.1733532 -0.3248499 3.2746632 2039583
2.1734724 -0.27501234 3.2749698 2039583
2.1744292 -0.22504106 3.2743773 2039583
2.1746356 -0.17490882 3.2745907 2039583
2.1749959 -0.12514998 3.2746396 2039583
2.1747119 -0.074944466 3.2753813 2039583
2.1754642 -0.024645425 3.2750075 2039583
2.1762879 0.024747131 3.2745488 2039583
1.3773351 0.093356088 3.2658114 10197915
1.4255061 0.093232535 3.2614894 10197915
1.4748474 0.093106017 3.2570636 10197915
1.5253475 0.092976525 3.2525337 10197915
1.5524879 0.092906907 3.2500985 10197915
1.8960215 0.091588654 3.2996242 2039583
1.9245579 0.091515817 3.2970002 2039583
1.9750427 0.091386929 3.2923572 2039583
2.0253875 0.091258481 3.2877293 2039583
2.0743043 0.091133624 3.2832305 2039583
2.1243682 0.091005817 3.2786269 2039583
2.1760309 0.070634231 3.2749126 2039583
2.0973287 -1.475372 3.3467865 2039583
2.1187739 -1.4684907 3.3236642 2039583
2.0977876 -1.4253314 3.3467281 2039583
2.120729 -1.4249965 3.3219326 2039583
2.0979507 -1.3755233 3.346988 2039583
2.1209738 -1.3750079 3.3221066 2039583
2.0980847 -1.3252429 3.3472817 2039583
2.1210673 -1.3248495 3.3224437 2039583
2.0982461 -1.2754011 3.3475423 2039583
2.1214585 -1.2745944 3.3224597 2039583
2.0976155 -1.2249959 3.348665 2039583
2.1214011 -1.225016 3.322952 2039583
2.0977783 -1.1751436 3.3489256 2039583
2.1215715 -1.1750886 3.3232052 2039583
2.0985348 -1.1277112 3.3485219 2039583
2.121768 -1.1251035 3.3234334 2039583
2.0989368 -1.0737453 3.3485596 2039583
2.1219292 -1.0750076 3.3236949 2039583
2.0990994 -1.023883 3.3488195 2039583
2.1220901 -1.0249555 3.3239591 2039583
2.0992622 -0.97401303 3.3490789 2039583
2.1222463 -0.97504848 3.3242257 2039583
2.0994253 -0.92413533 3.349339 2039583
2.1228392 -0.92484647 3.3240259 2039583
2.0995882 -0.87424994 3.3495989 2039583
2.1233535 -0.8751061 3.3239036 2039583
2.099751 -0.82435673 3.3498588 2039583
2.1235929 -0.82510561 3.3240819 2039583
2.0998373 -0.79802144 3.3499961 2039583
2.1237082 -0.77495027 3.3243961 2039583
2.1238556 -0.72493243 3.3246734 2039583
2.1240821 -0.67490816 3.3248646 2039583
2.1242139 -0.62487698 3.3251588 2039583
2.1249626 -0.574817 3.3247883 2039583
2.1253824 -0.52498698 3.3247707 2039583
2.1256363 -0.47504783 3.3249311 2039583
2.1264882 -0.42493811 3.3244512 2039583
2.126642 -0.37494102 3.3247194 2039583
2.1268713 -0.32493815 3.3249078 2039583
2.1270275 -0.27488014 3.3251777 2039583
2.1270776 -0.22490892 3.3255584 2039583
2.1506114 -0.22422107 3.3001282 2039583
2.1272779 -0.17497925 3.3257806 2039583
2.1507757 -0.17501514 3.3003805 2039583
2.1278038 -0.1249041 3.325649 2039583
2.1509402 -0.12580167 3.3006327 2039583
2.128547 -0.074551076 3.3252861 2039583
2.151109 -0.075213261 3.3008926 2039583
2.1285915 -0.024799835 3.3256729 2039583
2.1512783 -0.024616988 3.301152 2039583
2.1287563 0.024802379 3.3259284 2039583
2.151443 0.024619495 3.301404 2039583
1.3930837 0.092872277 3.3458686 10197915
1.4250908 0.092790566 3.3429251 10197915
1.4756626 0.09266147 3.338274 10197915
1.5260948 0.092532814 3.3336389 10197915
1.5750649 0.092407808 3.3291357 10197915
1.6239017 0.092283145 3.3246441 10197915
1.6739229 0.092155494 3.3200452 7368816
1.7238057 0.092028201 3.3154593 4473924
1.7748569 0.09189786 3.3107638 2039583
1.8257649 0.091767937 3.306083 2039583
1.8713316 0.091651678 3.3018947 2039583
2.1285889 0.070099719 3.3265047 2039583
2.1511471 0.073289454 3.3021498 2039583
2.6209538 0.089288332 3.3157289 10197915
2.0488238 -1.5109195 3.3989062 2039583
2.0636086 -1.5067821 3.382961 2039583
2.0489357 -1.4757967 3.399092 2039583
2.0723901 -1.4748024 3.3737462 2039583
2.0490968 -1.4252137 3.3993597 2039583
2.0728467 -1.424932 3.3736935 2039583
2.0492585 -1.3746223 3.3996277 2039583
2.0729945 -1.3749795 3.373966 2039583
2.0494108 -1.3268349 3.3998806 2039583
2.0730624 -1.3249193 3.3743317 2039583
2.0732789 -1.2748998 3.3745356 2039583
2.0734255 -1.2250283 3.3748107 2039583
2.0735984 -1.1750449 3.3750641 2039583
2.0744796 -1.1249036 3.3745489 2039583
2.0747511 -1.0750301 3.3746912 2039583
2.0749192 -1.0249784 3.3749468 2039583
2.0751441 -0.97505963 3.3751395 2039583
2.0761085 -0.92503548 3.3745351 2039583
2.0762222 -0.87498152 3.3748522 2039583
2.0764225 -0.82497078 3.3750715 2039583
2.0773616 -0.77493846 3.3744936 2039583
2.0767763 -0.72503036 3.3755603 2039583
2.1000772 -0.72454715 3.3503788 2039583
2.0768609 -0.67499715 3.3759084 2039583
2.10024 -0.6746307 3.3506389 2039583
