# .PCD v0.7 - Point Cloud Data file format
VERSION 0.7
FIELDS x y z rgb
SIZE 4 4 4 4
TYPE F F F U
COUNT 1 1 1 1
WIDTH 1168
HEIGHT 1
VIEWPOINT 0 0 0 1 0 0 0
POINTS 1168
DATA ascii
-0.1248543 0.11484601 1.2715657 10197915
-0.074953794 0.11486789 1.2719016 10197915
-0.025033133 0.11488993 1.2721146 10197915
0.025039542 0.11491203 1.2723591 10197915
0.074998505 0.11493399 1.2726334 10197915
0.12497564 0.11495613 1.2727855 10197915
0.17497317 0.11497805 1.2731215 10197915
0.22498924 0.11500014 1.2733353 10197915
0.27502599 0.11502231 1.2734865 10197915
0.32494685 0.11504419 1.2738534 10197915
0.37502244 0.11506632 1.2740674 10197915
0.42498294 0.11508832 1.2742486 10197915
0.47496346 0.11511034 1.274555 10197915
0.52509463 0.11513237 1.2748299 10197915
0.5749808 0.11515447 1.2749803 10197915
0.6248852 0.11517633 1.275377 10197915
0.67480868 0.1151984 1.2754673 10197915
0.72488612 0.11522044 1.2757746 10197915
0.77498019 0.11524262 1.275956 7895160
0.82496232 0.11526449 1.2762933 2894892
0.86823636 0.11124738 1.2782884 2894892
0.91176432 -0.60132891 1.3477025 2894892
0.89397889 -0.56910914 1.314355 2894892
0.90761143 -0.5741508 1.3399538 2894892
0.89328021 -0.52500081 1.3131287 2894892
0.90731299 -0.52495819 1.3394884 2894892
0.89309633 -0.47495961 1.3128805 2894892
0.9070729 -0.47507346 1.3391346 2894892
0.89283878 -0.42508113 1.3124924 2829099
0.90680289 -0.42521739 1.3387231 2894892
0.89263445 -0.37509111 1.3122053 2894892
0.90656275 -0.37519878 1.3383689 2894892
0.89233291 -0.32499284 1.3117367 2894892
0.90635151 -0.32502639 1.3380692 2894892
0.89216024 -0.27492154 1.3115076 2894892
0.9061113 -0.27506232 1.337714 2894892
0.89188159 -0.22514884 1.3110811 2894892
0.90587157 -0.22512478 1.3373606 2894892
0.89352703 -0.17569064 1.3142673 2894892
0.90557116 -0.17503256 1.3368925 2894892
0.89336985 -0.12503465 1.3140702 2894892
0.90539038 -0.12496379 1.3366503 2894892
0.89313167 -0.074928954 1.3137196 2894892
0.90512007 -0.074921653 1.3362393 2894892
0.89292389 -0.025031384 1.3134254 2894892
0.90490961 -0.024906976 1.3359405 2894892
0.89268649 0.025022514 1.3130767 2894892
0.9046703 0.024898205 1.3355871 2894892
0.89242131 0.074867174 1.312675 2894892
0.90440029 0.07485985 1.3351763 2894892
-1.0583092 0.1143531 1.3412585 10197915
-1.0238311 0.11438277 1.3282582 10197915
-0.97491831 0.11440517 1.3277202 10197915
-0.92504478 0.11442713 1.3279057 10197915
-0.87501311 0.11444936 1.3280596 10197915
-0.82482654 0.11447125 1.3284525 10197915
-0.7747556 0.11449341 1.3286738 10197915
-0.72508019 0.11451535 1.3288561 10197915
-0.67524493 0.1145372 1.3292172 10197915
-0.62498188 0.11455951 1.3293375 10197915
-0.57497162 0.11458135 1.3297299 10197915
-0.52508104 0.11460339 1.3299502 10197915
-0.47489667 0.11462546 1.3302413 10197915
-0.42496619 0.11464754 1.3303902 10197915
-0.37628666 0.11467016 1.3295937 10197915
-0.32448706 0.11470509 1.3187964 10197915
-0.27507228 0.1147273 1.3187064 10197915
-0.22512558 0.1147491 1.3190957 10197915
-0.17502575 0.11477149 1.3191127 10197915
-0.12504259 0.11479332 1.3195 10197915
-0.075038411 0.1148155 1.3196189 10197915
-0.025018496 0.11483744 1.3200065 10197915
0.024887614 0.11485941 1.3202254 10197915
0.074946977 0.11488149 1.3204129 10197915
0.12502728 0.11490351 1.3207326 10197915
0.17498873 0.1149255 1.3210195 10197915
0.22496992 0.11494759 1.3211715 10197915
0.27496907 0.11496952 1.3215257 10197915
0.32498845 0.1149916 1.321745 10197915
0.37489104 0.11501354 1.3219978 10197915
0.4249486 0.11503562 1.3222857 10197915
0.47502446 0.11505777 1.3224379 10197915
0.52498353 0.11507975 1.3227578 10197915
0.57509816 0.11510177 1.3230457 10197915
0.62509656 0.11512396 1.3231603 10197915
0.67483598 0.11514565 1.3235507 10197915
0.7248736 0.11516777 1.3238038 10197915
0.77506417 0.11518991 1.324024 10197915
0.82513732 0.11521205 1.3242103 4276545
0.87715417 0.1136372 1.3230115 2894892
0.90410209 0.10911788 1.3361694 2894892
0.92938608 -0.60894811 1.3807893 2894892
0.92636997 -0.57503629 1.3751893 2894892
0.92610073 -0.5250473 1.3747807 2894892
0.92592025 -0.47498956 1.3745376 2894892
0.92563307 -0.4248625 1.3740956 2894892
0.92533863 -0.37485796 1.3736396 2894892
0.92516714 -0.3249737 1.3734133 2894892
0.92485696 -0.27502227 1.3729275 2894892
0.92465305 -0.22481304 1.3726408 2894892
0.9243983 -0.17481746 1.3722594 2894892
0.92414677 -0.12504043 1.3718828 2894892
0.9239338 -0.075004444 1.3715798 2894892
0.9236564 -0.024996962 1.3711545 2894892
0.92341101 0.024988111 1.3707905 2894892
0.92319834 0.074942507 1.3704877 2894892
-1.1014953 0.11428445 1.3862184 10197915
-1.071263 0.11431046 1.3748312 10197915
-1.0250142 0.11433298 1.3730975 10197915
-0.97514725 0.11435518 1.3731568 10197915
-0.92506784 0.1143771 1.3735249 10197915
-0.87497276 0.11439905 1.3738912 10197915
-0.82504469 0.11442125 1.3739507 10197915
-0.7751013 0.11444302 1.374419 10197915
-0.72532499 0.11446507 1.3745788 10197915
-0.67533922 0.11448705 1.3748456 10197915
-0.62514639 0.11450908 1.3752122 10197915
-0.57512486 0.11453131 1.3752718 10197915
-0.52508247 0.11455311 1.3757411 10197915
-0.47521159 0.1145752 1.3759018 10197915
-0.42512959 0.11459725 1.3761685 10197915
-0.37366137 0.11462195 1.3745588 10197915
-0.32507232 0.1146486 1.3700341 10197915
-0.27489755 0.11467088 1.3701454 10197915
-0.22498378 0.1146927 1.3705579 10197915
-0.17505288 0.11471469 1.3708233 10197915
-0.12495921 0.11473694 1.3708955 10197915
-0.07499069 0.11475863 1.3714628 10197915
-0.025002081 0.11478085 1.3714973 10197915
0.025008459 0.1148029 1.3717607 10197915
0.075035483 0.11482466 1.3722521 10197915
0.1250807 0.11484707 1.372211 10197915
0.17500535 0.11486883 1.3726628 10197915
0.22508979 0.11489088 1.372929 10197915
0.27519563 0.1149131 1.3730379 10197915
0.32503217 0.11493489 1.3734522 10197915
0.37503481 0.11495703 1.3736023 10197915
0.42490974 0.11497891 1.373939 10197915
0.47494969 0.1150009 1.3742437 10197915
0.52514935 0.11502301 1.3745052 10197915
0.57494044 0.11504499 1.3747288 10197915
0.6248945 0.11506706 1.3749171 10197915
0.6748659 0.11508899 1.3752543 10197915
0.72485912 0.11511106 1.3754426 10197915
0.77486813 0.11513298 1.3757801 10197915
0.82489944 0.11515485 1.3761984 8355711
0.87509 0.11517727 1.3761942 2894892
0.9184804 0.11162253 1.3759701 2894892
-1.117995 0.11423112 1.4280921 10197915
-1.0751386 0.11425737 1.4216223 10197915
-1.0251251 0.11427931 1.4219385 10197915
-0.97494978 0.11430156 1.4220458 10197915
-0.92489928 0.11432347 1.4224452 10197915
-0.87497801 0.11434535 1.4228035 10197915
-0.82503718 0.1143674 1.4229923 10197915
-0.7750752 0.11438938 1.4232656 10197915
-0.72480309 0.1144116 1.4234587 10197915
-0.67480195 0.11443363 1.4237264 10197915
-0.62508023 0.11445542 1.4240869 10197915
-0.57504141 0.11447743 1.4243609 10197915
-0.52498543 0.11449936 1.4247202 10197915
-0.47491005 0.11452153 1.4249095 10197915
-0.42496052 0.11454363 1.425052 10197915
-0.37514344 0.11456535 1.4254982 10197915
-0.32515511 0.11458743 1.4257292 10197915
-0.27500182 0.11460939 1.4260894 10197915
-0.22497906 0.11463167 1.4261472 10197915
-0.1750823 0.1146534 1.4265939 10197915
-0.12501968 0.11467551 1.4268253 10197915
-0.074935913 0.11469769 1.4269687 10197915
-0.02498458 0.1147195 1.427416 10197915
0.024990965 0.11474145 1.4276893 10197915
0.073292144 0.11476716 1.4239194 10197915
0.12499914 0.11479349 1.4209388 10197915
0.17506947 0.11481553 1.4212118 10197915
0.22496395 0.11483736 1.4215964 10197915
0.27487868 0.11485946 1.4217554 10197915
0.32500666 0.11488155 1.4220285 10197915
0.37496024 0.11490352 1.4223009 10197915
0.42512658 0.11492561 1.4225742 10197915
0.47511804 0.11494748 1.4229593 10197915
0.52493048 0.11496951 1.4231178 10197915
0.57515454 0.11499163 1.4233917 10197915
0.62520474 0.11501379 1.4235486 10197915
0.67487395 0.1150354 1.4240476 10197915
0.72476506 0.11505745 1.4242064 10197915
0.77506614 0.1150796 1.4244802 10197915
0.8251915 0.11510153 1.4248666 10197915
0.8749395 0.11512367 1.4249086 4868682
0.92432672 0.11514492 1.4256386 2894892
0.95664614 0.11514829 1.4356858 2894892
-1.1634622 0.11415449 1.4794446 10197915
-1.1250876 0.11417783 1.4737813 10197915
-1.0752282 0.11419978 1.4740617 10197915
-1.0253465 0.11422171 1.4743477 10197915
-0.97504199 0.1142437 1.4747574 10197915
-0.92492151 0.11426602 1.4747905 10197915
-0.8749842 0.11428771 1.4753265 10197915
-0.82482451 0.1143099 1.4754865 10197915
-0.77484649 0.1143319 1.4757673 10197915
-0.72485274 0.1143539 1.476054 10197915
-0.67483634 0.11437589 1.4763354 10197915
-0.62500572 0.11439765 1.4767461 10197915
-0.57495415 0.11441996 1.4767768 10197915
-0.52488148 0.11444171 1.4773148 10197915
-0.47499225 0.11446396 1.4773433 10197915
-0.4250876 0.11448561 1.477881 10197915
-0.37516069 0.1145077 1.4780364 10197915
-0.32500964 0.11452976 1.4783244 10197915
-0.27484256 0.11455186 1.4786063 10197915
-0.22485745 0.1145737 1.4790184 10197915
-0.17485434 0.11459582 1.479174 10197915
-0.12503588 0.11461788 1.4793302 10197915
-0.074996494 0.1146396 1.4798692 10197915
-0.024935458 0.11466178 1.4800253 10197915
0.024941809 0.11468372 1.4803085 10197915
0.076673865 0.11471202 1.4755459 10197915
0.12511115 0.11473649 1.4729539 10197915
0.17503779 0.11475817 1.4734695 10197915
0.22498271 0.11478031 1.4736121 10197915
0.27494568 0.11480203 1.4741307 10197915
0.32492745 0.11482427 1.4741768 10197915
0.37508503 0.11484636 1.4744598 10197915
0.42495117 0.11486818 1.4748338 10197915
0.47484043 0.11488993 1.4753063 10197915
0.5250513 0.11491234 1.4753069 10197915
0.57497686 0.11493418 1.4756809 10197915
0.62492234 0.11495626 1.475871 10197915
0.67488527 0.11497813 1.4762452 10197915
0.72438949 0.11500759 1.469532 10197915
0.77498603 0.11503066 1.4690733 10197915
0.82484913 0.11505245 1.4694797 10197915
0.87493306 0.11507473 1.4695119 8289918
0.92503619 0.11509651 1.4700422 2894892
0.96940511 0.11511305 1.4730203 2894892
-1.2095751 0.11407485 1.5332402 10197915
-1.1744589 0.11410296 1.5219183 10197915
-1.1250644 0.11412496 1.521928 10197915
-1.0748318 0.11414704 1.5222256 10197915
-1.0247862 0.11416905 1.5225153 10197915
-0.97514361 0.11419089 1.5228065 10197915
-0.92506027 0.11421275 1.5232406 10197915
-0.8749581 0.11423493 1.5233941 10197915
-0.82504588 0.11425702 1.5235493 10197915
-0.77490872 0.11427878 1.5241208 10197915
-0.72474831 0.11430098 1.5242747 10197915
-0.6749872 0.11432286 1.5245669 10197915
-0.62521058 0.11434475 1.5248586 10197915
-0.57499188 0.11436667 1.525293 10197915
-0.52496535 0.11438882 1.5254468 10197915
-0.47513133 0.11441074 1.5257386 10197915
-0.42506438 0.11443273 1.5260327 10197915
-0.37519214 0.11445467 1.5263249 10197915
-0.32529733 0.11447664 1.5266174 10197915
-0.2751742 0.11449849 1.5270525 10197915
-0.22503474 0.1145207 1.527205 10197915
-0.17508227 0.11454266 1.5274978 10197915
-0.12511416 0.11456461 1.5277915 10197915
-0.074912399 0.11458669 1.5280859 10197915
-0.024905898 0.1146087 1.5283788 10197915
0.024912257 0.11463059 1.5286708 10197915
0.074957103 0.1146526 1.5289645 10197915
0.12502472 0.11467462 1.5292577 10197915
0.17510799 0.11469664 1.5295511 10197915
0.22500059 0.11471841 1.5299847 10197915
0.27491382 0.11474052 1.5301358 10197915
0.32505471 0.11476257 1.5304304 10197915
0.37500685 0.11478453 1.5307246 10197915
0.42518616 0.11480659 1.5310179 10197915
0.47517607 0.11482841 1.5314513 10197915
0.52497149 0.11485046 1.5316021 10197915
0.57520831 0.11487255 1.5318969 10197915
0.62525737 0.11489472 1.5320463 10197915
0.67489445 0.11491624 1.5326228 10197915
0.72518659 0.11494705 1.524982 10197915
0.77331775 0.11497155 1.5222259 10197915
0.82511294 0.11500071 1.5167065 10197915
0.87513512 0.11502255 1.5171324 10132122
0.92517805 0.11504456 1.5174228 4605510
0.97523546 0.11506641 1.5178517 2894892
1.0117153 0.11507552 1.5243802 2894892
-1.2572144 0.1139924 1.588962 10197915
-1.2232064 0.11402342 1.5745537 10197915
-1.1747901 0.11404671 1.5730284 10197915
-1.1248235 0.11406866 1.5733317 10197915
-1.0748421 0.11409061 1.5736338 10197915
-1.0248377 0.11411258 1.5739369 10197915
-0.97481781 0.11413458 1.5742403 10197915
-0.92499262 0.11415631 1.5746955 10197915
-0.87514853 0.11417837 1.5748445 10197915
-0.82507068 0.11420039 1.5751481 10197915
-0.77497 0.11422243 1.5754514 10197915
-0.72485358 0.11424443 1.5757554 10197915
-0.67493141 0.11426638 1.5760583 10197915
-0.62477648 0.11428841 1.5763623 10197915
-0.57481641 0.11431019 1.5768183 10197915
-0.52505565 0.11433223 1.5769664 10197915
-0.47484294 0.1143543 1.5772713 10197915
-0.42482314 0.11437646 1.5774167 10197915
-0.37522709 0.11439791 1.5780287 10197915
-0.32516903 0.11442008 1.5781785 10197915
-0.27487907 0.11444218 1.5784835 10197915
-0.22500224 0.11446393 1.5789388 10197915
-0.17510769 0.11448602 1.5790877 10197915
-0.12497558 0.11450821 1.5792352 10197915
-0.075045064 0.11452983 1.579849 10197915
-0.025092522 0.11455197 1.5799973 10197915
0.025098959 0.11457401 1.5803007 10197915
0.074869297 0.11459588 1.5805995 10197915
0.12466249 0.11461776 1.5809048 10197915
0.17490843 0.11463968 1.5813625 10197915
0.22517374 0.11466194 1.581514 10197915
0.27502424 0.11468385 1.5818121 10197915
0.32491794 0.11471555 1.5732185 10197915
0.37485397 0.11473738 1.573634 10197915
0.42480552 0.11475947 1.5738206 10197915
0.47477838 0.11478131 1.5742363 10197915
0.52476931 0.11480339 1.5744232 10197915
0.57477939 0.11482526 1.5748389 10197915
0.62480986 0.11484735 1.5750258 10197915
0.6748572 0.11486924 1.575442 10197915
0.72492701 0.11489135 1.5756292 10197915
0.77756643 0.1149191 1.5717622 10197915
0.82496423 0.11494491 1.5675014 10197915
0.87491804 0.11496668 1.5679506 10197915
0.92489058 0.11498879 1.5680995 8618883
0.97488564 0.11501078 1.5684004 2894892
1.0237827 0.11503105 1.5698004 2894892
1.0566827 0.1150303 1.5838573 2894892
-1.3048283 0.11390817 1.6464025 10197915
-1.2716019 0.11394024 1.6306607 10197915
-1.2250576 0.11396428 1.6276981 10197915
-1.1749321 0.11398648 1.627841 10197915
-1.1250172 0.11400802 1.6284944 10197915
-1.0750769 0.11403013 1.6286389 10197915
-1.0248928 0.11405218 1.6289538 10197915
-0.9749158 0.11407395 1.6294361 10197915
-0.92492026 0.11409629 1.6294094 10197915
-0.87490475 0.11411787 1.6300632 10197915
-0.82487017 0.11414003 1.6302084 10197915
-0.7750383 0.11416193 1.6305166 10197915
-0.72719723 0.11418999 1.6244049 10197915
-0.67488128 0.11421635 1.6216518 10197915
-0.62495071 0.11423814 1.6220883 10197915
-0.57499427 0.1142602 1.6222748 10197915
-0.52502656 0.11428204 1.6227119 10197915
-0.47536936 0.11430385 1.6230218 10197915
-0.42535794 0.11432594 1.6232082 10197915
-0.37533009 0.11434778 1.6236458 10197915
-0.32527885 0.11436991 1.6238326 10197915
-0.27521396 0.11439177 1.62427 10197915
-0.22512303 0.11441391 1.6244569 10197915
-0.17502065 0.11443578 1.624895 10197915
-0.12522969 0.11445766 1.6252055 10197915
-0.075083666 0.11447979 1.625393 10197915
-0.024921019 0.11450171 1.6258312 10197915
0.024927365 0.1145236 1.626142 10197915
0.0751286 0.11454581 1.6263294 10197915
0.12535173 0.11456772 1.6267682 10197915
0.17491834 0.11458961 1.6269485 10197915
0.22450387 0.11461128 1.627387 10197915
0.27478456 0.11463352 1.6275749 10197915
0.32499781 0.11466578 1.6185615 10197915
0.3751404 0.11468782 1.6188724 10197915
0.42507687 0.11470957 1.6193479 10197915
0.47502908 0.11473189 1.6193234 10197915
0.52500439 0.11475345 1.6199673 10197915
0.57499611 0.11477562 1.6201116 10197915
0.62501174 0.11479779 1.6202513 10197915
0.67481494 0.1148193 1.6208968 10197915
0.72486842 0.11484146 1.6210411 10197915
0.7749384 0.11486326 1.6215173 10197915
0.82502496 0.11488564 1.6214936 10197915
0.87513411 0.1149073 1.6221386 10197915
0.92526001 0.11492945 1.6222837 10197915
0.97518343 0.11495139 1.6225883 5526612
1.0251223 0.11497331 1.6229028 2894892
1.0705602 0.11498924 1.6268686 2894892
1.1008701 0.11498582 1.6423101 2894892
-1.3479615 -0.75508726 1.6982636 2505811
-1.3479244 -0.72514451 1.6981248 2373711
-1.3478225 -0.67496216 1.697965 2308433
-1.3476954 -0.62496704 1.6978551 2308946
-1.3476 -0.57497787 1.6976848 2242898
-1.347473 -0.52499735 1.6975747 2045776
-1.3473777 -0.47502652 1.6974046 1783119
-1.3469856 -0.42472154 1.6977919 1848398
-1.3468753 -0.37515441 1.6976534 1717069
-1.346748 -0.32504913 1.6975434 1520204
-1.3466493 -0.27509663 1.6973786 1388363
-1.3465317 -0.22500861 1.69725 1257034
-1.3464206 -0.17507046 1.6971107 1389389
-1.3463098 -0.12514055 1.6969709 1455181
-1.3460789 -0.07405965 1.6970483 1322826
-1.345812 -0.025198521 1.6972101 1125447
-1.3456925 0.025310537 1.6970805 993349
-1.3455819 0.075223029 1.6969413 860737
-1.3330193 0.10997086 1.6887106 9211793
-1.2749965 0.11388893 1.6760135 10197915
-1.2252342 0.11391045 1.6766144 10197915
-1.1754487 0.1139323 1.6769363 10197915
-1.1252977 0.11395451 1.6771225 10197915
-1.0751318 0.11397634 1.6775844 10197915
-1.0252881 0.11399824 1.6779066 10197915
-0.97508198 0.11402044 1.678093 10197915
-0.92485499 0.11404233 1.6785555 10197915
-0.87495404 0.11406423 1.6788778 10197915
-0.82469273 0.11408645 1.6790649 10197915
-0.77475172 0.11410839 1.6793835 10197915
-0.72347188 0.11413992 1.6715226 10197915
-0.67505926 0.11416311 1.6700642 10197915
-0.62490189 0.11418492 1.6705673 10197915
-0.57495737 0.11420726 1.6705207 10197915
-0.52499175 0.114229 1.6710284 10197915
-0.47500709 0.11425074 1.6715312 10197915
-0.42500106 0.11427289 1.6716704 10197915
-0.37521023 0.11429476 1.6719854 10197915
-0.32516551 0.11431675 1.6723119 10197915
-0.27487281 0.11433863 1.672817 10197915
-0.22502492 0.1143609 1.6727681 10197915
-0.17492446 0.1143827 1.6732769 10197915
-0.12480514 0.11440451 1.6737813 10197915
-0.07489448 0.11442684 1.6737314 10197915
-0.024972158 0.11444835 1.6744224 10197915
0.024978535 0.11447028 1.6747437 10197915
0.074939147 0.11449261 1.6746945 10197915
0.12492634 0.11451417 1.6753854 10197915
0.17492893 0.11453653 1.6753362 10197915
0.22495082 0.11455808 1.6760281 10197915
0.27499536 0.11458045 1.6759789 10197915
0.32505199 0.11460202 1.6766708 10197915
0.37490368 0.11462413 1.6768035 10197915
0.42500111 0.11464612 1.6771303 10197915
0.47512195 0.11466812 1.6774473 10197915
0.5250262 0.11468983 1.6779556 10197915
0.57495177 0.11471216 1.6779031 10197915
0.62489313 0.11473367 1.6785972 10197915
0.67485654 0.11475582 1.6787299 10197915
0.72484219 0.11477758 1.6792395 10197915
0.77507108 0.11480003 1.6791908 10197915
0.82274115 0.11482526 1.6755723 10197915
0.87490207 0.11485466 1.6700016 10197915
0.92454761 0.11487632 1.6704578 10197915
0.97490817 0.11489856 1.6706433 9276813
1.0252854 0.11492053 1.6711007 2894892
1.0753378 0.1149425 1.6714202 2894892
1.1121813 0.11495551 1.6745334 2894892
-1.3317595 -0.76189733 1.7288818 2045776
-1.3339031 -0.72512013 1.7245811 1979726
-1.3336762 -0.67486775 1.7246563 1979983
-1.3333962 -0.62500614 1.7248331 2046032
-1.3333032 -0.57501554 1.724666 2046033
-1.333169 -0.52497208 1.7245641 1848911
-1.3330727 -0.47492066 1.7243958 1783119
-1.3326842 -0.42499083 1.7247806 1519691
-1.3325707 -0.37500605 1.724643 1322056
-1.3324348 -0.32497972 1.7245479 1388106
-1.3321657 -0.27486002 1.7247065 1520204
-1.3319168 -0.22500868 1.7248255 1323083
-1.3318553 -0.1749907 1.7245897 1389132
-1.331688 -0.12498092 1.7245576 1388875
-1.331574 -0.075113721 1.7244279 1322825
-1.3311527 -0.024995418 1.7248679 1190983
-1.3310347 0.025008576 1.724741 1059142
-1.3310666 0.074999064 1.7243301 860480
-1.3289639 0.10779392 1.7243549 8817037
-1.2750583 0.11383156 1.7282568 10197915
-1.2272792 0.11386009 1.7216833 10197915
-1.175174 0.11388717 1.7181818 10197915
-1.1252073 0.11390927 1.7183638 10197915
-1.0752254 0.11393102 1.7188435 10197915
-1.0252185 0.11395314 1.7190261 10197915
-0.97519958 0.11397493 1.7195057 10197915
-0.92515272 0.11399706 1.7196882 10197915
-0.87509692 0.11401887 1.7201686 10197915
-0.82536972 0.11404069 1.7204977 10197915
-0.77526838 0.11406285 1.7206806 10197915
-0.7251513 0.11408467 1.7211615 10197915
-0.67501009 0.11410683 1.7213442 10197915
-0.62485582 0.11412866 1.7218255 10197915
-0.57503289 0.11415054 1.7221552 10197915
-0.52483648 0.11417275 1.7223383 10197915
-0.47462127 0.11419461 1.7228197 10197915
-0.42474055 0.11421651 1.7231505 10197915
-0.3752023 0.11423842 1.7233247 10197915
-0.32528207 0.11426032 1.7236598 10197915
-0.27499253 0.11428222 1.7241418 10197915
-0.22503537 0.11430416 1.7244723 10197915
-0.17505892 0.11432607 1.7248032 10197915
-0.12506622 0.11434837 1.7248315 10197915
-0.075057387 0.11436997 1.7254658 10197915
-0.025023391 0.11439192 1.7257969 10197915
0.025029795 0.11441389 1.7261281 10197915
0.074740775 0.11443586 1.7263035 10197915
0.12447375 0.11445753 1.7267866 10197915
0.17494018 0.11447985 1.7269711 10197915
0.22542615 0.11450184 1.7274551 10197915
0.27521649 0.11452385 1.7276309 10197915
0.32502311 0.11454555 1.7281144 10197915
0.37521082 0.11456759 1.7284467 10197915
0.42505538 0.11458961 1.7286228 10197915
0.47492206 0.11461134 1.729107 10197915
0.5248062 0.11463338 1.7292831 10197915
0.57470965 0.11465513 1.7297676 10197915
0.62499332 0.1146772 1.7301004 10197915
0.67493194 0.11469927 1.7302768 10197915
0.72489583 0.11472102 1.7307621 10197915
0.77487403 0.11474314 1.7309384 10197915
0.82730043 0.11477303 1.7250123 10197915
0.8748939 0.11479879 1.7208784 10197915
0.92498243 0.11482032 1.7216089 10197915
0.97485417 0.11484245 1.7217333 10197915
1.0249799 0.1148644 1.7220688 6381921
1.0751293 0.11488642 1.7223935 2894892
1.1240158 0.1149065 1.7239667 2894892
1.1589947 0.11490498 1.7395571 2894892
-1.3097109 -0.77108425 1.7705514 1717581
-1.2996564 -0.77549416 1.7895517 1585996
-1.3103896 -0.72498089 1.7689382 1782861
-1.2995481 -0.72501928 1.7894027 1783374
-1.3101324 -0.67519426 1.7690834 1783117
-1.2994399 -0.67455286 1.7892536 1848910
-1.3101176 -0.62511593 1.7687622 1651533
-1.2996284 -0.62358081 1.7885417 1651533
-1.3100598 -0.57502246 1.7685214 1453899
-1.2992693 -0.57362396 1.7888689 1388106
-1.3099253 -0.52497351 1.7684176 1585997
-1.299113 -0.52493304 1.7888242 1520204
-1.3098292 -0.47493267 1.7682563 1585997
-1.2990117 -0.4749954 1.7886647 1388363
-1.3097198 -0.424945 1.7681102 1388106
-1.2989107 -0.42506692 1.7885058 1124422
-1.3096416 -0.3750315 1.7679071 1256264
-1.2988199 -0.37445894 1.7883226 1190727
-1.3098038 -0.32497901 1.7672511 1322569
-1.2989994 -0.32493523 1.7876369 1256776
-1.3095142 -0.27518585 1.7674483 1520460
-1.2989044 -0.27511132 1.7874676 1520460
-1.3092803 -0.2250248 1.7675421 1388875
-1.2987878 -0.22510405 1.7873377 1388874
-1.3092005 -0.17502163 1.7673359 1389131
-1.298679 -0.17473733 1.7871891 1323595
-1.3090584 -0.12502623 1.7672582 1257289
-1.2985661 -0.12493099 1.7870556 1257032
-1.309073 -0.075076379 1.7668819 1059911
-1.2985682 -0.074176848 1.7866961 1059654
-1.3091311 -0.024881713 1.7664168 1059655
-1.2984978 -0.024018425 1.7864773 1059654
-1.3090264 0.024878992 1.7662714 927556
-1.2982506 0.02516534 1.7866004 927555
-1.3089772 0.074907534 1.76601 794687
-1.2981554 0.075247332 1.786429 795457
-1.3087 0.10690941 1.7662506 8817037
-1.2854681 0.110736 1.784541 9606037
-1.2230386 0.11380386 1.774639 10197915
-1.1749949 0.11382731 1.7728002 10197915
-1.1250266 0.11384949 1.7729247 10197915
-1.0750403 0.11387114 1.7734834 10197915
-1.0250416 0.11389356 1.7733861 10197915
-0.97477257 0.11391541 1.7739507 10197915
-0.92472893 0.11393708 1.7745101 10197915
-0.87491053 0.11395943 1.7744089 10197915
-0.82507622 0.11398081 1.7751909 10197915
-0.77497339 0.114003 1.7753152 10197915
-0.7251004 0.11402488 1.7756494 10197915
-0.67520374 0.11404681 1.7759967 10197915
-0.62504548 0.11406855 1.776557 10197915
-0.57511503 0.11409095 1.7764564 10197915
-0.52647829 0.11411332 1.7758156 10197915
-0.47524118 0.11414685 1.7660949 10197915
-0.42520738 0.1141686 1.766596 10197915
-0.37551138 0.11419041 1.7669336 10197915
-0.32542959 0.11421257 1.767112 10197915
-0.27533519 0.11423436 1.7676134 10197915
-0.22521354 0.11425654 1.7677921 10197915
-0.17508197 0.11427833 1.768294 10197915
-0.12529024 0.11430019 1.7686321 10197915
-0.075113893 0.11432238 1.7688112 10197915
-0.024921389 0.11434421 1.7693136 10197915
0.024927743 0.11436609 1.7696515 10197915
0.075158834 0.11438831 1.7698308 10197915
0.12541237 0.11441015 1.7703338 10197915
0.17494965 0.11443209 1.7705035 10197915
0.2245058 0.11445366 1.7710066 10197915
0.27481693 0.11447588 1.7711859 10197915
0.32514438 0.11449779 1.7716894 10197915
0.37512755 0.11451972 1.7720288 10197915
0.42475799 0.11454166 1.772199 10197915
0.47478104 0.11456361 1.7725434 10197915
0.52518249 0.11458553 1.7730473 10197915
0.57524234 0.11460748 1.7733873 10197915
0.62495226 0.11462948 1.7735581 10197915
0.67467797 0.11465113 1.774062 10197915
0.72479492 0.11467311 1.7744025 10197915
0.77493143 0.1146951 1.7747427 10197915
0.82508063 0.11471745 1.7747539 10197915
0.87525225 0.1147391 1.7754234 10197915
0.92544663 0.11476112 1.7757643 10197915
0.97528976 0.11478318 1.7759356 10197915
1.0251487 0.11480484 1.7764407 10132122
1.0750319 0.11482687 1.7766119 3815994
1.124927 0.11484859 1.7771177 2894892
1.172183 0.1148672 1.7793705 2894892
-1.3140144 0.11369835 1.8337641 10197915
-1.2751781 0.11371975 1.8300425 10197915
-1.2249984 0.11374195 1.8302176 10197915
-1.1748013 0.11376376 1.8307508 10197915
-1.1249591 0.11378562 1.8311025 10197915
-1.0747249 0.11380783 1.8312778 10197915
-1.0248426 0.11382969 1.831624 10197915
-0.97532749 0.1138512 1.8321582 10197915
-0.92540818 0.11387309 1.8325102 10197915
-0.87509388 0.11389534 1.8326861 10197915
-0.82476103 0.11391722 1.8332204 10197915
-0.77478433 0.11393913 1.8335727 10197915
-0.72517234 0.11396106 1.833738 10197915
-0.67515582 0.11398297 1.8340963 10197915
-0.62474841 0.1140049 1.8346314 10197915
-0.57469463 0.11402684 1.8349842 10197915
-0.52323788 0.11405287 1.8321822 10197915
-0.47522303 0.11408342 1.8238668 10197915
-0.4251864 0.11410564 1.8239808 10197915
-0.37538666 0.11412747 1.8243235 10197915
-0.32531101 0.11414942 1.8246818 10197915
-0.27471772 0.11417163 1.825036 10197915
-0.22460417 0.1141933 1.8256233 10197915
-0.17519964 0.11421607 1.8249876 10197915
-0.12477292 0.11425021 1.8143854 10197915
-0.074801475 0.11427232 1.8145581 10197915
-0.024814103 0.11429403 1.8150814 10197915
0.024820399 0.11431581 1.8154268 10197915
0.074846044 0.11433792 1.8155998 10197915
0.12489402 0.11435968 1.8161237 10197915
0.17495969 0.11438183 1.8162971 10197915
0.22504458 0.11440361 1.8168211 10197915
0.27515021 0.11442576 1.8169945 10197915
0.32527196 0.11444753 1.8175189 10197915
0.37503999 0.11446937 1.8178654 10197915
0.4251999 0.11449155 1.8180393 10197915
0.47538269 0.11451336 1.8185645 10197915
0.52520794 0.11453521 1.8189114 10197915
0.57504892 0.11455746 1.8189018 10197915
0.62490559 0.11457893 1.8196052 10197915
0.67478788 0.11460079 1.819953 10197915
0.72468942 0.11462269 1.8203002 10197915
0.77498406 0.11464493 1.8204749 10197915
0.82530093 0.1146668 1.8210009 10197915
0.87487876 0.11468874 1.8211651 10197915
0.92447537 0.11471029 1.8216915 10197915
0.97485036 0.11473256 1.8218663 10197915
1.0252409 0.11475448 1.8223933 10197915
1.0752763 0.11477638 1.822741 7763574
1.124947 0.11479834 1.8229055 2894892
1.1746401 0.11481994 1.8234329 2894892
1.2131263 0.11483276 1.8273863 2894892
-1.3588289 0.11361714 1.8895181 10197915
-1.3248059 0.11364397 1.8789326 10197915
-1.2748517 0.11366607 1.8790997 10197915
-1.2248667 0.11368775 1.8796561 10197915
-1.1748725 0.11370988 1.879824 10197915
-1.124851 0.11373159 1.880381 10197915
-1.0748165 0.11375371 1.8805486 10197915
-1.0247574 0.11377543 1.8811061 10197915
-0.97468299 0.11379758 1.881274 10197915
-0.92458713 0.11381934 1.8818319 10197915
-0.87485886 0.11384112 1.882192 10197915
-0.82472992 0.1138633 1.8823605 10197915
-0.77457255 0.11388505 1.8829191 10197915
-0.72518152 0.11390691 1.8830751 10197915
-0.67537522 0.11392874 1.8834417 10197915
-0.62516862 0.11395053 1.8840008 10197915
-0.57532573 0.11397237 1.8843622 10197915
-0.52507627 0.1139946 1.8845311 10197915
-0.47480804 0.11401639 1.8850898 10197915
-0.42490745 0.11403828 1.8854517 10197915
-0.37460354 0.11406053 1.8856206 10197915
-0.32466286 0.11408242 1.8859764 10197915
-0.27510127 0.11410391 1.8865368 10197915
-0.22512397 0.11412581 1.886899 10197915
-0.17784348 0.11415114 1.883034 10197915
-0.12499928 0.11419719 1.8625623 10197915
-0.074857324 0.11421917 1.8629206 10197915
-0.025087835 0.1142412 1.8630863 10197915
0.025094276 0.11426318 1.8634448 10197915
0.074901901 0.11428479 1.8639913 10197915
0.12473706 0.11430686 1.8641571 10197915
0.17497019 0.11432845 1.864897 10197915
0.22522251 0.11435091 1.8648752 10197915
0.27511522 0.11437257 1.8654224 10197915
0.32501832 0.11439462 1.8655887 10197915
0.37494752 0.11441631 1.866136 10197915
0.42489058 0.1144384 1.8663024 10197915
0.47485626 0.1144601 1.8668503 10197915
0.52483934 0.1144822 1.8670168 10197915
0.57484144 0.11450391 1.8675649 10197915
0.62486446 0.11452605 1.8677317 10197915
0.67490315 0.11454777 1.8682804 10197915
0.72496641 0.1145699 1.8684473 10197915
0.77504182 0.11459167 1.8689961 10197915
0.82475376 0.11461345 1.8693515 10197915
0.87487096 0.11463562 1.8695185 10197915
0.92500734 0.11465739 1.870068 10197915
0.97477639 0.11467918 1.870424 10197915
1.0249478 0.11470141 1.8705918 10197915
1.075145 0.11472318 1.8711412 10197915
1.1249714 0.11474499 1.871497 4737096
1.1751965 0.1147672 1.8716646 2894892
1.2246753 0.1147887 1.8722092 2894892
1.2572167 0.11478934 1.8848717 2894892
-1.4035205 0.1135378 1.9436538 9934743
-1.3723515 0.11356424 1.93224 10000536
-1.325047 0.11358706 1.9306819 10132122
-1.2752973 0.11360863 1.931264 10197915
-1.2255275 0.11363066 1.9314227 10197915
-1.1749448 0.11365259 1.9320114 10197915
-1.1247365 0.11367458 1.9323853 10197915
-1.0749128 0.1136966 1.932544 10197915
-1.0250648 0.1137182 1.9331273 10197915
-0.97520155 0.11374029 1.9332864 10197915
-0.92531687 0.11376189 1.9338701 10197915
-0.87541336 0.113784 1.9340293 10197915
-0.82508773 0.11380602 1.9344037 10197915
-0.77515411 0.11382765 1.9349877 10197915
-0.72518492 0.11384932 1.9355723 10197915
-0.67481434 0.11387185 1.9355223 10197915
-0.62480652 0.11389351 1.9361072 10197915
-0.57664025 0.11391614 1.9350805 10197915
-0.52513403 0.11395188 1.9234594 10197915
-0.47502288 0.11397383 1.9238299 10197915
-0.42489263 0.11399578 1.9242008 10197915
-0.37474284 0.11401776 1.9245715 10197915
-0.32457384 0.11403973 1.9249424 10197915
-0.27518222 0.11406137 1.9253079 10197915
-0.22497471 0.11408336 1.9256786 10197915
-0.17035595 0.11411525 1.9188012 10197915
-0.12523815 0.11414135 1.913368 10197915
-0.075313337 0.11416321 1.9137348 10197915
-0.024979295 0.11418547 1.9138976 10197915
0.024985675 0.11420736 1.9142638 10197915
0.074966252 0.11422881 1.9150462 10197915
0.12495875 0.11425114 1.9149982 10197915
0.17498122 0.11427309 1.9153659 10197915
0.22502294 0.11429501 1.9157331 10197915
0.27507317 0.11431646 1.9165155 10197915
0.32514945 0.11433885 1.9164684 10197915
0.37524876 0.1143608 1.9168357 10197915
0.42496139 0.11438236 1.9174086 10197915
0.47470191 0.11440437 1.9175663 10197915
0.52485174 0.11442588 1.9183497 10197915
0.57502037 0.11444832 1.9183031 10197915
0.62521577 0.1144703 1.9186717 10197915
0.67502528 0.11449187 1.9192449 10197915
0.72485954 0.11451396 1.9194031 10197915
0.77470535 0.11453557 1.9199773 10197915
0.82497567 0.11455762 1.9203463 10197915
0.87526518 0.11457963 1.9207155 10197915
0.92516655 0.1146017 1.9208738 10197915
0.97509813 0.11462335 1.9214485 10197915
1.0250394 0.11464547 1.9216073 10197915
1.0750072 0.11466713 1.9221823 10197915
1.1249882 0.11468924 1.9223412 9079434
1.174992 0.11471087 1.9229158 2960685
1.2250136 0.11473302 1.9230751 2894892
1.271607 0.11475009 1.926455 2894892
-1.4199436 0.11348097 1.9887673 9014415
-1.3748031 0.11350499 1.9851997 9934743
-1.3282897 0.1135278 1.9832959 10066329
-1.2753445 0.11356375 1.9720708 10197915
-1.2249284 0.11358578 1.9724541 10197915
-1.1744922 0.11360788 1.9728378 10197915
-1.1248507 0.11362963 1.9732147 10197915
-1.0751901 0.11365134 1.9735922 10197915
-1.0246959 0.11367346 1.9739765 10197915
-0.97499722 0.11369525 1.974354 10197915
-0.9252792 0.11371703 1.9747319 10197915
-0.87472683 0.11373916 1.9751166 10197915
-0.82497036 0.11376087 1.9754945 10197915
-0.775195 0.11378267 1.9758728 10197915
-0.72458416 0.11380482 1.9762578 10197915
-0.6747703 0.11382665 1.9766365 10197915
-0.62493718 0.11384846 1.9770154 10197915
-0.57198644 0.11387597 1.9734848 10197915
-0.52479053 0.11390748 1.9640088 10197915
-0.47483626 0.11392959 1.9641601 10197915
-0.42487839 0.1139512 1.9647633 10197915
-0.37448433 0.1139733 1.9651438 10197915
-0.32447639 0.11399543 1.9652953 10197915
-0.2748591 0.11401667 1.9661219 10197915
-0.22522995 0.11403885 1.9660442 10197915
-0.17516093 0.11406058 1.9666481 10197915
-0.12508586 0.11408268 1.9668003 10197915
-0.074980102 0.11410437 1.9674047 10197915
-0.024864666 0.11412659 1.9675571 10197915
0.024870984 0.11414836 1.9679322 10197915
0.075024903 0.11417006 1.968537 10197915
0.1252076 0.11419231 1.9686898 10197915
0.17499295 0.11421359 1.9695181 10197915
0.22479716 0.11423591 1.9694417 10197915
0.27462816 0.11425772 1.9698176 10197915
0.32488009 0.11427947 1.9704235 10197915
0.37515709 0.1143017 1.9705762 10197915
0.42504188 0.11432309 1.971406 10197915
0.47493768 0.11434542 1.9713296 10197915
0.52486426 0.11436727 1.9717066 10197915
0.57521468 0.11438908 1.9723133 10197915
0.6251775 0.11441091 1.9726905 10197915
0.67474329 0.11443291 1.9728379 10197915
0.72474623 0.11445482 1.9732151 10197915
0.77516985 0.11447661 1.9738225 10197915
0.82520932 0.11449855 1.9742005 10197915
0.87485486 0.11452053 1.9743483 10197915
0.92493439 0.11454243 1.9747262 10197915
0.97502148 0.11456389 1.9755583 10197915
1.0251356 0.11458635 1.9754826 10197915
1.0752727 0.11460831 1.9758611 10197915
1.1250093 0.11462979 1.9764636 10197915
1.1747744 0.11465181 1.976612 6645093
1.2249604 0.11467326 1.9774446 2894892
1.2751673 0.11469575 1.9773693 2894892
1.3154778 0.11470807 1.982523 2894892
-1.4593415 0.11342034 2.0279386 1059140
-1.425083 0.11343534 2.0282063 5990003
-1.3749331 0.11345728 2.0285985 9934743
-1.3204572 0.11348909 2.0217605 10000536
-1.2745649 0.11351717 2.0148528 10132122
-1.2247162 0.11353898 2.01524 10197915
-1.1752717 0.11356087 2.0153775 10197915
-1.1253835 0.1135827 2.0157726 10197915
-1.0750678 0.11360446 2.016402 10197915
-1.0251427 0.11362632 2.0167899 10197915
-0.97478616 0.1136486 2.0169427 10197915
-0.9244079 0.11367039 2.0175722 10197915
-0.87484372 0.11369235 2.0177107 10197915
-0.82526177 0.11371377 2.018342 10197915
-0.77524054 0.11373565 2.0187306 10197915
-0.72478914 0.11375802 2.0188837 10197915
-0.6747275 0.11377992 2.0192647 10197915
-0.62507313 0.1138014 2.019897 10197915
-0.57497472 0.1138233 2.0202863 10197915
-0.52485693 0.11384524 2.0206754 10197915
-0.4751465 0.11386727 2.0208147 10197915
-0.42540556 0.11388876 2.0214481 10197915
-0.37481877 0.11391117 2.0216022 10197915
-0.32462206 0.11393316 2.0219839 10197915
-0.27483353 0.11395464 2.0226178 10197915
-0.2246 0.11397662 2.0230076 10197915
-0.17476904 0.11399872 2.0231473 10197915
-0.124919 0.11402025 2.023782 10197915
-0.075047851 0.11404233 2.023922 10197915
-0.025161682 0.11406393 2.0245569 10197915
0.025168153 0.11408594 2.0249476 10197915
0.075092658 0.11410805 2.0250876 10197915
0.12504047 0.11412963 2.0257235 10197915
0.17500526 0.11415178 2.0258639 10197915
0.22498935 0.11417338 2.0264997 10197915
0.27499449 0.11419553 2.0266404 10197915
0.32501477 0.11421715 2.0272765 10197915
0.37506026 0.1142393 2.0274172 10197915
0.42511711 0.11426094 2.0280542 10197915
0.47520295 0.11428314 2.0281951 10197915
0.52529615 0.11430478 2.0288322 10197915
0.57499623 0.11432654 2.0292184 10197915
0.62471509 0.11434828 2.0296044 10197915
0.67486757 0.11437051 2.0297458 10197915
0.72504753 0.11439218 2.0303836 10197915
0.77524042 0.11441445 2.030525 10197915
0.82503784 0.11443624 2.0309122 10197915
0.8748461 0.11445749 2.0317957 10197915
0.92467314 0.11447982 2.0316858 10197915
0.97495109 0.11450156 2.0323246 10197915
1.0252379 0.11452382 2.0324667 10197915
1.0751306 0.11454566 2.0328543 10197915
1.125038 0.11456695 2.0337391 10197915
1.1749564 0.11458936 2.0336294 10197915
1.2249061 0.11461119 2.0340171 4276545
1.2752928 0.11463293 2.0346568 2894892
1.325279 0.11465482 2.0350449 2894892
1.3543669 0.11466432 2.0382068 2894892
-1.5062075 0.11333324 2.0882554 1059140
-1.4727376 0.11336321 2.0745814 993347
-1.4250541 0.11338566 2.0735099 2768467
-1.3750638 0.11340782 2.0736489 10000536
-1.3250649 0.11342939 2.0743101 9934743
-1.275466 0.11345109 2.074707 10066329
-1.2254217 0.11347327 2.0748458 10197915
-1.1753612 0.11349486 2.0755076 10197915
-1.1252764 0.11351706 2.0756466 10197915
-1.0751791 0.11353868 2.0763087 10197915
-1.0250539 0.11356089 2.0764482 10197915
-0.97491962 0.11358254 2.0771108 10197915
-0.92518651 0.11360428 2.0775084 10197915
-0.87500775 0.11362651 2.0776484 10197915
-0.82481104 0.11364816 2.0783112 10197915
-0.77502036 0.11366995 2.0787094 10197915
-0.72478795 0.11369219 2.0788493 10197915
-0.6745289 0.11371391 2.0795133 10197915
-0.62511545 0.1137358 2.0796375 10197915
-0.57524616 0.1137576 2.0800452 10197915
-0.5249396 0.11377931 2.0807092 10197915
-0.47503388 0.11380116 2.0811086 10197915
-0.42510909 0.11382297 2.0815077 10197915
-0.37474176 0.11384531 2.0816488 10197915
-0.32477632 0.11386716 2.0820394 10197915
-0.27523252 0.11388852 2.0827065 10197915
-0.22523095 0.11391041 2.0831063 10197915
-0.17521028 0.11393227 2.0835063 10197915
-0.1247483 0.11395463 2.083648 10197915
-0.074687034 0.11397654 2.084039 10197915
-0.025683986 0.11401356 2.0702524 10197915
0.024865951 0.11403679 2.0696216 10197915
0.074610516 0.11405855 2.0700164 10197915
0.12437408 0.11408032 2.0704114 10197915
0.17501518 0.11410248 2.0708137 10197915
0.22567584 0.11412464 2.0712159 10197915
0.27549711 0.11414642 2.0716114 10197915
0.32533732 0.11416823 2.0720069 10197915
0.37519658 0.11419003 2.0724027 10197915
0.42507496 0.11421184 2.0727987 10197915
0.47497237 0.11423369 2.0731947 10197915
0.52488887 0.11425551 2.073591 10197915
0.57482457 0.11427738 2.0739877 10197915
0.62477922 0.1142992 2.0743842 10197915
0.67475295 0.11432105 2.0747807 10197915
0.72474581 0.11434293 2.0751774 10197915
0.77475798 0.11436482 2.0755749 10197915
0.82478911 0.11438669 2.0759718 10197915
0.87483937 0.11440859 2.0763693 10197915
0.92490894 0.11443049 2.0767667 10197915
0.9749974 0.11445239 2.0771642 10197915
1.0251054 0.1144743 2.0775619 10197915
1.0752324 0.11449625 2.07796 10197915
1.1253786 0.11451818 2.0783582 10197915
1.1755443 0.11454012 2.0787563 10197915
1.2257286 0.11456206 2.0791547 8092539
1.2750665 0.11458362 2.0795457 2894892
1.3244233 0.11460521 2.0799375 2894892
1.3717605 0.11463419 2.0727568 2894892
-1.5176041 0.11329339 2.1198857 1059140
-1.4748132 0.11331208 2.1202359 993090
-1.4250187 0.11333386 2.1206431 5134952
-1.3752052 0.11335564 2.1210504 10000536
-1.3244979 0.11337781 2.1214652 9934743
-1.2746459 0.11339962 2.1218734 10000536
-1.2247746 0.11342141 2.1222811 10197915
-1.1748838 0.1134432 2.1226888 10197915
-1.1249741 0.113465 2.1230974 10197915
-1.0750452 0.11348685 2.1235058 10197915
-1.0250971 0.11350869 2.1239147 10197915
-0.97512972 0.11353054 2.1243234 10197915
-0.92514306 0.11355239 2.124732 10197915
-0.87513733 0.11357424 2.1251409 10197915
-0.82511199 0.11359612 2.12555 10197915
-0.77506769 0.11361798 2.1259594 10197915
-0.72500396 0.11363988 2.1263692 10197915
-0.67492098 0.11366178 2.1267788 10197915
-0.62481874 0.11368367 2.1271887 10197915
-0.57469708 0.11370556 2.1275983 10197915
-0.52543598 0.11372711 2.1280015 10197915
-0.4752762 0.11374903 2.1284113 10197915
-0.42509696 0.11377098 2.1288221 10197915
-0.37489828 0.11379292 2.1292326 10197915
-0.32468051 0.11381488 2.1296437 10197915
-0.27532455 0.11383645 2.1300468 10197915
-0.22506811 0.1138584 2.1304584 10197915
-0.17479238 0.11388039 2.1308696 10197915
-0.12537973 0.11390201 2.1312737 10197915
-0.075065352 0.113924 2.131685 10197915
-0.024546666 0.11396361 2.1161463 10197915
0.024992405 0.11398558 2.1162682 10197915
0.074985668 0.11400681 2.1172338 10197915
0.12498922 0.11402929 2.1170802 10197915
0.17502515 0.11405116 2.1174862 10197915
0.22508034 0.11407307 2.1178923 10197915
0.27514169 0.11409433 2.1188593 10197915
0.32523075 0.11411683 2.1187053 10197915
0.37490287 0.11413825 2.1193891 10197915
0.42458728 0.11416028 2.1195118 10197915
0.47473833 0.11418221 2.1199191 10197915
0.5248999 0.11420354 2.120887 10197915
0.57508051 0.11422608 2.120734 10197915
0.62528926 0.11424803 2.1211412 10197915
0.67506903 0.11426949 2.1218255 10197915
0.72487438 0.11429157 2.1219492 10197915
0.77469003 0.11431305 2.1226342 10197915
0.8249737 0.11433504 2.1230426 10197915
0.87527621 0.11435703 2.1234512 10197915
0.92514688 0.11437915 2.1235752 10197915
0.97504967 0.11440065 2.1242611 10197915
1.0249606 0.11442278 2.1243854 10197915
1.0748993 0.11444428 2.1250718 10197915
1.1248509 0.11446645 2.125196 10197915
1.1748254 0.114488 2.1258833 10197915
1.2248175 0.11451017 2.1260078 10197915
1.2748277 0.1145317 2.1266949 5000268
1.3248595 0.11455386 2.1268187 2894892
1.3749058 0.11457544 2.1275065 2894892
1.4159623 0.11458677 2.1338553 2894892
-1.5639569 0.11320829 2.1785929 993604
-1.5250902 0.11323576 2.1693885 993347
-1.4750448 0.11325761 2.1698081 2636368
-1.4249804 0.11327948 2.1702271 9474451
-1.3749069 0.11330204 2.1700437 10000536
-1.324807 0.11332325 2.1710649 10000536
-1.2746845 0.11334516 2.1714847 9934743
-1.224992 0.1133672 2.1715939 10132122
-1.1752836 0.11338861 2.1723173 10197915
-1.1251029 0.11341052 2.1727376 10197915
-1.0753583 0.1134326 2.172847 10197915
-1.0255877 0.11345401 2.1735711 10197915
-0.97490549 0.11347648 2.1736987 10197915
-0.92464501 0.11349846 2.1741083 10197915
-0.87482792 0.11351986 2.1748326 10197915
-0.82453114 0.11354184 2.1752534 10197915
-0.77466488 0.11356396 2.1753638 10197915
-0.72478521 0.11358543 2.1760886 10197915
-0.67487818 0.11360759 2.176198 10197915
-0.62496245 0.11362906 2.1769242 10197915
-0.57456893 0.11365104 2.177345 10197915
-0.52460909 0.11367323 2.1774561 10197915
-0.47463074 0.11369473 2.1781828 10197915
-0.42463043 0.11371692 2.1782928 10197915
-0.37461594 0.11373843 2.179019 10197915
-0.32457492 0.11376065 2.1791296 10197915
-0.27452412 0.11378217 2.1798575 10197915
-0.22489716 0.11380385 2.1802731 10197915
-0.17525116 0.11382554 2.1806874 10197915
-0.12514518 0.11384777 2.1808 10197915
-0.075005956 0.11386936 2.1815279 10197915
-0.024859155 0.11389159 2.1816392 10197915
0.024865478 0.11391333 2.1820555 10197915
0.075050779 0.11393492 2.1827826 10197915
0.12407237 0.11397251 2.1684866 10197915
0.17503589 0.11399726 2.1666477 10197915
0.22444738 0.11401886 2.167058 10197915
0.2747764 0.11404084 2.1674764 10197915
0.32512483 0.11406285 2.1678946 10197915
0.37549272 0.11408485 2.1683123 10197915
0.42497998 0.11410647 2.1687233 10197915
0.4744862 0.11412811 2.1691349 10197915
0.5249117 0.11415016 2.1695535 10197915
0.57535684 0.11417221 2.1699727 10197915
0.62491995 0.11419387 2.1703844 10197915
0.67450202 0.11421552 2.1707957 10197915
0.72500473 0.11423759 2.1712153 10197915
0.77552718 0.11425968 2.1716349 10197915
0.82516623 0.11428136 2.1720476 10197915
0.87482435 0.11430307 2.1724601 10197915
0.92540461 0.11432518 2.1728802 10197915
0.9751007 0.11434688 2.1732924 10197915
1.0248156 0.11436861 2.1737053 10197915
1.0754539 0.11439072 2.1741264 10197915
1.1252071 0.11441249 2.1745396 10197915
1.1749791 0.11443423 2.174953 10197915
1.2247701 0.11445601 2.1753666 10197915
1.27458 0.11447777 2.1757801 9342606
1.3253148 0.11449992 2.1762013 2894892
1.3751627 0.11452169 2.176615 2894892
1.4250298 0.11454346 2.1770291 2894892
1.4558654 0.11455694 2.1772852 2894892
-1.6042604 0.11314451 2.2203732 993604
-1.5750015 0.11315727 2.2206235 993347
-1.5246986 0.11317927 2.221055 1058625
-1.4752914 0.11320084 2.2214785 8290951
-1.4249496 0.11322282 2.2219102 10000536
-1.374589 0.11324482 2.2223415 10000536
-1.3251244 0.11326642 2.2227654 10000536
-1.2756408 0.11328803 2.2231898 9934743
-1.2252216 0.11331004 2.2236216 10000536
-1.1747828 0.11333209 2.2240541 10197915
-1.125242 0.11335371 2.2244785 10197915
-1.0756823 0.11337536 2.2249031 10197915
-1.0251855 0.11339742 2.2253363 10197915
-0.97466898 0.11341947 2.2257693 10197915
-0.92505163 0.11344114 2.2261941 10197915
-0.87541538 0.11346281 2.2266195 10197915
-0.82484055 0.1134849 2.2270529 10197915
-0.77424622 0.113507 2.2274868 10197915
-0.72455215 0.11352871 2.2279127 10197915
-0.67483944 0.11355042 2.2283387 10197915
-0.62510753 0.11357213 2.2287648 10197915
-0.57535666 0.11359383 2.2291911 10197915
-0.52558666 0.11361558 2.2296178 10197915
-0.47579783 0.11363732 2.2300444 10197915
-0.42506716 0.11365949 2.2304795 10197915
-0.37431684 0.11368165 2.2309139 10197915
-0.32446998 0.11370343 2.2313414 10197915
-0.27460393 0.11372519 2.2317686 10197915
-0.22471885 0.11374698 2.2321963 10197915
-0.17481463 0.11376878 2.2326238 10197915
-0.1248913 0.11379057 2.2330518 10197915
-0.074948832 0.11381239 2.23348 10197915
-0.024987198 0.11383421 2.2339079 10197915
0.024993585 0.11385604 2.2343364 10197915
0.074993528 0.11387787 2.2347648 10197915
0.12582421 0.11391853 2.2183621 10197915
0.17504707 0.1139411 2.2177894 10197915
0.22516878 0.11396267 2.2185352 10197915
0.27485311 0.11398434 2.2189558 10197915
0.3250083 0.11400661 2.2190642 10197915
0.37519243 0.11402817 2.2198102 10197915
0.4253884 0.11405043 2.2199183 10197915
0.4756088 0.11407204 2.2206633 10197915
0.52492398 0.11409394 2.220752 10197915
0.57472491 0.11411569 2.2211874 10197915
0.62499076 0.11413728 2.2219338 10197915
0.67482746 0.11415905 2.2223575 10197915
0.72468328 0.11418082 2.2227819 10197915
0.77501398 0.11420317 2.2228901 10197915
0.82536882 0.11422481 2.2236376 10197915
0.87528199 0.11424661 2.2240624 10197915
0.92474085 0.11426857 2.2241518 10197915
0.97469485 0.1142904 2.2245884 10197915
1.0251217 0.11431206 2.2253361 10197915
1.0751112 0.11433391 2.2257607 10197915
1.1251197 0.11435574 2.2261858 10197915
1.1751382 0.1143783 2.2259607 10197915
1.2251799 0.11439944 2.2270372 10197915
1.2752461 0.11442133 2.2274632 10197915
1.325331 0.11444318 2.2278891 6447714
1.3749626 0.1144652 2.2279789 2894892
1.4246224 0.11448651 2.2287321 2894892
1.4718188 0.11450379 2.2321954 2894892
1.5043522 0.11450206 2.247014 2894892
-1.6547879 0.11304235 2.2929354 927042
-1.6214948 0.11307348 2.2780547 927298
-1.5753518 0.1130977 2.2747378 1058882
-1.5252268 0.11311921 2.2755282 5858159
-1.4750757 0.11314149 2.2756186 10000536
-1.4249144 0.113163 2.2764094 10000536
-1.3747225 0.1131853 2.2764995 10000536
-1.3249891 0.11320625 2.277637 10000536
-1.2752397 0.11322869 2.2773726 10000536
-1.2254602 0.11325044 2.2778099 9934743
-1.1751989 0.11327199 2.2786014 10132122
-1.1249131 0.11329433 2.2786927 10197915
-1.0746152 0.11331589 2.2794847 10197915
-1.024761 0.11333767 2.2799227 10197915
-0.97536302 0.11335959 2.2800055 10197915
-0.92500198 0.1133812 2.2807989 10197915
-0.87632394 0.11340453 2.2793281 10197915
-0.82505524 0.11344521 2.263072 10197915
-0.77551234 0.11346684 2.2635036 10197915
-0.72501498 0.11348888 2.2639437 10197915
-0.67449814 0.11351095 2.2643836 10197915
-0.62489772 0.11353259 2.2648151 10197915
-0.57527816 0.11355425 2.2652473 10197915
-0.52470303 0.11357632 2.2656879 10197915
-0.4750455 0.11359802 2.2661202 10197915
-0.42536885 0.11361971 2.2665529 10197915
-0.37473541 0.11364181 2.266994 10197915
-0.32502058 0.11366351 2.2674272 10197915
-0.27528647 0.11368522 2.2678599 10197915
-0.2245947 0.11370735 2.2683015 10197915
-0.17482243 0.11372909 2.2687349 10197915
-0.12503105 0.11375082 2.2691686 10197915
-0.075220771 0.11377256 2.2696025 10197915
-0.025391301 0.11379432 2.2700365 10197915
0.025397893 0.11381649 2.2704792 10197915
0.07526572 0.11383825 2.2709129 10197915
0.12515277 0.11386003 2.2713473 10197915
0.17505878 0.11388183 2.2717822 10197915
0.22498399 0.11390363 2.272217 10197915
0.27492827 0.11392543 2.2726519 10197915
0.32489178 0.11394724 2.273087 10197915
0.37487417 0.11396906 2.2735219 10197915
0.42487597 0.11399089 2.2739577 10197915
0.47489676 0.11401273 2.2743933 10197915
0.5249368 0.11403459 2.2748289 10197915
