# .PCD v0.7 - Point Cloud Data file format
VERSION 0.7
FIELDS x y z rgb
SIZE 4 4 4 4
TYPE F F F U
COUNT 1 1 1 1
WIDTH 1170
HEIGHT 1
VIEWPOINT 0 0 0 1 0 0 0
POINTS 1170
DATA ascii
-1.4752625 0.10493056 2.507715 10132122
-1.424974 0.10489959 2.5069752 10197915
-1.374715 0.10486867 2.5062358 10197915
-1.3244857 0.10483772 2.5054967 10197915
-1.2720281 0.10478219 2.5097795 10197915
-1.2246754 0.10467166 2.5267704 10197915
-1.1751332 0.10464119 2.5260346 10197915
-1.1256198 0.10461073 2.5252998 10197915
-1.0756189 0.10458219 2.5240736 10197915
-1.0256369 0.10454923 2.5238154 10197915
-0.97515899 0.1045182 2.5230658 10197915
-0.92468429 0.10438271 2.5450187 10197915
-0.87487239 0.10435211 2.5442724 10197915
-0.82508957 0.10432152 2.5435266 10197915
-0.77533603 0.10429094 2.5427811 10197915
-0.72455382 0.10425974 2.5420203 10197915
-0.67485887 0.10422921 2.541276 10197915
-0.6251933 0.10419869 2.5405319 5197647
-0.57450104 0.10416754 2.5397727 2894892
-0.524894 0.10413706 2.5390291 2894892
-0.47531626 0.10410661 2.5382867 2894892
-0.42471337 0.10407551 2.5375283 2894892
-0.37519398 0.10404508 2.5367866 2894892
-0.32570374 0.10401467 2.5360451 2894892
-0.27519023 0.10398363 2.5352886 2894892
-0.2247069 0.10395261 2.5345318 2894892
-0.17425364 0.10392161 2.5337763 2894892
-0.12488056 0.10389127 2.5330365 2894892
-0.075536482 0.10386097 2.5322974 2894892
-0.025172159 0.10383001 2.5315428 2894892
0.025162168 0.10379907 2.5307887 2894892
0.075466521 0.10376819 2.5300353 2894892
0.10856102 0.10333795 2.5258963 2894892
0.11270515 -1.1549594 2.5909085 2894892
0.11272562 -1.1251076 2.5913789 2894892
0.11275997 -1.0749772 2.5921686 2894892
0.11279426 -1.0248152 2.592957 2894892
0.11282857 -0.97462291 2.5937457 2894892
0.11286219 -0.9254685 2.5945182 2894892
0.11289653 -0.87521559 2.5953081 2894892
0.11293092 -0.82493216 2.5960984 2894892
0.11296457 -0.77568895 2.5968721 2894892
0.112999 -0.7253446 2.5976632 2894892
0.11303636 -0.67091352 2.5859869 2894892
0.11306749 -0.6256029 2.574429 2894892
0.11309914 -0.57946521 2.5666404 2894892
0.11313694 -0.52444655 2.5522211 2894892
0.11317081 -0.47489318 2.5529852 2894892
0.11320471 -0.4253099 2.5537498 2894892
0.11323936 -0.37464103 2.5545313 2894892
0.11327331 -0.32499787 2.5552967 2894892
0.11330726 -0.27532467 2.5560629 2894892
0.11334196 -0.22456408 2.5568457 2894892
0.11337595 -0.1748309 2.5576127 2894892
0.11340997 -0.12506764 2.5583804 2894892
0.11344403 -0.075274751 2.5591481 2894892
0.11347807 -0.025451729 2.5599165 2894892
0.1135129 0.025462128 2.5607018 2894892
0.11354699 0.075345464 2.561471 2894892
-2.0183241 0.10505468 2.5614023 6513507
-1.9743088 0.10502765 2.5607429 6513507
-1.9249519 0.10499731 2.5600038 6513507
-1.8756235 0.10496701 2.5592649 6513507
-1.8252529 0.10493604 2.5585101 6513507
-1.7749112 0.10490512 2.5577559 6513507
-1.7256694 0.10487486 2.5570185 6513507
-1.6753869 0.10484397 2.5562651 6513507
-1.6251335 0.1048131 2.555512 6513507
-1.5749102 0.10478225 2.5547597 3487029
-1.5247161 0.10475139 2.554008 6316128
-1.4745513 0.10472057 2.5532563 10132122
-1.4226811 0.10459042 2.5738418 10197915
-1.3751773 0.10455094 2.5753727 10197915
-1.3251826 0.10452254 2.5741146 10197915
-1.2766945 0.1044829 2.5755286 10197915
-1.225312 0.10435046 2.5966904 10197915
-1.175482 0.10431989 2.5959301 10197915
-1.125681 0.10428935 2.59517 10197915
-1.0759094 0.10425883 2.5944107 10197915
-1.025086 0.10422767 2.5936353 10197915
-0.97429234 0.10419653 2.59286 10197915
-0.92460924 0.10416605 2.5921023 10197915
-0.87495524 0.10413562 2.5913448 10197915
-0.82532996 0.10410519 2.5905874 10197915
-0.77573377 0.10407476 2.5898302 10197915
-0.72508955 0.10404373 2.5890577 10197915
-0.67447525 0.10401268 2.5882857 10197915
-0.62496716 0.10398234 2.5875304 3289650
-0.57548797 0.10395199 2.5867748 2894892
-0.52496308 0.10392102 2.5860038 2894892
-0.47446814 0.10389005 2.5852342 2894892
-0.42507672 0.10385976 2.58448 2894892
-0.37571412 0.1038295 2.5837269 2894892
-0.32530823 0.10379858 2.582958 2894892
-0.27493209 0.10376771 2.5821891 2894892
-0.22565694 0.10373749 2.5814371 2894892
-0.17534034 0.10370664 2.5806696 2894892
-0.12505345 0.10367579 2.5799024 2894892
-0.074796647 0.10364499 2.5791352 2894892
-0.0245695 0.1036142 2.5783691 2894892
0.024559975 0.10358407 2.5776196 2894892
0.074727885 0.1035533 2.5768542 2894892
0.10844304 0.10312282 2.5727444 2894892
0.11269732 -1.1652678 2.6410341 2894892
0.11272568 -1.1239722 2.6416986 2894892
0.11275989 -1.0739547 2.6425004 2894892
0.11279336 -1.024995 2.6432848 2894892
0.11282685 -0.97600579 2.6440699 2894892
0.11286113 -0.92589825 2.6448722 2894892
0.11289539 -0.87576014 2.6456754 2894892
0.11292968 -0.82559144 2.6464791 2894892
0.11296401 -0.77539235 2.6472836 2894892
0.11299835 -0.72516286 2.6480885 2894892
0.11303269 -0.67490274 2.6488936 2894892
0.11306485 -0.62789309 2.6496468 2894892
0.11310971 -0.56339371 2.6002085 2894892
0.11313614 -0.52473497 2.6008162 2894892
0.11316992 -0.47531244 2.6015928 2894892
0.11320447 -0.42478493 2.6023867 2894892
0.11323903 -0.37422678 2.6031814 2894892
0.11327286 -0.32471436 2.6039596 2894892
0.11330676 -0.27517226 2.6047382 2894892
0.11334064 -0.22560063 2.6055174 2894892
0.11337528 -0.17492054 2.6063137 2894892
0.11340995 -0.12420966 2.6071105 2894892
0.1134439 -0.074547619 2.6078913 2894892
0.11347789 -0.02485582 2.6086719 2894892
0.11351186 0.024865741 2.6094537 2894892
0.11354589 0.07461711 2.6102355 2894892
-2.0626838 0.10486388 2.609467 6513507
-2.0243943 0.10484041 2.6088829 6513507
-1.9740951 0.10480957 2.6081154 6513507
-1.9249177 0.10477941 2.6073651 6513507
-1.8757694 0.1047493 2.6066151 6513507
-1.8255577 0.1047185 2.6058493 6513507
-1.7753755 0.10468772 2.6050832 6513507
-1.7252228 0.10465698 2.6043181 6513507
-1.6751 0.10462625 2.6035535 6513507
-1.625006 0.10459552 2.6027889 5263440
-1.5749414 0.10456482 2.602025 2039583
-1.5223727 0.10450657 2.6068797 8487297
-1.4750783 0.10439336 2.6244657 10132122
-1.4284312 0.10428296 2.6415339 10197915
-1.3745635 0.10421658 2.6479568 10197915
-1.3248104 0.10418617 2.6471837 10197915
-1.2750866 0.10415573 2.6464105 10197915
-1.224288 0.10412464 2.6456206 10197915
-1.174623 0.10409427 2.6448488 10197915
-1.1249868 0.10406389 2.6440771 10197915
-1.0742775 0.10403286 2.6432884 10197915
-1.0246998 0.10400254 2.6425178 10197915
-0.97515124 0.10397223 2.6417472 10197915
-0.92453134 0.10394125 2.6409609 10197915
-0.87504083 0.10391098 2.6401916 10197915
-0.82557946 0.10388072 2.6394224 10197915
-0.77504861 0.10384978 2.6386368 10197915
-0.72454786 0.10381889 2.6378517 10197915
-0.67517388 0.10378867 2.637084 8618883
-0.6258288 0.1037585 2.6363168 2894892
-0.57541662 0.10372764 2.6355333 2894892
-0.52503455 0.10369682 2.6347501 2894892
-0.47468242 0.10366601 2.6339669 2894892
-0.42436019 0.10363521 2.6331849 2894892
-0.37406781 0.10360444 2.6324031 2894892
-0.32489756 0.10357437 2.6316388 2894892
-0.27575606 0.10354429 2.6308749 2894892
-0.22555187 0.10351358 2.6300943 2894892
-0.17537747 0.10348286 2.6293142 2894892
-0.12523285 0.1034522 2.6285348 2894892
-0.075117931 0.10342155 2.6277556 2894892
-0.025032714 0.10339089 2.6269772 2894892
0.025022833 0.10336026 2.626199 2894892
0.075048737 0.10332967 2.625421 2894892
0.10832063 0.10289957 2.6213634 2894892
0.11267103 -1.2025681 2.6927032 2894892
0.11269 -1.1748757 2.693157 2894892
0.11272433 -1.1250099 2.6939771 2894892
0.11275845 -1.0751116 2.6947923 2894892
0.1127926 -1.0251828 2.6956084 2894892
0.11282675 -0.9752239 2.6964242 2894892
0.11286092 -0.92523479 2.6972413 2894892
0.11289512 -0.87521529 2.6980586 2894892
0.11292932 -0.82516551 2.6988761 2894892
0.11296128 -0.77842522 2.6996398 2894892
0.11308203 -0.6027382 2.6500494 2894892
0.11310148 -0.57429075 2.6505053 2894892
0.11313515 -0.52503389 2.6512947 2894892
0.11316885 -0.47574741 2.6520844 2894892
0.11320333 -0.4253355 2.6528916 2894892
0.11323781 -0.37489277 2.6536999 2894892
0.1132723 -0.32441941 2.6545086 2894892
0.11330608 -0.27501357 2.6552999 2894892
0.11333988 -0.2255781 2.6560922 2894892
0.11337445 -0.17501363 2.6569021 2894892
0.11340903 -0.12441836 2.6577127 2894892
0.1134429 -0.074893162 2.6585062 2894892
0.11347678 -0.025338186 2.6593003 2894892
0.11351143 0.025348498 2.6601119 2894892
0.11354534 0.074963145 2.660907 2894892
-2.107625 0.10466512 2.659353 6513507
-2.0752833 0.10464534 2.65885 6513507
-2.0251205 0.10461464 2.6580703 6513507
-1.974987 0.10458396 2.6572909 6513507
-1.9248825 0.1045533 2.6565118 6513507
-1.8748081 0.10452268 2.6557341 6513507
-1.8247625 0.10449205 2.6549556 6513507
-1.7747461 0.10446145 2.6541777 6513507
-1.7247595 0.10443086 2.6534011 6513507
-1.6748019 0.1044003 2.6526239 6513507
-1.6248734 0.10436974 2.6518476 2565927
-1.5749742 0.10433923 2.6510725 2500134
-1.5284278 0.10431074 2.6503489 9868950
-1.4248716 0.10401329 2.699625 10197915
-1.3752604 0.103983 2.6988394 10197915
-1.325678 0.10395274 2.6980536 10197915
-1.2749989 0.10392179 2.6972506 10197915
-1.2243496 0.10389087 2.6964478 10197915
-1.1748552 0.10386065 2.6956639 10197915
-1.1253895 0.10383046 2.6948798 10197915
-1.0748295 0.10379959 2.6940789 10197915
-1.0242993 0.10376874 2.6932786 10197915
-0.97492105 0.10373861 2.6924958 10197915
-0.92557144 0.10370848 2.6917143 10197915
-0.87513018 0.10367769 2.6909153 10197915
-0.82471853 0.1036469 2.6901159 10197915
-0.77545625 0.10361684 2.6893353 10197915
-0.72510386 0.10358609 2.6885378 10197915
-0.67478138 0.1035554 2.6877403 6316128
-0.62560612 0.10352536 2.6869612 2894892
-0.57534266 0.10349467 2.6861646 2894892
-0.52510887 0.10346401 2.6853693 2894892
-0.47490501 0.10343337 2.6845734 2894892
-0.42473066 0.10340273 2.6837788 2894892
-0.37458631 0.10337212 2.6829841 2894892
-0.32447135 0.10334153 2.6821899 2894892
-0.27549884 0.10331163 2.6814137 2894892
-0.22544277 0.10328107 2.6806207 2894892
-0.17541608 0.10325053 2.6798282 2894892
-0.12541914 0.10322002 2.6790357 2894892
-0.075451568 0.10318951 2.6782444 2894892
-0.025513733 0.10315903 2.6774528 2894892
0.025503462 0.10312786 2.6766448 2894892
0.075381897 0.10309744 2.6758547 2894892
0.1081935 0.10266769 2.671855 2894892
0.11266233 -1.2142493 2.7468896 2894892
0.11268954 -1.1747016 2.7475519 2894892
0.11272354 -1.1249571 2.7483816 2894892
0.11275759 -1.0751821 2.7492113 2894892
0.11278234 -1.0389643 2.749815 2894892
0.11297879 -0.752819 2.700058 2894892
0.11299782 -0.72497475 2.7005129 2894892
0.11303211 -0.67483383 2.7013323 2894892
0.11306639 -0.62466264 2.7021523 2894892
0.11309996 -0.57557678 2.7029538 2894892
0.11313428 -0.52534497 2.7037749 2894892
0.11316865 -0.47508299 2.7045958 2894892
0.11320304 -0.42479026 2.7054176 2894892
0.11323745 -0.37446716 2.7062397 2894892
0.11327111 -0.32523263 2.7070444 2894892
0.11330554 -0.27484876 2.7078674 2894892
0.11334001 -0.22443442 2.7086909 2894892
0.11337373 -0.17511068 2.709497 2894892
0.11340746 -0.12575755 2.7103031 2894892
0.113442 -0.075252257 2.7111285 2894892
0.11347654 -0.024716437 2.7119539 2894892
0.11351034 0.024726249 2.7127614 2894892
0.11354416 0.074198395 2.7135699 2894892
-2.1531804 0.10445789 2.7111647 6513507
-2.1247482 0.10444055 2.7107143 6513507
-2.0747294 0.10441001 2.7099221 6513507
-2.0247388 0.10437949 2.70913 6513507
-1.9747779 0.10434899 2.7083383 6513507
-1.9248462 0.10431851 2.7075472 6513507
-1.8749433 0.10428806 2.7067566 6513507
-1.8250695 0.10425759 2.705966 6513507
-1.7752254 0.10422719 2.7051766 6513507
-1.7254097 0.10419676 2.7043869 6513507
-1.6756237 0.10416638 2.7035983 4210752
-1.6258664 0.10413598 2.70281 2039583
-1.5750084 0.10410494 2.7020042 4737096
-1.5241805 0.10407391 2.7011988 10066329
-1.4745116 0.10404358 2.7004118 10132122
-1.2599845 0.10366961 2.7498417 10197915
-1.225561 0.10364863 2.7492855 10197915
-1.1750966 0.10361791 2.7484701 10197915
-1.1246622 0.1035872 2.7476552 10197915
-1.0742576 0.10355649 2.746841 10197915
-1.0250274 0.1035265 2.7460456 10197915
-0.97582573 0.10349653 2.7452509 10197915
-0.92550945 0.10346591 2.7444379 10197915
-0.87522274 0.10343526 2.7436259 10197915
-0.82496589 0.10340466 2.7428138 10197915
-0.77473885 0.10337407 2.7420022 10197915
-0.72454137 0.10334349 2.7411916 10197915
-0.67437375 0.10331295 2.740381 4013373
-0.62423557 0.1032824 2.7395709 2894892
-0.57412714 0.10325188 2.7387617 2894892
-0.52404827 0.10322139 2.7379522 2894892
-0.47399899 0.1031909 2.7371438 2894892
-0.42397928 0.10316043 2.736336 2894892
-0.37398911 0.10313001 2.735528 2894892
-0.32402846 0.10309958 2.7347212 2894892
-0.2740972 0.10306916 2.7339144 2894892
-0.22419544 0.10303876 2.7331085 2894892
-0.17432313 0.10300839 2.7323029 2894892
-0.12448015 0.10297804 2.7314973 2894892
-0.074666582 0.1029477 2.7306929 2894892
-0.024882341 0.10291738 2.7298884 2894892
0.024872579 0.10288706 2.7290845 2894892
0.074598216 0.1028568 2.7282815 2894892
0.10806142 0.10242674 2.7243309 2894892
0.11279935 -1.0140545 2.7502306 2894892
0.1128257 -0.97554207 2.7508721 2894892
0.11285977 -0.92567706 2.7517033 2894892
0.11289389 -0.8757816 2.7525349 2894892
0.11292803 -0.82585627 2.7533669 2894892
0.11296217 -0.77590048 2.7541997 2894892
0.11299635 -0.72591466 2.7550333 2894892
0.11303053 -0.67589855 2.7558668 2894892
-1.6601118 -0.62311333 2.7597408 2039583
-1.6258438 -0.62312508 2.759795 4671303
-1.5755824 -0.62314373 2.7598751 11711154
-1.5253184 -0.62316233 2.7599571 11711154
-1.4750514 -0.62317991 2.7600393 11711154
-1.4247811 -0.62319887 2.7601171 11711154
-1.3745077 -0.62321645 2.7601976 11711154
-1.3242314 -0.62323481 2.7602773 11711154
-1.2750386 -0.62320191 2.7603581 11711154
-1.2259042 -0.62332052 2.7604411 11711154
-1.1756719 -0.62328875 2.7605178 11711154
-1.125384 -0.62330681 2.7605977 11711154
-1.0750935 -0.62332529 2.7606812 11711154
-1.0247999 -0.62334371 2.7607591 11711154
-0.97450316 -0.62336141 2.7608407 11711154
-0.92420387 -0.62337989 2.7609222 11711154
-0.87504488 -0.62339789 2.7610016 11711154
-0.82588297 -0.62341541 2.7610788 11711154
-0.7806685 -0.62344593 2.7667713 10658466
0.11306477 -0.62585217 2.7567008 2894892
-1.6599103 -0.57339472 2.7599699 2039583
-1.6256753 -0.574238 2.7600214 4671303
-1.5757117 -0.57402545 2.7601044 11711154
-1.5254431 -0.57404226 2.760186 11711154
-1.4751717 -0.57405877 2.7602627 11711154
-1.4248976 -0.57407588 2.7603431 11711154
-1.3746204 -0.57409197 2.7604249 11711154
-1.3243401 -0.57410955 2.7605059 11711154
-1.274057 -0.57412547 2.7605872 11711154
-1.2249136 -0.57414222 2.760663 11711154
-1.1757677 -0.57415873 2.7607429 11711154
-1.1254758 -0.57417583 2.7608259 11711154
-1.0751816 -0.57419199 2.7609069 11711154
-1.0248836 -0.57420915 2.760987 11711154
-0.97458285 -0.5742259 2.7610643 11711154
-0.92427957 -0.57424265 2.761147 11711154
-0.87511641 -0.5742591 2.761229 11711154
-0.82595086 -0.57427543 2.7613075 11711154
-0.78067505 -0.57448477 2.7669108 10592673
0.11309899 -0.57577533 2.7575357 2894892
-1.6592408 -0.52487314 2.7601936 2039583
-1.6249677 -0.52488387 2.7602525 4802889
-1.5758406 -0.52489865 2.7603266 11711154
-1.5255675 -0.52491409 2.7604084 11711154
-1.4752927 -0.52492946 2.760488 11711154
-1.4250143 -0.52494454 2.7605705 11711154
-1.3747326 -0.52495998 2.7606514 11711154
-1.3244483 -0.52497536 2.7607307 11711154
-1.2741612 -0.52499086 2.7608132 11711154
-1.2250137 -0.52500588 2.7608922 11711154
-1.1758637 -0.52502072 2.7609713 11711154
-1.1255684 -0.5250361 2.7610507 11711154
-1.0752693 -0.52505147 2.7611294 11711154
-1.0249673 -0.52506691 2.7612114 11711154
-0.97466272 -0.52508217 2.7612894 11711154
-0.92435479 -0.52509761 2.7613735 11711154
-0.87409705 -0.52506346 2.7614541 11711154
-0.82493138 -0.52517968 2.7615311 11711154
-0.7805692 -0.5251599 2.7672348 10526880
0.11313324 -0.52566838 2.7583706 2894892
-1.6593766 -0.47574106 2.7604201 2039583
-1.6248316 -0.47554275 2.7604744 4868682
-1.5757186 -0.47596684 2.7605524 11711154
-1.5256925 -0.47577783 2.7606344 11711154
-1.4754132 -0.47579199 2.7607155 11711154
-1.425131 -0.47580588 2.760797 11711154
-1.3748451 -0.47581959 2.7608788 11711154
-1.3245569 -0.47583371 2.760956 11711154
-1.2742654 -0.47584739 2.76104 11711154
-1.2248986 -0.47568467 2.7611167 11711154
-1.1757598 -0.47604641 2.7611954 11711154
-1.1256607 -0.47588864 2.7612765 11711154
-1.075357 -0.47590241 2.7613578 11711154
-1.0250512 -0.47591636 2.7614388 11711154
-0.97474241 -0.47593004 2.7615173 11711154
-0.92443043 -0.47594416 2.7615993 11711154
-0.874116 -0.47595814 2.7616801 11711154
-0.82494205 -0.47597173 2.7617571 11711154
-0.78072327 -0.47576872 2.7672179 10592673
0.11316752 -0.47553092 2.7592065 2894892
-1.6595154 -0.42545778 2.7606504 2039583
-1.6240934 -0.42546642 2.760709 2631720
-1.5749586 -0.42547873 2.7607865 7171437
-1.5258204 -0.42549092 2.7608638 11250603
-1.4755366 -0.42550325 2.7609446 11711154
-1.4252501 -0.4255158 2.7610288 11711154
-1.3749605 -0.42552823 2.7611077 11711154
-1.3246679 -0.42554086 2.7611887 11711154
-1.2743721 -0.42555276 2.7612681 11711154
-1.2240738 -0.42556533 2.7613492 11711154
-1.1749151 -0.42557791 2.7614262 11711154
-1.1257539 -0.42558983 2.761507 11711154
-1.0754477 -0.42560241 2.7615881 11711154
-1.0251373 -0.42561486 2.7616696 11711154
-0.97482413 -0.42562705 2.76175 11711154
-0.92450786 -0.42563948 2.7618294 11711154
-0.8741889 -0.42565197 2.7619119 11711154
-0.82501078 -0.42566448 2.761992 11711154
-0.78079212 -0.42552802 2.7673774 10592673
0.11320183 -0.42536309 2.7600427 2894892
-1.6590099 -0.37588918 2.7608795 2039583
-1.6242303 -0.37517402 2.7609375 2039583
-1.5749822 -0.3750858 2.7610188 2039583
-1.5258484 -0.3752901 2.7610934 2960685
-1.4756604 -0.37520644 2.7611773 10724259
-1.4253691 -0.37521726 2.7612584 11711154
-1.3750758 -0.37522826 2.7613368 11711154
-1.3247784 -0.37523901 2.7614181 11711154
-1.2744793 -0.37525025 2.761502 11711154
-1.2241762 -0.37526122 2.7615836 11711154
-1.1750138 -0.37527198 2.7616594 11711154
-1.1258487 -0.37528265 2.7617345 11711154
-1.0755372 -0.37529376 2.7618189 11711154
-1.0252234 -0.37530425 2.7619014 11711154
-0.97490555 -0.37531558 2.7619817 11711154
-0.92458576 -0.37532634 2.7620621 11711154
-0.87426239 -0.37533748 2.7621419 11711154
-0.82508004 -0.37534827 2.7622237 11711154
-0.78080261 -0.37528288 2.7674706 10592673
0.11323611 -0.3751649 2.7608793 2894892
-1.658651 -0.32486641 2.7611144 2039583
-1.6243654 -0.32487282 2.7611692 2039583
-1.5740792 -0.3248823 2.7612541 2039583
-1.524933 -0.32489154 2.7613277 2039583
-1.4757833 -0.32490098 2.761409 6776679
-1.4254886 -0.32491067 2.7614911 7829367
-1.3751904 -0.32491997 2.7615697 8026746
-1.3248897 -0.32492918 2.7616506 8158332
-1.2745862 -0.32493889 2.7617319 8355711
-1.2242786 -0.32494852 2.761811 8158332
-1.1750579 -0.32490575 2.7618923 10658466
-1.1258932 -0.32501659 2.7619689 11711154
-1.0756273 -0.32497644 2.7620506 11711154
-1.0253088 -0.32498583 2.7621324 11711154
-0.97498733 -0.32499555 2.762213 11711154
-0.92466271 -0.32500494 2.7622919 11711154
-0.87433553 -0.32501408 2.7623761 11711154
-0.82487971 -0.32481557 2.7624567 11711154
-0.7806381 -0.32526755 2.7676749 10592673
0.11327047 -0.32493627 2.7617166 2894892
-1.6587898 -0.27455792 2.7613459 2039583
-1.6245021 -0.2745634 2.7614021 2039583
-1.5742112 -0.27457133 2.7614806 2039583
-1.5250608 -0.27457917 2.7615585 2039583
-1.4759067 -0.27458715 2.7616408 5789784
-1.4256076 -0.27459505 2.7617221 6513507
-1.3753057 -0.27460304 2.7618003 6513507
-1.3250004 -0.27461126 2.7618802 6513507
-1.2746929 -0.27461907 2.7619641 6513507
-1.2243812 -0.27462712 2.7620418 5789784
-1.1740674 -0.27463534 2.7621253 6776679
-1.1248938 -0.27464306 2.7622032 8618883
-1.0757176 -0.27465081 2.7622821 8750469
-1.0253949 -0.27465889 2.762362 8882055
-0.97506922 -0.27466688 2.7624433 9013641
-0.92474008 -0.27467495 2.762521 9145227
-0.87440836 -0.27468327 2.7626069 9276813
-0.82407451 -0.27469113 2.7626879 9408399
-0.7798146 -0.2747803 2.7680268 8882055
0.11330483 -0.2746771 2.7625542 2894892
-1.6589274 -0.22424097 2.7615771 2039583
-1.6246382 -0.22424549 2.7616308 2039583
-1.574343 -0.22425193 2.7617137 2039583
-1.5242455 -0.224087 2.7617939 2039583
-1.4751029 -0.22444169 2.7618701 4147282
-1.4257276 -0.22427136 2.7619526 5725023
-1.3754212 -0.22427803 2.7620358 6513507
-1.325112 -0.22428454 2.7621145 6513507
-1.2747992 -0.22429103 2.7621956 6513507
-1.2244838 -0.22429772 2.7622724 2894892
-1.1741655 -0.22430423 2.7623553 5329233
-1.1249881 -0.22431064 2.7624354 6513507
-1.0758078 -0.22431698 2.7625132 6513507
-1.025481 -0.22432347 2.7625942 6513507
-0.97515076 -0.22433011 2.7626741 6513507
-0.92481786 -0.2243368 2.7627556 6513507
-0.8744821 -0.22434318 2.7628379 6513507
-0.82414377 -0.22434981 2.7629182 6513507
-0.77988034 -0.22452204 2.7681463 6513507
0.11333921 -0.22438745 2.7633929 2894892
-1.6590639 -0.17505957 2.7618032 2039583
-1.6247709 -0.17506281 2.761857 2039583
-1.5744715 -0.17506799 2.7619374 2039583
-1.5241703 -0.17507324 2.7620199 2039583
-1.4750082 -0.17507841 2.7620997 4214107
-1.4258437 -0.17508344 2.7621775 4020855
-1.3755333 -0.17508839 2.7622576 6513507
-1.3252196 -0.17509343 2.7623408 6513507
-1.2749038 -0.17509858 2.7624199 6513507
-1.2245845 -0.17510378 2.7625015 2171169
-1.1742617 -0.17510901 2.7625804 5329233
-1.12508 -0.17511381 2.7626603 6513507
-1.0758961 -0.17511897 2.7627394 6513507
-1.0255643 -0.17512408 2.7628202 6513507
-0.97523159 -0.17512918 2.7629025 6513507
-0.92489284 -0.17513399 2.7629852 6513507
-0.87455517 -0.17513946 2.7630653 6513507
-0.82421005 -0.17514467 2.7631447 6513507
-0.77974319 -0.17508908 2.7684627 6513507
0.11337359 -0.1740673 2.7642317 2894892
-1.6592 -0.12586997 2.7620294 2039583
-1.6249045 -0.12587249 2.7620838 2039583
-1.5746007 -0.12587617 2.7621634 2039583
-1.524295 -0.12587982 2.7622461 2039583
-1.4748074 -0.12564881 2.7623298 5331812
-1.4256588 -0.12611686 2.7624025 4614024
-1.3756459 -0.12589073 2.7624853 6447714
-1.3253279 -0.12589443 2.7625659 6513507
-1.2750074 -0.12589812 2.7626467 6513507
-1.224684 -0.1259018 2.7627251 2171169
-1.174358 -0.1259055 2.7628102 5329233
-1.1244847 -0.1256272 2.7628901 6513507
-1.0753198 -0.12619701 2.7629659 6513507
-1.0256487 -0.12591632 2.763047 6513507
-0.97531027 -0.12592004 2.763128 6513507
-0.92496955 -0.12592371 2.7632096 6513507
-0.87462467 -0.12592739 2.763288 6513507
-0.82427901 -0.12593105 2.7633698 6513507
-0.77995372 -0.12565511 2.7684903 6513507
0.11340725 -0.12486137 2.7650518 2894892
-1.6593388 -0.075528175 2.7622604 2039583
-1.6250398 -0.075529635 2.7623158 2039583
-1.5747327 -0.075531937 2.7623947 2039583
-1.5244222 -0.07553412 2.7624769 2039583
-1.4741092 -0.075536199 2.7625592 5200485
-1.4249361 -0.075538471 2.7626369 3693698
-1.3757615 -0.075540647 2.7627139 6513507
-1.3254395 -0.075542837 2.7628005 6513507
-1.2751142 -0.075545043 2.7628808 6513507
-1.2247871 -0.075547323 2.7629573 2171169
-1.1744553 -0.075549424 2.7630413 5329233
-1.1241229 -0.075551637 2.7631187 6513507
-1.0749308 -0.075553834 2.7632012 6513507
-1.0257341 -0.075556017 2.7632761 6513507
-0.97539073 -0.07555823 2.7633562 6513507
-0.92504627 -0.075560451 2.7634382 6513507
-0.874699 -0.075562596 2.7635195 6513507
-0.82434928 -0.075564876 2.7636008 6513507
-0.78002203 -0.075512663 2.7684643 6513507
0.11344088 -0.075625993 2.7658725 2894892
-1.6594774 -0.025177939 2.7624927 2039583
-1.6251763 -0.025178418 2.7625473 2039583
-1.574864 -0.025179183 2.762629 2039583
-1.5245501 -0.025179904 2.7627089 2039583
-1.4742326 -0.025180643 2.7627881 5134692
-1.4250569 -0.025181357 2.7628703 3233918
-1.3758765 -0.025182061 2.7629476 6513507
-1.3255502 -0.025182817 2.7630293 6513507
-1.2752211 -0.025183544 2.7631063 6513507
-1.22489 -0.025184268 2.7631927 2171169
-1.1745549 -0.025185009 2.7632716 5329233
-1.124217 -0.025185721 2.7633517 6513507
-1.0750203 -0.025186481 2.7634304 6513507
-1.0258209 -0.025187213 2.7635095 6513507
-0.97547442 -0.025187936 2.7635939 6513507
-0.92512411 -0.025188686 2.7636714 6513507
-0.87477291 -0.025189424 2.7637498 6513507
-0.82441616 -0.025190173 2.763833 6513507
-0.77997369 -0.025235223 2.768759 6513507
0.11347537 -0.025215475 2.7667122 2894892
-1.6596168 0.025180733 2.762723 2039583
-1.6253121 0.025181249 2.762779 2039583
-1.5749962 0.025181977 2.7628603 2039583
-1.524678 0.025182718 2.7629404 2039583
-1.4743552 0.025183434 2.7630198 5134435
-1.4244869 0.025466165 2.763103 2904440
-1.3753279 0.02490052 2.76318 6513507
-1.3256621 0.02518563 2.7632604 6513507
-1.2753284 0.025186324 2.7633381 6513507
-1.2249916 0.025187125 2.763423 2171169
-1.1746529 0.025187811 2.7635031 5592405
-1.1243107 0.025188603 2.7635853 6776679
-1.0751109 0.025189299 2.7636631 6842472
-1.0259067 0.025190014 2.7637451 6842472
-0.97555876 0.02519075 2.7638199 6842472
-0.92520237 0.025191514 2.7639017 6842472
-0.87484556 0.025192235 2.7639847 6842472
-0.82448548 0.025192972 2.7640634 6842472
-0.78001064 0.02523681 2.7688911 6908265
0.11350985 0.025225686 2.7675531 2894892
-1.6597564 0.075547859 2.762955 2039583
-1.6254482 0.075549364 2.7630086 2039583
-1.5751284 0.075551495 2.7630908 2039583
-1.5248057 0.075553775 2.76317 2829099
-1.4744792 0.075555921 2.7632518 8488071
-1.4241507 0.075558111 2.7633333 8292498
-1.3749624 0.075560376 2.7634127 9671571
-1.3257716 0.075562581 2.7634902 9671571
-1.2754349 0.075564735 2.763572 9671571
-1.2250942 0.075566977 2.7636535 9671571
-1.1747521 0.07556916 2.7637336 10132122
-1.1244069 0.075571358 2.7638147 10197915
-1.0743057 0.075776778 2.7638969 10197915
-1.0251169 0.07536725 2.7639709 10197915
-0.97563875 0.07557793 2.764055 10197915
-0.92527831 0.07558009 2.7641335 10197915
-0.87491906 0.0755824 2.7642171 10197915
-0.82455564 0.075584605 2.7642946 10197915
-0.7801373 0.075524151 2.7688675 10197915
0.11354435 0.075697511 2.7683945 2894892
-2.1750216 0.10422691 2.7646236 6513507
-2.1251523 0.10419653 2.7638183 6513507
-2.0753119 0.10416618 2.7630136 6513507
-2.0255003 0.10413584 2.7622087 6513507
-1.9745606 0.10410481 2.7613852 6513507
-1.9248078 0.10407452 2.760582 6513507
-1.875084 0.10404422 2.759778 6513507
-1.8253891 0.10401398 2.7589755 6513507
-1.7757232 0.10398373 2.7581732 6513507
-1.7249318 0.1039528 2.7573526 5658198
-1.6710497 0.10335886 2.7583513 2039583
-1.6256328 0.10288677 2.7594404 2039583
-1.5751204 0.10287283 2.7590716 6052956
-1.524622 0.10285887 2.7587028 10066329
-1.4747084 0.10282308 2.7584608 10132122
-1.4248158 0.10283173 2.7579839 10197915
-1.374927 0.10283922 2.7574775 10197915
-1.3250568 0.10280385 2.7572465 10197915
-1.278685 0.10256393 2.758693 10197915
-1.2251483 0.10190486 2.7637739 10197915
-1.1748028 0.10190786 2.7638555 10197915
-1.1244544 0.10191084 2.763936 10197915
-1.0741029 0.10191382 2.7640164 10197915
-1.0248928 0.10191673 2.7640955 10197915
-0.97568011 0.10191966 2.7641745 10197915
-0.92532003 0.10192263 2.7642553 10197915
-0.87495703 0.10192562 2.7643368 10197915
-0.82459074 0.1019286 2.7644179 10197915
-0.77351612 0.10218523 2.7780933 10197915
-0.72511971 0.10309191 2.7959676 9079434
-0.67511207 0.10306153 2.7951441 2894892
-0.62513423 0.10303116 2.7943201 2894892
-0.57518548 0.10300081 2.7934971 2894892
-0.52526647 0.10297049 2.7926748 2894892
-0.47537658 0.10294019 2.7918527 2894892
-0.42551631 0.10290989 2.7910306 2894892
-0.37452671 0.10287891 2.7901912 2894892
-0.32472551 0.10284866 2.789371 2894892
-0.27495387 0.10281841 2.7885504 2894892
-0.22521123 0.10278819 2.7877307 2894892
-0.17549805 0.10275798 2.786911 2894892
-0.12465887 0.10272711 2.7860734 2894892
-0.075004533 0.10269693 2.7852559 2894892
-0.02537957 0.10266678 2.7844379 2894892
0.025369417 0.10263593 2.7836015 2894892
0.074935697 0.10260582 2.7827847 2894892
0.10711876 0.10251615 2.7803524 2894892
0.11263584 -1.2517674 2.8028669 2894892
0.11265404 -1.2252568 2.8033199 2894892
0.112688 -1.1756717 2.8041651 2894892
0.11272272 -1.1249017 2.8050289 2894892
0.11275664 -1.0752556 2.8058734 2894892
0.11279061 -1.0255793 2.8067186 2894892
0.11282539 -0.97471714 2.8075838 2894892
0.11285938 -0.92498046 2.8084302 2894892
0.1128934 -0.87521362 2.8092763 2894892
0.11292746 -0.82541704 2.8101237 2894892
0.11296152 -0.77559012 2.8109713 2894892
0.11299639 -0.72457355 2.8118391 2894892
0.1130305 -0.67468601 2.8126876 2894892
-0.76905417 -0.62367308 2.8255122 6513507
0.11306462 -0.62476814 2.8135366 2894892
-0.76902038 -0.57518351 2.8253088 6513507
0.11309877 -0.5748204 2.8143864 2894892
-0.76898563 -0.52506638 2.825341 6513507
0.11313293 -0.5248422 2.815237 2894892
-0.7689507 -0.47494653 2.8249702 6513507
0.11316713 -0.474834 2.8160875 2894892
-0.76891583 -0.42483571 2.8250036 6513507
0.11320133 -0.42479545 2.8169386 2894892
-0.7688809 -0.37495872 2.8247151 6513507
0.11323556 -0.3747268 2.8177905 2894892
-0.76884705 -0.32509384 2.8249118 6513507
0.11326981 -0.32462761 2.8186426 2894892
-0.76881129 -0.27476075 2.8244617 6513507
0.11330408 -0.27449834 2.8194957 2894892
-0.76877695 -0.22466552 2.8244934 6513507
0.11333758 -0.22550552 2.820329 2894892
-0.76874173 -0.17480931 2.8241239 6513507
0.11337189 -0.17531602 2.8211825 2894892
-0.76870787 -0.12495831 2.824403 6513507
0.11340622 -0.12509637 2.8220372 2894892
-0.76867259 -0.074648865 2.823952 6513507
0.11344058 -0.074846052 2.822892 2894892
-0.76863784 -0.024568971 2.8239834 6513507
0.11347495 -0.024565533 2.8237476 2894892
-0.76860714 0.025837908 2.8265634 6513507
0.11350852 0.024575222 2.8245831 2894892
-0.76857561 0.074787609 2.8279822 10197915
0.11354294 0.074916266 2.8254397 2894892
-2.2214158 0.10400099 2.8206234 6513507
-2.1740723 0.10397223 2.8198435 6513507
-2.1243899 0.10394205 2.8190248 6513507
-2.0747364 0.10391188 2.8182065 6513507
-2.0251114 0.10388173 2.8173888 6513507
-1.9755151 0.1038516 2.8165715 6513507
-1.9259481 0.10382149 2.8157547 6513507
-1.8752307 0.10379067 2.8149192 6513507
-1.8245426 0.10375989 2.8140838 6513507
-1.7750629 0.10372981 2.8132684 6513507
-1.7256119 0.10369977 2.8124537 2631720
-1.6997192 0.10368404 2.812027 2039583
-0.76856411 0.10149755 2.832361 10197915
-0.52416551 0.10270791 2.8495893 2894892
-0.47562689 0.1026785 2.8487732 2894892
-0.42593297 0.10264838 2.8479373 2894892
-0.37508628 0.10261758 2.8470824 2894892
-0.32426971 0.10258677 2.8462281 2894892
-0.27466458 0.10255671 2.8453944 2894892
-0.22508852 0.10252666 2.8445606 2894892
-0.17554143 0.10249664 2.8437276 2894892
-0.12484484 0.1024659 2.8428755 2894892
-0.074178435 0.10243522 2.8420236 2894892
-0.024719711 0.10240523 2.8411915 2894892
0.024710074 0.10237529 2.8403604 2894892
0.075286694 0.10234464 2.8395104 2894892
0.10811853 0.10224684 2.8367968 2894892
0.11262608 -1.2649683 2.8616266 2894892
0.11265358 -1.2249579 2.8623252 2894892
0.11268739 -1.175506 2.8631842 2894892
0.11272202 -1.1248457 2.8640642 2894892
0.11275666 -1.0741545 2.8649447 2894892
0.11279054 -1.0246117 2.8658051 2894892
0.11282443 -0.97503936 2.8666666 2894892
0.11285833 -0.92543721 2.8675277 2894892
0.11289226 -0.87580508 2.8683901 2894892
0.11292703 -0.82496029 2.8692729 2894892
0.11296179 -0.77408439 2.8701565 2894892
0.1129958 -0.72436124 2.8710206 2894892
0.11302981 -0.67460823 2.8718846 2894892
-0.7691316 -0.62368071 2.8739049 6381921
0.11306383 -0.62482524 2.8727491 2894892
-0.76909804 -0.5750376 2.873816 6513507
0.11309788 -0.57501227 2.8736148 2894892
-0.76906306 -0.52500939 2.8736863 6513507
0.11313196 -0.52516925 2.8744802 2894892
-0.76902813 -0.4749867 2.8732014 6513507
0.11316606 -0.47529611 2.8753467 2894892
-0.76899397 -0.42497241 2.8734257 6513507
0.11320017 -0.4253931 2.8762133 2894892
-0.76895905 -0.37495753 2.873296 6381921
0.11323432 -0.37545988 2.8770809 2894892
-0.76892376 -0.32494727 2.873167 4934475
0.11326846 -0.32549652 2.8779483 2894892
-0.76888925 -0.27514154 2.87293 3223857
0.11330265 -0.27550304 2.8788168 2894892
-0.7688548 -0.22514091 2.8728015 3026478
0.11333685 -0.22547939 2.8796856 2894892
-0.76882011 -0.17514729 2.8725972 3026478
0.11337105 -0.17542554 2.8805554 2894892
-0.76878524 -0.12515801 2.8724718 3026478
0.11340529 -0.12534145 2.8814249 2894892
-0.76875031 -0.074973308 2.8725169 3026478
0.11343955 -0.075227082 2.8822956 2894892
-0.7687158 -0.024990104 2.8723881 3026478
0.11347383 -0.02508243 2.8831668 2894892
-0.76868588 0.023924224 2.8748224 2960685
0.11350814 0.025092537 2.8840382 2894892
-0.76865327 0.075079009 2.8765819 9276813
0.11354245 0.075297847 2.8849101 2894892
-2.2697277 0.10376575 2.8789387 6513507
-2.2250166 0.10373865 2.8781867 6513507
-2.1754987 0.10370866 2.8773541 6513507
-2.1248028 0.10367791 2.8765018 6513507
-2.0741372 0.10364721 2.8756499 6513507
-2.0247064 0.10361727 2.8748186 6513507
-1.9753042 0.10358732 2.8739879 6513507
-1.924727 0.10355668 2.873138 6513507
-1.8741798 0.10352605 2.8722878 6513507
-1.8248641 0.10349616 2.8714588 6513507
-1.7755779 0.10346629 2.87063 3881787
-1.7419341 0.10344591 2.8700645 2039583
-0.76268351 0.10225202 2.8623743 10197915
-0.72453433 0.10282934 2.852958 6710886
-0.67469442 0.10279913 2.8521206 2894892
-0.62488365 0.10276894 2.8512826 2894892
-0.57510215 0.10273878 2.8504455 2894892
-0.54903656 0.10272297 2.8500071 2894892
-0.0036042749 0.10212048 2.8999567 2894892
0.025224205 0.10210305 2.8994617 2894892
0.07565254 0.10207258 2.8985963 2894892
0.10797355 0.10197923 2.8959453 2894892
0.11259847 -1.3039629 2.9224503 2894892
0.11261831 -1.2751284 2.9229648 2894892
0.11265285 -1.2246444 2.923862 2894892
0.11268739 -1.1741285 2.9247582 2894892
0.11272112 -1.124786 2.9256337 2894892
0.11275487 -1.0754133 2.9265096 2894892
0.11278945 -1.0248063 2.927408 2894892
0.11282407 -0.97416794 2.9283061 2894892
0.1128579 -0.92470551 2.9291837 2894892
0.11289174 -0.87521309 2.9300618 2894892
0.1129264 -0.82448286 2.9309621 2894892
0.11296026 -0.77493066 2.9318411 2894892
0.11299419 -0.72534841 2.9327207 2894892
0.11302891 -0.6745261 2.9336224 2894892
-0.76921183 -0.62360758 2.9239144 6513507
0.11306286 -0.62488383 2.9345033 2894892
-0.76917791 -0.57488304 2.9237893 6513507
0.11309683 -0.57521158 2.9353848 2894892
-0.76914346 -0.52495825 2.9238374 6513507
0.11313163 -0.52429682 2.9362881 2894892
-0.7691083 -0.47503009 2.9234359 6513507
0.11316563 -0.47456431 2.9371705 2894892
-0.7690739 -0.42511123 2.9234841 5592405
0.11319964 -0.42480159 2.9380534 2894892
-0.7690388 -0.37519163 2.9231722 3421236
0.11323367 -0.37500927 2.9389369 2894892
-0.76900494 -0.32504237 2.9233961 2894892
0.11326773 -0.3251867 2.939821 2894892
-0.76896936 -0.27513516 2.9229052 2894892
0.11330181 -0.27533442 2.9407058 2894892
-0.76893485 -0.22523138 2.9229562 2894892
0.11333591 -0.22545186 2.9415905 2894892
-0.7688998 -0.17509058 2.9225526 2894892
0.11337005 -0.17553949 2.9424758 2894892
-0.76886588 -0.12495524 2.9228685 2894892
0.11340418 -0.12559687 2.943362 2894892
-0.76883048 -0.075314105 2.9223759 2894892
0.11343917 -0.074405029 2.9442706 2894892
-0.76879621 -0.025425462 2.9224281 2894892
0.11347333 -0.024401678 2.9451575 2894892
-0.76876074 0.025423899 2.9222934 2894892
0.1135067 0.024411242 2.9460239 2894892
-0.76872599 0.07530348 2.921978 7039851
0.11354095 0.074474417 2.9469123 2894892
-2.3188446 0.1035198 2.9396942 6513507
-2.2744112 0.10349298 2.9389319 6513507
-2.2250671 0.10346314 2.9380848 6513507
-2.1757519 0.10343333 2.9372387 6513507
-2.1252332 0.10340279 2.9363713 6513507
-2.074744 0.10337229 2.9355049 6513507
-2.0255151 0.10334255 2.93466 6513507
-1.9750845 0.10331204 2.933794 6513507
-1.9246838 0.10328159 2.9329295 6513507
-1.8755414 0.10325189 2.932086 6513507
-1.8251994 0.10322145 2.9312217 4934475
-1.7847015 0.10319698 2.9305267 2039583
-0.7635175 0.1019548 2.9164407 10197915
-0.72513664 0.10255658 2.9123409 4342338
-0.67425936 0.10252582 2.9114678 2894892
-0.62462276 0.10249585 2.9106154 2894892
-0.57501543 0.10246583 2.9097641 2894892
-0.52422827 0.10243516 2.9088929 2894892
-0.47467941 0.10240519 2.9080422 2894892
-0.42515978 0.10237528 2.907192 2894892
-0.37446222 0.10234462 2.906322 2894892
-0.32500085 0.10231473 2.9054732 2894892
-0.27556869 0.10228485 2.9046247 2894892
-0.22496064 0.10225428 2.9037561 2894892
-0.17438285 0.1022237 2.9028876 2894892
-0.12503836 0.10219388 2.902041 2894892
-0.075722866 0.10216407 2.901195 2894892
-0.028839247 0.10213573 2.9003901 2894892
0.11355932 0.10134864 2.9473889 2894892
0.11258837 -1.3176543 2.9864118 2894892
0.11261783 -1.2746841 2.9871936 2894892
0.11265143 -1.2255472 2.9880843 2894892
0.11268587 -1.1751513 2.9889984 2894892
0.11272035 -1.1247246 2.9899127 2894892
0.112754 -1.0754983 2.9908051 2894892
0.11278851 -1.0250108 2.9917209 2894892
0.11282303 -0.97449237 2.9926372 2894892
0.11285676 -0.92517614 2.9935315 2894892
0.1128905 -0.87583053 2.994426 2894892
0.1129251 -0.82522047 2.9953437 2894892
0.11295971 -0.77457952 2.9962621 2894892
0.11299352 -0.72514385 2.9971583 2894892
0.11302731 -0.67567861 2.9980552 2894892
-0.76929039 -0.62263578 2.9733799 5526612
0.11306199 -0.62494576 2.998975 2894892
-0.76926094 -0.57489371 2.9756165 5263440
0.11308993 -0.58409041 2.999716 2894892
-0.76922631 -0.5247333 2.975482 5197647
-0.76919144 -0.47478738 2.9753859 4013373
-0.76915729 -0.42504743 2.975491 2894892
-0.76912206 -0.37511435 2.9750013 2894892
-0.76908749 -0.32517707 2.9749842 2894892
-0.76905245 -0.27524874 2.9748106 2894892
-0.76901853 -0.22511673 2.9749908 2894892
-0.76898283 -0.17499417 2.974385 2894892
-0.76894861 -0.12507693 2.974684 2894892
-0.76891309 -0.074760802 2.9741194 2894892
-0.76887876 -0.024644483 2.9742949 2894892
-0.76884449 0.024643008 2.9741619 2894892
-0.76880902 0.074750274 2.973717 4408131
-2.1722393 0.10314404 2.9996023 6513507
-2.1244235 0.10311522 2.9987643 6513507
-2.0741193 0.10308491 2.9978821 6513507
-2.0251012 0.10305537 2.9970233 6513507
-1.9761114 0.10302584 2.9961643 6513507
-1.9258941 0.10299556 2.9952846 6513507
-1.8757067 0.10296533 2.9944048 5987163
-1.8293093 0.10293736 2.9935911 2039583
-0.76287735 0.10188672 2.9741337 8224125
-0.72452688 0.10227148 2.9742265 2894892
-0.67504251 0.10224165 2.9733591 2894892
-0.62558687 0.10221183 2.9724922 2894892
-0.57492512 0.10218131 2.9716041 2894892
-0.52429318 0.10215078 2.970717 2894892
-0.47492552 0.10212103 2.969851 2894892
-0.42558661 0.1020913 2.968987 2894892
-0.37504417 0.10206084 2.9681008 2894892
-0.32453158 0.10203038 2.9672153 2894892
-0.27528015 0.10200069 2.9663515 2894892
-0.22482738 0.10197029 2.9654675 2894892
-0.17440438 0.10193989 2.9645839 2894892
-0.1252403 0.10191027 2.9637222 2894892
-0.074876919 0.10187992 2.9628391 2894892
-0.024543252 0.10184957 2.9619565 2894892
0.024533754 0.10181999 2.9610965 2894892
0.074807972 0.1017897 2.9602156 2894892
0.10667501 0.1017705 2.9596572 2894892
-0.76937729 -0.62496114 3.0265486 2894892
-0.76934713 -0.57506537 3.029284 2894892
0.11310686 -0.55931944 3.0001655 2894892
-0.76931268 -0.52534336 3.0292499 2894892
0.11313059 -0.52462631 3.0007944 2894892
-0.76927757 -0.47511956 3.0290165 2894892
0.11316448 -0.47504085 3.0016935 2894892
-0.76924294 -0.42465341 3.0290759 2894892
0.11319838 -0.42542571 3.002593 2894892
-0.76920789 -0.37468803 3.0287352 2894892
0.11323233 -0.37578085 3.0034933 2894892
-0.76917362 -0.32498747 3.0288012 2894892
0.11326715 -0.32486373 3.0044167 2894892
-0.76913881 -0.27503413 3.0286639 2894892
0.11330197 -0.27391559 3.0053406 2894892
-0.769104 -0.22483438 3.0285265 2894892
0.11333598 -0.22417979 3.0062423 2894892
-0.76906908 -0.17489018 3.02829 2894892
0.11337 -0.17441413 3.0071445 2894892
-0.7690345 -0.12520644 3.0280523 2894892
0.11340402 -0.12461857 3.0080476 2894892
-0.76900011 -0.075270981 3.0281172 2894892
0.11343809 -0.074793108 3.0089512 2894892
-0.76896513 -0.025089314 3.0279803 2894892
0.11347216 -0.024937693 3.009855 2894892
-0.76893008 0.025087796 3.027843 2894892
0.11350628 0.024947681 3.0107598 2894892
-0.76889521 0.075260334 3.0277057 2894892
0.11354039 0.074863061 3.0116649 2894892
-2.3700798 0.1032633 3.0030701 6513507
-2.3259361 0.10323669 3.002296 6513507
-2.2755139 0.1032063 3.0014126 6513507
-2.2251205 0.10317592 3.0005295 6513507
-2.1974158 0.10315922 3.0000436 6513507
-0.76277864 0.10179044 3.0333292 3223857
-0.72515512 0.10197476 3.0388217 2894892
-0.67459601 0.10194436 3.0379167 2894892
-0.62406719 0.10191399 3.0370116 2894892
-0.57483035 0.1018844 3.0361297 2894892
-0.52562249 0.10185484 3.0352485 2894892
-0.47518235 0.10182452 3.0343451 2894892
-0.4247722 0.10179423 3.033442 2894892
-0.37439206 0.10176395 3.0325401 2894892
-0.3240419 0.1017337 3.0316384 2894892
-0.27497914 0.1017042 3.0307596 2894892
-0.22594509 0.10167474 3.029882 2894892
-0.17568313 0.10164453 3.0289817 2894892
-0.12545104 0.10161433 3.0280821 2894892
-0.075248778 0.10158418 3.0271831 2894892
-0.025076304 0.10155404 3.026284 2894892
0.025066387 0.10152388 3.0253861 2894892
0.075179346 0.10149376 3.0244889 2894892
0.10766471 0.10140904 3.0219638 2894892
0.11255949 -1.358302 3.0527394 2894892
0.11258195 -1.3256826 3.0533481 2894892
0.11261628 -1.2754729 3.0542796 2894892
0.11265062 -1.2252325 3.0552108 2894892
0.11268499 -1.1749613 3.0561433 2894892
0.11271938 -1.1246594 3.0570757 2894892
0.11275379 -1.0743268 3.0580087 2894892
0.11278822 -1.0239636 3.0589426 2894892
0.1128218 -0.97482985 3.0598533 2894892
0.1128554 -0.92566663 3.060765 2894892
0.1128899 -0.87521249 3.0617003 2894892
0.11292441 -0.82472754 3.0626359 2894892
0.11295895 -0.77421165 3.0635726 2894892
0.11299262 -0.72492903 3.0644867 2894892
0.11302632 -0.6756168 3.0654006 2894892
-0.76943046 -0.62492478 3.059696 2894892
0.11306093 -0.62500983 3.0663388 2894892
-0.76939601 -0.57546282 3.0595593 2894892
0.11309556 -0.57437158 3.0672779 2894892
-0.76936078 -0.52473718 3.0594189 2894892
0.11312933 -0.52496982 3.0681939 2894892
-0.76932633 -0.47528419 3.0592821 2894892
0.11316311 -0.4755381 3.0691104 2894892
-0.76931536 -0.42447698 3.0742781 2894892
0.11319779 -0.42480841 3.0700507 2894892
-0.76928097 -0.37508863 3.0742073 2894892
0.11323164 -0.37531719 3.0709686 2894892
-0.76925087 -0.32387465 3.0775409 2894892
0.11326548 -0.32579604 3.0718865 2894892
-0.76922017 -0.27503049 3.0793221 2894892
0.11330023 -0.27497452 3.0728288 2894892
-0.76918495 -0.22501734 3.0789733 2894892
0.1133341 -0.22539362 3.0737479 2894892
-0.76915026 -0.17500305 3.0788362 2894892
0.11336803 -0.17578283 3.0746679 2894892
-0.76911497 -0.1247453 3.0785916 2894892
0.11340283 -0.12486925 3.0756116 2894892
-0.76908129 -0.074989639 3.0788758 2894892
0.1134368 -0.075198501 3.0765324 2894892
-0.76904583 -0.025259957 3.0783145 2894892
0.11347077 -0.025497746 3.0774543 2894892
-0.76901066 0.025258418 3.0781736 2894892
0.11350562 0.025508186 3.0783997 2894892
-0.76897711 0.074979104 3.0784588 2894892
0.11353966 0.075269036 3.0793223 2894892
-2.4209936 0.10299391 3.0691924 6513507
-2.3745754 0.10296601 3.0683608 6513507
-2.3243172 0.10293581 3.067461 6513507
-2.2753758 0.10290639 3.0665846 6513507
-2.2251761 0.10287623 3.0656855 6513507
-2.175005 0.10284609 3.0647869 6513507
-2.1248641 0.10281594 3.0638893 6513507
-2.0747521 0.10278582 3.0629916 6513507
-2.0246696 0.10275573 3.0620952 6513507
-1.9746166 0.10272565 3.0611982 6513507
-1.9245926 0.10269558 3.0603025 6513507
-1.8745977 0.10266553 3.059407 2171169
-1.8489697 0.10265014 3.058948 2039583
-0.76895869 0.10074474 3.078172 2894892
-0.3659884 0.10144927 3.0996981 2894892
-0.32481664 0.1014246 3.0989447 2894892
-0.27466497 0.10139453 3.0980265 2894892
-0.22454281 0.10136452 3.0971088 2894892
-0.17445055 0.1013345 3.0961916 2894892
-0.12438772 0.10130452 3.0952754 2894892
-0.075637154 0.10127531 3.0943832 2894892
-0.025633028 0.10124534 3.093468 2894892
0.025622662 0.10121463 3.0925288 2894892
0.075567171 0.1011847 3.0916152 2894892
0.10749999 0.10110489 3.0891762 2894892
0.11254808 -1.3738616 3.1226001 2894892
0.11258145 -1.3250953 3.1235266 2894892
0.11261568 -1.2750155 3.1244767 2894892
0.11264995 -1.2249051 3.1254272 2894892
0.11268423 -1.1747643 3.1263781 2894892
0.11271852 -1.1245925 3.1273296 2894892
0.11275285 -1.0743908 3.1282816 2894892
0.11278629 -1.0254468 3.1292098 2894892
0.11282065 -0.97518426 3.1301634 2894892
0.11285503 -0.92489123 3.1311169 2894892
0.11288945 -0.87456739 3.1320717 2894892
0.11292388 -0.82421321 3.1330266 2894892
0.11295742 -0.77512038 3.1339576 2894892
0.11299188 -0.72470522 3.1349139 2894892
0.11302637 -0.67425948 3.1358707 2894892
0.11306 -0.62507766 3.1368034 2894892
0.11309363 -0.57586634 3.1377368 2894892
0.11312817 -0.52532953 3.1386952 2894892
0.11316274 -0.47476205 3.1396542 2894892
-0.76939046 -0.42439517 3.1210871 2894892
0.11319643 -0.42546126 3.1405895 2894892
-0.76935619 -0.37498042 3.1211739 2894892
0.11323106 -0.37483248 3.1415496 2894892
-0.76932681 -0.32606098 3.1239161 2894892
0.1132657 -0.32417306 3.1425104 2894892
-0.7692951 -0.27488902 3.1262214 2894892
0.11329946 -0.27478254 3.1434469 2894892
-0.76926023 -0.22501396 3.1259432 2894892
0.11333324 -0.22536258 3.1443844 2894892
-0.76922512 -0.17514981 3.1256649 2894892
0.11336704 -0.17591314 3.1453223 2894892
-0.76919121 -0.12528086 3.1259372 2894892
0.11340176 -0.12513162 3.1462853 2894892
-0.7691555 -0.074786149 3.125386 2894892
0.11343648 -0.074319229 3.1472492 2894892
-0.76912099 -0.024602048 3.1254458 2894892
0.11347035 -0.024779653 3.1481891 2894892
-0.76908672 0.02460059 3.1253068 2894892
0.11350425 0.024789514 3.1491284 2894892
-0.76905155 0.074775651 3.1249638 2894892
0.11352833 0.060026687 3.1497974 2894892
-2.4728804 0.1027116 3.1382678 6513507
-2.4240847 0.10268236 3.1373744 6513507
-2.3739998 0.10265237 3.1364574 6513507
-2.3239429 0.10262237 3.1355414 6513507
-2.2739162 0.10259239 3.1346259 6513507
-2.2239182 0.10256243 3.1337104 6513507
-2.1739497 0.1025325 3.1327958 6513507
-2.1240106 0.10250258 3.1318815 6513507
-2.0740998 0.10247268 3.1309681 6513507
-2.0242188 0.1024428 3.130055 6513507
-1.9743668 0.10241292 3.129142 6513507
-1.9245437 0.10238308 3.1282294 2894892
-1.8944006 0.10236501 3.1276782 2039583
-0.76049089 0.10151989 3.1106915 2894892
-0.7245186 0.10166407 3.1062615 2894892
-0.67542142 0.10163465 3.1053627 2894892
-0.62506181 0.1016045 3.1044412 2894892
-0.57473201 0.10157433 3.1035202 2894892
-0.52572131 0.10154497 3.1026223 2894892
-0.47545061 0.10151485 3.101702 2894892
-0.42520943 0.10148475 3.1007824 2894892
-0.39173093 0.10146469 3.1001697 2894892
0.11251874 -1.4150883 3.195241 2894892
0.11254577 -1.3757054 3.1960077 2894892
0.11257988 -1.3257923 3.1969764 2894892
0.11261401 -1.2758492 3.1979458 2894892
0.11264819 -1.2258759 3.1989162 2894892
0.11267606 -1.1850867 3.199708 2894892
-0.76947677 -0.42459533 3.1747911 2894892
-0.76944286 -0.37538284 3.1748872 2894892
-0.76940745 -0.32512301 3.1746275 2894892
-0.7693727 -0.27486929 3.1745977 2894892
-0.76933777 -0.22514687 3.1742222 2894892
-0.76930302 -0.17516536 3.1740856 2894892
-0.76926839 -0.12492705 3.1741686 2894892
-0.76923364 -0.074952923 3.1740232 2894892
-0.76919883 -0.024983305 3.1738806 2894892
-0.76916409 0.0249818 3.1737368 2894892
-0.76912928 0.07494238 3.1735935 2894892
0.11354529 0.084833093 3.1502678 2894892
-1.9580109 0.10207639 3.1998687 2039583
-1.94192 0.10206678 3.1995678 2039583
-0.76241082 0.10121854 3.1729772 2894892
-0.7251752 0.10134009 3.1767876 2894892
-0.67496341 0.1013101 3.1758471 2894892
-0.62478119 0.10128013 3.1749082 2894892
-0.57462883 0.10125018 3.1739688 2894892
-0.52450609 0.10122024 3.1730306 2894892
-0.47441298 0.10119033 3.1720929 2894892
-0.42434955 0.10116042 3.1711555 2894892
-0.37431559 0.10113054 3.1702187 2894892
-0.32431117 0.10110068 3.1692827 2894892
-0.27433634 0.10107084 3.1683469 2894892
-0.22439098 0.10104101 3.167412 2894892
-0.1744751 0.10101119 3.1664772 2894892
-0.12458864 0.1009814 3.1655433 2894892
-0.074731648 0.10095162 3.1646099 2894892
-0.024904016 0.10092185 3.163677 2894892
0.024894238 0.10089213 3.1627445 2894892
0.074663155 0.10086241 3.1618133 2894892
0.10732782 0.10078695 3.1594479 2894892
0.11269315 -1.1600764 3.2001932 2894892
0.11271658 -1.1258383 3.2008581 2894892
0.11275078 -1.075774 3.2018299 2894892
0.11278504 -1.025679 3.2028024 2894892
0.11281929 -0.97555393 3.2037754 2894892
0.11285359 -0.92539817 3.2047493 2894892
0.1128879 -0.87521189 3.2057235 2894892
0.11292221 -0.82499522 3.2066982 2894892
0.11295656 -0.77474785 3.2076738 2894892
0.11299093 -0.72446996 3.2086494 2894892
0.11302533 -0.67416155 3.209626 2894892
0.11305884 -0.6251477 3.2105772 2894892
0.11309235 -0.57610458 3.2115295 2894892
