# .PCD v0.7 - Point Cloud Data file format
VERSION 0.7
FIELDS x y z rgb
SIZE 4 4 4 4
TYPE F F F U
COUNT 1 1 1 1
WIDTH 1212
HEIGHT 1
VIEWPOINT 0 0 0 1 0 0 0
POINTS 1212
DATA ascii
1.4858975 -1.2041473 2.6987429 2039583
2.0612419 -1.2025795 2.6936131 1980754
1.4741901 -1.17216 2.6791759 2039583
2.0753031 -1.1745149 2.6852517 2177876
2.1080346 -1.1713145 2.6657152 2374740
1.4656442 -1.1285704 2.6649196 2039583
2.0757141 -1.1250774 2.6850636 1980498
2.1081986 -1.1250343 2.6656709 2308947
1.4588628 -1.0740824 2.653635 2039583
2.0757737 -1.0750705 2.6850874 2112083
2.1082723 -1.0751547 2.6656861 2374740
1.4593288 -1.0249379 2.6544819 2039583
2.0757356 -1.0249928 2.6851687 2046290
2.1082737 -1.0249703 2.6657426 1980241
1.4597949 -0.97576201 2.6553299 2039583
2.0758288 -0.97498298 2.6851716 1585485
2.1082811 -0.9749856 2.6657975 1716814
1.4602717 -0.92546082 2.6561973 2039583
2.0758696 -0.92497259 2.6852052 1585742
2.1083422 -0.92510241 2.6658192 1716814
1.4607488 -0.8751269 2.6570652 2039583
2.0757596 -0.89751899 2.685303 1651791
2.108413 -0.89769465 2.6658094 1651021
1.4611952 -0.8280462 2.657877 2039583
-0.30854833 0.11291081 2.6984336 10197915
-0.27501705 0.11291358 2.6984999 10197915
-0.2247173 0.11291774 2.6985989 10197915
-0.17441384 0.11292189 2.698698 10197915
-0.12522465 0.11292594 2.6987956 10197915
-0.074913867 0.1129301 2.6988947 10197915
-0.024599396 0.11293426 2.6989942 10197915
0.024600573 0.11293833 2.6990912 10197915
0.07492239 0.11294246 2.6991901 10197915
0.1252479 0.11294662 2.6992898 10197915
0.17445862 0.11295068 2.6993868 10197915
0.22479151 0.11295485 2.699486 10197915
0.27512804 0.112959 2.6995852 10197915
0.32434952 0.11296307 2.6996825 10197915
0.37469342 0.11296723 2.6997819 10197915
0.42504099 0.11297137 2.6998813 10197915
0.46755955 0.11297488 2.6999652 10197915
0.99247319 0.11308047 2.6500127 10197915
1.0243355 0.1130831 2.6500745 10197915
1.0748783 0.11308727 2.6501727 10197915
1.1254247 0.11309146 2.6502705 10197915
1.1748761 0.11309553 2.6503661 10197915
1.2034495 0.11309791 2.6504214 10197915
1.5150905 -1.2145762 2.7476294 2039583
1.9823219 -1.2131293 2.7407167 1454926
2.021244 -1.2079482 2.7174845 1783377
2.0504117 -1.203624 2.7000773 1981011
1.5154802 -1.1750367 2.7483358 2039583
1.9832324 -1.1749663 2.7402148 1388620
2.024868 -1.1749963 2.7153621 1914962
2.0504293 -1.1745503 2.7001007 1981011
1.486745 -1.1164566 2.7002816 2039583
1.5159702 -1.1253018 2.7492244 2039583
1.9832836 -1.1249253 2.7402446 1256778
2.024925 -1.1248838 2.7153838 1783634
2.0504596 -1.1253476 2.7001402 1849683
1.487142 -1.0753512 2.7010033 2039583
1.5163046 -1.0913745 2.7498305 2039583
1.9832917 -1.0749356 2.7402971 1256778
2.0249135 -1.0749097 2.7154484 1717841
2.0504904 -1.0750252 2.7001808 1980755
1.4876255 -1.0253297 2.7018809 2039583
1.983367 -1.0249997 2.7403119 1256779
2.0249956 -1.0250038 2.7154598 1783634
2.0505209 -1.0247012 2.7002215 1981011
1.4881091 -0.97527552 2.7027595 2039583
1.9833498 -0.97506171 2.7403793 1454670
2.0250273 -0.97495639 2.7154996 1520462
2.0505514 -0.97549403 2.7002611 1454413
1.4885932 -0.92518896 2.7036388 2039583
1.9834126 -0.92501378 2.7404022 1191499
2.0250142 -0.92497766 2.7155659 1388877
2.0505822 -0.9251669 2.7003019 1454157
1.4890772 -0.87506968 2.7045181 2039583
1.9835728 -0.8975051 2.7403374 1191499
2.0249984 -0.89759654 2.7156067 1454670
2.0505991 -0.89720702 2.7003241 1717328
1.4894652 -0.83495176 2.7052221 2039583
0.49217674 0.11297693 2.7000139 10197915
0.52462816 0.1129796 2.7000778 10197915
0.57498682 0.11298375 2.7001772 10197915
0.6253491 0.11298791 2.7002761 10197915
0.67571515 0.11299208 2.700376 10197915
0.72496551 0.11299615 2.7004735 10197915
0.77533889 0.11300031 2.7005723 10197915
0.82571602 0.11300447 2.7006721 10197915
0.87497711 0.11300853 2.7007692 10197915
0.92536145 0.11301269 2.7008686 10197915
0.97574961 0.11301685 2.7009678 10197915
1.0250216 0.11302092 2.7010651 10197915
1.0742971 0.11302499 2.7011626 10197915
1.124696 0.11302914 2.701262 10197915
1.1750989 0.11303332 2.7013617 10197915
1.2154238 0.11303665 2.701441 10197915
1.5451063 -1.25069 2.797859 2039583
1.8860712 -1.2508121 2.7981322 2039583
1.545372 -1.2242395 2.7983408 2039583
1.8918257 -1.2248505 2.7947268 2368548
1.9240268 -1.2209215 2.7755096 1520718
1.9583335 -1.2163323 2.7550323 1323597
1.5458694 -1.1747668 2.7992406 2039583
1.8919115 -1.1749662 2.7947342 2500134
1.9255179 -1.1750398 2.7746668 1388876
1.9585533 -1.1750132 2.75495 1191499
1.546205 -1.1413844 2.7998483 2039583
1.891886 -1.1249627 2.7948077 2500134
1.9254546 -1.1249967 2.774771 1256521
1.9585716 -1.1249256 2.754997 1059144
1.5165498 -1.0664837 2.7502759 2039583
1.8919748 -1.0749623 2.7948117 2631720
1.9255214 -1.0749515 2.7747869 1256265
1.9585932 -1.0749496 2.7550423 1058631
1.5169513 -1.0257357 2.7510035 2039583
1.8919502 -1.0249547 2.7948868 2631720
1.925567 -1.0249791 2.7748115 1256521
1.9586552 -1.0250874 2.7550645 1058888
1.5174423 -0.97590441 2.7518942 2039583
1.8920362 -0.97506714 2.7948937 2697513
1.9255649 -0.97493124 2.7748823 1388107
1.9586407 -0.9751085 2.7551317 1190986
1.5179337 -0.92604083 2.7527852 2039583
1.8920184 -0.92505944 2.7949624 2763306
1.9256299 -0.92491877 2.7748985 1322570
1.9587212 -0.92512941 2.7551425 1257291
1.5184364 -0.87501031 2.7536972 2039583
1.8920062 -0.89750987 2.7950025 2763306
1.9254475 -0.89756167 2.7750378 1256521
1.9585583 -0.89761424 2.755271 1125449
1.5187607 -0.84210771 2.7542851 2039583
-0.31232047 0.11284573 2.7513611 10197915
-0.27585232 0.11284875 2.7514343 10197915
-0.22570558 0.11285288 2.7515349 10197915
-0.17555518 0.11285701 2.751636 10197915
-0.12540112 0.11286116 2.7517371 10197915
-0.075243369 0.11286531 2.7518377 10197915
-0.025081946 0.11286946 2.7519388 10197915
0.025083171 0.11287358 2.7520397 10197915
0.075251967 0.1128777 2.7521405 10197915
0.12542444 0.11288183 2.7522414 10197915
0.1756006 0.11288598 2.7523425 10197915
0.22578044 0.11289013 2.7524433 10197915
0.27596396 0.11289427 2.7525442 10197915
0.32501045 0.11289833 2.7526429 10197915
0.3740606 0.11290237 2.7527418 10197915
0.42425492 0.11290652 2.7528429 10197915
0.47445297 0.11291065 2.752944 10197915
0.52465475 0.1129148 2.7530451 10197915
0.57486016 0.11291894 2.7531457 10197915
0.62506944 0.1129231 2.753247 10197915
0.67528218 0.11292723 2.7533476 10197915
0.72549862 0.11293137 2.7534487 10197915
0.77571875 0.11293551 2.7535501 10197915
0.82594281 0.11293966 2.7536511 10197915
0.87502873 0.11294373 2.7537501 10197915
0.9241184 0.11294777 2.7538486 10197915
0.97435302 0.11295193 2.7539496 10197915
1.0245916 0.11295607 2.754051 10197915
1.0748335 0.1129602 2.7541516 10197915
1.1250795 0.11296437 2.7542529 10197915
1.1753291 0.1129685 2.7543542 10197915
1.2255822 0.11297265 2.7544553 10197915
1.2529944 0.11297491 2.7545104 10197915
1.8217742 -1.2595437 2.8365061 2039583
1.8634226 -1.2539496 2.8116496 2039583
1.824955 -1.2249752 2.8346481 2039583
1.8670149 -1.2249569 2.8095391 2039583
1.8249785 -1.174965 2.8346932 2039583
1.8670415 -1.1749787 2.809581 2039583
1.5464596 -1.1160491 2.8003099 2039583
1.8250173 -1.1249928 2.834728 2039583
1.8670169 -1.1250057 2.8096547 2039583
1.5468762 -1.0745728 2.8010645 2039583
1.8250691 -1.0750192 2.8347545 2039583
1.8671132 -1.075025 2.8096571 2039583
1.5473747 -1.0250039 2.8019667 2039583
1.8250716 -1.0250421 2.8348122 2039583
1.8670607 -1.0250469 2.8097448 2039583
1.5478733 -0.97540259 2.8028698 2039583
1.8250482 -0.97506535 2.8348844 2039583
1.8671936 -0.97500825 2.8097248 2039583
1.5483836 -0.92461491 2.8037932 2039583
1.8251301 -0.92500985 2.8348966 2039583
1.8671223 -0.9250254 2.8098259 2039583
1.548883 -0.87494904 2.8046978 2039583
1.8249643 -0.89757299 2.8350251 2039583
1.8668417 -0.89761877 2.8100247 2039583
-0.3150816 0.1127783 2.8064117 10197915
-0.27555892 0.11278156 2.806493 10197915
-0.2255712 0.11278569 2.8065958 10197915
-0.17441721 0.1127899 2.8067002 10197915
-0.12442214 0.11279403 2.8068032 10197915
-0.074423365 0.11279815 2.8069057 10197915
-0.024420965 0.11280228 2.8070083 10197915
0.024422126 0.11280628 2.8071086 10197915
0.07443177 0.11281042 2.8072107 10197915
0.12444507 0.11281456 2.8073139 10197915
0.17446202 0.11281867 2.8074167 10197915
0.22448263 0.11282279 2.8075192 10197915
0.2745069 0.11282694 2.807622 10197915
0.32453483 0.11283105 2.8077245 10197915
0.37456644 0.11283519 2.8078275 10197915
0.42460161 0.1128393 2.8079293 10197915
0.47464058 0.11284342 2.8080323 10197915
0.52468312 0.11284754 2.8081353 10197915
0.57472932 0.11285167 2.8082383 10197915
0.62477928 0.11285581 2.8083403 10197915
0.6748327 0.11285993 2.8084438 10197915
0.72488993 0.11286408 2.8085463 10197915
0.77495092 0.11286821 2.8086488 10197915
0.82501531 0.11287234 2.8087516 10197915
0.87508351 0.11287646 2.8088541 10197915
0.92515552 0.1128806 2.8089571 10197915
0.97523111 0.11288472 2.8090601 10197915
1.0253103 0.11288885 2.8091624 10197915
1.075393 0.11289298 2.8092654 10197915
1.1254796 0.1128971 2.8093684 10197915
1.1744047 0.11290114 2.809469 10197915
1.2244986 0.11290526 2.809572 10197915
1.2652752 0.11290864 2.8096554 10197915
1.5765042 -1.2623838 2.8504369 2039583
1.7326207 -1.2714875 2.8897169 2039583
1.7735407 -1.2660224 2.8652925 2039583
1.5768887 -1.2248929 2.8511324 2039583
1.7332858 -1.2251576 2.8893726 2039583
1.7751958 -1.2250137 2.8643539 2039583
1.5773937 -1.1756592 2.8520453 2039583
1.7324427 -1.1750853 2.8899364 2039583
1.774386 -1.1750611 2.8648958 2039583
1.5779109 -1.1252204 2.8529801 2039583
1.7324365 -1.1250683 2.8899968 2039583
1.7744316 -1.1250646 2.8649266 2039583
1.5784284 -1.0747488 2.8539166 2039583
1.7325006 -1.0750493 2.8900175 2039583
1.7744675 -1.0750253 2.864964 2039583
1.5789344 -1.025419 2.8548312 2039583
1.7325072 -1.025031 2.8900735 2039583
1.7744827 -1.0249451 2.8650134 2039583
1.5794525 -0.97488153 2.8557682 2039583
1.7325658 -0.97507346 2.890095 2039583
1.7744915 -0.97490287 2.8650663 2039583
1.5799713 -0.9243114 2.8567059 2039583
1.7325813 -0.92511469 2.890146 2039583
1.7745157 -0.92494154 2.8651104 2039583
1.5803937 -0.88312572 2.8574698 2039583
1.7327933 -0.89770538 2.8900506 2039583
1.7745905 -0.89756691 2.8650982 2039583
-0.31795537 0.11270811 2.8637109 10197915
-0.27406731 0.11271174 2.8638029 10197915
-0.22424503 0.11271583 2.8639069 10197915
-0.17441911 0.11271995 2.8640113 10197915
-0.12458959 0.11272405 2.8641157 10197915
-0.074756414 0.11272816 2.8642201 10197915
-0.024919612 0.11273226 2.8643246 10197915
0.024920825 0.11273638 2.8644288 10197915
0.0747649 0.11274047 2.8645332 10197915
0.12461261 0.11274459 2.8646379 10197915
0.17446391 0.11274869 2.8647423 10197915
0.22431889 0.11275281 2.8648462 10197915
0.27417749 0.1127569 2.8649509 10197915
0.32403973 0.11276102 2.8650556 10197915
0.37390563 0.11276513 2.86516 10197915
0.42496252 0.11276934 2.8652666 10197915
0.47602326 0.11277357 2.8653736 10197915
0.52590019 0.11277765 2.8654778 10197915
0.57578081 0.11278179 2.8655825 10197915
0.62566501 0.11278588 2.8656871 10197915
0.67555285 0.11279 2.8657916 10197915
0.72544438 0.11279412 2.8658962 10197915
0.77533948 0.11279821 2.8660007 10197915
0.82523829 0.11280233 2.8661048 10197915
0.87514067 0.11280643 2.8662095 9540500
0.9250468 0.11281057 2.8663139 8225672
0.97495633 0.11281466 2.8664186 8159879
1.0248698 0.11281879 2.866523 5990002
1.0747869 0.1128229 2.8666277 5858674
1.1247073 0.112827 2.8667324 4214882
1.1746316 0.11283116 2.866837 3426139
1.2245595 0.11283524 2.8669415 2637397
1.2744912 0.11283936 2.8670461 1190726
1.3030249 0.1128417 2.8671055 993862
1.6421595 -1.3084784 2.9436781 2039583
1.668767 -1.3049469 2.9277973 2039583
1.7004285 -1.3003277 2.9089012 2039583
1.6391878 -1.2749472 2.9395061 2039583
1.6753325 -1.274968 2.9239132 2039583
1.7075154 -1.2747738 2.9046996 2039583
1.6392102 -1.2249476 2.9397035 2039583
1.6753052 -1.2249187 2.9239886 2039583
1.707599 -1.2250459 2.9047086 2039583
1.6393404 -1.1749505 2.9397783 2039583
1.6753362 -1.1749554 2.9240265 2039583
1.7075955 -1.1749202 2.9047685 2039583
1.6393723 -1.1250625 2.9399416 2039583
1.6753886 -1.1250814 2.9240546 2039583
1.7076691 -1.1250645 2.9047835 2039583
1.6394267 -1.075464 2.9402711 2039583
1.6752384 -1.0748796 2.9242041 2039583
1.7076938 -1.075207 2.9048274 2039583
1.6384158 -1.0250077 2.9402893 2039583
1.6745309 -1.0249815 2.9246833 2039583
1.7076908 -1.0250782 2.9048874 2039583
1.6384186 -0.97497916 2.9404836 2039583
1.6744698 -0.97505814 2.9247789 2039583
1.7077354 -0.97494745 2.9049196 2039583
1.6385791 -0.92494118 2.9405837 2039583
1.6746399 -0.92504704 2.9247372 2039583
1.7077705 -0.92481631 2.9049566 2039583
1.6331062 -0.89568943 2.9345796 2039583
1.6747532 -0.89766222 2.9247012 2039583
1.7080803 -0.89740121 2.9048049 2039583
-0.32215989 0.1126349 2.9233961 10197915
-0.27493536 0.1126388 2.9234967 10197915
-0.2252856 0.11264286 2.9236028 10197915
-0.17563222 0.11264695 2.9237092 10197915
-0.12476405 0.11265115 2.9238179 10197915
-0.075103357 0.11265524 2.923924 10197915
-0.025439046 0.11265935 2.9240298 10197915
0.025440309 0.11266353 2.924139 10197915
0.075111888 0.11266762 2.9242451 10197915
0.12478711 0.11267173 2.9243517 10197915
0.17567763 0.11267592 2.9244604 10197915
0.22536013 0.11267998 2.924566 10197915
0.27504623 0.1126841 2.9246728 10197915
0.32473597 0.11268818 2.9247787 10197915
0.37442935 0.11269227 2.9248848 10197915
0.42533842 0.11269649 2.9249938 9014416
0.47503901 0.11270056 2.9251001 7962245
0.52474338 0.11270466 2.9252064 7567746
0.57566369 0.11270884 2.9253154 5661040
0.62537521 0.11271294 2.9254215 5463148
0.67509031 0.11271704 2.9255276 4017505
0.72480917 0.11272113 2.9256344 3294041
0.7745316 0.11272524 2.9257402 2439505
0.82547045 0.11272942 2.9258492 1059142
0.87520015 0.11273353 2.9259553 1190727
0.92493355 0.11273761 2.9260621 1059398
0.97467029 0.11274172 2.9261682 993862
1.0244112 0.11274581 2.9262748 1058885
1.0753685 0.11275001 2.9263835 992836
1.1251165 0.11275412 2.9264901 927299
1.174868 0.11275823 2.9265964 927556
1.224623 0.11276229 2.9267027 1125447
1.2743819 0.1127664 2.9268093 1059140
1.3168614 0.11276991 2.9269001 927298
-0.35003865 0.1125566 2.9855695 10197915
-0.32407019 0.11255877 2.9856274 10197915
-0.27460372 0.11256285 2.9857349 10197915
-0.22513366 0.11256691 2.9858432 10197915
-0.17566006 0.112571 2.9859509 10197915
-0.12494589 0.11257516 2.986062 10197915
-0.074227981 0.11257935 2.9861724 10197915
-0.024743458 0.11258342 2.9862807 8947848
0.024744648 0.11258749 2.9863887 8357000
0.074236333 0.11259156 2.9864964 6318710
0.12496907 0.11259573 2.9866078 5595503
0.17570551 0.11259991 2.9867182 5135980
0.22520813 0.11260398 2.9868262 3228248
0.27471432 0.11260808 2.9869344 3359834
0.32422405 0.11261211 2.9870424 1452871
0.37497538 0.11261632 2.9871533 794174
0.42573038 0.1126205 2.9872642 860480
0.47525105 0.11262456 2.9873722 860993
0.52477533 0.11262865 2.9874806 794687
0.57430327 0.11263273 2.9875886 1058371
0.62507308 0.11263689 2.9876995 794430
0.6758467 0.11264108 2.9878104 992323
0.72538543 0.11264516 2.9879184 1058628
0.77492779 0.11264922 2.9880264 993092
0.82447386 0.11265333 2.9881349 1125191
0.87402344 0.11265738 2.9882429 1190727
0.92481548 0.11266158 2.9883535 1058885
0.97561133 0.11266575 2.9884651 927556
1.025172 0.11266983 2.9885728 1058885
1.0747359 0.1126739 2.9886813 927043
1.1243036 0.11267798 2.9887896 993092
1.1751143 0.11268219 2.9889004 1059398
1.2259288 0.11268637 2.9890113 993348
1.2755073 0.11269045 2.9891195 1058885
1.3250895 0.1126945 2.9892278 1058884
1.3560802 0.11269708 2.9892955 1190213
-0.35385984 0.11247689 3.050499 10197915
-0.32479954 0.11247927 3.0505633 10197915
-0.27552083 0.11248334 3.0506732 10197915
-0.2249748 0.11248748 3.0507865 8750469
-0.1744251 0.11249165 3.050899 3815994
-0.12513554 0.1124957 3.0510094 2039583
-0.075842381 0.11249975 3.0511193 2039583
-0.025281619 0.1125039 3.0512319 2039583
0.025282865 0.11250808 3.0513446 2636364
0.075851098 0.11251222 3.0514579 861762
0.1251587 0.11251629 3.0515678 993861
0.1744699 0.11252034 3.0516775 994118
0.22504917 0.11252451 3.05179 861506
0.27563217 0.11252867 3.051903 992835
0.32495418 0.11253271 3.0520132 992835
0.3742798 0.11253677 3.0521235 794173
0.42487383 0.11254094 3.0522361 860480
0.47547165 0.11254511 3.0523486 926786
0.52480811 0.11254916 3.052459 860480
0.57414806 0.11255322 3.0525694 992579
0.62475687 0.11255739 3.0526822 860480
0.67536944 0.11256154 3.0527949 992322
0.72472018 0.11256561 3.0529046 1058629
0.77407473 0.11256965 3.0530152 993092
0.82469833 0.1125738 3.053128 1124934
0.87532568 0.112578 3.053241 1059398
0.92469102 0.11258206 3.0533512 927300
0.9740597 0.11258612 3.0534613 993093
1.0246983 0.11259028 3.0535748 992836
1.0753403 0.11259444 3.0536876 927043
1.12472 0.11259851 3.0537977 927043
1.1741034 0.11260257 3.0539079 1059398
1.2247565 0.11260673 3.0540209 1059398
1.2754134 0.1126109 3.0541339 1058884
1.3248076 0.11261498 3.0542433 1124933
1.3704053 0.11261871 3.0543461 1124934
-0.35785136 0.11239375 3.118319 10197915
-0.32427022 0.1123965 3.1183956 10197915
-0.2751874 0.11240055 3.1185081 10197915
-0.22480921 0.1124047 3.1186228 7434609
-0.17442735 0.11240882 3.1187377 2039583
-0.12533374 0.11241288 3.1188498 2039583
-0.074944504 0.11241701 3.1189642 2039583
-0.024551598 0.11242115 3.1190791 2039583
0.024552774 0.11242519 3.1191909 2306885
0.074953042 0.11242934 3.1193058 927298
0.125357 0.11243347 3.1194205 862532
0.17447215 0.11243749 3.1195323 928581
0.22488344 0.11244164 3.1196475 861763
0.27529848 0.11244579 3.1197629 926529
0.32442439 0.11244985 3.119875 993348
0.37484676 0.11245397 3.1199903 859966
0.42527279 0.11245813 3.1201053 860481
0.47440961 0.11246216 3.1202171 992579
0.52484286 0.11246631 3.120332 926530
0.57528001 0.11247045 3.1204464 992579
0.62442756 0.11247449 3.1205587 794687
0.67487204 0.11247863 3.1206737 992579
0.72532022 0.11248279 3.1207888 992836
0.77447838 0.11248682 3.1209013 1058628
0.82493401 0.11249097 3.1210165 1124934
0.87539321 0.11249512 3.1211317 993605
0.92456228 0.11249918 3.1212437 927300
0.97502899 0.11250331 3.1213584 1059142
1.0254992 0.11250748 3.1214736 1059398
1.0746788 0.11251149 3.1215854 861250
1.1251568 0.11251565 3.1217008 860737
1.1756381 0.1125198 3.1218159 1059142
1.2248286 0.11252383 3.1219285 1059398
1.2753175 0.112528 3.1220441 1059141
1.3258101 0.11253214 3.1221588 1059141
1.3750113 0.11253619 3.1222706 1059654
1.4112673 0.11253917 3.1223536 1190470
-0.36202437 0.11230686 3.1892231 10197915
-0.32503784 0.1123099 3.1893094 10197915
-0.27615988 0.11231391 3.1894233 10197915
-0.22595727 0.11231802 3.1895404 6842472
-0.17575099 0.11232214 3.1896574 2039583
-0.12554097 0.11232627 3.189775 2039583
-0.075327277 0.1123304 3.1898913 2039583
-0.025109917 0.11233451 3.1900091 2039583
0.025111144 0.11233864 3.1901264 1846334
0.075335883 0.11234277 3.190243 862019
0.12556434 0.11234689 3.1903605 862275
0.17579643 0.11235103 3.1904776 993861
0.22603229 0.11235514 3.1905947 927299
0.27494964 0.11235917 3.1907089 926786
0.32387051 0.11236317 3.1908226 1058884
0.37411717 0.11236732 3.1909401 860223
0.42436761 0.11237143 3.1910572 860480
0.47462162 0.11237557 3.1911745 926786
0.52487934 0.11237969 3.1912916 927043
0.57514089 0.11238382 3.1914091 926786
0.62540609 0.11238795 3.1915264 794943
0.67567486 0.11239208 3.1916435 992579
0.72594744 0.1123962 3.1917605 1058372
0.77490056 0.11240021 3.1918747 1124421
0.82385713 0.11240425 3.1919889 1058885
0.87414056 0.11240838 3.1921062 1058628
0.92442763 0.11241249 3.1922235 1059142
0.97471851 0.11241663 3.1923409 1058885
1.0250131 0.11242077 3.1924584 1059142
1.0753113 0.1124249 3.1925757 993093
1.1256131 0.11242903 3.192693 728894
1.1759188 0.11243317 3.1928101 927300
1.2249039 0.11243717 3.1929245 1059398
1.2738928 0.11244121 3.1930387 1059398
1.3242095 0.11244534 3.1931562 1059397
1.3745295 0.11244947 3.1932735 1125190
1.4248534 0.1124536 3.1933908 1059654
1.4526656 0.1124559 3.1934557 1125191
-0.3663916 0.11221589 3.2634268 10197915
-0.3244895 0.11221933 3.2635269 10197915
-0.27447399 0.11222344 3.2636461 10197915
-0.22445494 0.11222756 3.2637656 5723991
-0.17443216 0.11223164 3.2638848 2039583
-0.12440576 0.11223575 3.2640042 2039583
-0.074375652 0.11223986 3.2641237 2039583
-0.024341922 0.11224397 3.2642431 2039583
0.024343073 0.11224796 3.2643595 1583418
0.074384056 0.11225207 3.2644789 927555
0.12442867 0.11225617 3.2645981 862020
0.17447698 0.11226028 3.2647178 928069
0.22452889 0.11226438 3.2648373 927556
0.27458459 0.1122685 3.2649567 927300
0.32464376 0.11227261 3.2650762 1058372
0.3747068 0.1122767 3.2651958 860993
0.42477334 0.11228083 3.2653151 860223
0.47484368 0.11228492 3.2654347 927043
0.5249176 0.11228904 3.2655537 992579
0.57499522 0.11229315 3.2656734 926273
0.62507635 0.11229724 3.2657928 860223
0.67516142 0.11230137 3.2659128 992322
0.72525001 0.11230548 3.266032 1058372
0.77534235 0.1123096 3.2661517 1124421
0.82543808 0.1123137 3.2662711 1124678
0.87553787 0.1123178 3.2663908 1124420
0.92564106 0.11232192 3.2665105 1124678
0.97439373 0.11232594 3.2666271 1059142
1.0245043 0.11233005 3.2667468 1124934
1.0746185 0.11233415 3.266866 1125191
1.1247362 0.11233825 3.2669857 860737
1.1748577 0.11234237 3.2671053 794430
1.224983 0.1123465 3.2672253 1059398
1.2751117 0.11235061 3.2673445 1125704
1.3252445 0.11235473 3.2674644 1125447
1.3753806 0.11235884 3.2675836 1125190
1.4255203 0.11236294 3.2677035 1125447
1.4702429 0.11236661 3.2678101 1125447
-0.37096626 0.11212043 3.3411605 10197915
-0.32391441 0.11212429 3.3412755 10197915
-0.27409142 0.11212836 3.341397 10197915
-0.22426476 0.11213247 3.3415189 4868682
-0.17443448 0.11213655 3.3416405 2039583
-0.12460054 0.11214063 3.3417623 2039583
-0.074762985 0.11214471 3.3418839 2039583
-0.024921807 0.11214881 3.342006 2039583
0.024923015 0.1121529 3.3421278 1583418
0.074771464 0.11215699 3.3422499 927555
0.12462357 0.11216107 3.3423717 927555
0.17447928 0.11216515 3.3424933 796227
0.22433864 0.11216923 3.3426151 861763
0.27420163 0.11217332 3.3427367 861249
0.32406825 0.11217741 3.3428586 993092
0.37393856 0.11218151 3.3429806 927043
0.42381239 0.1121856 3.3431025 728637
0.47368997 0.11218968 3.3432245 927300
0.52495676 0.1121939 3.3433497 992836
0.57622749 0.11219808 3.3434746 794430
0.62611604 0.11220218 3.3435965 794173
0.67600834 0.11220627 3.343719 992323
0.72590429 0.11221036 3.3438406 1058629
0.7758038 0.11221445 3.3439627 1124421
0.82570702 0.11221857 3.3440845 1058885
0.87561387 0.11222264 3.3442063 1058885
0.92552441 0.11222674 3.3443286 1124678
0.97543836 0.11223081 3.3444502 1190471
1.0253562 0.11223492 3.3445725 1059398
1.0752776 0.112239 3.3446941 994118
1.1252028 0.11224311 3.3448164 993605
1.1751313 0.1122472 3.3449385 728124
1.2250637 0.1122513 3.3450603 927299
1.2749995 0.11225539 3.3451822 1059911
1.3249393 0.11225948 3.3453045 1059911
1.3748823 0.11226358 3.3454263 1125447
1.4248294 0.11226768 3.3455486 1125447
1.4747798 0.11227177 3.3456705 1125703
1.5122454 0.11227486 3.3457623 1125961
-0.40128094 0.11201835 3.4226279 10197915
-0.37434718 0.1120206 3.4226968 10197915
-0.32472962 0.11202466 3.4228208 10197915
-0.27510834 0.11202873 3.422945 10197915
-0.22548361 0.11203279 3.4230695 4079166
-0.17585516 0.11203686 3.4231935 2039583
-0.12480506 0.11204105 3.4233215 2039583
-0.07516937 0.11204511 3.4234452 2039583
-0.025530035 0.11204918 3.4235699 2039583
0.025531303 0.11205336 3.4236975 1517626
0.075177915 0.11205743 3.4238222 862018
0.12482815 0.11206149 3.4239459 861762
0.17448197 0.11206555 3.4240704 796227
0.22413942 0.11206964 3.4241946 796228
0.27521941 0.11207382 3.4243228 729664
0.32488415 0.11207789 3.4244473 927043
0.37455252 0.11208195 3.424571 861251
0.42564374 0.11208614 3.4246995 794430
0.47531947 0.11209021 3.4248235 861251
0.52499872 0.11209428 3.424948 1058885
0.57468158 0.11209834 3.4250722 728637
0.62436807 0.11210242 3.4251966 793917
0.67547798 0.1121066 3.4253244 926016
0.72517174 0.11211067 3.4254487 1058885
0.7748692 0.11211475 3.4255736 1058628
0.82457024 0.11211882 3.4256978 1058629
0.87427491 0.11212289 3.4258223 1059142
0.92540336 0.1121271 3.4259501 1124934
0.97511536 0.11213116 3.4260745 1190727
1.0248311 0.11213524 3.4261992 1124934
1.0745502 0.11213931 3.4263237 1059911
1.1242729 0.11214338 3.4264481 1059911
1.1754202 0.11214755 3.4265757 860993
1.2251502 0.11215165 3.4267004 663358
1.2748841 0.11215571 3.4268248 1125447
1.3246214 0.1121598 3.4269497 1191497
1.3743625 0.11216386 3.4270737 1191497
1.4255283 0.11216804 3.427202 1257032
1.4752765 0.11217213 3.4273267 1257032
1.5250285 0.11217621 3.4274511 1191753
1.556303 0.11217877 3.4275296 1257546
-0.40695781 0.1119134 3.5082374 10197915
-0.37499115 0.11191601 3.5083194 10197915
-0.32413232 0.11192019 3.5084498 10197915
-0.27472296 0.11192423 3.5085771 10197915
-0.22530998 0.11192828 3.5087037 3092271
-0.17589349 0.11193231 3.5088305 2039583
-0.1250198 0.11193649 3.5089612 2039583
-0.074142352 0.11194064 3.5090914 2039583
-0.024714915 0.11194468 3.5092185 2039583
0.024716102 0.11194873 3.5093453 1517368
0.074150689 0.11195277 3.5094717 795970
0.12504299 0.11195695 3.5096025 861762
0.17593901 0.11196111 3.5097332 862276
0.22538458 0.11196516 3.5098603 927813
0.27483362 0.11196921 3.5099864 795457
0.32428637 0.11197327 3.510114 861250
0.37519726 0.11197742 3.5102441 927043
0.42611191 0.11198159 3.510375 794687
0.47557557 0.11198565 3.5105023 860481
0.52504271 0.11198968 3.5106289 1124934
0.57451349 0.11199374 3.510756 794687
0.62398773 0.11199778 3.5108829 794430
0.67492098 0.11200195 3.5110128 860481
0.72585791 0.11200613 3.5111444 1058373
0.77534324 0.11201017 3.511271 992836
0.8248322 0.11201423 3.5113978 1058629
0.87432462 0.11201827 3.5115252 1124678
0.92382067 0.11202233 3.511652 1059398
0.97477627 0.11202649 3.5117826 1190983
1.0257354 0.11203066 3.5119131 1190983
1.0752425 0.11203473 3.5120409 1125447
1.124753 0.11203877 3.5121679 1191496
1.1742672 0.11204282 3.5122945 1191240
1.2237849 0.11204688 3.5124216 728895
1.2747629 0.11205104 3.5125525 927556
1.3257445 0.11205523 3.5126834 1125704
1.3752732 0.11205927 3.51281 1191497
1.4248054 0.11206333 3.5129373 1257289
1.4743412 0.11206738 3.5130644 1388104
1.5238807 0.11207144 3.5131915 1191496
1.5748808 0.11207562 3.5133226 1257289
-0.41143557 0.11180315 3.5982423 10197915
-0.3741779 0.1118062 3.5983405 10197915
-0.32499492 0.11181022 3.5984695 10197915
-0.27580833 0.11181424 3.5985992 10197915
-0.22512753 0.11181837 3.598732 2105376
-0.17444298 0.11182252 3.598866 2039583
-0.12524559 0.11182655 3.5989952 2039583
-0.076044634 0.11183058 3.5991249 2039583
-0.025349045 0.11183472 3.5992579 2039583
0.025350301 0.11183886 3.5993912 1517368
0.076053411 0.111843 3.599525 795970
0.12526883 0.11184706 3.5996547 927812
0.17448778 0.11185105 3.5997837 928069
0.22520195 0.11185522 3.5999172 993862
0.25354373 0.11185753 3.599992 926786
0.27890339 0.11185959 3.6000588 861250
0.32514969 0.11186337 3.6001806 927044
0.37438306 0.1118674 3.6003101 861250
0.42511201 0.11187155 3.6004431 860737
0.47584483 0.11187571 3.6005769 860224
0.52508897 0.11187973 3.6007066 1124934
0.57433665 0.11188374 3.6008358 926273
0.62508059 0.11188791 3.60097 860736
0.67582816 0.11189204 3.6011031 926530
0.72508675 0.11189608 3.6012325 927043
0.77434891 0.11190011 3.6013625 992836
0.82510751 0.11190426 3.6014957 1058886
0.87586999 0.1119084 3.6016295 1190214
0.925143 0.11191245 3.6017594 1125191
0.97441953 0.11191647 3.6018887 1125191
1.025193 0.11192061 3.6020226 1191240
1.0759703 0.11192478 3.6021562 1191240
1.1252577 0.11192881 3.6022856 1257032
1.1745487 0.11193284 3.6024156 1191496
1.225337 0.11193697 3.6025488 1059398
1.2746352 0.11194101 3.6026793 794688
1.3239369 0.11194504 3.6028085 1060167
1.3747362 0.11194919 3.6029425 1125704
1.4255396 0.11195336 3.6030765 1125960
1.4748522 0.11195739 3.6032057 1191496
1.5241683 0.11196141 3.6033356 1256776
1.5749826 0.11196557 3.6034701 1191240
1.6213166 0.11196937 3.6035914 1191496
-0.41767785 0.11168677 3.6929758 10197915
-0.37485072 0.11169027 3.6930912 10197915
-0.32437262 0.11169439 3.6932278 10197915
-0.27542052 0.11169838 3.6933596 9276813
-0.22493502 0.11170251 3.6934965 2039583
-0.17444584 0.11170663 3.6936328 2039583
-0.12548302 0.11171063 3.6937652 2039583
-0.074986443 0.11171476 3.6939011 2039583
-0.024486184 0.11171889 3.6940379 2039583
0.024487354 0.11172289 3.6941698 1583160
0.074995004 0.11172701 3.6943061 862019
0.12550636 0.11173113 3.694443 993604
0.17449063 0.11173514 3.6945753 993605
0.22500935 0.11173926 3.6947114 994118
0.2755318 0.11174339 3.6948481 795201
0.32452679 0.11174739 3.6949801 926787
0.37505659 0.11175151 3.6951168 860994
0.42559016 0.11175565 3.6952534 860993
0.4745959 0.11175964 3.6953857 860738
0.52513677 0.11176378 3.6955221 992579
0.57568139 0.11176791 3.6956584 992835
0.62469804 0.1117719 3.695791 926529
0.67524993 0.11177603 3.6959276 926787
0.72580564 0.11178016 3.6960642 926787
0.7748329 0.11178418 3.6961966 992579
0.825396 0.1117883 3.6963329 1058629
0.87596279 0.11179243 3.6964695 1124934
0.92500079 0.11179644 3.6966021 1125191
0.97404242 0.11180045 3.6967347 1190983
1.0246202 0.11180457 3.6968713 1191240
1.0752017 0.1118087 3.6970077 1257032
1.1242539 0.11181272 3.6971402 1191240
1.1748431 0.11181685 3.6972773 1191240
1.2254355 0.11182097 3.6974134 1191240
1.2744987 0.11182499 3.697546 993349
1.3250988 0.11182912 3.6976829 861763
1.3757021 0.11183326 3.6978192 1191496
1.4247761 0.11183726 3.6979518 1191496
1.4753895 0.11184155 3.6980941 1191753
1.5260047 0.11184572 3.6982317 1257032
1.5750895 0.11184974 3.6983643 1257288
1.6241778 0.11185375 3.6984971 1257288
1.6671329 0.11185727 3.6986132 1323337
-0.42268753 0.11156441 3.7928433 10197915
-0.37398967 0.1115684 3.792979 10197915
-0.32371718 0.11157249 3.7931182 10197915
-0.27501228 0.11157646 3.7932532 8158332
-0.22630383 0.11158043 3.7933886 2039583
-0.17602053 0.11158454 3.7935283 2039583
-0.12573352 0.11158865 3.7936673 2039583
-0.075442828 0.11159274 3.7938073 2039583
-0.025148433 0.11159686 3.7939465 2039583
0.025149662 0.11160096 3.7940862 1583160
0.075451463 0.11160506 3.7942255 862019
0.12575696 0.11160918 3.7943656 993348
0.17606616 0.11161327 3.7945046 928069
0.22637902 0.11161736 3.7946441 928326
0.27512318 0.11162136 3.7947798 795713
0.32387087 0.11162533 3.794915 795200
0.37419456 0.11162943 3.7950542 860994
0.4245221 0.11163354 3.7951937 795457
0.47485328 0.11163765 3.7953336 795201
0.52518815 0.11164176 3.7954731 860994
0.57552677 0.11164586 3.7956128 1059141
0.62586904 0.11164998 3.7957523 992323
0.67621493 0.11165407 3.7958918 926786
0.72499114 0.11165804 3.7960272 860738
0.77377093 0.11166203 3.7961626 926787
0.82412785 0.11166615 3.7963028 1058629
0.87448829 0.11167026 3.7964418 1125191
0.92485273 0.11167437 3.7965817 1125191
0.97522068 0.11167848 3.7967215 1125447
1.0255923 0.11168259 3.7968612 1191240
1.0759678 0.11168671 3.7970006 1125960
1.1263469 0.11169082 3.7971411 1191496
1.1751552 0.11169479 3.797276 1256776
1.223967 0.11169878 3.7974114 1322825
1.2743571 0.11170289 3.7975514 1191240
1.3247508 0.11170699 3.7976913 992836
1.3751483 0.1117111 3.7978308 1059911
1.4255493 0.11171523 3.7979703 1257545
1.4759543 0.11171934 3.7981107 1191753
1.5263627 0.11172345 3.7982504 1257545
1.5751995 0.11172743 3.7983859 1323081
1.6240399 0.11173142 3.7985215 1323081
1.6744593 0.11173553 3.7986612 1323081
1.7154278 0.11173888 3.7987747 1323337
-0.4538075 0.11143317 3.8981895 10197915
-0.4247469 0.11143553 3.8982725 10197915
-0.3746953 0.11143962 3.8984153 10197915
-0.32464018 0.11144368 3.8985579 10197915
-0.27458128 0.11144777 3.8987002 6710886
-0.22451881 0.11145185 3.8988433 2039583
-0.1744526 0.11145594 3.8989863 2039583
-0.12438278 0.11146001 3.8991287 2039583
-0.07430923 0.11146409 3.8992717 2039583
-0.024232069 0.11146817 3.8994143 2039583
0.024233216 0.11147213 3.8995528 1582903
0.074317627 0.11147621 3.8996952 861763
0.12440569 0.1114803 3.8998382 862019
0.16480187 0.11148357 3.8999527 993604
0.19065671 0.1114857 3.9000273 928325
0.22459279 0.11148845 3.9001236 928325
0.27469191 0.11149253 3.9002666 861763
0.32479465 0.11149661 3.9004097 860737
0.37490109 0.11150071 3.9005525 860480
0.4250111 0.11150479 3.9006951 926786
0.4751249 0.11150886 3.9008379 795201
0.52524233 0.11151297 3.9009814 729152
0.5753634 0.11151704 3.901124 1058886
0.62548816 0.11152112 3.9012668 1058627
0.67561668 0.11152522 3.9014101 926530
0.72574866 0.11152928 3.9015527 860737
0.7742672 0.11153325 3.901691 860994
0.8244065 0.11153734 3.9018335 1058629
0.87454957 0.11154142 3.9019771 1125191
0.92469633 0.1115455 3.9021196 1190727
0.9748466 0.11154961 3.9022627 1190984
1.0250007 0.11155369 3.9024057 1125448
1.0751584 0.11155777 3.902549 1191496
1.1253198 0.11156186 3.9026916 1257032
1.175485 0.11156595 3.9028349 1257032
1.2256536 0.11157003 3.9029779 1257289
1.2758261 0.11157414 3.903121 1322826
1.3243834 0.11157808 3.9032593 1191240
1.3745631 0.11158217 3.9034023 1125191
1.4247463 0.11158626 3.9035454 1191753
1.4749336 0.11159036 3.9036889 1191753
1.5251242 0.11159444 3.9038315 1191497
1.5753187 0.11159852 3.9039748 1191753
1.6255168 0.11160264 3.9041178 1322825
1.674099 0.11160659 3.9042563 1191753
1.7243041 0.11161067 3.9043994 1191496
1.7647949 0.11161399 3.9045153 1191752
-0.46013659 0.11129657 4.0096331 10197915
-0.42360255 0.11129954 4.0097394 10197915
-0.37378061 0.11130361 4.0098853 10197915
-0.323955 0.11130765 4.0100317 10197915
-0.2741257 0.11131172 4.010179 5395026
-0.22429281 0.11131576 4.0103245 2039583
-0.17445628 0.11131983 4.0104699 2039583
-0.12461613 0.11132388 4.0106158 2039583
-0.07477235 0.11132795 4.0107632 2039583
-0.024924923 0.11133201 4.0109096 2039583
0.024926137 0.11133606 4.0110555 1583159
0.074780822 0.11134011 4.0112009 927299
0.12463915 0.11134417 4.0113468 795970
0.17450112 0.11134823 4.0114946 993861
0.22436671 0.11135229 4.0116401 993861
0.27423593 0.11135634 4.011786 862276
0.32410878 0.11136041 4.0119319 794945
0.37398532 0.11136448 4.0120792 860737
0.42386544 0.11136852 4.0122256 860737
0.47374922 0.1113726 4.0123715 860737
0.52363664 0.11137664 4.012517 860737
0.57352769 0.11138071 4.0126638 926787
0.62342238 0.11138477 4.0128112 1124677
0.6749841 0.11138898 4.0129614 926530
0.72654951 0.11139315 4.0131121 926274
0.77645552 0.11139723 4.0132585 926274
0.82636482 0.1114013 4.0134058 1058629
0.87627804 0.11140536 4.0135517 1125191
0.92619491 0.11140943 4.0136976 1256775
0.97611529 0.11141348 4.0138445 1190983
1.0260394 0.11141755 4.0139914 1190984
1.0759671 0.11142161 4.0141373 1191496
1.1258984 0.11142568 4.0142832 1322825
1.1758332 0.11142974 4.01443 1257290
1.225772 0.1114338 4.0145774 1257032
1.2757143 0.11143788 4.0147228 1191753
1.3256602 0.11144193 4.0148687 1191753
1.3756096 0.11144599 4.0150161 1191240
1.4255631 0.11145007 4.0151629 1257033
1.4755198 0.11145414 4.0153089 1191497
1.5254803 0.1114582 4.0154562 1126217
1.5754443 0.11146227 4.0156026 1257033
1.6254123 0.11146633 4.015748 1125961
1.6753834 0.11147042 4.0158954 1191497
1.7253588 0.11147448 4.0160422 1125704
1.7753375 0.11147854 4.0161881 1125447
1.8153231 0.11148182 4.0163059 1060168
-0.46854657 0.11115158 4.1276217 10197915
-0.42580917 0.11115505 4.1277509 10197915
-0.37452093 0.11115923 4.1279058 10197915
-0.3249386 0.11116326 4.1280551 10197915
-0.27535266 0.11116729 4.1282053 4342338
-0.22405308 0.11117145 4.1283598 2039583
-0.17445986 0.11117548 4.12851 2039583
-0.12486298 0.11117951 4.1286592 2039583
-0.075262569 0.11118356 4.1288095 2039583
-0.025658509 0.11118759 4.1289592 2039583
0.025659798 0.11119175 4.1291137 1648696
0.07527113 0.11119579 4.1292634 993091
0.12488613 0.11119982 4.1294131 861506
0.17450467 0.11120386 4.1295629 928069
0.22412683 0.11120789 4.1297126 993862
0.27546388 0.11121206 4.129868 862533
0.32509336 0.11121611 4.1300173 795201
0.37472641 0.11122014 4.1301675 860737
0.42436314 0.11122417 4.1303177 860737
0.47400343 0.11122821 4.1304674 860737
0.52535927 0.11123238 4.1306224 992579
0.57500684 0.11123642 4.1307721 926787
0.62465805 0.11124044 4.1309218 1058372
0.67602521 0.11124464 4.1310773 992836
0.72568375 0.11124866 4.131227 926273
0.77534592 0.1112527 4.1313767 926530
0.82501167 0.11125674 4.1315269 993093
0.87468094 0.11126077 4.1316767 1124934
0.92435402 0.11126482 4.1318274 1256520
0.97403049 0.11126887 4.1319766 1191240
1.025424 0.11127304 4.1321321 1256776
1.0751078 0.11127706 4.1322818 1191497
1.1247954 0.11128112 4.132432 1322825
1.1744864 0.11128515 4.1325822 1323082
1.2241813 0.1112892 4.1327319 1191497
1.2755933 0.11129336 4.1328869 1191496
1.3252956 0.11129742 4.1330376 1126216
1.3750037 0.11130166 4.1331944 1191753
1.4247131 0.11130571 4.1333456 1191240
1.4744264 0.11130975 4.1334949 1191497
1.5258573 0.11131393 4.1336508 1191496
1.5755777 0.11131798 4.133801 1060168
1.6253016 0.11132202 4.1339507 1125704
1.6750292 0.11132606 4.1341014 1191496
1.7247603 0.11133011 4.1342511 1125960
1.7744951 0.11133415 4.1344018 1125960
1.8242335 0.11133819 4.1345515 1125448
1.8671144 0.11134168 4.1346807 1060424
1.7923678 -1.8932981 4.2465949 2039583
1.8231972 -1.8895696 4.2383995 2039583
1.8747418 -1.8887845 4.2371092 2039583
1.9162608 -1.8887827 4.2382631 2039583
1.723153 -1.9091153 4.2872949 2039583
1.7629353 -1.9038167 4.2635512 2039583
1.7279956 -1.892611 4.2875047 2039583
1.7727442 -1.8908302 4.2730985 2039583
1.8250514 -1.8888378 4.2770009 2039583
1.8761191 -1.8888329 4.2767553 2039583
1.9244659 -1.8888299 4.2781167 2039583
1.954084 -1.8888483 4.2944431 2039583
-0.47570628 0.11099817 4.2527795 10197915
-0.42638919 0.11100218 4.252933 10197915
-0.37530693 0.11100633 4.2530918 10197915
-0.3242209 0.11101047 4.2532506 10197915
-0.27489281 0.11101448 4.2534041 2763306
-0.22556119 0.11101847 4.2535577 2039583
-0.17622602 0.11102248 4.2537107 2039583
-0.1251251 0.11102664 4.25387 2039583
-0.074020378 0.11103078 4.2540293 2039583
-0.024674252 0.11103479 4.2541823 2039583
0.024675438 0.1110388 4.2543359 1714231
0.074028678 0.11104281 4.2544894 927555
0.12514833 0.11104695 4.2546482 861507
0.17627172 0.1110511 4.2548075 862276
0.22563593 0.11105511 4.2549605 993861
0.27500367 0.11105912 4.2551146 928582
0.32437497 0.11106312 4.2552686 795458
0.37374988 0.11106713 4.2554221 795458
0.42489192 0.11107128 4.2555804 926274
0.47603774 0.11107544 4.2557402 860993
0.52542353 0.11107944 4.2558937 860737
0.57481301 0.11108346 4.2560477 927556
0.62420595 0.11108746 4.2562008 861251
0.6736024 0.11109149 4.2563543 1059142
0.72476691 0.11109563 4.2565136 992322
0.77593505 0.11109977 4.2566724 926786
0.82534254 0.11110379 4.2568269 1058629
0.87475359 0.1111078 4.2569804 1059141
0.92416823 0.11111181 4.257134 1190726
0.9735865 0.11111583 4.2572875 1257033
1.0247732 0.11111998 4.2574468 1256776
1.0759641 0.11112414 4.2576056 1257033
1.1253932 0.11112816 4.2577596 1191497
1.1748259 0.11113217 4.2579131 1191497
1.2242622 0.11113618 4.2580671 1257289
1.273702 0.11114019 4.2582211 1191241
1.324913 0.11114448 4.2583852 1125960
1.3761274 0.11114873 4.2585483 1126217
1.425578 0.11115275 4.2587018 1191753
1.4750329 0.11115676 4.2588558 1125960
1.5244907 0.11116078 4.2590098 1125960
1.5739524 0.11116479 4.2591634 1125704
1.6251844 0.11116896 4.2593231 1125960
1.6764201 0.1111731 4.2594819 1125705
1.7258928 0.11117712 4.2596364 1257546
1.7753689 0.11118114 4.2597899 1257546
1.8248488 0.11118517 4.259944 1192009
1.8743322 0.11118918 4.260098 1191497
1.9202839 0.1111929 4.2602406 1191753
1.6339167 -1.9209232 4.3405542 2039583
1.6736051 -1.915791 4.3168683 2039583
1.7013874 -1.911611 4.3002863 2039583
1.6356 -1.8930316 4.3410683 2039583
1.6772945 -1.8915554 4.3242679 2039583
1.7249781 -1.8890753 4.3249717 2039583
1.7759961 -1.8889022 4.3258448 2039583
1.8261722 -1.8888967 4.3258338 2039583
1.876348 -1.8888931 4.3258247 2039583
1.9259491 -1.8888882 4.3254142 2039583
1.9617954 -1.8888923 4.3308659 2039583
1.5418942 -1.9581891 4.3954501 2039583
1.5676907 -1.9548297 4.380053 2039583
1.5423422 -1.9250524 4.3952217 2039583
1.5752704 -1.9250261 4.3755641 2039583
1.6092637 -1.9242911 4.3552704 2039583
1.5424097 -1.8938699 4.3955646 2039583
1.5774114 -1.8920035 4.3805079 2039583
1.6229662 -1.8899949 4.3728166 2039583
1.6750592 -1.88897 4.3758278 2039583
1.7245897 -1.8889657 4.3754025 2039583
1.7747536 -1.8889631 4.3758039 2039583
1.8255091 -1.8889583 4.3757977 2039583
1.8762643 -1.8889536 4.375782 2039583
1.9238763 -1.8889482 4.3741336 2039583
1.964136 -1.8889327 4.3639755 2039583
-0.50874209 0.11083309 4.3856831 10197915
-0.47604847 0.11083575 4.3857884 10197915
-0.42518887 0.11083989 4.385951 10197915
-0.37432548 0.11084401 4.3861136 10197915
-0.32527506 0.11084796 4.3862715 9671571
-0.27622113 0.11085195 4.3864284 2039583
-0.22534664 0.11085607 4.3865924 2039583
-0.17446837 0.11086021 4.3867555 2039583
-0.12540361 0.11086418 4.3869123 2039583
-0.076335296 0.11086815 4.3870702 2039583
-0.025445942 0.11087228 4.3872333 2039583
0.025447205 0.1108764 4.3873968 1714487
0.076344132 0.11088053 4.3875604 927811
0.12542686 0.11088451 4.3877172 861763
0.17451318 0.11088847 4.3878751 862020
0.22542119 0.11089262 4.3880382 1059654
0.27633303 0.11089676 4.3882017 994375
0.32543012 0.11090072 4.3883591 927044
0.37453079 0.11090471 4.3885164 861508
0.42545372 0.11090884 4.38868 926787
0.47456154 0.1109128 4.3888369 926788
0.52367288 0.11091679 4.3889952 795201
0.5746069 0.11092092 4.3891582 992835
0.62554473 0.11092506 4.3893218 861508
0.67466682 0.11092903 4.3894792 992837
0.72379261 0.11093301 4.3896375 1058885
0.77474165 0.11093713 4.3898001 926786
0.82569426 0.11094128 4.3899636 1058885
0.87483084 0.11094526 4.3901215 1124422
0.92397082 0.11094924 4.3902788 1124678
0.9749347 0.11095337 4.3904424 1256776
1.0259024 0.1109575 4.3906059 1191497
1.0750533 0.11096149 4.3907642 1191497
1.1242077 0.11096548 4.3909211 1125448
1.1751864 0.11096961 4.3910847 1125448
1.2261692 0.11097373 4.3912482 1191497
1.2753342 0.1109777 4.3914061 1125961
1.3245031 0.11098171 4.3915634 1191241
1.3754969 0.11098585 4.391727 1191753
1.424673 0.11098984 4.3918853 1126474
1.4738525 0.11099382 4.3920431 1257289
1.5248572 0.11099796 4.3922062 1191497
1.5758659 0.11100209 4.3923697 1125961
1.6250561 0.11100607 4.3925276 1191497
1.67425 0.11101006 4.3926859 1126217
1.72527 0.11101419 4.3928494 1322570
1.7762935 0.11101834 4.3930125 1323082
1.8254983 0.11102232 4.3931713 1323082
1.8747069 0.11102632 4.3933287 1192009
1.9257414 0.11103045 4.3934927 1257289
1.974957 0.11103445 4.3936505 1191753
2.0004771 0.11103649 4.3937311 1258058
1.4737349 -1.96744 4.4361315 2039583
1.5170546 -1.9616679 4.4102755 2039583
1.4754 -1.9250844 4.4351873 2039583
1.5181208 -1.9250299 4.4096823 2039583
1.4779433 -1.8926516 4.4375334 2039583
1.5244443 -1.8907562 4.423192 2039583
1.5751196 -1.8890414 4.4271302 2039583
1.6249412 -1.8890377 4.4269619 2039583
1.6750557 -1.8890334 4.4265347 2039583
1.7252069 -1.8890301 4.4273624 2039583
1.7746872 -1.8890245 4.4265032 2039583
1.8242983 -1.8890201 4.4263959 2039583
1.8717278 -1.8890049 4.4166031 2039583
1.9090639 -1.8889877 4.4054103 2039583
1.3816077 -2.0048394 4.4910874 2039583
1.4042397 -2.0015533 4.4775791 2039583
1.3837891 -1.9751935 4.489819 2039583
1.4236383 -1.9736969 4.4660316 2039583
1.3839672 -1.9249926 4.4897723 2039583
1.424552 -1.9249568 4.4655423 2039583
1.3852048 -1.8934561 4.4900684 2039583
1.4268914 -1.8917799 4.4728293 2039583
1.4753218 -1.8891096 4.4750361 2039583
1.5250005 -1.8891046 4.4745011 2039583
1.5750595 -1.8891014 4.4752741 2039583
1.625095 -1.8890958 4.4744811 2039583
1.6751707 -1.8890928 4.4752541 2039583
1.7251878 -1.8890874 4.4744625 2039583
1.7715594 -1.8890803 4.4715171 2039583
1.8108362 -1.8890629 4.4601746 2039583
1.2914797 -2.0168579 4.5448785 2039583
1.3231828 -2.0124998 4.5259571 2039583
1.3581611 -2.0075293 4.5050812 2039583
1.2915838 -1.9748187 4.544867 2039583
1.3253573 -1.9750172 4.524704 2039583
1.3586376 -1.9748507 4.5048342 2039583
1.2916373 -1.9246272 4.5448923 2039583
1.3253399 -1.9250532 4.5247712 2039583
1.3586526 -1.9250957 4.5048857 2039583
1.2920976 -1.8937128 4.5451021 2039583
1.3273348 -1.8920811 4.5301914 2039583
1.3728731 -1.8901782 4.5214562 2039583
1.4249972 -1.8891735 4.523798 2039583
1.4749765 -1.8891695 4.5238981 2039583
1.5249536 -1.8891633 4.5234394 2039583
1.5749248 -1.8891605 4.5243297 2039583
1.6252104 -1.8891566 4.5237007 2039583
1.6738905 -1.8891495 4.521822 2039583
1.7195191 -1.8891319 4.5103502 2039583
1.7511175 -1.8891182 4.5013967 2039583
-0.51578653 0.11065967 4.5272546 10197915
-0.47453779 0.110663 4.527391 10197915
-0.42578623 0.11066695 4.5275531 10197915
-0.37515593 0.11067104 4.52772 10197915
-0.32452184 0.11067513 4.5278878 7829367
-0.27575964 0.11067908 4.5280495 2039583
-0.22511819 0.11068319 4.5282178 2039583
-0.17447303 0.11068727 4.5283847 2039583
-0.12570007 0.11069122 4.5285463 2039583
-0.075047515 0.11069535 4.5287142 2039583
-0.024391254 0.11069943 4.5288815 2039583
0.024392415 0.11070339 4.5290432 1780021
0.075056091 0.11070748 4.5292115 993860
0.12572347 0.11071158 4.5293794 795971
0.17451787 0.11071552 4.5295405 861764
0.22519264 0.11071962 4.5297079 994118
0.27587116 0.11072372 4.5298758 1059911
0.32467625 0.11072768 4.5300379 993349
0.37536219 0.11073179 4.5302052 992836
0.42605183 0.1107359 4.5303736 927300
0.47486761 0.11073983 4.5305352 993093
0.52556467 0.11074395 4.5307026 795202
0.57626539 0.11074805 4.5308704 861507
0.62509197 0.110752 4.531033 993092
0.67392194 0.11075594 4.5311937 926787
0.72463375 0.11076005 4.5313621 1124934
0.77534926 0.11076415 4.5315294 1124165
0.82419008 0.11076812 4.5316916 992836
0.87491286 0.11077223 4.5318599 1058629
0.92563957 0.11077634 4.5320277 1124422
0.97449118 0.11078028 4.5321889 1125191
1.0252253 0.11078437 4.5323572 1257289
1.0759629 0.11078848 4.5325251 1191496
1.1248252 0.11079244 4.5326872 1059911
1.1736909 0.1107964 4.5328488 1059655
1.2244399 0.11080052 4.5330172 1125705
1.2751923 0.11080462 4.5331845 1257290
1.3240687 0.11080857 4.5333471 1191754
1.3748286 0.11081266 4.533515 1191498
1.4255925 0.11081679 4.5336838 1191754
1.4744796 0.11082076 4.5338449 1192010
1.5252507 0.11082486 4.5340128 1257290
1.5760257 0.11082898 4.5341816 1257290
1.6249236 0.11083292 4.5343428 1191754
1.6738249 0.11083687 4.5345049 1191497
1.7246109 0.11084098 4.5346732 1191753
1.7754008 0.1108451 4.5348415 1191754
1.8243128 0.11084907 4.5350037 1323082
1.8751097 0.11085318 4.535171 1257545
1.9259104 0.11085728 4.5353398 1192010
1.9748336 0.11086123 4.535502 1257290
2.0237601 0.1108652 4.5356641 1191753
2.0576339 0.11086796 4.5357766 1192010
-2.0501189 -2.0501189 4.5862236 2039583
-2.0452189 -2.0528343 4.5944281 2039583
1.2100908 -2.0524924 4.5934272 2039583
-2.055454 -2.0435004 4.5772963 2039583
-2.0457671 -2.0444994 4.5935211 2039583
1.2246416 -2.0245655 4.5847716 2039583
1.2652801 -2.0202272 4.5605168 2039583
1.2250612 -1.9750541 4.5845819 2039583
1.2657439 -1.9750339 4.5602922 2039583
1.2251742 -1.9250591 4.5845714 2039583
1.2658064 -1.9251767 4.5603132 2039583
1.2275897 -1.8931496 4.5855579 2039583
1.2732016 -1.8910899 4.5711837 2039583
1.3249331 -1.8892428 4.5736976 2039583
1.3749522 -1.8892388 4.5741043 2039583
1.4249802 -1.8892345 4.5739517 2039583
1.4750034 -1.8892301 4.5738049 2039583
1.5250217 -1.8892257 4.5736561 2039583
1.574665 -1.8892215 4.5739226 2039583
1.6202642 -1.8892092 4.5667276 2039583
1.6570538 -1.8891925 4.5555387 2039583
-2.0240445 -2.0606582 4.6298862 2039583
1.1311667 -2.0630639 4.6405334 2039583
1.1718923 -2.0577893 4.6162257 2039583
-2.0272346 -2.0447648 4.6245642 2039583
1.1325654 -2.0252719 4.6397414 2039583
1.1756246 -2.0250897 4.6140356 2039583
1.133898 -1.9749254 4.6390057 2039583
1.1756212 -1.9750302 4.6140957 2039583
1.1339104 -1.9249775 4.6390557 2039583
1.1755993 -1.9249685 4.6141686 2039583
1.1351038 -1.8929466 4.6410465 2039583
1.1771808 -1.891627 4.6247883 2039583
1.2253685 -1.8893135 4.6251354 2039583
1.2751907 -1.8893101 4.6248775 2039583
1.3246839 -1.8893055 4.625176 2039583
1.374501 -1.8893014 4.6251636 2039583
1.4246416 -1.8892972 4.6249747 2039583
1.4747708 -1.8892936 4.6251445 2039583
1.5221765 -1.8892807 4.6183133 2039583
1.5651129 -1.8892618 4.6060224 2039583
-1.9833237 -2.1001043 4.6980433 2039583
1.0336535 -2.1003995 4.6987038 2039583
-2.0057061 -2.0674131 4.6605954 2039583
