# .PCD v0.7 - Point Cloud Data file format
VERSION 0.7
FIELDS x y z rgb
SIZE 4 4 4 4
TYPE F F F U
COUNT 1 1 1 1
WIDTH 1152
HEIGHT 1
VIEWPOINT 0 0 0 1 0 0 0
POINTS 1152
DATA ascii
0.49208027 -0.27505949 1.9732035 2894892
-0.9369787 -0.22501828 1.973529 2039583
0.49221489 -0.22505185 1.9735557 2894892
-0.93686688 -0.17530338 1.9747263 2039583
0.49234536 -0.17501839 1.9740527 2894892
-0.93672282 -0.1250436 1.9747027 2039583
0.49247283 -0.12505978 1.9746832 2894892
-0.93657446 -0.075064577 1.9744774 2039583
0.492603 -0.075075887 1.9751925 2894892
-0.93646216 -0.024973007 1.975741 2039583
0.49273661 -0.025068169 1.9755791 2894892
-0.93631232 0.025023505 1.9754797 2039583
0.4928672 0.024974771 1.9760892 2894892
-0.93329883 0.064822622 1.9758914 2039583
-0.87520713 0.075319819 1.9763272 1852789
-0.82496911 0.075218439 1.9736668 1787007
-0.77487332 0.075123467 1.9704604 2117254
-0.72491139 0.075016491 1.9683675 2051718
-0.67835462 0.074799992 1.9769295 1721727
-0.62493885 0.07463114 1.9795949 1655420
-0.57849663 0.086434871 1.9721876 1983855
-0.52522856 0.09453363 1.9669378 9671829
-0.47498378 0.094428353 1.9647481 9934743
-0.42635506 0.094188958 1.9749126 9934743
-0.37461704 0.094062097 1.9743061 9934743
-0.32084006 0.093865015 1.9794991 9934743
-0.27493289 0.093698643 1.9837668 9934743
-0.22495534 0.09359169 1.9817878 9934743
-0.17509085 0.093490146 1.9793526 9934743
-0.12533724 0.0933837 1.977383 9934743
-0.075281613 0.093279183 1.9751697 9934743
-0.024935246 0.093176618 1.9727145 9934743
0.024898127 0.093072578 1.9705117 9934743
0.075018778 0.09296535 1.9685249 9934743
0.12503639 0.09286347 1.9660848 9934743
0.1709854 0.092723586 1.9679754 9934743
0.22509651 0.092496194 1.9757996 9934743
0.27553311 0.092391044 1.9735541 10000536
0.32895973 0.092168458 1.981108 9934743
0.37467313 0.092024617 1.9834054 9934743
0.42472082 0.09192308 1.9809271 4144959
0.48884249 0.075281389 1.9752103 2894892
0.48876667 -0.90506798 2.0350404 2894892
0.48915261 -0.87406802 2.0228865 2894892
0.48930377 -0.82517695 2.0224228 2894892
0.48943758 -0.77511096 2.022804 2894892
-0.92883754 -0.71959805 2.024678 1453637
-0.87437683 -0.72527683 2.0251243 1980239
-0.82495934 -0.72539514 2.0241971 2965589
-0.77494162 -0.72552902 2.0244985 4214620
-0.72482634 -0.72566605 2.0250804 3228503
-0.6748414 -0.72579855 2.0252776 1980240
-0.62514281 -0.72590852 2.0235088 1322827
-0.58905178 -0.7312873 2.0243111 2248312
0.48956308 -0.72502035 2.0235243 2894892
-0.9395048 -0.67460173 2.0242257 2039583
0.48969316 -0.67510974 2.0240333 2894892
-0.93939668 -0.62537515 2.0255482 2039583
0.48982525 -0.62507004 2.024477 2894892
-0.93926543 -0.57497555 2.0260687 2039583
0.48995411 -0.57479566 2.0250838 2894892
-0.93915498 -0.53901309 2.0257645 2039583
0.49008587 -0.52469689 2.025552 2894892
0.49021217 -0.47489449 2.0261931 2894892
0.4903425 -0.42506033 2.0267019 2894892
0.49047178 -0.3750973 2.027251 2894892
-0.92501158 -0.30446634 2.0239675 1717324
-0.87483084 -0.30523604 2.0240462 2176847
-0.82468498 -0.30537888 2.0251296 3294038
-0.7749126 -0.30551714 2.0259056 3754329
-0.72488832 -0.30565795 2.0268435 2571347
-0.67481464 -0.30579999 2.0278771 1849169
-0.62511641 -0.30593869 2.0287023 1257290
-0.58670324 -0.31319484 2.0276115 2051191
0.49065474 -0.32552156 2.025563 2894892
-0.93836099 -0.27511576 2.0241079 1844009
0.49088719 -0.27496985 2.0219691 2894892
-0.93820977 -0.22502425 2.0238209 2039583
0.49101299 -0.22508307 2.0226481 2894892
-0.93805772 -0.17494747 2.0234272 2039583
0.49114946 -0.1750634 2.0229208 2894892
-0.93790841 -0.12488797 2.02318 2039583
0.49127343 -0.1250194 2.0236924 2894892
-0.93779391 -0.074720755 2.0243711 2039583
0.49140534 -0.075051241 2.0241334 2894892
-0.93769902 -0.025119442 2.0262473 2039583
0.49153483 -0.025060028 2.0246811 2894892
-0.93754905 0.025116906 2.026036 2039583
0.49166492 0.025068877 2.0252168 2894892
-0.93547684 0.06388136 2.0259342 1974563
-0.87434024 0.074751027 2.0273314 1788034
-0.82452399 0.074651234 2.0246251 1918849
-0.77484059 0.074551694 2.0219254 1985669
-0.72528917 0.074452452 2.0192335 2052487
-0.67501926 0.074351743 2.0165024 1589115
-0.62294918 0.074073605 2.0293243 1655677
-0.57999516 0.085351281 2.024199 2969717
-0.5248217 0.093896404 2.0237474 9934743
-0.47526088 0.093796007 2.0212781 9934743
-0.42495245 0.09368857 2.0192685 9934743
-0.37476578 0.09358687 2.0167716 9934743
-0.32879353 0.093454659 2.0179741 9934743
-0.27545193 0.093215346 2.0270388 9934743
-0.22481121 0.093110152 2.0247509 9934743
-0.17512558 0.093006939 2.0225067 9934743
-0.12134155 0.092784397 2.0299759 9934743
-0.074951917 0.092632756 2.0328171 9934743
-0.024821779 0.092531621 2.0302849 9934743
0.025203764 0.092425086 2.0282595 9934743
0.075111359 0.092324384 2.025738 9934743
0.12491136 0.092218317 2.0237224 9934743
0.17501816 0.092114426 2.0214422 9934743
0.22500719 0.09201625 2.0186765 9934743
0.27488178 0.091907345 2.0168984 9934743
0.32041547 0.09175308 2.0201714 9934743
0.37453824 0.091536298 2.0270498 9934743
0.4244456 0.091432974 2.0247619 3815994
0.48934132 0.073121272 2.0253139 2894892
0.48771945 -0.91450399 2.07673 2894892
0.48791331 -0.87489235 2.0734379 2894892
0.48804137 -0.82496661 2.0740304 2894892
0.48817241 -0.77501404 2.0745096 2894892
-0.92973769 -0.72001427 2.0747817 1388619
-0.87513286 -0.72583812 2.0758429 1980239
-0.82506293 -0.72597325 2.0762639 3096917
-0.77497166 -0.72610843 2.0766835 4411740
-0.72517157 -0.7262181 2.0748503 3294038
-0.67477226 -0.72635025 2.0749319 1914191
-0.62470549 -0.72645676 2.0727758 1190984
-0.58998466 -0.73165345 2.0733173 3362668
0.48830217 -0.72503489 2.0750437 2894892
-0.94075078 -0.67548037 2.0750289 2111827
0.48843044 -0.6750313 2.0756371 2894892
-0.940615 -0.62507099 2.0753651 2045779
0.48855811 -0.62499827 2.0762584 2894892
-0.94046211 -0.57503819 2.0749567 2045520
0.48875538 -0.57541782 2.0739911 2894892
-0.94035745 -0.53922939 2.0748734 2111569
0.48889741 -0.52498543 2.0740669 2894892
0.4890309 -0.47502956 2.0744548 2894892
0.48915747 -0.42492744 2.0751328 2894892
0.48929101 -0.37491816 2.0755205 2894892
-0.92639899 -0.30473834 2.0739095 1651532
-0.87483299 -0.3057819 2.0731771 2308175
-0.82496011 -0.3059248 2.0743442 3622744
-0.77504557 -0.30606315 2.0750847 3951706
-0.7250849 -0.30620635 2.0762529 2571347
-0.67507863 -0.30634609 2.0771019 1651791
-0.62481016 -0.30648839 2.0781152 1191240
-0.58773988 -0.31372106 2.0765615 4019822
0.48947108 -0.32416204 2.0740883 2894892
-0.93960613 -0.27489305 2.0750368 1914960
0.48962757 -0.27498588 2.0734389 2894892
-0.93945557 -0.22499619 2.0747049 2111823
0.48975614 -0.22500736 2.0740147 2894892
-0.93930352 -0.17491794 2.0743494 2111566
0.48988846 -0.1750046 2.0744495 2894892
-0.93915266 -0.12505364 2.0739946 2111309
0.4900167 -0.12508157 2.0750382 2894892
-0.93904006 -0.075369217 2.0752075 1913676
0.49014705 -0.075026877 2.0755613 2894892
-0.93890226 -0.024935942 2.0754564 1913420
0.49027261 -0.02494406 2.0762792 2894892
-0.93875146 0.024930604 2.0751238 1913674
0.49045047 0.024151709 2.0747428 2894892
-0.93642402 0.063569881 2.0735176 1848398
-0.87115401 0.074205995 2.07565 1787007
-0.82537264 0.074056625 2.0783527 2051461
-0.77524185 0.073957011 2.0755572 1986182
-0.7248193 0.073853239 2.0730674 1853825
-0.67495787 0.073754154 2.070286 1589115
-0.62833357 0.073527724 2.0797267 1721725
-0.58229613 0.084382229 2.0748205 5136501
-0.52367616 0.093238935 2.0821946 10000536
-0.47510782 0.093122289 2.0814083 10000536
-0.42505357 0.093021885 2.0788269 10000536
-0.37511542 0.092915699 2.0767908 10000536
-0.32484937 0.092811845 2.0744698 10066329
-0.2751323 0.092712156 2.0719047 10197915
-0.22552171 0.092606641 2.0698826 10132122
-0.17516245 0.09250553 2.0672975 10132122
-0.12909986 0.092347674 2.0707643 10132122
-0.074909516 0.09212438 2.0782049 10197915
-0.024945006 0.092021331 2.075881 10197915
0.024907865 0.091918528 2.0735612 10197915
0.074649468 0.091815956 2.0712476 10197915
0.12913334 0.091609463 2.0771182 10197915
0.17509857 0.091433495 2.0822265 10197915
0.22487952 0.091331057 2.0798931 10197915
0.2749747 0.091230899 2.0772805 10132122
0.32495448 0.091125078 2.0752022 10132122
0.37482592 0.091025375 2.0726006 10066329
0.42457908 0.090920031 2.0705328 3355443
0.48590735 0.074910313 2.0724981 2894892
-0.58895648 -0.95186669 2.131351 11711154
0.48607722 -0.95354694 2.1392679 2894892
-0.71101171 -0.9291907 2.111165 2907026
-0.67465675 -0.92229611 2.112165 2709647
-0.62508112 -0.92278677 2.1134202 2314376
-0.59276509 -0.92377758 2.117348 9212825
0.48652184 -0.92368388 2.1245978 2894892
-0.66752595 -0.8793171 2.1128209 2578319
-0.62443614 -0.87491333 2.1139646 2380424
-0.59222239 -0.87516695 2.117579 9672861
0.48666906 -0.87489712 2.1242752 2894892
-0.65425634 -0.84301549 2.1135588 2512526
-0.62158054 -0.82714188 2.1145651 2315143
-0.5922454 -0.82474113 2.1178057 9672861
0.48679864 -0.82495332 2.124804 2894892
-0.60897052 -0.78755885 2.1153226 2447237
-0.59191799 -0.77611834 2.1185291 10001568
0.48692781 -0.7749815 2.125366 2894892
-0.92248547 -0.71443266 2.1080599 1918835
-0.87437063 -0.71421212 2.1090746 2708604
-0.82462287 -0.7142145 2.1102686 3233661
-0.77444893 -0.7146576 2.1114252 3627901
-0.7246682 -0.7156415 2.1119659 3034996
-0.67498016 -0.71565783 2.1130583 2575987
-0.62501562 -0.71557492 2.1142409 1984108
-0.59103262 -0.72209924 2.1185429 9935776
0.48705587 -0.72498441 2.1259658 2894892
-0.92246753 -0.67523932 2.1086166 2448532
-0.87515098 -0.67514426 2.1097953 2843288
-0.82456315 -0.67493993 2.1110845 3501214
-0.77448338 -0.67472064 2.1123598 3171737
-0.72503126 -0.67512077 2.1136127 2644112
-0.67573518 -0.67516613 2.114866 2974613
-0.62508345 -0.67505652 2.1161556 2644876
-0.59202015 -0.67514706 2.1203606 9672861
0.48718703 -0.67483521 2.1264608 2894892
-0.92264557 -0.6248101 2.1091006 2382483
-0.8751635 -0.62511742 2.1103468 2975131
-0.82512695 -0.6252588 2.1116178 3435421
-0.77468306 -0.62499952 2.1129038 3171737
-0.7244184 -0.62460929 2.1141868 2578576
-0.67510426 -0.62506378 2.1154354 2843284
-0.62524438 -0.62524587 2.1167009 2710924
-0.59214658 -0.62523383 2.1204889 9541532
0.48731175 -0.62490928 2.1271966 2894892
-0.92309868 -0.57512563 2.1097736 2315919
-0.87533659 -0.57461739 2.1109009 3040665
-0.82516783 -0.5749054 2.1121733 3238299
-0.77488226 -0.57525265 2.1134477 3040664
-0.72473919 -0.57503337 2.1147258 2711187
-0.67500073 -0.57506782 2.1159899 2777491
-0.62519956 -0.57486087 2.117259 2579082
-0.59219646 -0.57477653 2.1206756 7567743
0.48751962 -0.57462394 2.1245782 2894892
-0.92004061 -0.53384775 2.1101761 2250639
-0.87543136 -0.52516276 2.1114442 3172763
-0.82538009 -0.52516299 2.1127162 3369884
-0.77508605 -0.52460653 2.1140015 2975641
-0.72472614 -0.52492332 2.1152794 2843799
-0.67502266 -0.52510768 2.1165411 2843541
-0.62563032 -0.52513653 2.1177969 2579852
-0.59222639 -0.52492416 2.1209543 5330781
0.48766056 -0.52506304 2.1246006 2894892
-0.86408007 -0.49276868 2.1120906 3304347
-0.82239491 -0.48101309 2.1132801 3369627
-0.77528524 -0.47480801 2.114547 2843543
-0.72491306 -0.47509491 2.1158247 2711957
-0.67426115 -0.47492287 2.1171141 2843540
-0.62486029 -0.47478926 2.1183717 2513546
-0.59233218 -0.47507015 2.121156 5002073
0.48779818 -0.47553203 2.1247728 2894892
-0.80142343 -0.44932264 2.1141634 3237786
-0.76776022 -0.44031236 2.115119 2711700
-0.72288471 -0.42834321 2.1163921 2711700
-0.67487663 -0.42505148 2.1176498 2646162
-0.62502199 -0.4248749 2.1189196 2447240
-0.59196967 -0.42486179 2.1230357 8423309
0.48800147 -0.42494348 2.1223762 2894892
-0.70500147 -0.39708805 2.1171923 2778005
-0.66947848 -0.38709417 2.1182063 2579599
-0.62405473 -0.37637386 2.1194789 2249093
-0.59207088 -0.37506869 2.1233206 9278361
0.48813105 -0.37504873 2.1229019 2894892
-0.92190719 -0.30351055 2.1112802 1651276
-0.87487251 -0.30364028 2.1121833 2374225
-0.82459378 -0.30381504 2.1134 3622744
-0.77494842 -0.30400479 2.1145475 4214619
-0.72543216 -0.30414295 2.1158514 2636882
-0.67515129 -0.30433443 2.1170151 1651277
-0.61961186 -0.31694791 2.1188602 1455704
-0.58991349 -0.32584003 2.1226716 10396325
0.48825854 -0.32500154 2.1235342 2894892
-0.92267132 -0.27488741 2.1128545 2250374
-0.87501615 -0.27502978 2.1142166 2513546
-0.82471216 -0.27519599 2.1154933 2446983
-0.77452981 -0.27490211 2.1167729 2579081
-0.72516197 -0.27486545 2.1180294 2709896
-0.67518026 -0.27481326 2.1193006 2183555
-0.62463409 -0.27497971 2.1205847 1919353
-0.59140265 -0.27500275 2.1240816 9804447
0.48839125 -0.27492881 2.1239574 2894892
-0.92268986 -0.22503366 2.1132505 2382735
-0.87524194 -0.22516191 2.1147611 2580371
-0.82492453 -0.22529787 2.1160393 2316431
-0.77472311 -0.22519802 2.117317 2250894
-0.72498196 -0.22469153 2.118588 2447758
-0.67535466 -0.22482528 2.1198485 2117768
-0.62479573 -0.22496143 2.1211319 2051200
-0.5914005 -0.22503906 2.1243808 9804447
0.48851362 -0.22495611 2.1247957 2894892
-0.92299277 -0.17516141 2.1135976 2382990
-0.87546718 -0.17526819 2.1153061 2580114
-0.82505465 -0.17528075 2.1165881 2184332
-0.77475047 -0.17460349 2.1178749 2053003
-0.72510785 -0.17464933 2.119137 2315659
-0.67547077 -0.17486793 2.1203971 2250379
-0.62495708 -0.17491727 2.1216807 2249860
-0.59151798 -0.17498197 2.1245434 9278104
0.48864773 -0.17495619 2.1251493 2894892
-0.92282426 -0.12498976 2.1142845 2383246
-0.87534058 -0.12556475 2.115859 2514320
-0.82543182 -0.1253365 2.1171303 2117769
-0.77495062 -0.12462339 2.1184218 1986440
-0.72448611 -0.12469881 2.1197045 2183816
-0.6748324 -0.12477311 2.120966 2250634
-0.62511897 -0.12484744 2.1222293 2249346
-0.59128845 -0.12442685 2.1260107 5462109
0.48877594 -0.12492939 2.1257465 2894892
-0.92257303 -0.075277433 2.114733 2118280
-0.87505144 -0.075404376 2.1164198 2316173
-0.82553834 -0.074601434 2.1176879 2382479
-0.77515119 -0.074617267 2.1189687 2514576
-0.72467351 -0.074662462 2.1202521 2184587
-0.67500681 -0.074706934 2.1215146 1986438
-0.62528062 -0.074751429 2.1227789 1853309
-0.59122872 -0.074814096 2.1267612 5462109
0.48890287 -0.074875347 2.1264114 2894892
-0.92263228 -0.025347261 2.1150503 2052744
-0.87443829 -0.025403887 2.1169872 2249610
-0.82494432 -0.024603264 2.1182551 2514577
-0.775352 -0.024585484 2.1195164 2580882
-0.72486067 -0.024600381 2.1208005 2052232
-0.67518127 -0.024615034 2.1220639 1787778
-0.62544245 -0.02462971 2.1233282 1522035
-0.59128243 -0.02467349 2.1270518 5330524
0.48903593 -0.024925947 2.1267991 2894892
-0.92278683 0.025353014 2.1154091 1788804
-0.87474155 0.02468927 2.117533 2051205
-0.82505751 0.024637293 2.1187959 2382221
-0.77548784 0.024537437 2.1200552 2316941
-0.7250452 0.024608709 2.1213396 1721728
-0.67463225 0.024748938 2.122622 1523323
-0.62488848 0.024510052 2.1238847 1456241
-0.59134942 0.024677137 2.1272883 6317419
0.48922542 0.025722614 2.1249795 2894892
-0.92289841 0.062889583 2.1149077 1788547
-0.87502301 0.061924085 2.1174023 1853057
-0.82440841 0.061457939 2.1192191 2249866
-0.77482522 0.061494526 2.1204798 2184073
-0.72518313 0.061531171 2.121743 1654909
-0.67460889 0.061568473 2.1230295 1589115
-0.62482953 0.06160304 2.124233 1588854
-0.58625031 0.071970902 2.1245651 8948622
-0.52714509 0.092745379 2.1270652 10000536
-0.4744311 0.092592552 2.1285527 10000536
-0.4245784 0.092490144 2.1261981 10000536
-0.37483567 0.092387959 2.1238489 10000536
-0.32520273 0.092285991 2.1215053 10066329
-0.27479631 0.092182443 2.1191247 10197915
-0.22209106 0.091913745 2.130959 10197915
-0.17476717 0.091794848 2.130661 10197915
-0.12476476 0.09169551 2.1279967 10197915
-0.074860521 0.091590032 2.1259069 10197915
-0.025078755 0.091491096 2.1232531 10197915
0.025041211 0.091388352 2.1208684 10197915
0.075044729 0.091279507 2.1190569 10197915
0.12131301 0.091148488 2.1200812 10197915
0.17473061 0.090897605 2.1301627 10197915
0.22477934 0.090795182 2.127763 10197915
0.27471605 0.090693034 2.1253686 10197915
0.32453984 0.090591051 2.1229792 10197915
0.3751232 0.090487562 2.1205535 10000536
0.42559114 0.090384305 2.1181333 2960685
0.48560745 0.073964961 2.1260371 2894892
0.48512363 -0.96200806 2.1772494 2894892
0.48532397 -0.92498159 2.1733873 2894892
0.48545146 -0.87504768 2.174001 2894892
0.48558185 -0.82483166 2.1745443 2894892
0.4857116 -0.7747156 2.175082 2894892
0.48583725 -0.72495788 2.1757698 2894892
0.48596758 -0.67504686 2.1762702 2894892
0.48609358 -0.62497842 2.1769602 2894892
0.48622748 -0.57514656 2.1773078 2894892
0.48640287 -0.52608532 2.1758785 2894892
0.48659551 -0.47434747 2.1740549 2894892
0.48679179 -0.42508724 2.1717796 2894892
0.48691556 -0.37492728 2.1725779 2894892
0.48704734 -0.3248682 2.1730418 2894892
0.48717502 -0.27491209 2.1736536 2894892
0.48730576 -0.22492857 2.1741526 2894892
0.48743141 -0.17504668 2.1748383 2894892
0.48756209 -0.12501206 2.175339 2894892
0.48769093 -0.07507731 2.1759129 2894892
0.48781958 -0.025120163 2.1764867 2894892
0.48794904 0.025129061 2.1770639 2894892
-0.5683865 0.092274792 2.1785963 9934743
-0.52530527 0.092144161 2.1803231 10000536
-0.47508612 0.092041604 2.1778965 10000536
-0.42499313 0.091932453 2.1760895 10000536
-0.3750011 0.091837227 2.1730604 10000536
-0.32511565 0.091735363 2.1706498 10066329
-0.27489987 0.091629386 2.1685293 10197915
-0.2286246 0.091415286 2.1769748 10197915
-0.17525424 0.091238126 2.1804824 10197915
-0.12452551 0.091134772 2.1780119 10197915
-0.074814081 0.091033451 2.1755908 10197915
-0.025213718 0.090932369 2.1731744 10197915
0.025175776 0.090829693 2.1707215 10197915
0.07545159 0.090727247 2.1682727 10197915
0.12950757 0.09050858 2.1753316 10197915
0.17523827 0.090331689 2.1805799 10197915
0.2255722 0.090229347 2.1781087 10197915
0.27534235 0.090131633 2.1753545 10197915
0.32499763 0.090027161 2.1732285 10197915
0.374993 0.08992552 2.1707742 9671571
0.42531306 0.089826539 2.1680048 2894892
0.48580152 0.072242767 2.1782334 2894892
0.48333174 -1.0024844 2.2457347 2894892
0.48387977 -0.97253466 2.2268412 2894892
0.48405078 -0.92502606 2.2254031 2894892
0.48417526 -0.87507355 2.2261508 2894892
0.48431602 -0.82569492 2.2261574 2894892
0.48452535 -0.77530116 2.2234883 2894892
0.4846566 -0.72513896 2.2239871 2894892
0.48478344 -0.67510128 2.2246463 2894892
0.48491281 -0.62519282 2.2251878 2894892
0.48503771 -0.57540828 2.2258906 2894892
0.48523703 -0.52436399 2.2237091 2894892
0.48538721 -0.47499728 2.2233431 2894892
0.48551929 -0.4251073 2.2237716 2894892
0.48564678 -0.37519488 2.2243979 2894892
0.48577717 -0.32512191 2.2249084 2894892
0.48590401 -0.27502385 2.2255764 2894892
0.48603049 -0.22503088 2.2262452 2894892
0.48617014 -0.17538227 2.2263405 2894892
0.48638135 -0.12512513 2.2235749 2894892
0.48651421 -0.074942999 2.2240038 2894892
0.48663834 -0.024884766 2.224776 2894892
0.48676625 0.024893496 2.2253606 2894892
-0.60522825 0.091779038 2.2313681 10000536
-0.57921785 0.091797449 2.223722 10000536
-0.52438873 0.091559127 2.2323592 10000536
-0.47485003 0.091458626 2.2299085 10000536
-0.42542061 0.091358311 2.227463 10000536
-0.37516961 0.09125635 2.2249768 10000536
-0.32503065 0.091154613 2.2224963 10066329
-0.27500334 0.091053091 2.2200208 10197915
-0.22508737 0.090951815 2.2175512 10197915
-0.17192346 0.090781473 2.2204998 10197915
-0.12520923 0.090553127 2.2301128 10197915
-0.075224347 0.090451784 2.2276325 10197915
-0.024897976 0.090346269 2.2254465 10197915
0.024860976 0.09024553 2.2229652 10197915
0.074961886 0.090147689 2.2201438 10197915
0.12125602 0.089999549 2.2226942 10197915
0.17485616 0.089743391 2.2332034 10197915
0.22456485 0.089642957 2.2307048 10197915
0.27507943 0.089540906 2.2281651 10197915
0.32547992 0.089439116 2.2256315 10197915
0.37485224 0.089339361 2.2231495 9276813
0.42502549 0.089237988 2.2206273 2894892
0.48443213 0.072129413 2.224673 2894892
0.48248443 -1.010036 2.2794771 2894892
0.48267788 -0.97494555 2.2756622 2894892
0.48280993 -0.92491072 2.2761159 2894892
0.48293829 -0.87500632 2.2766945 2894892
0.48307893 -0.82454908 2.2768483 2894892
0.48329175 -0.77506638 2.2739291 2894892
0.483417 -0.72492445 2.2746618 2894892
0.4835481 -0.67489082 2.2751362 2894892
0.48370546 -0.62563628 2.2744625 2894892
0.48389742 -0.57521933 2.2725065 2894892
0.48402533 -0.52545977 2.2731049 2894892
0.48415914 -0.47504744 2.2735136 2894892
0.48428264 -0.42492598 2.2743168 2894892
0.48441401 -0.37493211 2.2747927 2894892
0.48454285 -0.32491127 2.2753706 2894892
0.48466554 -0.27486512 2.2761967 2894892
0.48479712 -0.22494854 2.2766473 2894892
0.4849411 -0.17457961 2.2766466 2894892
0.48515096 -0.12502018 2.2738576 2894892
0.48527265 -0.075112015 2.2747152 2894892
0.48541039 -0.025047744 2.2749321 2894892
0.48554176 0.024929343 2.2754021 2894892
-0.61107188 0.091331117 2.2727129 10000536
-0.57483548 0.0912579 2.2708914 10000536
-0.52438629 0.091155991 2.2683551 10000536
-0.47499877 0.091056198 2.2658725 10000536
-0.42088187 0.09085197 2.2716274 10000536
-0.37487409 0.090646461 2.2793653 10000536
-0.32493505 0.09054973 2.2764857 10066329
-0.27511719 0.090445369 2.2743094 10197915
-0.22492801 0.09034425 2.2717657 10197915
-0.17652784 0.090229474 2.270849 10197915
-0.12496882 0.089936428 2.2851231 10197915
-0.074710049 0.089835353 2.2825551 10197915
-0.024563415 0.08973451 2.2799928 10197915
0.025470054 0.089633904 2.2774363 10197915
0.075392157 0.0895335 2.2748857 10197915
0.12520187 0.089433342 2.2723408 10197915
0.17490092 0.0893334 2.2698011 10197915
0.22448835 0.089233674 2.2672679 10197915
0.27489796 0.089132294 2.2646918 10197915
0.32914144 0.088872537 2.2753794 10197915
0.37517658 0.088723838 2.278039 8684676
0.42518666 0.08861953 2.2758174 2894892
0.48155555 0.073905103 2.2725871 2894892
0.4813163 -1.020363 2.3260028 2894892
0.48148268 -0.97516674 2.3244829 2894892
0.48161364 -0.92517656 2.3249679 2894892
0.48174056 -0.87500107 2.3256392 2894892
0.48186639 -0.82495773 2.3263357 2894892
0.4819977 -0.77488798 2.3268218 2894892
0.48212525 -0.72495407 2.3274345 2894892
0.48224929 -0.67515063 2.3281846 2894892
0.48242489 -0.62440175 2.3269444 2894892
0.48271555 -0.57454598 2.3208878 2894892
0.4828414 -0.52435476 2.321605 2894892
0.48296675 -0.47478873 2.3222685 2894892
0.48309198 -0.42503214 2.3229601 2894892
0.48322326 -0.3749294 2.3234446 2894892
0.4833484 -0.32479951 2.324192 2894892
0.48348168 -0.27496454 2.324564 2894892
0.48360312 -0.22510423 2.3254185 2894892
0.48373124 -0.17505419 2.3260329 2894892
0.48386428 -0.12498076 2.3264372 2894892
0.48399034 -0.075041927 2.3271279 2894892
0.48411453 -0.025073601 2.3278766 2894892
0.48424768 0.025232226 2.3283126 2894892
-0.61836642 0.090683982 2.3321834 10000536
-0.57511377 0.090630561 2.3269763 10000536
-0.52535743 0.090530731 2.3244133 10000536
-0.47523201 0.090425953 2.3222077 10000536
-0.42846337 0.090297215 2.3229172 10000536
-0.37553698 0.090011597 2.3362164 10000536
-0.32484132 0.08991012 2.3335831 10066329
-0.27523112 0.089810848 2.3310063 10197915
-0.22573106 0.08971177 2.3284347 10197915
-0.17537242 0.089610972 2.3258188 10197915
-0.12512678 0.089510426 2.3232088 10197915
-0.074993759 0.089410074 2.3206043 10197915
-0.024973027 0.089309968 2.318006 10197915
0.024935812 0.089210071 2.3154135 10197915
0.074733131 0.089110404 2.3128266 10197915
0.12735647 0.088819996 2.3266187 10197915
0.17497012 0.088694952 2.3268011 10197915
0.22532716 0.088590309 2.3245325 10197915
0.27509567 0.088490933 2.3219252 10197915
0.32086572 0.088319205 2.3267038 10197915
0.37551314 0.088072501 2.3361268 8092539
0.42536023 0.087973207 2.3334937 2894892
0.48244262 0.070749402 2.324513 2894892
0.47981623 -1.0583109 2.382865 2894892
0.48011011 -1.0253106 2.3747008 2894892
0.48023808 -0.97490841 2.3753657 2894892
0.48036537 -0.9249633 2.3759928 2894892
0.48049039 -0.87515658 2.3767059 2894892
0.48061872 -0.82499778 2.3773117 2894892
0.48076922 -0.77576613 2.3769116 2894892
0.48097947 -0.72491354 2.3742607 2894892
0.48110914 -0.67473155 2.3748214 2894892
0.4812479 -0.62474877 2.3749821 2894892
0.48146728 -0.57481587 2.37185 2894892
0.48159495 -0.52484071 2.372478 2894892
0.48172694 -0.47516596 2.3728769 2894892
0.48185295 -0.42497808 2.3735912 2894892
0.48197404 -0.37509102 2.3744736 2894892
0.48210886 -0.32517561 2.3747885 2894892
0.48223397 -0.27506915 2.3755305 2894892
0.48236448 -0.2249357 2.3760471 2894892
0.48248443 -0.17494228 2.3769872 2894892
0.48261794 -0.12492193 2.3773611 2894892
0.48276961 -0.075827271 2.3769083 2894892
0.48298106 -0.024989545 2.3742001 2894892
0.48310637 0.024799872 2.3748915 2894892
-0.65162313 0.09011808 2.3903866 10000536
-0.62517208 0.090082578 2.3874583 10000536
-0.5743919 0.0899643 2.3863075 10000536
-0.52437979 0.089864686 2.3836653 10000536
-0.47447827 0.089765303 2.3810291 10000536
-0.424687 0.089666158 2.3783987 10000536
-0.37500563 0.089567207 2.3757741 10000536
-0.32543382 0.089468457 2.3731556 10066329
-0.27498335 0.089367993 2.3704906 10197915
-0.22464532 0.089267738 2.3678315 10197915
-0.17540419 0.089169674 2.3652303 10197915
-0.12528992 0.089069873 2.3625827 10197915
-0.071213655 0.088862568 2.3686206 10197915
-0.025123814 0.088647321 2.3772082 10197915
0.025086131 0.088547572 2.3745348 10197915
0.074680731 0.088444583 2.3722889 10197915
0.12079909 0.088222444 2.3814878 10197915
0.17504393 0.088018723 2.3871665 10197915
0.22522657 0.087919287 2.3844695 10197915
0.27529666 0.08782009 2.3817792 10197915
0.32525313 0.087721102 2.3790946 10197915
0.37509787 0.087622344 2.376416 7763574
0.42482978 0.087523803 2.3737433 2894892
0.48086196 0.071830399 2.3738329 2894892
0.47875544 -1.0675104 2.4251285 2894892
0.47891542 -1.0251008 2.4235482 2894892
0.47904637 -0.9749583 2.4240496 2894892
0.47917357 -0.92499089 2.4246898 2894892
0.4792988 -0.87499624 2.4254072 2894892
0.47942472 -0.82477349 2.4261253 2894892
0.47958592 -0.77403629 2.4254661 2894892
0.47978809 -0.72503769 2.422919 2894892
0.47992122 -0.6750294 2.4233205 2894892
0.4800469 -0.62483019 2.4240582 2894892
0.48017099 -0.57460099 2.4248531 2894892
0.48029831 -0.52451074 2.4254966 2894892
0.4804309 -0.47472814 2.4258904 2894892
0.48055187 -0.42509198 2.4267423 2894892
0.48075145 -0.37612942 2.4243045 2894892
0.4809207 -0.32489517 2.4233732 2894892
0.48104829 -0.27476582 2.4240122 2894892
0.48117116 -0.22501679 2.4247971 2894892
0.4812983 -0.17503564 2.425437 2894892
0.48142737 -0.12502848 2.4260061 2894892
0.48159817 -0.074137956 2.4249668 2894892
0.48178929 -0.025093213 2.4228864 2894892
0.48191705 0.025102086 2.4235287 2894892
-0.65790981 0.089669123 2.431927 10000536
-0.62522161 0.08960434 2.4301701 10000536
-0.57525218 0.089505345 2.427485 10000536
-0.52539384 0.089406557 2.4248056 10000536
-0.47463089 0.089305982 2.4220781 10000536
-0.42499343 0.089207627 2.4194107 10000536
-0.37546605 0.089109495 2.416749 10000536
-0.32503968 0.08900959 2.4140396 10066329
-0.27472621 0.088909887 2.4113355 10197915
-0.22183441 0.088739857 2.4143178 10197915
-0.17495424 0.088475883 2.4270735 10197915
-0.1245385 0.088376276 2.4243405 10197915
-0.077752061 0.088250153 2.4248102 10197915
-0.025276208 0.087944612 2.4399874 10197915
0.02523808 0.087845065 2.4372253 10197915
0.075638145 0.087745734 2.4344697 10197915
0.12492009 0.087648608 2.4317751 10197915
0.17409231 0.087551698 2.4290862 10197915
0.22415651 0.087453038 2.4263487 10197915
0.27410799 0.087354586 2.4236174 10197915
0.32494238 0.087254398 2.4208379 10197915
0.37566105 0.087154455 2.4180648 7237230
0.42527214 0.087056674 2.4153516 2894892
0.47998339 0.070956334 2.4224098 2894892
0.47711882 -1.1067609 2.4874265 2894892
0.47753856 -1.0746806 2.4740212 2894892
0.47767654 -1.0248791 2.4741974 2894892
0.47780076 -0.97525328 2.4749126 2894892
0.47792909 -0.92525744 2.4755073 2894892
0.47810528 -0.87624454 2.4740303 2894892
0.47830099 -0.82508487 2.4720109 2894892
0.47842011 -0.77510887 2.4729733 2894892
0.47855076 -0.72510141 2.4734764 2894892
0.47868133 -0.67506641 2.4739792 2894892
0.47879717 -0.62500626 2.4750972 2894892
0.47893551 -0.57492739 2.4752932 2894892
0.47905606 -0.52521825 2.4761746 2894892
0.47918642 -0.47528112 2.4766767 2894892
0.47931033 -0.42491367 2.4774897 2894892
0.47952962 -0.3739678 2.4744878 2894892
0.47967827 -0.32491037 2.4741294 2894892
0.47980955 -0.27510336 2.4745884 2894892
0.47993702 -0.22509469 2.4752121 2894892
0.48006269 -0.1753951 2.4758902 2894892
0.48030266 -0.12514302 2.471946 2894892
0.48042861 -0.074777104 2.4726779 2894892
0.48055938 -0.024799613 2.4731774 2894892
0.48068523 0.024808278 2.4738255 2894892
-0.66337866 0.08920221 2.474879 10000536
-0.62491375 0.089126401 2.4727757 10000536
-0.57510644 0.089028239 2.4700522 10000536
-0.52540869 0.088930301 2.4673345 10000536
-0.47478876 0.088830516 2.4645669 10000536
-0.42428139 0.088730983 2.4618056 10000536
-0.3749148 0.088633694 2.4591057 10000536
-0.3206358 0.088386439 2.4686627 10132122
-0.27484301 0.088191189 2.4755354 10197915
-0.22721623 0.088075325 2.4748955 10197915
-0.17550705 0.08775124 2.4919074 10197915
-0.1258136 0.087653846 2.4891417 10197915
-0.075198948 0.087554626 2.4863248 10197915
-0.024697913 0.08745566 2.4835141 10197915
0.024661511 0.087358922 2.4807665 10197915
0.07493636 0.087260388 2.4779692 10197915
0.12509869 0.087162077 2.4751766 10197915
0.17514735 0.087063991 2.4723914 10197915
0.22508425 0.08696612 2.4696121 10197915
0.27490824 0.086868457 2.4668391 10197915
0.32563427 0.086769044 2.4640157 10197915
0.37523362 0.086671829 2.4612553 6908265
0.42472121 0.086574838 2.4585009 2894892
0.47853968 0.070701212 2.471925 2894892
0.47607073 -1.1157588 2.5291946 2894892
0.47626221 -1.0751776 2.5261068 2894892
0.4763771 -1.0250024 2.527271 2894892
0.47650358 -0.9750042 2.5279438 2894892
0.47662964 -0.92518795 2.52861 2894892
0.4768292 -0.8739329 2.5264397 2894892
0.47701389 -0.82548541 2.5245478 2894892
0.47725129 -0.77508736 2.5207365 2894892
0.47737613 -0.72494406 2.521488 2894892
0.47751063 -0.67498398 2.5218291 2894892
0.47762918 -0.62499791 2.5228231 2894892
0.47775567 -0.57498163 2.5234933 2894892
0.47788242 -0.524939 2.5241613 2894892
0.47800896 -0.47486985 2.5248303 2894892
0.47813925 -0.42498511 2.5253315 2894892
0.47826749 -0.37507397 2.5259202 2894892
0.47838843 -0.32492903 2.5268335 2894892
0.47851536 -0.27475384 2.5275049 2894892
0.4786458 -0.22476217 2.5280085 2894892
0.47878057 -0.17456219 2.5283639 2894892
0.47901586 -0.12498197 2.5245473 2894892
0.47917247 -0.076028131 2.5238578 2894892
0.47938618 -0.025065696 2.5210719 2894892
0.4795132 0.02507454 2.5217395 2894892
-0.67010397 0.088720582 2.5194345 10000536
-0.62565261 0.088633455 2.5169604 10000536
-0.57495552 0.088534109 2.5141387 10000536
-0.52437192 0.088434964 2.5113235 10000536
-0.47495151 0.088338107 2.5085733 10000536
-0.42462948 0.088219091 2.5075934 10000536
-0.37511003 0.087893128 2.5252817 10000536
-0.32883161 0.087730348 2.5291448 10066329
-0.27495959 0.087437846 2.5428398 10197915
-0.22519694 0.087340899 2.5400202 10197915
-0.17448892 0.087242089 2.5371466 10197915
-0.12494797 0.087145537 2.534339 10197915
-0.075517319 0.087049238 2.5315378 10197915
-0.0251472 0.086951084 2.5286837 10197915
0.025109461 0.086853154 2.5258358 10197915
0.07525304 0.086755447 2.522994 10197915
0.12528391 0.086657949 2.520159 10197915
0.1752025 0.086560689 2.5173302 10197915
0.22500916 0.08646363 2.514508 10197915
0.27470413 0.086366802 2.5116918 10197915
0.3242881 0.086270183 2.5088818 10197915
0.37479028 0.086171776 2.5060203 6579300
0.42829722 0.085859962 2.5215211 2894892
0.47584638 0.07245703 2.5225544 2894892
0.47446066 -1.1548567 2.5904191 2894892
0.4748852 -1.1240509 2.5766726 2894892
0.47502404 -1.0749456 2.5767288 2894892
0.47515002 -1.0250441 2.5774119 2894892
0.47528332 -0.9746933 2.5778387 2894892
0.4754003 -0.92495221 2.5788682 2894892
0.47558936 -0.87647659 2.5768032 2894892
0.47579658 -0.82468456 2.5743809 2894892
0.47603214 -0.77506775 2.5705466 2894892
0.47615868 -0.72499651 2.5712285 2894892
0.47628894 -0.67510712 2.5717371 2894892
0.47640273 -0.62497997 2.5729368 2894892
0.47654149 -0.57504761 2.5730989 2894892
0.47666606 -0.52485716 2.5738707 2894892
0.47678381 -0.47487164 2.5749006 2894892
0.47692007 -0.42506164 2.5751438 2894892
0.47704226 -0.37501481 2.5759981 2894892
0.47716433 -0.32494232 2.5768545 2894892
0.47729662 -0.27505893 2.5772724 2894892
0.47742245 -0.2251444 2.577955 2894892
0.47754699 -0.17499149 2.5787232 2894892
0.47771925 -0.12648852 2.5773497 2894892
0.47796422 -0.073782228 2.5734921 2894892
0.47817859 -0.024925997 2.5704379 2894892
0.47830454 0.02493475 2.5711148 2894892
-0.70082396 0.088267662 2.566972 10000536
-0.67491925 0.088217206 2.5655046 10000536
-0.62534207 0.088120595 2.562695 10000536
-0.57479978 0.088022105 2.5598311 10000536
-0.52436954 0.087923862 2.5569735 10000536
-0.47512153 0.087827899 2.5541825 10000536
-0.42561415 0.087466925 2.5749938 10000536
-0.37530878 0.087104991 2.5957067 10000536
-0.32548076 0.087008484 2.5928309 10066329
-0.27576301 0.0869122 2.5899618 10197915
-0.22507834 0.086814024 2.5870361 10197915
-0.17450726 0.086716078 2.5841174 10197915
-0.1251229 0.086620435 2.5812669 10197915
-0.074777812 0.086522929 2.5783615 10197915
-0.024545105 0.086425632 2.5754621 10197915
0.024509151 0.086330622 2.5726309 10197915
0.074518137 0.086233772 2.5697443 10197915
0.12547587 0.086135082 2.5668035 10197915
0.17525944 0.086038649 2.5639303 10197915
0.22493094 0.085942447 2.5610633 10197915
0.27554512 0.085844427 2.5581417 10197915
0.32499355 0.08574865 2.5552881 10197915
0.37875146 0.085509799 2.5642166 5395026
0.42063463 0.085163817 2.5854468 2894892
0.47636864 0.069902472 2.5754361 2894892
0.4734382 -1.1634538 2.6311951 2894892
0.47362235 -1.1247228 2.6281903 2894892
0.47385606 -1.0756124 2.6243758 2894892
0.47400349 -1.0251964 2.6242354 2894892
0.47413373 -0.97517222 2.6247613 2894892
0.47425747 -0.92485619 2.6255753 2894892
0.47445962 -0.87352759 2.6233127 2894892
0.47464064 -0.82502377 2.6215789 2894892
0.4747619 -0.77504736 2.6224546 2894892
0.47488999 -0.72504765 2.62306 2894892
0.47502291 -0.67502236 2.6234791 2894892
0.47513935 -0.62518775 2.6245396 2894892
0.47526479 -0.57532322 2.6252339 2894892
0.47539049 -0.52543229 2.6259267 2894892
0.47552115 -0.47529665 2.6264422 2894892
0.47564572 -0.4249244 2.6272328 2894892
0.47576964 -0.37473714 2.628022 2894892
0.47595248 -0.32624608 2.6262162 2894892
0.4761509 -0.27503565 2.6240866 2894892
0.47627681 -0.22508727 2.6247792 2894892
0.47641087 -0.17511629 2.6251276 2894892
0.47660071 -0.12360492 2.6233895 2894892
0.47678307 -0.074940212 2.6216202 2894892
0.47690895 -0.024985936 2.6223123 2894892
0.47703475 0.024994723 2.6230042 2894892
-0.70740259 0.087748207 2.6148744 10000536
-0.67441607 0.087684296 2.6129704 10000536
-0.62501949 0.087588653 2.6101193 10000536
-0.57573134 0.087493181 2.6072745 10000536
-0.5254584 0.087395802 2.6043735 10000536
-0.4711971 0.087162539 2.6126869 10000536
-0.42448655 0.086651318 2.6475594 10000536
-0.37471306 0.086555526 2.6446321 10000536
-0.32505032 0.086459942 2.641712 10066329
-0.27439681 0.086362459 2.6387331 10197915
-0.22495443 0.0862673 2.6358261 10197915
-0.17562176 0.08617235 2.6329246 10197915
-0.12530448 0.086075507 2.629966 10197915
-0.075100154 0.085978888 2.6270139 10197915
-0.02500842 0.08588247 2.624068 10197915
0.0249711 0.085786283 2.6211286 10197915
0.074838787 0.08569032 2.6181965 10197915
0.12459502 0.085594557 2.6152706 10197915
0.17424017 0.085499004 2.6123507 10197915
0.22484981 0.085401595 2.6093748 10197915
0.27534509 0.085304402 2.6064055 10197915
0.3246544 0.085209511 2.6035056 10197915
0.37413478 0.084943965 2.6158073 5789784
0.42447993 0.084458202 2.6475778 2894892
0.47522756 0.069606386 2.6264179 2894892
0.47182852 -1.2024376 2.6924114 2894892
0.47227913 -1.1731943 2.6774137 2894892
0.47243479 -1.1250769 2.6766706 2894892
0.47267583 -1.0743153 2.6727502 2894892
0.47282195 -1.0246886 2.6725767 2894892
0.47293735 -0.97490329 2.6736722 2894892
0.47307006 -0.92486233 2.6740904 2894892
0.4731887 -0.87479675 2.6750922 2894892
0.47332084 -0.82492667 2.6755068 2894892
0.47344142 -0.77502602 2.6764116 2894892
0.47357163 -0.72510397 2.6769242 2894892
0.47374392 -0.67636549 2.6755779 2894892
0.47394955 -0.62483066 2.6731899 2894892
0.47408321 -0.57515925 2.673528 2894892
0.47420415 -0.52517027 2.6744201 2894892
0.47433642 -0.47487938 2.6748888 2894892
0.47444946 -0.42512721 2.6760812 2894892
0.47458559 -0.3750636 2.6763639 2894892
0.474783 -0.32365954 2.6743062 2894892
0.47497067 -0.27501732 2.6723173 2894892
0.47509626 -0.22503129 2.6730206 2894892
0.47521693 -0.17502175 2.6739235 2894892
0.47535029 -0.12476289 2.6743414 2894892
0.47546118 -0.074917674 2.6756308 2894892
0.47560078 -0.025060771 2.6757512 2894892
0.47572666 0.025069619 2.6764596 2894892
-0.71423203 0.087208971 2.6645977 10000536
-0.67501318 0.087133497 2.6622915 10000536
-0.62468535 0.087036632 2.659332 10000536
-0.57446855 0.086939983 2.6563792 10000536
-0.52547574 0.086845681 2.6534982 10000536
-0.48324707 0.08676441 2.6510148 10000536
-0.42482492 0.086082041 2.6984816 10197915
-0.37522143 0.08598721 2.6955087 10197915
-0.32572696 0.085892573 2.6925418 10197915
-0.27522063 0.085796013 2.6895149 10197915
-0.22482692 0.085699648 2.6864946 10197915
-0.17454711 0.08560352 2.683481 10197915
-0.12437915 0.085507601 2.6804745 10197915
-0.075435005 0.085414022 2.6775403 10197915
-0.0254896 0.085318528 2.6745472 10197915
0.025450828 0.085221119 2.6714938 10197915
0.075171858 0.085126065 2.6685135 10197915
0.12478129 0.085031226 2.6655407 10197915
0.1753794 0.084934473 2.6625078 10197915
0.22586249 0.084837951 2.659482 10197915
0.27513766 0.084743731 2.6565287 10197915
0.3243027 0.084649742 2.6535821 10197915
0.36682701 0.084568448 2.6510334 6316128
0.43272242 0.083861344 2.6989706 2894892
0.47401839 0.069281936 2.6801672 2894892
0.47083378 -1.2111659 2.7320385 2894892
0.47109908 -1.17607 2.7252913 2894892
0.4713296 -1.1253308 2.7218044 2894892
0.4714559 -1.0748764 2.7225335 2894892
0.47158229 -1.0243949 2.723263 2894892
0.47170588 -0.97500902 2.7239778 2894892
0.47183719 -0.92503941 2.7244465 2894892
0.47195616 -0.87504041 2.7254229 2894892
0.47208452 -0.82501388 2.7260187 2894892
0.47220677 -0.7749632 2.7268698 2894892
0.47233307 -0.72516423 2.7275259 2894892
0.47252825 -0.67378128 2.7255545 2894892
0.47272542 -0.6252594 2.7231569 2894892
0.47284499 -0.57554227 2.7240798 2894892
0.47297817 -0.52534086 2.7245007 2894892
0.47309452 -0.47490892 2.7256331 2894892
0.4732216 -0.42510983 2.7262495 2894892
0.47338679 -0.37639257 2.7251918 2894892
0.47361401 -0.325046 2.7218997 2894892
0.47374293 -0.2749342 2.7224944 2894892
0.47386208 -0.22480565 2.7234702 2894892
0.47398862 -0.1749229 2.7241251 2894892
0.47411525 -0.12501739 2.7247787 2894892
0.47424403 -0.074808851 2.7253754 2894892
0.47436464 -0.024847202 2.7262857 2894892
0.47448912 0.024855889 2.7270014 2894892
-0.72132778 0.086648948 2.7162528 10000536
-0.67449331 0.086559407 2.7134454 10000536
-0.62433839 0.086463504 2.7104394 10000536
-0.57429451 0.086367823 2.7074401 10066329
-0.52436119 0.086272351 2.7044475 10197915
-0.47453821 0.086177088 2.7014611 10197915
-0.40216893 0.085446656 2.7499919 10197915
-0.37574914 0.085396476 2.7483766 10197915
-0.32528451 0.085300662 2.7452929 10197915
-0.27493292 0.085205048 2.7422156 10197915
-0.2246941 0.085109644 2.7391455 10197915
-0.17456768 0.085014477 2.7360828 10197915
-0.12455323 0.084919497 2.733026 10197915
-0.074650392 0.084824748 2.7299764 10197915
-0.024858801 0.0847302 2.726934 10197915
0.024821924 0.084635854 2.7238977 10197915
0.074392147 0.084541745 2.7208688 10197915
0.12497462 0.084445707 2.7177775 10197915
0.17544316 0.084349878 2.7146933 10197915
0.22467913 0.084256381 2.7116842 10197915
0.27492088 0.084160984 2.7086141 10197915
0.32504988 0.084065795 2.7055507 10197915
0.37506467 0.08397083 2.7024939 4671303
0.40835008 0.083907627 2.7004604 2894892
0.474594 0.066671304 2.7276037 2894892
0.46961722 -1.2220472 2.7804751 2894892
0.46982822 -1.1739106 2.7774804 2894892
0.47004813 -1.1251284 2.7741818 2894892
0.47018018 -1.0755476 2.7745824 2894892
0.47030237 -1.025455 2.7754381 2894892
0.47053504 -0.97588027 2.7717187 2894892
0.47069415 -0.92474443 2.7711759 2894892
0.47082427 -0.87474865 2.7717066 2894892
0.47094423 -0.82472992 2.7726471 2894892
0.47107109 -0.77467942 2.7733157 2894892
0.47119859 -0.72489136 2.7739112 2894892
0.47131881 -0.67479479 2.7748528 2894892
0.47143897 -0.62466091 2.7757924 2894892
0.47157234 -0.57537669 2.7761052 2894892
0.47169113 -0.52576315 2.7770433 2894892
0.4718172 -0.47526863 2.7777863 2894892
0.47194767 -0.42503428 2.7783196 2894892
0.47212565 -0.37386045 2.7770271 2894892
0.47233567 -0.32523233 2.774117 2894892
0.47246611 -0.27520213 2.7746325 2894892
0.47258845 -0.22513849 2.7754767 2894892
0.47278556 -0.17632847 2.7731204 2894892
0.47297996 -0.12484409 2.7711911 2894892
0.47311231 -0.075218953 2.7715762 2894892
0.47323054 -0.025269115 2.7725809 2894892
0.47335675 0.025278099 2.7733214 2894892
-0.75437087 0.086115383 2.7715139 10066329
-0.72520393 0.086060032 2.7697325 10000536
-0.67511535 0.085964903 2.7666714 10000536
-0.62513846 0.085870005 2.763617 10000536
-0.57527089 0.085775323 2.76057 10066329
-0.52551395 0.08568085 2.757529 10197915
-0.47471282 0.085584395 2.7544243 10197915
-0.42632657 0.085492507 2.7514682 10197915
-0.31080261 0.084658645 2.7992783 10197915
-0.27463374 0.084590472 2.797024 10197915
-0.22455598 0.084496059 2.7939024 10197915
-0.17458908 0.084401868 2.7907879 10197915
-0.1247343 0.084307879 2.7876799 10197915
-0.074989542 0.084214114 2.7845795 10197915
-0.02535619 0.084120542 2.7814858 10197915
0.025317825 0.084025025 2.778327 10197915
0.075876877 0.08392971 2.7751753 10197915
0.12517659 0.083836779 2.7721028 10197915
0.1743664 0.083744042 2.7690363 10197915
0.2245881 0.083649375 2.7659059 10197915
0.27469632 0.083554916 2.7627826 10197915
0.32469153 0.083460659 2.7596662 10197915
0.37457415 0.083366632 2.7565565 4210752
0.42434442 0.083272807 2.7534544 2894892
0.47151309 0.069371209 2.7701843 2894892
0.46824715 -1.2586093 2.8321936 2894892
0.46846935 -1.2250503 2.8270304 2894892
0.46859854 -1.1752967 2.8275626 2894892
0.46871871 -1.1249286 2.8285358 2894892
0.4688434 -1.0748261 2.8292885 2894892
0.46897271 -1.0249839 2.8298237 2894892
0.46922079 -0.97396827 2.8256416 2894892
0.4694494 -0.92627937 2.8218596 2894892
0.46964139 -0.87502927 2.8200042 2894892
0.46977314 -0.82501262 2.8204679 2894892
0.46989089 -0.7749725 2.8214998 2894892
0.47001559 -0.72490168 2.8222513 2894892
0.47014037 -0.67480427 2.822999 2894892
0.47026995 -0.62497729 2.82353 2894892
0.47038439 -0.57481539 2.8247066 2894892
0.47051978 -0.52465701 2.8250306 2894892
0.4706434 -0.47502401 2.8257728 2894892
0.47076255 -0.42509291 2.8267341 2894892
0.47088778 -0.37483615 2.8274891 2894892
0.47101414 -0.32484767 2.8281622 2894892
0.47114038 -0.2748296 2.8288398 2894892
0.47126335 -0.22478528 2.829659 2894892
0.47148553 -0.17373799 2.8265419 2894892
0.4716689 -0.12568079 2.8246608 2894892
0.47192886 -0.07504838 2.8199494 2894892
0.47206452 -0.024835918 2.8202741 2894892
0.47218826 0.024844602 2.8210137 2894892
-0.76137388 0.085508034 2.8273635 10066329
-0.72447586 0.08543846 2.8250632 10000536
-0.67457598 0.085344404 2.8219531 10000536
-0.62478578 0.085250534 2.8188493 10000536
-0.57510501 0.08515688 2.8157527 10066329
-0.52553344 0.085063428 2.8126628 10197915
-0.47489434 0.084967971 2.8095067 10197915
-0.42436814 0.084872738 2.8063571 10197915
-0.37512648 0.084779911 2.8032877 10197915
-0.33650911 0.084707089 2.8008804 10197915
-0.20542286 0.083821908 2.8496847 10197915
-0.17579621 0.08376649 2.8478003 10197915
-0.12492273 0.083671302 2.8445647 10197915
-0.074163839 0.083576322 2.8413363 10197915
-0.024696935 0.083483808 2.8381898 10197915
0.024660539 0.083391443 2.8350503 10197915
0.075079761 0.083297126 2.8318434 10197915
0.12538594 0.083203003 2.8286443 10197915
0.17441213 0.083111279 2.8255255 10197915
0.22449332 0.083017588 2.8223403 10197915
0.27562287 0.08292193 2.819088 10197915
0.32547715 0.082828656 2.8159173 10197915
0.37521851 0.082735591 2.8127534 3618615
0.42484909 0.082642742 2.8095963 2894892
0.47050962 0.068552524 2.8196425 2894892
0.4670724 -1.2690779 2.8789666 2894892
0.46724397 -1.2250227 2.8770967 2894892
0.46737272 -1.1746839 2.8777173 2894892
0.46749148 -1.1246074 2.8787079 2894892
0.46761504 -1.0748022 2.8794692 2894892
0.46773896 -1.0249703 2.8802311 2894892
0.46797872 -0.97649646 2.876096 2894892
0.46825606 -0.92347419 2.8709464 2894892
0.46842265 -0.87502563 2.8697989 2894892
0.46854642 -0.82530868 2.8705571 2894892
0.46867627 -0.7752701 2.8710961 2894892
0.46879399 -0.72491127 2.8721592 2894892
0.46892038 -0.67481625 2.8728478 2894892
0.46904427 -0.62499344 2.873606 2894892
0.46917668 -0.57456338 2.8740792 2894892
0.469295 -0.52408618 2.8751426 2894892
0.46942383 -0.47447711 2.8756678 2894892
0.46954155 -0.42485324 2.8766532 2894892
0.46966571 -0.37489834 2.8774135 2894892
0.46979091 -0.32521728 2.878094 2894892
0.46991897 -0.27520621 2.8787079 2894892
0.47003847 -0.22488001 2.8796976 2894892
0.47016281 -0.17481926 2.88046 2894892
0.47046331 -0.1243317 2.8740766 2894892
0.4707211 -0.074888431 2.8693144 2894892
0.47084522 -0.024968674 2.8700705 2894892
0.47096947 0.024977436 2.8708279 2894892
-0.76988149 0.084877938 2.8855865 10066329
-0.72493237 0.084793851 2.8827276 10066329
-0.67522508 0.084700838 2.8795657 10000536
-0.6256277 0.084608063 2.8764114 10000536
-0.57493263 0.084513225 2.8731868 10066329
-0.52435112 0.08441858 2.8699696 10197915
-0.47508255 0.084326401 2.8668363 10197915
-0.42592239 0.084234431 2.8637092 10197915
-0.37567383 0.084140435 2.8605137 10197915
-0.32553729 0.084046625 2.8573241 10197915
-0.27551246 0.083953038 2.8541429 10197915
-0.23034614 0.083868526 2.8512697 10197915
-0.058861036 0.082885206 2.8995166 10197915
-0.02521167 0.082822762 2.8973317 10197915
0.025173739 0.082729258 2.8940601 10197915
0.075445496 0.082635947 2.8907967 10197915
0.12560397 0.082542852 2.8875399 10197915
0.17564954 0.08244995 2.8842905 10197915
0.22558267 0.082357287 2.8810482 10197915
0.27540359 0.082264811 2.8778131 10197915
0.32511285 0.08217255 2.8745859 10066329
0.37471062 0.082080491 2.8713653 3223857
0.42419752 0.081988648 2.8681526 2894892
0.46942502 0.068302348 2.8702476 2894892
0.46554908 -1.3069156 2.9367933 2894892
0.46584687 -1.2750185 2.928344 2894892
0.4659709 -1.2249972 2.9291246 2894892
0.46612954 -1.1764301 2.9283118 2894892
0.46637988 -1.1253705 2.9240415 2894892
0.46650529 -1.0747808 2.9248264 2894892
0.46663496 -1.0245583 2.9253943 2894892
0.46689048 -0.97394133 2.9208601 2894892
0.4670364 -0.92500097 2.9206104 2894892
0.46716699 -0.87471825 2.9211524 2894892
0.46728042 -0.82501465 2.9223213 2894892
0.46741343 -0.77527976 2.9226933 2894892
0.46752962 -0.72522217 2.9237876 2894892
0.46765774 -0.67513263 2.9244058 2894892
0.46778581 -0.62502491 2.9250226 2894892
0.46790504 -0.57457954 2.9260421 2894892
0.46802774 -0.52501631 2.9268105 2894892
0.46815073 -0.47542682 2.9275789 2894892
0.46828172 -0.42490381 2.928124 2894892
0.46839961 -0.37496275 2.9291375 2894892
0.46854582 -0.3257679 2.9289076 2894892
0.46880904 -0.27498579 2.9240797 2894892
0.46893206 -0.22537695 2.9248486 2894892
0.46906123 -0.17534071 2.9254093 2894892
0.46933469 -0.12489501 2.920125 2894892
0.46946934 -0.07532388 2.9204133 2894892
0.46958715 -0.025415404 2.9214244 2894892
0.46971327 0.025424495 2.9222085 2894892
-0.80359411 0.08426746 2.9478707 10066329
-0.77502197 0.084214449 2.9460163 10066329
-0.72416842 0.084120058 2.942714 10066329
-0.67466557 0.084028177 2.9395006 10000536
-0.62527061 0.083936505 2.9362929 10000536
-0.57475299 0.083842739 2.9330127 10066329
-0.52434713 0.083749175 2.92974 10197915
-0.47527951 0.083658122 2.9265547 10197915
-0.42509615 0.083564967 2.923296 10197915
-0.37502369 0.083472028 2.9200447 10197915
-0.32506326 0.083379306 2.916801 10197915
-0.27521282 0.083286792 2.9135642 10197915
-0.22547381 0.083194457 2.9103343 10197915
-0.17463544 0.083100095 2.9070339 10197915
-0.12511811 0.083008207 2.9038191 10197915
-0.084136151 0.08293213 2.9011581 10197915
0.12948802 0.08184801 2.9487021 10197915
0.17450875 0.081765138 2.9457166 10197915
0.22550532 0.081671268 2.9423344 10197915
0.27517536 0.081579849 2.9390416 10197915
0.32473344 0.081488632 2.9357555 9737364
0.37538591 0.081395403 2.9323962 2960685
