# .PCD v0.7 - Point Cloud Data file format
VERSION 0.7
FIELDS x y z rgb
SIZE 4 4 4 4
TYPE F F F U
COUNT 1 1 1 1
WIDTH 1157
HEIGHT 1
VIEWPOINT 0 0 0 1 0 0 0
POINTS 1157
DATA ascii
-0.22499269 0.11327038 0.72521454 2894892
-0.17496976 0.1132644 0.72518361 2894892
-0.12499844 0.11325862 0.72516054 2894892
-0.071467847 0.11183614 0.72737437 2894892
-0.044930514 0.1076863 0.7129128 2894892
-0.077772178 -0.35264143 0.79393363 2894892
-0.070545845 -0.32288054 0.77613205 2894892
-0.069572739 -0.27501225 0.77389657 2894892
-0.069602586 -0.22505203 0.77415723 2894892
-0.069617696 -0.17502311 0.77438205 2894892
-0.069455042 -0.12524337 0.77416229 2894892
-0.069245562 -0.074990153 0.77382797 2894892
-0.06927073 -0.024999475 0.77407724 2894892
-0.069295354 0.024996344 0.77432466 2894892
-0.069303676 0.074995339 0.77453089 2894892
-0.61139047 0.11312012 0.7829656 9934743
-0.57491708 0.11314739 0.77374101 9934743
-0.52497274 0.1131415 0.77365792 9408399
-0.47500634 0.11313555 0.77358836 4144959
-0.42501548 0.1131295 0.773561 2894892
-0.37497208 0.1131236 0.77353185 2894892
-0.32496202 0.11311748 0.77349132 2894892
-0.2749874 0.11311155 0.77347565 2894892
-0.22491519 0.11309887 0.77546787 2894892
-0.17499413 0.11309256 0.77551162 2894892
-0.1250006 0.11308665 0.77546442 2894892
-0.077324912 0.11006175 0.77350938 2894892
-0.10034187 -0.36510316 0.84983569 2894892
-0.091655709 -0.36028621 0.8283214 2894892
-0.10035629 -0.34191546 0.84995776 2894892
-0.089751504 -0.32499495 0.82373261 2894892
-0.089765593 -0.27496356 0.82395339 2894892
-0.089819059 -0.2249648 0.82427222 2894892
-0.089839041 -0.17500126 0.82450694 2894892
-0.0896466 -0.12469576 0.82421649 2894892
-0.089423083 -0.074993834 0.82384807 2894892
-0.089450032 -0.025000053 0.82410026 2894892
-0.089476466 0.024979262 0.82435143 2894892
-0.089504458 0.074972697 0.8246069 2894892
-0.65902847 0.1129318 0.8397972 9934743
-0.62378085 0.11297784 0.82512134 9934743
-0.57496482 0.11297613 0.82384729 9211020
-0.5249806 0.11296997 0.82381809 4144959
-0.4750331 0.11296417 0.82378125 2894892
-0.42502895 0.11295841 0.82372802 2894892
-0.37506074 0.11295232 0.82369435 2894892
-0.32506588 0.11294627 0.82367134 2894892
-0.27504662 0.11294068 0.82358664 2894892
-0.22512892 0.11292645 0.82591718 2894892
-0.17499247 0.1129204 0.82593662 2894892
-0.12499306 0.1129141 0.82590669 2894892
-0.090518773 0.10813767 0.82298654 2894892
-0.11989029 -0.40089735 0.89816082 2894892
-0.11144643 -0.37113604 0.87734067 2894892
-0.11025669 -0.32472867 0.87456298 2894892
-0.10996309 -0.27530536 0.87401992 2894892
-0.10961273 -0.22500536 0.87333769 2894892
-0.10967691 -0.17501114 0.87368292 2894892
-0.10970373 -0.12500544 0.87393618 2894892
-0.10973669 -0.074987777 0.87420219 2894892
-0.10977196 -0.024996862 0.87447566 2894892
-0.10980587 0.025007136 0.87474626 2894892
-0.10983714 0.075002566 0.87500995 2894892
-0.70559561 0.1127529 0.89382088 9934743
-0.67229629 0.11280333 0.87787312 9934743
-0.62500548 0.11280558 0.87554884 9079434
-0.57496059 0.11279981 0.87546873 3815994
-0.52496058 0.11279376 0.8754577 2894892
-0.47500685 0.11278804 0.87534022 2894892
-0.42501763 0.11278199 0.87533981 2894892
-0.37515527 0.11277606 0.87530893 2894892
-0.3251355 0.11277027 0.87524998 2894892
-0.27496126 0.11276422 0.8752113 2894892
-0.22499317 0.11275835 0.87516326 2894892
-0.17503026 0.11275253 0.87509269 2894892
-0.12162086 0.11019397 0.87391138 2894892
-0.13335225 -0.40837625 0.93150401 2894892
-0.13067448 -0.3749851 0.92499036 2894892
-0.13071021 -0.32497475 0.92526501 2894892
-0.13051903 -0.27467382 0.92497844 2894892
-0.13018186 -0.22509119 0.9243266 2894892
-0.12966697 -0.1749942 0.92323631 2894892
-0.12970473 -0.12499536 0.92351514 2894892
-0.12973922 -0.075010926 0.92378753 2894892
-0.12977733 -0.025018459 0.92406797 2894892
-0.1298185 0.025006283 0.92435586 2894892
-0.12986027 0.075015299 0.92464495 2894892
-0.75156248 0.11257747 0.94681948 9868950
-0.71924508 0.11263387 0.92916167 9868950
-0.67499858 0.1126436 0.9247362 9013641
-0.62496555 0.11263732 0.9247815 3750201
-0.57493788 0.11263157 0.92470968 2894892
-0.52496374 0.11262575 0.92465419 2894892
-0.47499493 0.11261974 0.92461336 2894892
-0.42498323 0.11261372 0.92458808 2894892
-0.37483352 0.11260778 0.92453402 2894892
-0.32487935 0.11260195 0.92448854 2894892
-0.27502769 0.11259609 0.92443711 2894892
-0.22498897 0.11259028 0.9243477 2894892
-0.17500357 0.11258419 0.9243452 2894892
-0.13384239 0.1090238 0.92289358 2894892
-0.15540196 -0.42060775 0.98611778 2894892
-0.14558478 -0.4151372 0.96180224 2894892
-0.15519258 -0.37504986 0.98576784 2894892
-0.14539585 -0.37499124 0.96148306 2894892
-0.15521875 -0.32502148 0.98601949 2894892
-0.14542626 -0.3250168 0.96174443 2894892
-0.15528612 -0.27485996 0.98637217 2894892
-0.14548571 -0.27512488 0.96207702 2894892
-0.15532827 -0.22487 0.98666263 2894892
-0.14547135 -0.22487748 0.96222878 2894892
-0.15539134 -0.1750043 0.98700422 2894892
-0.14492862 -0.17494084 0.96106899 2894892
-0.15541878 -0.12500475 0.98725897 2894892
-0.14498483 -0.12496033 0.9613933 2894892
-0.15547775 -0.075025283 0.98759043 2894892
-0.14501062 -0.074949175 0.96164358 2894892
-0.15552042 -0.025015969 0.98788148 2894892
-0.14506789 -0.024957146 0.96197182 2894892
-0.15530036 0.02424458 0.98752004 2894892
-0.14511251 0.024967397 0.96226829 2894892
-0.15493795 0.075051606 0.98680997 2894892
-0.14515105 0.074971229 0.96254945 2894892
-0.76456207 0.112468 0.97932172 9868950
-0.72501439 0.11248427 0.97313285 9013641
-0.67492712 0.11247822 0.97312766 3684408
-0.62501979 0.11247242 0.97305959 2894892
-0.57500225 0.11246668 0.97299546 2894892
-0.52498978 0.11246058 0.97297484 2894892
-0.47498229 0.11245479 0.97290808 2894892
-0.42497975 0.11244868 0.97287208 2894892
-0.37492564 0.11244314 0.97277576 2894892
-0.32487547 0.11243701 0.97277087 2894892
-0.27500474 0.1124312 0.97270286 2894892
-0.22502346 0.11242532 0.97263891 2894892
-0.17165354 0.11116076 0.97499323 2894892
-0.14540136 0.10724686 0.96190995 2894892
-0.17478281 -0.45633084 1.0340279 2894892
-0.1704718 -0.42488068 1.0234586 2894892
-0.17050228 -0.37502491 1.0237197 2894892
-0.17054482 -0.32502082 1.0240113 2894892
-0.17057447 -0.2749863 1.0242698 2894892
-0.17065875 -0.22498003 1.0246655 2894892
-0.17070068 -0.17500487 1.0249543 2894892
-0.17075376 -0.12499842 1.0252725 2894892
-0.17080551 -0.074991301 1.0255859 2894892
-0.17085359 -0.025014685 1.0258921 2894892
-0.17002219 0.025164567 1.0240178 2894892
-0.16951554 0.07501366 1.0229464 2894892
-0.81167883 0.11228374 1.034936 9868950
-0.77481353 0.11231905 1.0233111 8816262
-0.72504604 0.11231399 1.0229874 3684408
-0.67505854 0.11230796 1.0229895 2894892
-0.62495655 0.11230229 1.0228821 2894892
-0.57492089 0.11229625 1.0228804 2894892
-0.52495062 0.11229023 1.0228456 2894892
-0.47498485 0.11228427 1.0227919 2894892
-0.42502442 0.11227895 1.0226115 2894892
-0.3750098 0.1122727 1.0226676 2894892
-0.32493794 0.11226679 1.0226316 2894892
-0.27499402 0.11226121 1.0224859 2894892
-0.22505502 0.11225498 1.0225066 2894892
-0.17763761 0.10955438 1.0210944 2894892
-0.20060134 -0.47079811 1.097976 2894892
-0.19118729 -0.46536186 1.0746596 2894892
-0.2006582 -0.42497554 1.0982872 2894892
-0.19009943 -0.42495695 1.0721136 2894892
-0.20072082 -0.37458646 1.0986298 2894892
-0.19015941 -0.37499303 1.0724479 2894892
-0.20078282 -0.32462037 1.0989693 2894892
-0.19021812 -0.32503492 1.0727782 2894892
-0.2008449 -0.27462336 1.099309 2894892
-0.19029817 -0.27511969 1.0731629 2894892
-0.20090699 -0.22459546 1.0996492 2894892
-0.19033104 -0.22510009 1.0734303 2894892
-0.20095442 -0.18637238 1.0999086 2894892
-0.19039229 -0.17497517 1.0737679 2894892
-0.19046743 -0.12496742 1.0741409 2894892
-0.19050637 -0.074966222 1.0744222 2894892
-0.1905742 -0.024971366 1.0747765 2894892
-0.19000086 0.025297388 1.0735428 2894892
-0.18989526 0.074954949 1.0734656 2894892
-0.85816556 0.11210503 1.0889218 10197915
-0.82376277 0.11214734 1.0753071 8750469
-0.77485579 0.11214501 1.0742329 3487029
-0.72497469 0.11213912 1.0741764 2894892
-0.6750266 0.11213383 1.0739859 2894892
-0.62493402 0.11212751 1.0740389 2894892
-0.57492113 0.11212184 1.0739331 2894892
-0.52491301 0.11211582 1.0739259 2894892
-0.47498503 0.11211016 1.0738093 2894892
-0.42498773 0.11210409 1.073802 2894892
-0.37499595 0.11209819 1.0737202 2894892
-0.32508212 0.1120924 1.073702 2894892
-0.27502716 0.11208681 1.0735359 2894892
-0.2249766 0.11208055 1.0735885 2894892
-0.19085123 0.10772084 1.0714154 2894892
-0.21752068 -0.50494736 1.1397903 2894892
-0.21191041 -0.47430089 1.1259972 2894892
-0.21106781 -0.42539069 1.1240906 2894892
-0.21092942 -0.37504768 1.1239347 2894892
-0.21098909 -0.32502916 1.1242685 2894892
-0.21106046 -0.27489504 1.124631 2894892
-0.21115175 -0.22489764 1.1250441 2894892
-0.21076487 -0.17446193 1.1242719 2894892
-0.21038368 -0.12501436 1.1235111 2894892
-0.21044974 -0.075038955 1.1238604 2894892
-0.21052454 -0.025033481 1.1242325 2894892
-0.21058944 0.025043815 1.1245793 2894892
-0.21063368 0.075033426 1.1248739 2894892
-0.90598643 0.11191437 1.1464303 10197915
-0.87209952 0.11196954 1.1290592 8224125
-0.82510775 0.11197341 1.1262525 3421236
-0.77514428 0.11196803 1.1260519 2894892
-0.72495449 0.11196209 1.1260374 2894892
-0.67492384 0.11195599 1.1260179 2894892
-0.62505585 0.11195029 1.1259468 2894892
-0.57495868 0.11194447 1.1258293 2894892
-0.52502316 0.11193837 1.1258552 2894892
-0.47509187 0.11193296 1.1256562 2894892
-0.42508915 0.11192635 1.1258086 2894892
-0.37516928 0.11192104 1.1255796 2894892
-0.32509735 0.11191498 1.1256071 2894892
-0.2749548 0.11190953 1.1254205 2894892
-0.22260477 0.10965101 1.1238631 2894892
-0.2330268 -0.51353854 1.1781968 2894892
-0.23171404 -0.47502083 1.1750859 2894892
-0.23106313 -0.42457721 1.1736594 2894892
-0.23091961 -0.37497386 1.1734881 2894892
-0.23102154 -0.32499769 1.1739267 2894892
-0.23105533 -0.27503628 1.1741964 2894892
-0.23117419 -0.22504131 1.1746759 2894892
-0.23120493 -0.17501767 1.1749386 2894892
-0.2312866 -0.12500657 1.1753269 2894892
-0.23137182 -0.07496459 1.1757241 2894892
-0.23062693 -0.025278423 1.1740625 2894892
-0.23055714 0.024954587 1.1740762 2894892
-0.23062131 0.07497929 1.1744219 2894892
-0.95153832 0.11174119 1.1987493 10197915
-0.9196701 0.11179346 1.1823106 7566195
-0.87497962 0.11180125 1.1784552 3092271
-0.82494277 0.11179549 1.1783547 2894892
-0.77491242 0.11178937 1.1783714 2894892
-0.72498357 0.1117838 1.1782315 2894892
-0.67496169 0.11177788 1.1781694 2894892
-0.62494695 0.11177167 1.1782252 2894892
-0.57493693 0.11176629 1.1780066 2894892
-0.52502948 0.11176021 1.1780233 2894892
-0.47502998 0.1117542 1.1780009 2894892
-0.42493701 0.11174864 1.1778605 2894892
-0.37514389 0.11174277 1.1777989 2894892
-0.32515863 0.11173669 1.1778158 2894892
-0.27498519 0.111731 1.1776757 2894892
-0.23475735 0.10844807 1.174032 2894892
-0.25917014 -0.55294174 1.2428565 2894892
-0.25574195 -0.52467155 1.2344636 2894892
-0.24552631 -0.52040833 1.2091557 2894892
-0.25576654 -0.47511187 1.2347087 2894892
-0.24547258 -0.47489244 1.2091918 2894892
-0.25583482 -0.42503035 1.2350639 2894892
-0.24553293 -0.42505431 1.2095276 2894892
-0.25591418 -0.37500191 1.235447 2894892
-0.24560907 -0.37506115 1.2099017 2894892
-0.25600368 -0.3250286 1.235855 2894892
-0.24570037 -0.32491076 1.2103143 2894892
-0.25609741 -0.27510729 1.2362725 2894892
-0.24575563 -0.27510643 1.2106366 2894892
-0.25612274 -0.22507396 1.2365215 2894892
-0.24585173 -0.22526924 1.2110599 2894892
-0.25525108 -0.17518896 1.2345461 2894892
-0.24591301 -0.17502631 1.2113987 2894892
-0.25526148 -0.12502034 1.2347585 2894892
-0.24598886 -0.12487858 1.2117733 2894892
-0.25533199 -0.07501433 1.235119 2894892
-0.24607506 -0.074949145 1.212172 2894892
-0.25541919 -0.02497839 1.2355216 2894892
-0.2452534 -0.024349134 1.2103238 2894892
-0.25549793 0.024988651 1.2359023 2894892
-0.24521245 0.024974611 1.2104055 2894892
-0.25558543 0.074984059 1.2363051 2894892
-0.24529617 0.074941956 1.2107987 2894892
-0.96411556 0.11163729 1.229617 6908265
-0.92503226 0.1116483 1.2250123 3092271
-0.87512583 0.11164255 1.2249187 2894892
-0.8252247 0.11163659 1.2248837 2894892
-0.77507281 0.11163084 1.2247927 2894892
-0.72505599 0.11162522 1.2246721 2894892
-0.67504179 0.11161912 1.2246639 2894892
-0.62503481 0.11161344 1.2245439 2894892
-0.57503188 0.11160743 1.2245356 2894892
-0.52490813 0.11160145 1.2244982 2894892
-0.47504258 0.11159591 1.2243512 2894892
-0.42505643 0.11158985 1.2243427 2894892
-0.3752026 0.11158393 1.224304 2894892
-0.32522449 0.11157803 1.2242417 2894892
-0.27144057 0.11022836 1.226455 2894892
-0.24558821 0.10646856 1.2108746 2894892
-0.27373776 -0.56112736 1.2789377 2894892
-0.27197915 -0.52496839 1.2747133 2894892
-0.27203768 -0.47488993 1.275044 2894892
-0.27212095 -0.42489678 1.2754371 2894892
-0.27221048 -0.37493116 1.2758443 2894892
-0.27229971 -0.32499364 1.276251 2894892
-0.27237439 -0.27484992 1.2766227 2894892
-0.2724573 -0.2248486 1.2770141 2894892
-0.27068752 -0.17540638 1.2728108 2894892
-0.27037826 -0.12497738 1.2722316 2894892
-0.27047658 -0.074985862 1.2726613 2894892
-0.27057621 -0.025022428 1.2730942 2894892
-0.27065974 0.025032736 1.273487 2894892
-0.27071121 0.074999258 1.2738003 2894892
-1.0124232 0.11144243 1.2883687 3750201
-0.97462183 0.11148154 1.275586 3158064
-0.92499161 0.11147623 1.2753751 2894892
-0.87496662 0.11147092 1.2751595 2894892
-0.82484114 0.11146472 1.275192 2894892
-0.77482527 0.11145922 1.2750254 2894892
-0.72513413 0.11145341 1.2749577 2894892
-0.67523354 0.11144722 1.2749922 2894892
-0.6250239 0.11144204 1.2747291 2894892
-0.57492423 0.11143551 1.274858 2894892
-0.52493536 0.11142983 1.2747403 2894892
-0.47495231 0.11142382 1.2747244 2894892
-0.42497289 0.11141834 1.2745576 2894892
-0.37479001 0.11141246 1.2744948 2894892
-0.32482055 0.11140665 1.2744222 2894892
-0.27896819 0.1090359 1.2721466 2894892
-0.30020738 -0.6009717 1.3444052 2894892
-0.30025494 -0.575441 1.3446182 2894892
-0.29107499 -0.57064247 1.3218801 2894892
-0.30034786 -0.52546817 1.3450345 2894892
-0.29054248 -0.5250423 1.3207287 2894892
-0.30044085 -0.47546455 1.3454509 2894892
-0.29067734 -0.47508335 1.3212502 2894892
-0.30053383 -0.42542982 1.3458674 2894892
-0.29069993 -0.42501751 1.3214916 2894892
-0.30062693 -0.37536409 1.3462844 2894892
-0.29080489 -0.37499762 1.3219377 2894892
-0.30072019 -0.32526743 1.3467017 2894892
-0.29089507 -0.32494706 1.322347 2894892
-0.30081329 -0.27513966 1.3471189 2894892
-0.2909995 -0.27494472 1.3227918 2894892
-0.30090654 -0.2249808 1.3475363 2894892
-0.29108205 -0.22498682 1.3231821 2894892
-0.30099991 -0.17479086 1.3479543 2894892
-0.29024285 -0.17443757 1.3212897 2894892
-0.30109328 -0.12456974 1.3483723 2894892
-0.29007092 -0.1250529 1.3210473 2894892
-0.30118567 -0.074876085 1.3487864 2894892
-0.29014087 -0.07499966 1.3214068 2894892
-0.30127814 -0.025151793 1.3492005 2894892
-0.29024655 -0.024984775 1.3218547 2894892
-0.30137175 0.025162203 1.3496194 2894892
-0.29033607 0.024995051 1.3222624 2894892
-0.30143723 0.060399499 1.3499128 2894892
-0.29041293 0.075003222 1.3226389 2894892
-1.0589579 0.11126195 1.3428625 2894892
-1.024117 0.11129972 1.3305715 2894892
-0.9749428 0.11129593 1.3299316 2894892
-0.92489243 0.11128993 1.3298969 2894892
-0.87484908 0.11128423 1.329792 2894892
-0.82494742 0.11127868 1.3296511 2894892
-0.77505308 0.11127261 1.3296531 2894892
-0.72475028 0.11126661 1.3296175 2894892
-0.67472494 0.11126114 1.3294415 2894892
-0.62484735 0.11125511 1.3294439 2894892
-0.57483363 0.11124913 1.3294089 2894892
-0.52482694 0.11124345 1.3293045 2894892
-0.47496223 0.11123787 1.3291627 2894892
-0.42496699 0.11123164 1.3291998 2894892
-0.37470016 0.11122591 1.3290952 2894892
-0.32484996 0.11122034 1.3289539 2894892
-0.29137531 0.10698987 1.3217639 2894892
-0.31442803 -0.60864156 1.3796278 2894892
-0.3117246 -0.57502174 1.3730516 2894892
-0.31182438 -0.52491379 1.3734851 2894892
-0.31190974 -0.47491661 1.3738831 2894892
-0.31202167 -0.42495939 1.3743454 2894892
-0.31209171 -0.37489969 1.3747061 2894892
-0.31222141 -0.32495162 1.375213 2894892
-0.31228399 -0.2751157 1.3755534 2894892
-0.31239235 -0.22510365 1.3760079 2894892
-0.31251833 -0.17499326 1.3765067 2894892
-0.31228334 -0.12560245 1.3761075 2894892
-0.31140938 -0.074978188 1.37413 2894892
-0.31146315 -0.02497399 1.3744485 2894892
-0.31158414 0.024902508 1.3749338 2894892
-0.31088185 0.075749218 1.3733821 2894892
-1.1024414 0.11110767 1.3895824 2894892
-1.0717367 0.11114513 1.3775223 2894892
-1.0250067 0.11114539 1.375782 2894892
-0.97498786 0.11113923 1.3758135 2894892
-0.92497468 0.11113408 1.3755356 2894892
-0.87496638 0.11112756 1.3756691 2894892
-0.82496333 0.1111221 1.3754933 2894892
-0.77515399 0.11111629 1.3754215 2894892
-0.72497284 0.11111046 1.3753515 2894892
-0.67479324 0.11110463 1.3752772 2894892
-0.62500107 0.11109845 1.375309 2894892
-0.5750252 0.11109333 1.3750316 2894892
-0.52505332 0.11108716 1.3750612 2894892
-0.47508717 0.11108099 1.3750925 2894892
-0.42512435 0.11107552 1.3749171 2894892
-0.37497965 0.11106969 1.3748469 2894892
-0.32165852 0.10867671 1.3729444 2894892
-0.33280918 -0.61868572 1.4251564 2894892
-0.33192986 -0.57495415 1.4231391 2894892
-0.33205166 -0.52516818 1.4236267 2894892
-0.33216402 -0.47509688 1.424091 2894892
-0.33225766 -0.42499739 1.4245089 2894892
-0.33236966 -0.37503418 1.424973 2894892
-0.33248219 -0.3249554 1.4254378 2894892
-0.33257484 -0.27509889 1.4258525 2894892
-0.33264902 -0.22521187 1.426222 2894892
-0.33277136 -0.17504032 1.4267118 2894892
-0.33249059 -0.12433086 1.4262034 2894892
-0.3315728 -0.075002588 1.424113 2894892
-0.33169225 -0.025008682 1.4245949 2894892
-0.3317945 0.02501899 1.4250344 2894892
-0.33090451 0.074347496 1.4230108 2894892
-1.1505368 0.11091678 1.4471819 2894892
-1.1188765 0.11096761 1.4311727 2894892
-1.0750065 0.11098379 1.4248716 2894892
-1.025068 0.1109777 1.4248854 2894892
-0.97498834 0.11097173 1.4248532 2894892
-0.92506218 0.1109665 1.4246055 2894892
-0.87499326 0.11095994 1.4247468 2894892
-0.82478195 0.1109544 1.4245865 2894892
-0.77486944 0.11094891 1.4244236 2894892
-0.72496533 0.11094277 1.4244374 2894892
-0.67491496 0.11093681 1.4244056 2894892
-0.62502176 0.11093161 1.4241573 2894892
-0.57498252 0.11092535 1.4242132 2894892
-0.52495068 0.11091939 1.4241815 2894892
-0.4749229 0.11091399 1.4239769 2894892
-0.42490253 0.1109077 1.4240321 2894892
-0.37488544 0.11090208 1.4239148 2894892
-0.3348664 0.10815255 1.4201932 2894892
-0.35748863 -0.6575284 1.4861897 2894892
-0.34821966 -0.6521824 1.4632323 2894892
-0.35663915 -0.62517577 1.4842041 2894892
-0.34618133 -0.62467867 1.4582816 2894892
-0.3567034 -0.57508755 1.4845494 2894892
-0.34626433 -0.57491332 1.4586725 2894892
-0.35687011 -0.52481681 1.4851494 2894892
-0.34641874 -0.52491486 1.4592417 2894892
-0.35694307 -0.47481668 1.4855163 2894892
-0.34647885 -0.47489178 1.4595766 2894892
-0.35710007 -0.42494524 1.4860914 2894892
-0.34658578 -0.4250311 1.460027 2894892
-0.35717317 -0.3748863 1.4864587 2894892
-0.34671637 -0.37514398 1.4605361 2894892
-0.35727406 -0.32494956 1.4868938 2894892
-0.34679976 -0.32522503 1.4609289 2894892
-0.35742235 -0.27483031 1.4874482 2894892
-0.34693137 -0.27487254 1.4614421 2894892
-0.35682797 -0.22343551 1.4861659 2894892
-0.34659323 -0.22697498 1.4607821 2894892
-0.35611796 -0.17503648 1.4845867 2894892
-0.34565353 -0.17494631 1.4586455 2894892
-0.35478199 -0.12532581 1.4814587 2894892
-0.34579584 -0.12482828 1.4591846 2894892
-0.35481802 -0.075041942 1.4817349 2894892
-0.3458676 -0.074678823 1.4595492 2894892
-0.35490891 -0.025022322 1.4821461 2894892
-0.34599182 -0.024798734 1.460043 2894892
-0.35501853 0.025032638 1.4826045 2894892
-0.34609771 0.024808867 1.4604899 2894892
-0.35514694 0.075114071 1.4831086 2894892
-0.34503457 0.07659734 1.4580463 2894892
-1.1646287 0.11079663 1.4828613 2894892
-1.1248263 0.11080937 1.4777125 2894892
-1.0751834 0.11080362 1.4776353 2894892
-1.0251335 0.11079779 1.4775609 2894892
-0.97488791 0.11079197 1.4774802 2894892
-0.92484981 0.11078572 1.4775312 2894892
-0.87481701 0.11078034 1.4773254 2894892
-0.82520002 0.11077458 1.4772483 2894892
-0.77517641 0.11076877 1.4771737 2894892
-0.72495741 0.11076296 1.4770932 2894892
-0.67514861 0.11075717 1.4770161 2894892
-0.6249398 0.11075132 1.4769412 2894892
-0.57473332 0.11074549 1.4768605 2894892
-0.52494311 0.11073928 1.4769125 2894892
-0.47515768 0.11073396 1.4767066 2894892
-0.42496687 0.1107281 1.4766315 2894892
-0.37153897 0.10949292 1.4773355 2894892
-0.34513608 0.10582212 1.4579495 2894892
-0.37318072 -0.6662299 1.5250559 2894892
-0.3722606 -0.6251173 1.5229288 2894892
-0.37232268 -0.57503366 1.5232686 2894892
-0.37245736 -0.52502495 1.5237882 2894892
-0.37259313 -0.47498202 1.5243104 2894892
-0.37271571 -0.42491156 1.5248005 2894892
-0.37281001 -0.37501892 1.5252202 2894892
-0.37289912 -0.32499057 1.5256265 2894892
-0.37303433 -0.27482671 1.5261482 2894892
-0.37314254 -0.22483918 1.5266043 2894892
-0.37327129 -0.17492944 1.5271078 2894892
-0.3718501 -0.12480349 1.5237705 2894892
-0.37190688 -0.074955918 1.5240966 2894892
-0.37201017 -0.02499306 1.5245384 2894892
-0.372125 0.025003338 1.525009 2894892
-0.37225142 0.075027883 1.5255082 2894892
-1.2112802 0.11061912 1.5364723 2894892
-1.1747864 0.11064941 1.5263174 2894892
-1.1245641 0.11064409 1.5260965 2894892
-1.0745616 0.11063827 1.5260165 2894892
-1.0247713 0.110632 1.5260772 2894892
-0.97498924 0.11062673 1.5258572 2894892
-0.92500281 0.11062092 1.5257769 2894892
-0.87501758 0.11061514 1.5256969 2894892
-0.82504123 0.11060934 1.525617 2894892
-0.77506679 0.11060355 1.5255371 2894892
-0.7251004 0.11059774 1.5254573 2894892
-0.67513645 0.11059195 1.525378 2894892
-0.62518084 0.11058617 1.5252975 2894892
-0.57501757 0.11057988 1.525358 2894892
-0.52485985 0.11057454 1.5251373 2894892
-0.47492012 0.11056872 1.5250576 2894892
-0.4249821 0.11056296 1.5249772 2894892
-0.37932807 0.10811985 1.5238025 2894892
-0.40050858 -0.70600355 1.5926514 2894892
-0.39530993 -0.70323616 1.5797745 2894892
-0.40058699 -0.67446327 1.5929632 2894892
-0.39044333 -0.67405337 1.5678191 2894892
-0.40071103 -0.62450057 1.5934566 2894892
-0.39036366 -0.62496799 1.5678047 2894892
-0.4008351 -0.57450706 1.5939499 2894892
-0.39046672 -0.57500243 1.5682464 2894892
-0.40095934 -0.52448237 1.5944436 2894892
-0.3906405 -0.52513617 1.5688621 2894892
-0.40108353 -0.47442713 1.5949377 2894892
-0.39072603 -0.47511074 1.5692602 2894892
-0.40120623 -0.42499971 1.5954257 2894892
-0.39082968 -0.42492145 1.5697035 2894892
-0.40132898 -0.3755421 1.5959138 2894892
-0.39095023 -0.37496242 1.5701874 2894892
-0.40145347 -0.32539424 1.5964088 2894892
-0.39110649 -0.32497275 1.5707611 2894892
-0.40157798 -0.27521524 1.5969042 2894892
-0.39119208 -0.27495253 1.5711597 2894892
-0.40170264 -0.22500511 1.5973994 2894892
-0.39131269 -0.22502796 1.5716449 2894892
-0.40182737 -0.1747638 1.5978956 2894892
-0.39145139 -0.17507665 1.572173 2894892
-0.40195206 -0.12449127 1.5983917 2894892
-0.3916074 -0.12509312 1.5727462 2894892
-0.40207529 -0.07484968 1.598882 2894892
-0.39169315 -0.075078391 1.5731443 2894892
-0.40219867 -0.025177525 1.599372 2894892
-0.39179644 -0.025034338 1.5735868 2894892
-0.40230891 0.019221447 1.5998105 2894892
-0.39191768 0.025044657 1.574073 2894892
-0.39209139 0.075020239 1.57469 2894892
-1.2581198 0.11043439 1.5922149 2894892
-1.2235074 0.11047513 1.5790595 2894892
-1.1751153 0.11047342 1.5778354 2894892
-1.1251563 0.11046763 1.5777572 2894892
-1.0747696 0.11046181 1.5776736 2894892
-1.0248212 0.1104555 1.5777453 2894892
-0.97509968 0.11045079 1.5773507 2894892
-0.92516166 0.11044449 1.5774262 2894892
-0.87501431 0.11043815 1.5774963 2894892
-0.82487118 0.11043286 1.5772603 2894892
-0.77473092 0.11042707 1.5771773 2894892
-0.72503549 0.11042131 1.5770921 2894892
-0.67512339 0.11041554 1.5770129 2894892
-0.62478453 0.11040973 1.5769295 2894892
-0.574884 0.1104034 1.5770011 2894892
-0.52498937 0.11039815 1.5767647 2894892
-0.47488171 0.11039291 1.5765252 2894892
-0.42500079 0.11038605 1.5767533 2894892
-0.39264834 0.10674229 1.5717393 2894892
-0.41468292 -0.71422064 1.6277577 2894892
-0.41307595 -0.67513782 1.6239195 2894892
-0.4131794 -0.62498504 1.6243632 2894892
-0.41336468 -0.57502639 1.6250064 2894892
-0.41346055 -0.52492332 1.6254315 2894892
-0.41366151 -0.47489956 1.6261158 2894892
-0.4136827 -0.42507127 1.6263536 2894892
-0.41334292 -0.37593734 1.6256937 2894892
-0.41214707 -0.32502463 1.6229188 2894892
-0.41229448 -0.27522078 1.6234689 2894892
-0.4124026 -0.22511287 1.623924 2894892
-0.41258869 -0.17497875 1.6245705 2894892
-0.41267732 -0.12494589 1.6249768 2894892
-0.4127841 -0.075017013 1.6254271 2894892
-0.41293201 -0.025058895 1.6259788 2894892
-0.41256627 0.025962047 1.625263 2894892
-0.41138023 0.07506118 1.6225045 2894892
-1.2714617 0.11032268 1.6254021 2894892
-1.2249879 0.1103225 1.6238025 2894892
-1.1751451 0.11031673 1.6237177 2894892
-1.1249709 0.11031136 1.6235068 2894892
-1.0748056 0.11030513 1.623547 2894892
-1.0249782 0.11029936 1.6234622 2894892
-0.97482282 0.11029401 1.6232511 2894892
-0.92467076 0.11028776 1.6232914 2894892
-0.87485904 0.11028203 1.6232067 2894892
-0.82472175 0.11027664 1.6229957 2894892
-0.77458286 0.11027043 1.6230359 2894892
-0.72512752 0.11026516 1.6228228 2894892
-0.67533582 0.11025938 1.6227418 2894892
-0.62521881 0.11025314 1.6227818 2894892
-0.57510018 0.11024779 1.6225711 2894892
-0.52499509 0.11024157 1.6226112 2894892
-0.47522539 0.11023581 1.6225266 2894892
-0.42215544 0.1079632 1.6220338 2894892
-0.44006851 -0.75289661 1.6905423 2894892
-0.43394241 -0.72347891 1.6754656 2894892
-0.43379855 -0.67512983 1.675289 2894892
-0.43389019 -0.62521422 1.6757015 2894892
-0.43400386 -0.574992 1.6761705 2894892
-0.43415841 -0.52501833 1.6767385 2894892
-0.43429324 -0.47514701 1.67726 2894892
-0.43444934 -0.42497241 1.6778324 2894892
-0.4338448 -0.37398437 1.6765227 2894892
-0.43275243 -0.32502973 1.673997 2894892
-0.43288383 -0.27518252 1.6745089 2894892
-0.4330107 -0.22518456 1.6750084 2894892
-0.43279886 -0.17576623 1.6746676 2894892
-0.43136752 -0.12504627 1.6713077 2894892
-0.43147829 -0.07507804 1.6717681 2894892
-0.43163368 -0.025080612 1.6723397 2894892
-0.43180931 0.024952436 1.6729608 2894892
-0.43183613 0.075011477 1.6732129 2894892
-1.3178492 0.11014427 1.6792819 2894892
-1.2748383 0.11016209 1.6725389 2894892
-1.2248883 0.11015758 1.6720808 2894892
-1.1749467 0.11015056 1.6723635 2894892
-1.1247745 0.11014538 1.6720932 2894892
-1.0748429 0.11013963 1.6720009 2894892
-1.0251436 0.11013328 1.6721005 2894892
-0.9752233 0.11012874 1.6716433 2894892
-0.925304 0.11012174 1.671926 2894892
-0.87516022 0.11011659 1.6716554 2894892
-0.82525498 0.11011082 1.6715633 2894892
-0.77535081 0.11010505 1.6714805 2894892
-0.72499013 0.11009861 1.6715739 2894892
-0.67487293 0.11009411 1.6711168 2894892
-0.62475383 0.11008766 1.671217 2894892
-0.57464063 0.11008126 1.6713115 2894892
-0.5247649 0.11007676 1.6708536 2894892
-0.47489575 0.11006974 1.6711366 2894892
-0.43593037 0.10776342 1.6691927 2894892
-0.45806482 -0.76315719 1.7351151 2894892
-0.44766277 -0.75722647 1.7093517 2894892
-0.45771158 -0.72498196 1.7343827 2894892
-0.44746426 -0.72499442 1.7089792 2894892
-0.45785362 -0.67489403 1.7349203 2894892
-0.44760308 -0.67493504 1.7095094 2894892
-0.45795518 -0.62501627 1.7353562 2894892
-0.44774202 -0.62484467 1.7100403 2894892
-0.45813683 -0.57510555 1.735993 2894892
-0.4478516 -0.57507843 1.7104967 2894892
-0.45659658 -0.52386177 1.7323647 2894892
-0.44674 -0.52876413 1.7079136 2894892
-0.45624194 -0.47498459 1.7316676 2894892
-0.44613662 -0.47512355 1.7066171 2894892
-0.45650172 -0.42489162 1.7324978 2894892
-0.44627485 -0.4250561 1.7071462 2894892
-0.45659781 -0.3749437 1.7329209 2894892
-0.44641319 -0.37495747 1.7076752 2894892
-0.45678383 -0.32496902 1.7335688 2894892
-0.44655159 -0.32482785 1.7082044 2894892
-0.45692557 -0.27478042 1.7341056 2894892
-0.44668818 -0.27537379 1.7087269 2894892
-0.45563945 -0.22648308 1.7310981 2894892
-0.44682667 -0.22518232 1.7092569 2894892
-0.45512623 -0.17511575 1.7300168 2894892
-0.44615766 -0.17101099 1.7078 2894892
-0.45526716 -0.12498366 1.7305524 2894892
-0.44510189 -0.12505059 1.7053534 2894892
-0.45536792 -0.075061269 1.7309878 2894892
-0.44523966 -0.074911647 1.7058814 2894892
-0.45554796 -0.025107335 1.7316211 2894892
-0.44537753 -0.024741827 1.7064101 2894892
-0.45568919 0.025117712 1.7321573 2894892
-0.44551358 0.024751903 1.7069315 2894892
-0.45579004 0.075133413 1.7325922 2894892
-0.44562247 0.074630655 1.7073867 2894892
-1.362339 0.10998194 1.7283925 2894892
-1.3249056 0.10999215 1.7240741 2894892
-1.2752053 0.10998694 1.7238299 2894892
-1.2251438 0.10998115 1.7237443 2894892
-1.1747342 0.10997483 1.723803 2894892
-1.124685 0.10996907 1.7237123 2894892
-1.0750024 0.10996385 1.7234688 2894892
-1.0253209 0.10995763 1.723533 2894892
-0.97493261 0.10995231 1.7232922 2894892
-0.92454791 0.10994599 1.7233508 2894892
-0.87488371 0.10994079 1.723107 2894892
-0.82522547 0.10993455 1.7231715 2894892
-0.77521259 0.10992879 1.7230811 2894892
-0.72485238 0.10992351 1.7228408 2894892
-0.67484856 0.10991777 1.7227459 2894892
-0.62521416 0.10991149 1.7228104 2894892
-0.57522231 0.10990573 1.7227199 2894892
-0.52488035 0.10990045 1.7224796 2894892
-0.47124392 0.10871585 1.7244802 2894892
-0.44604427 0.10536173 1.7082858 2894892
-0.48331833 -0.80205518 1.7975715 2894892
-0.47542465 -0.77220792 1.7781147 2894892
-0.47462142 -0.72496152 1.7762996 2894892
-0.47492167 -0.67497677 1.7772301 2894892
-0.47501838 -0.6249578 1.777655 2894892
-0.47376856 -0.57623863 1.7747383 2894892
-0.47310406 -0.52492905 1.7732819 2894892
-0.47331396 -0.474749 1.7739886 2894892
-0.47336414 -0.42490464 1.7742984 2894892
-0.47360605 -0.37503502 1.7750833 2894892
-0.47375229 -0.32512844 1.7756317 2894892
-0.4738366 -0.27482837 1.7760277 2894892
-0.47238749 -0.22359534 1.7726256 2894892
-0.47196785 -0.17499506 1.7717668 2894892
-0.47216386 -0.12497207 1.772438 2894892
-0.47223368 -0.07491757 1.7727964 2894892
-0.47248104 -0.024981217 1.7735951 2894892
-0.47262672 0.024991496 1.7741433 2894892
-0.47267073 0.074989498 1.7744378 2894892
-1.4076912 0.10981466 1.7789822 2894892
-1.3746037 0.10984785 1.768088 2894892
-1.3250799 0.10984387 1.767496 2894892
-1.2748501 0.10983752 1.7675648 2894892
-1.2249916 0.10983178 1.7674725 2894892
-1.1747769 0.10982654 1.7672178 2894892
-1.1245604 0.10982022 1.7672867 2894892
-1.0750883 0.1098151 1.7670279 2894892
-1.0252486 0.10980935 1.7669408 2894892
-0.97505504 0.10980301 1.7670099 2894892
-0.92522728 0.10979728 1.7669176 2894892
-0.87504017 0.10979208 1.7666626 2894892
-0.82485956 0.10978574 1.7667317 2894892
-0.77504724 0.10978001 1.7666392 2894892
-0.72487903 0.10977479 1.7663842 2894892
-0.67471099 0.10976844 1.7664534 2894892
-0.62491465 0.10976273 1.766361 2894892
-0.57476521 0.10975751 1.7661064 2894892
-0.5249778 0.1097518 1.7660096 2894892
-0.47938111 0.10762675 1.7690693 2894892
-0.50160223 -0.81233579 1.8428572 2894892
-0.49346894 -0.80758715 1.8227136 2894892
-0.5017181 -0.77510357 1.8432832 2894892
-0.49241889 -0.77474135 1.8202329 2894892
-0.50187427 -0.7249282 1.8438568 2894892
-0.49261659 -0.72493935 1.8209082 2894892
-0.50203049 -0.67472142 1.8444308 2894892
-0.49272305 -0.67510712 1.821357 2894892
-0.50218672 -0.62448359 1.8450044 2894892
-0.49292168 -0.62499684 1.8220358 2894892
-0.50234067 -0.57497633 1.8455704 2894892
-0.49134475 -0.57348746 1.8183179 2894892
-0.50249475 -0.52543855 1.8461367 2894892
-0.49090633 -0.52499336 1.8174114 2894892
-0.50265133 -0.47510758 1.8467118 2894892
-0.49105817 -0.47506529 1.8179734 2894892
-0.50280803 -0.42474523 1.8472874 2894892
-0.49124381 -0.42511344 1.8186194 2894892
-0.50296247 -0.37511533 1.8478546 2894892
-0.49137953 -0.37493831 1.8191421 2894892
-0.50311679 -0.32545483 1.8484221 2894892
-0.49156564 -0.32492062 1.8197899 2894892
-0.50327396 -0.27499914 1.8489988 2894892
-0.49164969 -0.27487502 1.820184 2894892
-0.50343096 -0.22451198 1.8495759 2894892
-0.49186996 -0.22479339 1.8209165 2894892
-0.50352854 -0.19313416 1.8499345 2894892
-0.49197045 -0.17487162 1.8213509 2894892
-0.49210382 -0.12492011 1.8218673 2894892
-0.49227408 -0.074937887 1.8224748 2894892
-0.49247736 -0.024924135 1.8231653 2894892
-0.49262908 0.024934368 1.8237263 2894892
-0.49272981 0.075009845 1.8241622 2894892
-1.4599351 0.10958511 1.8480481 2894892
-1.4232497 0.10964783 1.8283788 2894892
-1.375316 0.10965242 1.8253256 2894892
-1.3250844 0.10964584 1.8254669 2894892
-1.2751102 0.10964177 1.82489 2894892
-1.2251418 0.10963437 1.8252757 2894892
-1.1751739 0.10963028 1.8246988 2894892
-1.1252201 0.10962289 1.8250842 2894892
-1.0750079 0.10961714 1.8249862 2894892
-1.0248127 0.10961302 1.8244114 2894892
-0.97486538 0.10960563 1.824797 2894892
-0.92492867 0.10960151 1.8242202 2894892
-0.87499624 0.10959414 1.8246059 2894892
-0.82481694 0.1095892 1.8242732 2894892
-0.77489185 0.1095835 1.8241705 2894892
-0.72497702 0.1095777 1.8240821 2894892
-0.6748094 0.10957116 1.824223 2894892
-0.62490672 0.10956705 1.8236467 2894892
-0.57500291 0.10955968 1.8240324 2894892
-0.52534807 0.10955648 1.8232077 2894892
-0.49286869 0.10672096 1.817809 2894892
-0.51436675 -0.81940699 1.8744732 2894892
-0.51362705 -0.77531618 1.8728037 2894892
-0.51378745 -0.72510415 1.8733871 2894892
-0.51400256 -0.67506236 1.874107 2894892
-0.51408666 -0.62517697 1.8745011 2894892
-0.5142647 -0.5750708 1.8751284 2894892
-0.51447922 -0.52532065 1.875846 2894892
-0.51458335 -0.47514638 1.8762901 2894892
-0.51479912 -0.42494872 1.8770118 2894892
-0.51490152 -0.37510446 1.8774506 2894892
-0.51509804 -0.32503429 1.8781242 2894892
-0.51522058 -0.27493685 1.8786138 2894892
-0.51543593 -0.22499739 1.8793329 2894892
-0.51366669 -0.17402643 1.8751377 2894892
-0.5132311 -0.12502059 1.874239 2894892
-0.51347989 -0.075035289 1.8750414 2894892
-0.51316041 -0.025907336 1.8744321 2894892
-0.51133549 0.024989905 1.8700979 2894892
-0.51152998 0.074983224 1.8707658 2894892
-1.5042315 0.10941295 1.8999913 2894892
-1.4731612 0.10944842 1.8885167 2894892
-1.4247761 0.10944805 1.8869085 2894892
-1.3746663 0.10944233 1.886803 2894892
-1.3249624 0.10943593 1.8869071 2894892
-1.2748654 0.1094302 1.8868078 2894892
-1.2247735 0.10942447 1.8867089 2894892
-1.1750852 0.10941944 1.8864084 2894892
-1.1253934 0.10941305 1.8865124 2894892
-1.0749313 0.10940793 1.8862169 2894892
-1.0248584 0.10940221 1.8861116 2894892
-0.97519064 0.10939584 1.8862153 2894892
-0.92513025 0.10939009 1.8861163 2894892
-0.87507498 0.10938436 1.8860176 2894892
-0.82502723 0.10937998 1.8855209 2894892
-0.77499086 0.10937288 1.8858198 2894892
-0.72495145 0.10936713 1.8857208 2894892
-0.67491728 0.10936141 1.8856219 2894892
-0.62488824 0.10935567 1.8855231 2894892
-0.57487082 0.10935128 1.8850267 2894892
-0.52527583 0.10764057 1.8790267 2894892
-0.53693098 -0.85691786 1.9302679 2894892
-0.53340191 -0.82494587 1.9216393 2894892
-0.53352779 -0.77463782 1.9221375 2894892
-0.5337528 -0.7248897 1.9228814 2894892
-0.53385699 -0.67511064 1.923324 2894892
-0.53402197 -0.62510604 1.9239188 2894892
-0.53422856 -0.57506752 1.9246175 2894892
-0.53435481 -0.52460355 1.9251176 2894892
-0.53458059 -0.47470015 1.9258627 2894892
-0.5346638 -0.42496714 1.9262536 2894892
-0.53487051 -0.37480599 1.9269527 2894892
-0.53505564 -0.32481182 1.9275974 2894892
-0.53518003 -0.27498922 1.9280908 2894892
-0.53534496 -0.22512892 1.9286858 2894892
-0.53555059 -0.17524569 1.9293803 2894892
-0.53569651 -0.1251274 1.9299284 2894892
-0.53562367 -0.075694293 1.9299315 2894892
-0.53274703 -0.023637319 1.922995 2894892
-0.53105527 0.025047848 1.9189812 2894892
-0.53131896 0.074957728 1.919821 2894892
-1.5156006 0.10933302 1.9237983 2894892
-1.4754256 0.1093203 1.9260955 2894892
-1.4250787 0.10931453 1.925994 2894892
-1.3747374 0.10930877 1.9258928 2894892
-1.3252007 0.1093031 1.9257926 2894892
-1.2748699 0.10929734 1.9256909 2894892
-1.2245445 0.10929158 1.9255898 2894892
-1.1750231 0.10928589 1.9254895 2894892
-1.1255069 0.10928021 1.9253898 2894892
-1.0751973 0.10927446 1.9252882 2894892
-1.0248928 0.10926871 1.9251866 2894892
-0.97539204 0.10926303 1.925087 2894892
-0.9250983 0.10925727 1.9249855 2894892
-0.8748098 0.10925152 1.924884 2894892
-0.82532477 0.10924586 1.9247842 2894892
-0.77504683 0.10924009 1.9246824 2894892
-0.724774 0.10923434 1.9245811 2894892
-0.67530447 0.10922868 1.9244814 2894892
-0.62504232 0.10922291 1.9243798 2894892
-0.57478541 0.10921717 1.9242783 2894892
-0.53452104 0.10595482 1.9212611 2894892
-0.55750883 -0.86835784 1.9812361 2894892
-0.5462293 -0.86182815 1.9532996 2894892
-0.55707514 -0.82504529 1.9803219 2894892
-0.54635477 -0.82479215 1.9537481 2894892
-0.55718863 -0.77497083 1.9807895 2894892
-0.54652399 -0.77484828 1.9543535 2894892
-0.55742127 -0.72486049 1.9815522 2894892
-0.54669338 -0.7248736 1.9549588 2894892
-0.55753499 -0.67471939 1.9820213 2894892
-0.54686278 -0.67486811 1.9555647 2894892
-0.5577656 -0.62509674 1.982777 2894892
-0.54703242 -0.62483114 1.9561713 2894892
-0.55793864 -0.57516664 1.9833913 2894892
-0.54720193 -0.57476354 1.9567778 2894892
-0.5580529 -0.52493757 1.9838607 2894892
-0.54737175 -0.52466464 1.9573852 2894892
-0.5582251 -0.47494084 1.9844743 2894892
-0.54754156 -0.47453475 1.9579924 2894892
-0.55851656 -0.42492461 1.9853824 2894892
-0.54771167 -0.42437375 1.9586 2894892
-0.55857092 -0.3748714 1.9857033 2894892
-0.54787892 -0.37499142 1.9591986 2894892
-0.55774719 -0.32716089 1.9838384 2894892
-0.54804641 -0.32557884 1.9597971 2894892
-0.55625021 -0.274838 1.9803224 2894892
-0.54821664 -0.27532527 1.9604062 2894892
-0.55642188 -0.22486147 1.9809341 2894892
-0.54838711 -0.22504051 1.9610155 2894892
-0.55659395 -0.17485428 1.9815463 2894892
-0.54855758 -0.17472443 1.9616251 2894892
-0.55672026 -0.12522744 1.9820435 2894892
-0.54872817 -0.12437709 1.962235 2894892
-0.55698097 -0.075156182 1.9828763 2894892
-0.54828501 -0.072282895 1.9613307 2894892
-0.55706459 -0.025064217 1.9832697 2894892
-0.54643065 -0.025131142 1.9569095 2894892
-0.55723709 0.025074573 1.9838836 2894892
-0.54660034 0.02514155 1.9575168 2894892
-0.5574981 0.075228564 1.9847178 2894892
-0.54672545 0.07504081 1.9580121 2894892
-1.5613146 0.10915431 1.9777474 2894892
-1.5249572 0.10918765 1.9666903 2894892
-1.4751712 0.10918198 1.9665879 2894892
-1.4249902 0.10917547 1.9667112 2894892
-1.3748068 0.10917048 1.9663814 2894892
-1.3250425 0.10916325 1.9667318 2894892
-1.2752867 0.1091591 1.9661763 2894892
-1.2251172 0.10915259 1.9662995 2894892
-1.1749644 0.10914764 1.9659696 2894892
-1.1252148 0.10914195 1.9658669 2894892
-1.0750705 0.10913543 1.9659902 2894892
-1.024924 0.10913048 1.9656602 2894892
-0.974792 0.10912397 1.9657837 2894892
-0.92506534 0.10911828 1.9656812 2894892
-0.87534392 0.10911258 1.9655784 2894892
-0.82522798 0.10910763 1.9652489 2894892
-0.77510744 0.10910113 1.9653723 2894892
-0.72500014 0.10909617 1.965042 2894892
-0.67489195 0.10908967 1.9651659 2894892
-0.62479323 0.10908471 1.9648362 2894892
-0.57321107 0.10840756 1.9672538 2894892
-0.5469234 0.10555266 1.9569385 2894892
-0.58161706 -0.90655518 2.0408561 2894892
-0.57635546 -0.87497014 2.0279307 2894892
-0.57607913 -0.82628572 2.0274258 2894892
-0.5738548 -0.77515376 2.0221021 2894892
-0.57396799 -0.72540104 2.0225682 2894892
-0.57414782 -0.67532623 2.0232003 2894892
-0.57438922 -0.62495089 2.0239854 2894892
-0.57450283 -0.5750984 2.0244524 2894892
-0.57474393 -0.52521664 2.0252359 2894892
-0.57492256 -0.47502226 2.0258658 2894892
-0.57503653 -0.42507619 2.0263331 2894892
-0.57527804 -0.37510246 2.0271175 2894892
-0.5739398 -0.32325557 2.023993 2894892
-0.57275999 -0.27529693 2.0212476 2894892
-0.57300836 -0.22532834 2.0220478 2894892
-0.57304531 -0.17512201 2.0223265 2894892
-0.57336402 -0.12488922 2.0233033 2894892
-0.57344496 -0.075038895 2.0236888 2894892
-0.57371706 -0.025161095 2.0245492 2894892
-0.57382339 0.024962671 2.0249987 2894892
-0.57404798 0.074900158 2.0257421 2894892
-1.6106353 0.10895225 2.0386567 2894892
-1.5746127 0.10899815 2.0239394 2894892
-1.5250626 0.10899249 2.0238347 2894892
-1.4750975 0.10898763 2.0234807 2894892
-1.4251437 0.10898108 2.0236225 2894892
-1.3747694 0.10897532 2.0235159 2894892
-1.3248245 0.10897048 2.0231619 2894892
-1.2748826 0.10896394 2.023304 2894892
-1.2249454 0.10895907 2.0229499 2894892
-1.175016 0.10895253 2.0230925 2894892
-1.1250875 0.10894766 2.0227387 2894892
-1.0751704 0.10894112 2.0228806 2894892
-1.0248333 0.10893538 2.022774 2894892
-0.97492456 0.10893054 2.0224204 2894892
-0.92501915 0.108924 2.0225623 2894892
-0.87511909 0.10891914 2.0222089 2894892
-0.82522601 0.10891259 2.0223508 2894892
-0.77491504 0.10890684 2.0222442 2894892
-0.72503483 0.108902 2.0218906 2894892
-0.6751532 0.10889546 2.0220327 2894892
-0.62528169 0.10889062 2.0216792 2894892
-0.5812363 0.10713979 2.0214586 2894892
-0.60255885 -0.91814286 2.0927253 2894892
-0.59388429 -0.91330731 2.0712402 2894892
-0.60272002 -0.8750267 2.0932856 2894892
-0.59373808 -0.87514824 2.0710194 2894892
-0.60290712 -0.82498395 2.093935 2894892
-0.59316063 -0.82335669 2.0697808 2894892
-0.60309446 -0.77490985 2.0945857 2894892
-0.59110188 -0.77478558 2.0648575 2894892
-0.60328174 -0.7248047 2.0952361 2894892
-0.59135127 -0.7248193 2.0656617 2894892
-0.60346919 -0.67466855 2.0958872 2894892
-0.59146678 -0.67510653 2.0661325 2894892
-0.60365677 -0.62450117 2.0965388 2894892
-0.59171671 -0.62508351 2.0669382 2894892
-0.60384446 -0.57430255 2.0971906 2894892
-0.59183335 -0.57502609 2.0674138 2894892
-0.60402906 -0.52493912 2.0978317 2894892
-0.5920831 -0.52522421 2.0682173 2894892
-0.60421377 -0.47554529 2.0984731 2894892
-0.59220016 -0.47509989 2.0686946 2894892
-0.60440171 -0.42525405 2.0991259 2894892
-0.59245056 -0.42495617 2.0695012 2894892
-0.60457379 -0.37927127 2.0997236 2894892
-0.59256637 -0.37505656 2.0699737 2894892
-0.59281623 -0.3251344 2.0707791 2894892
-0.59299845 -0.27546081 2.0714154 2894892
-0.59311622 -0.22518213 2.0718944 2894892
-0.59336716 -0.17488246 2.0727026 2894892
-0.59354937 -0.12511651 2.0733404 2894892
-0.5936659 -0.075036168 2.0738146 2894892
-0.59391665 -0.024923975 2.0746229 2894892
-0.60006511 0.032904617 2.0900795 2894892
-0.59231883 0.022554979 2.0708389 2894892
-0.60022223 0.075353876 2.0906262 2894892
-0.59126425 0.074987672 2.0684197 2894892
-1.6599423 0.10874882 2.0999658 2894892
-1.6238028 0.10879678 2.084641 2894892
-1.5749059 0.10879217 2.0842524 2894892
-1.5247438 0.10878646 2.0841432 2894892
-1.4750193 0.10878173 2.0837624 2894892
-1.4253072 0.10877513 2.0839262 2894892
-1.3751607 0.10876943 2.0838168 2894892
-1.3250194 0.10876372 2.0837073 2894892
-1.2748901 0.10875981 2.0830629 2894892
-1.2247663 0.10875227 2.0834877 2894892
-1.1746409 0.10874656 2.0833793 2894892
-1.124953 0.10874183 2.082998 2894892
-1.0752766 0.10873525 2.0831625 2894892
-1.0251671 0.10872953 2.0830526 2894892
-0.97506285 0.10872383 2.0829437 2894892
-0.92497081 0.10871992 2.0822985 2894892
-0.87488294 0.10871242 2.0827246 2894892
-0.82479453 0.10870671 2.0826156 2894892
-0.77471137 0.108701 2.0825055 2894892
-0.72507185 0.10869627 2.0821254 2894892
-0.67543024 0.10868968 2.0822887 2894892
-0.62371206 0.10837494 2.0821421 2894892
-0.59262729 0.10595565 2.0681481 2894892
-0.62099612 -0.95319796 2.138299 2894892
-0.61508876 -0.92395943 2.123764 2894892
-0.61504579 -0.8748644 2.1238401 2894892
-0.615237 -0.82467443 2.1245005 2894892
-0.61535341 -0.77504236 2.1249738 2894892
-0.61561835 -0.7247898 2.1258173 2894892
-0.6158092 -0.67479885 2.1264758 2894892
-0.61592597 -0.62507343 2.126951 2894892
-0.6161164 -0.57502228 2.1276088 2894892
-0.61645353 -0.52493602 2.1286304 2894892
-0.61649883 -0.47483221 2.1289294 2894892
-0.61668891 -0.42497456 2.1295857 2894892
-0.61626983 -0.37392858 2.1287367 2894892
-0.61394286 -0.32502881 2.1231499 2894892
-0.61432391 -0.27519092 2.1242805 2894892
-0.61434978 -0.22511201 2.1245303 2894892
-0.61451334 -0.17477107 2.1251228 2894892
-0.61472982 -0.12484216 2.1258452 2894892
-0.61389077 -0.076568507 2.123945 2894892
-0.61199129 -0.024881674 2.1194286 2894892
-0.61217958 0.024891863 2.1200802 2894892
-0.61243975 0.07468383 2.1209097 2894892
-1.6728948 0.10864098 2.1319952 2894892
-1.6251177 0.10863558 2.1318886 2894892
-1.5755757 0.10862993 2.131778 2894892
-1.5251548 0.10862421 2.1316657 2894892
-1.4747387 0.10861845 2.1315529 2894892
-1.4252121 0.10861282 2.1314425 2894892
-1.374807 0.10860711 2.1313295 2894892
-1.3244067 0.10860135 2.1312168 2894892
-1.274896 0.10859571 2.1311066 2894892
-1.225391 0.10859008 2.1309965 2894892
-1.1750066 0.10858434 2.1308835 2894892
-1.1246276 0.10857863 2.1307709 2894892
-1.0751377 0.10857297 2.1306603 2894892
-1.0247693 0.10856726 2.1305482 2894892
-0.97440612 0.10856152 2.1304355 2894892
-0.9249317 0.10855589 2.1303251 2894892
-0.87546259 0.10855027 2.1302147 2894892
-0.8251152 0.10854454 2.1301024 2894892
-0.77477312 0.10853881 2.1299901 2894892
-0.7253195 0.10853319 2.12988 2894892
-0.67498803 0.10852747 2.1297674 2894892
-0.62375903 0.10652307 2.1259763 2894892
-0.63528538 -0.96095371 2.173692 2894892
-0.6339016 -0.9246909 2.1703963 2894892
-0.63417614 -0.87490833 2.1712625 2894892
-0.63437337 -0.82479131 2.1719375 2894892
-0.63457 -0.77494138 2.1726096 2894892
-0.63468564 -0.7253691 2.1730809 2894892
-0.63488543 -0.67515343 2.173763 2894892
-0.63516092 -0.62461758 2.174634 2894892
-0.6352787 -0.57464534 2.1751111 2894892
-0.63555431 -0.5246439 2.1759799 2894892
-0.63567221 -0.47460413 2.1764598 2894892
-0.63594717 -0.42484605 2.1773257 2894892
-0.63614404 -0.37474841 2.1779995 2894892
-0.63626224 -0.32462215 2.1784792 2894892
-0.63653851 -0.27446491 2.1793506 2894892
-0.63673371 -0.22487558 2.1800184 2894892
-0.63692892 -0.17525566 2.1806865 2894892
-0.63704747 -0.12500894 2.1811683 2894892
-0.63569582 -0.073199928 2.1780097 2894892
-0.63419509 -0.025001101 2.1744695 2894892
-0.63439101 0.025011387 2.1751406 2894892
-0.63132703 0.075144403 2.1677313 2894892
-1.7205865 0.10845327 2.1886547 2894892
-1.6754246 0.10847155 2.1816978 2894892
-1.6251714 0.10846477 2.1818922 2894892
-1.5749224 0.10846013 2.1814685 2894892
-1.5246813 0.10845336 2.181663 2894892
-1.4748935 0.10844772 2.1815491 2894892
-1.4255699 0.10844316 2.1811271 2894892
-1.3753402 0.1084364 2.1813214 2894892
-1.32512 0.10843176 2.1808977 2894892
-1.2749027 0.108425 2.181092 2894892
-1.2246908 0.10842033 2.1806681 2894892
-1.1749319 0.10841471 2.1805544 2894892
-1.1251947 0.10840693 2.1810589 2894892
-1.0754482 0.10840338 2.1803272 2894892
-1.025255 0.10839663 2.1805212 2894892
-0.97507179 0.10839199 2.1800976 2894892
-0.92489129 0.10838522 2.1802919 2894892
-0.87471646 0.10838058 2.1798685 2894892
-0.82454884 0.10837384 2.180063 2894892
-0.77438229 0.10836919 2.1796393 2894892
-0.72513109 0.10836254 2.1798353 2894892
-0.67542654 0.1083569 2.1797221 2894892
-0.63674617 0.10643 2.1698265 2894892
-0.65745282 -0.97390467 2.2285948 2894892
-0.64700687 -0.96731567 2.2027249 2894892
-0.65737718 -0.92510873 2.2285886 2894892
-0.64717823 -0.9246695 2.2033081 2894892
-0.6575833 -0.87460274 2.2292874 2894892
-0.6473788 -0.87473595 2.2039907 2894892
-0.65778565 -0.82498389 2.2299731 2894892
-0.64757943 -0.82477194 2.204674 2894892
-0.65792751 -0.77488124 2.2305112 2894892
-0.64778012 -0.77477676 2.2053576 2894892
-0.6581946 -0.72473794 2.2313597 2894892
-0.64798099 -0.72475058 2.2060418 2894892
-0.65839738 -0.67502677 2.2320476 2894892
-0.64818221 -0.67469323 2.2067263 2894892
-0.65860033 -0.62528509 2.2327352 2894892
-0.64838332 -0.62460506 2.2074111 2894892
-0.65874273 -0.5750556 2.2332745 2894892
-0.64858097 -0.57539701 2.2080839 2894892
-0.65901023 -0.52479064 2.2341256 2894892
-0.64878231 -0.52524698 2.2087693 2894892
-0.65921378 -0.47495627 2.2348142 2894892
-0.64898384 -0.47506598 2.2094557 2894892
-0.65941709 -0.42509103 2.2355039 2894892
-0.64918548 -0.42485347 2.2101424 2894892
-0.65962052 -0.37519515 2.2361941 2894892
-0.64938736 -0.37461013 2.2108293 2894892
-0.65976351 -0.32481045 2.2367361 2894892
-0.6495856 -0.32524964 2.2115042 2894892
-0.66003191 -0.27438891 2.2375884 2894892
